21.437500000000 21.968750000000 4.136993408203 195 195 195
21.437500000000 21.960937500000 4.175994873047 214 214 214
21.437500000000 21.976562500000 4.214996337891 209 209 209
21.437500000000 21.984375000000 4.252990722656 199 199 199
21.437500000000 21.984375000000 4.291992187500 171 171 171
21.437500000000 21.968750000000 4.330001831055 155 155 155
21.421875000000 21.968750000000 4.367996215820 114 114 114
21.406250000000 21.968750000000 4.405990600586 112 112 112
21.406250000000 21.968750000000 4.444992065430 114 114 114
21.468750000000 21.992187500000 4.485992431641 188 188 188
21.468750000000 21.992187500000 4.524993896484 197 197 197
21.468750000000 22.000000000000 4.563995361328 188 188 188
21.468750000000 21.992187500000 4.602996826172 110 110 110
21.312500000000 21.921875000000 5.050994873047 23 23 23
21.312500000000 21.914062500000 5.085998535156 222 222 222
21.296875000000 21.929687500000 5.125000000000 228 228 228
21.296875000000 21.929687500000 5.164001464844 228 228 228
21.312500000000 21.937500000000 5.203994750977 229 229 229
21.296875000000 21.929687500000 5.240997314453 229 229 229
21.296875000000 21.929687500000 5.279998779297 215 215 215
21.296875000000 21.929687500000 5.319000244141 172 172 172
21.296875000000 21.921875000000 5.356002807617 228 228 228
21.281250000000 21.921875000000 5.393997192383 232 232 232
21.296875000000 21.921875000000 5.434997558594 231 231 231
21.296875000000 21.921875000000 5.473999023438 232 232 232
21.296875000000 21.921875000000 5.513000488281 231 231 231
21.281250000000 21.921875000000 5.552001953125 218 218 218
21.125000000000 22.171875000000 4.892990112305 176 176 176
21.125000000000 22.171875000000 4.929000854492 218 218 218
21.125000000000 22.179687500000 4.968002319336 231 231 231
21.125000000000 22.171875000000 5.002990722656 229 229 229
21.125000000000 22.171875000000 5.041000366211 238 238 238
21.125000000000 22.195312500000 5.080001831055 230 230 230
21.125000000000 22.187500000000 5.115997314453 216 216 216
21.093750000000 22.179687500000 5.527999877930 209 209 209
21.093750000000 22.179687500000 5.565994262695 231 231 231
21.109375000000 22.187500000000 5.608001708984 233 233 233
21.093750000000 22.203125000000 5.643997192383 230 230 230
21.093750000000 22.203125000000 5.684997558594 187 187 187
21.312500000000 21.500000000000 5.863998413086 79 79 79
21.375000000000 21.460937500000 5.843994140625 23 23 23
21.765625000000 21.250000000000 5.611999511719 38 38 38
21.781250000000 21.250000000000 5.572998046875 86 86 86
21.781250000000 21.250000000000 5.529998779297 52 52 52
21.781250000000 21.265625000000 5.020996093750 12 12 12
21.359375000000 21.828125000000 5.947998046875 100 100 100
21.296875000000 21.851562500000 5.886993408203 132 132 132
21.500000000000 21.742187500000 5.909988403320 109 109 109
21.484375000000 21.750000000000 5.860000610352 113 113 113
21.375000000000 21.812500000000 5.785995483398 91 91 91
21.343750000000 21.835937500000 5.735992431641 122 122 122
21.375000000000 21.812500000000 5.707000732422 128 128 128
21.515625000000 21.750000000000 5.698989868164 75 75 75
21.343750000000 21.851562500000 5.490997314453 100 100 100
21.359375000000 21.843750000000 5.457992553711 133 133 133
21.343750000000 21.859375000000 5.412002563477 124 124 124
21.343750000000 21.859375000000 5.373992919922 134 134 134
21.328125000000 21.851562500000 5.330993652344 126 126 126
21.328125000000 21.851562500000 5.289993286133 123 123 123
21.375000000000 21.843750000000 5.256988525391 115 115 115
21.359375000000 21.859375000000 5.216995239258 108 108 108
21.359375000000 21.859375000000 5.177993774414 108 108 108
21.343750000000 21.859375000000 5.134994506836 107 107 107
21.640625000000 21.726562500000 4.571990966797 131 131 131
21.484375000000 21.828125000000 4.520996093750 177 177 177
21.625000000000 21.742187500000 4.490997314453 126 126 126
21.609375000000 21.750000000000 4.448989868164 105 105 105
21.500000000000 21.812500000000 4.403991699219 115 115 115
21.406250000000 21.875000000000 4.360992431641 144 144 144
21.406250000000 21.875000000000 4.321990966797 167 167 167
21.390625000000 21.875000000000 4.282989501953 170 170 170
21.406250000000 21.875000000000 4.244995117188 148 148 148
21.546875000000 21.781250000000 4.207992553711 161 161 161
21.515625000000 21.812500000000 4.167999267578 102 102 102
21.468750000000 21.859375000000 4.128997802734 58 58 58
21.437500000000 21.867187500000 4.089996337891 60 60 60
21.453125000000 21.875000000000 4.050994873047 68 68 68
21.500000000000 21.835937500000 4.011001586914 100 100 100
21.484375000000 21.843750000000 3.972000122070 155 155 155
21.500000000000 21.828125000000 3.931991577148 139 139 139
21.500000000000 21.828125000000 3.891998291016 26 26 26
21.500000000000 22.171875000000 4.472000122070 44 44 44
21.500000000000 22.179687500000 4.431991577148 52 52 52
21.468750000000 22.195312500000 4.391998291016 36 36 36
21.671875000000 21.375000000000 5.643997192383 167 167 167
21.687500000000 21.367187500000 5.608993530273 172 172 172
21.687500000000 21.367187500000 5.570999145508 170 170 170
21.687500000000 21.382812500000 5.531997680664 186 186 186
21.687500000000 21.367187500000 5.496002197266 189 189 189
21.687500000000 21.375000000000 5.460998535156 168 168 168
21.703125000000 21.375000000000 5.425003051758 35 35 35
21.703125000000 21.375000000000 5.128997802734 132 132 132
21.703125000000 21.375000000000 5.091995239258 186 186 186
21.718750000000 21.375000000000 5.056991577148 180 180 180
21.718750000000 21.375000000000 5.020996093750 171 171 171
21.718750000000 21.382812500000 4.986999511719 174 174 174
21.718750000000 21.382812500000 4.949996948242 170 170 170
21.718750000000 21.375000000000 4.912994384766 131 131 131
21.281250000000 21.726562500000 5.949996948242 133 133 133
21.203125000000 21.742187500000 5.882995605469 130 130 130
21.312500000000 21.726562500000 5.886001586914 116 116 116
21.312500000000 21.726562500000 5.848999023438 110 110 110
21.281250000000 21.726562500000 5.800994873047 93 93 93
21.281250000000 21.726562500000 5.764999389648 133 133 133
21.250000000000 21.734375000000 5.718994140625 152 152 152
21.312500000000 21.734375000000 5.705993652344 122 122 122
21.406250000000 21.734375000000 5.696990966797 125 125 125
21.375000000000 21.734375000000 5.652999877930 135 135 135
21.406250000000 21.734375000000 5.621002197266 128 128 128
21.375000000000 21.742187500000 5.580993652344 128 128 128
21.375000000000 21.742187500000 5.544998168945 128 128 128
21.390625000000 21.726562500000 5.509994506836 131 131 131
21.375000000000 21.742187500000 5.473999023438 132 132 132
21.406250000000 21.734375000000 5.440002441406 141 141 141
21.375000000000 21.742187500000 5.401000976563 146 146 146
21.375000000000 21.742187500000 5.366989135742 139 139 139
21.375000000000 21.742187500000 5.330001831055 140 140 140
21.390625000000 21.750000000000 5.296997070313 136 136 136
21.375000000000 21.742187500000 5.259994506836 140 140 140
21.375000000000 21.742187500000 5.224990844727 138 138 138
21.375000000000 21.742187500000 5.188995361328 144 144 144
21.375000000000 21.734375000000 5.152999877930 137 137 137
21.375000000000 21.742187500000 5.118988037109 142 142 142
21.375000000000 21.734375000000 5.082000732422 138 138 138
21.375000000000 21.734375000000 5.047988891602 142 142 142
21.375000000000 21.734375000000 5.011993408203 140 140 140
21.375000000000 21.734375000000 4.977996826172 138 138 138
21.375000000000 21.750000000000 4.942993164063 137 137 137
21.375000000000 21.734375000000 4.909988403320 138 138 138
21.375000000000 21.734375000000 4.875991821289 134 134 134
21.375000000000 21.750000000000 4.839996337891 131 131 131
21.375000000000 21.750000000000 4.806991577148 133 133 133
21.375000000000 21.750000000000 4.770996093750 131 131 131
21.375000000000 21.750000000000 4.736999511719 134 134 134
21.359375000000 21.750000000000 4.703002929688 132 132 132
21.375000000000 21.750000000000 4.669998168945 132 132 132
21.359375000000 21.750000000000 4.634994506836 129 129 129
21.375000000000 21.750000000000 4.601989746094 138 138 138
21.359375000000 21.750000000000 4.567993164063 134 134 134
21.375000000000 21.750000000000 4.534988403320 132 132 132
21.375000000000 21.750000000000 4.500991821289 131 131 131
21.343750000000 21.757812500000 4.465988159180 129 129 129
21.359375000000 21.750000000000 4.432998657227 132 132 132
21.359375000000 21.765625000000 4.399993896484 133 133 133
21.343750000000 21.757812500000 4.365997314453 132 132 132
21.359375000000 21.765625000000 4.332992553711 135 135 135
21.343750000000 21.757812500000 4.298995971680 131 131 131
21.343750000000 21.757812500000 4.265991210938 133 133 133
21.343750000000 21.757812500000 4.233001708984 131 131 131
21.343750000000 21.757812500000 4.198989868164 128 128 128
21.343750000000 21.757812500000 4.166000366211 126 126 126
21.343750000000 21.750000000000 4.132995605469 122 122 122
21.343750000000 21.757812500000 4.099990844727 117 117 117
21.343750000000 21.757812500000 4.067001342773 120 120 120
21.328125000000 21.765625000000 4.032989501953 130 130 130
21.343750000000 21.757812500000 4.000991821289 121 121 121
21.343750000000 21.757812500000 3.968002319336 122 122 122
21.312500000000 21.765625000000 3.933990478516 119 119 119
21.328125000000 21.765625000000 3.901000976563 117 117 117
21.312500000000 21.765625000000 3.868988037109 117 117 117
21.312500000000 21.765625000000 3.835998535156 123 123 123
21.312500000000 21.765625000000 3.802993774414 129 129 129
21.312500000000 21.765625000000 3.769989013672 121 121 121
21.312500000000 21.765625000000 3.736999511719 130 130 130
21.312500000000 21.765625000000 3.703994750977 126 126 126
21.312500000000 21.765625000000 3.670989990234 128 128 128
21.312500000000 21.781250000000 3.638992309570 132 132 132
21.312500000000 21.765625000000 3.604995727539 134 134 134
21.312500000000 21.781250000000 3.571990966797 132 132 132
21.312500000000 21.781250000000 3.539993286133 139 139 139
21.312500000000 21.781250000000 3.506988525391 136 136 136
21.312500000000 21.781250000000 3.473999023438 137 137 137
21.312500000000 21.765625000000 3.440002441406 135 135 135
21.312500000000 21.781250000000 3.407989501953 133 133 133
21.312500000000 21.781250000000 3.375000000000 135 135 135
21.312500000000 21.781250000000 3.340988159180 132 132 132
21.296875000000 21.773437500000 3.308990478516 131 131 131
21.312500000000 21.781250000000 3.274993896484 130 130 130
21.312500000000 21.781250000000 3.241989135742 128 128 128
21.296875000000 21.773437500000 3.208999633789 124 124 124
21.312500000000 21.781250000000 3.175994873047 132 132 132
21.375000000000 21.781250000000 2.585998535156 136 136 136
21.281250000000 21.789062500000 2.567993164063 155 155 155
21.281250000000 21.789062500000 2.532989501953 158 158 158
21.296875000000 21.796875000000 2.496994018555 164 164 164
21.281250000000 21.789062500000 2.463989257813 165 165 165
21.281250000000 21.789062500000 2.429000854492 161 161 161
21.281250000000 21.789062500000 2.394989013672 158 158 158
21.296875000000 21.796875000000 2.358001708984 161 161 161
21.156250000000 22.093750000000 5.667999267578 159 159 159
21.156250000000 22.093750000000 5.632995605469 182 182 182
21.171875000000 22.101562500000 5.600997924805 176 176 176
21.156250000000 22.093750000000 5.562988281250 183 183 183
21.156250000000 22.093750000000 5.527999877930 206 206 206
21.156250000000 22.093750000000 5.494995117188 197 197 197
21.156250000000 22.093750000000 5.458999633789 158 158 158
21.187500000000 22.101562500000 5.187988281250 103 103 103
21.187500000000 22.101562500000 5.153991699219 160 160 160
21.171875000000 22.101562500000 5.118988037109 169 169 169
21.171875000000 22.101562500000 5.085998535156 165 165 165
21.187500000000 22.101562500000 5.052993774414 165 165 165
21.187500000000 22.101562500000 5.019989013672 164 164 164
21.187500000000 22.101562500000 4.986999511719 159 159 159
21.187500000000 22.101562500000 4.953002929688 108 108 108
21.375000000000 22.109375000000 4.582000732422 54 54 54
21.375000000000 22.109375000000 4.547988891602 146 146 146
21.375000000000 22.109375000000 4.513992309570 149 149 149
21.375000000000 22.109375000000 4.481002807617 145 145 145
21.375000000000 22.109375000000 4.445999145508 148 148 148
21.359375000000 22.117187500000 4.412002563477 153 153 153
21.359375000000 22.117187500000 4.378997802734 150 150 150
21.359375000000 22.117187500000 4.345001220703 153 153 153
21.359375000000 22.117187500000 4.311996459961 149 149 149
21.343750000000 22.109375000000 4.276992797852 150 150 150
21.359375000000 22.109375000000 4.244995117188 145 145 145
21.343750000000 22.109375000000 4.210998535156 112 112 112
21.359375000000 22.117187500000 4.228988647461 153 153 153
21.343750000000 22.109375000000 4.266998291016 192 192 192
21.343750000000 22.109375000000 4.304992675781 181 181 181
21.343750000000 22.125000000000 4.343002319336 206 206 206
21.343750000000 22.125000000000 4.381988525391 201 201 201
21.343750000000 22.132812500000 4.419998168945 202 202 202
21.343750000000 22.132812500000 4.457992553711 202 202 202
21.343750000000 22.132812500000 4.496994018555 202 202 202
21.343750000000 22.132812500000 4.534988403320 195 195 195
21.359375000000 22.140625000000 4.573989868164 193 193 193
21.234375000000 22.046875000000 5.016998291016 151 151 151
21.218750000000 22.046875000000 5.052001953125 229 229 229
21.218750000000 22.046875000000 5.090988159180 234 234 234
21.218750000000 22.039062500000 5.126998901367 229 229 229
21.203125000000 22.054687500000 5.166000366211 233 233 233
21.203125000000 22.054687500000 5.203994750977 229 229 229
21.203125000000 22.054687500000 5.242996215820 220 220 220
21.187500000000 22.046875000000 5.432998657227 193 193 193
21.187500000000 22.054687500000 5.472991943359 230 230 230
21.187500000000 22.054687500000 5.511993408203 233 233 233
21.187500000000 22.054687500000 5.550994873047 229 229 229
21.187500000000 22.054687500000 5.589996337891 234 234 234
21.187500000000 22.054687500000 5.628997802734 231 231 231
21.187500000000 22.046875000000 5.666000366211 204 204 204
21.406250000000 21.765625000000 3.287002563477 41 41 41
21.406250000000 21.773437500000 3.323989868164 81 81 81
21.390625000000 21.765625000000 3.364990234375 105 105 105
21.406250000000 21.773437500000 3.401992797852 114 114 114
21.406250000000 21.765625000000 3.442001342773 129 129 129
21.390625000000 21.765625000000 3.481994628906 119 119 119
21.390625000000 21.765625000000 3.519989013672 132 132 132
21.375000000000 21.757812500000 3.559997558594 128 128 128
21.406250000000 21.765625000000 3.597000122070 130 130 130
21.390625000000 21.765625000000 3.636001586914 138 138 138
21.406250000000 21.765625000000 3.673995971680 145 145 145
21.390625000000 21.765625000000 3.712997436523 150 150 150
21.390625000000 21.765625000000 3.750991821289 152 152 152
21.375000000000 21.765625000000 3.789993286133 151 151 151
21.375000000000 21.765625000000 3.828994750977 155 155 155
21.390625000000 21.765625000000 3.866989135742 162 162 162
21.375000000000 21.750000000000 3.905990600586 156 156 156
21.359375000000 21.750000000000 3.944992065430 156 156 156
21.343750000000 21.742187500000 3.983001708984 162 162 162
21.343750000000 21.742187500000 4.020996093750 158 158 158
21.343750000000 21.742187500000 4.058990478516 143 143 143
21.375000000000 21.750000000000 4.097000122070 135 135 135
21.359375000000 21.750000000000 4.136001586914 129 129 129
21.375000000000 21.750000000000 4.173995971680 126 126 126
21.406250000000 21.789062500000 4.212997436523 157 157 157
21.437500000000 21.796875000000 4.250991821289 181 181 181
21.421875000000 21.796875000000 4.289993286133 185 185 185
21.406250000000 21.796875000000 4.328002929688 180 180 180
21.421875000000 21.796875000000 4.366989135742 176 176 176
21.375000000000 21.765625000000 4.402999877930 160 160 160
21.375000000000 21.765625000000 4.440994262695 153 153 153
21.343750000000 21.742187500000 4.478988647461 157 157 157
21.343750000000 21.757812500000 4.516998291016 169 169 169
21.312500000000 21.734375000000 4.552993774414 188 188 188
21.312500000000 21.726562500000 4.590988159180 191 191 191
21.312500000000 21.726562500000 4.628997802734 189 189 189
21.328125000000 21.750000000000 4.668991088867 185 185 185
21.328125000000 21.750000000000 4.707000732422 186 186 186
21.343750000000 21.750000000000 4.746002197266 189 189 189
21.343750000000 21.757812500000 4.784988403320 178 178 178
21.343750000000 21.757812500000 4.823989868164 167 167 167
21.343750000000 21.757812500000 4.861999511719 157 157 157
21.359375000000 21.765625000000 4.901992797852 156 156 156
21.343750000000 21.757812500000 4.940002441406 147 147 147
21.359375000000 21.765625000000 4.979995727539 143 143 143
21.375000000000 21.781250000000 5.021987915039 139 139 139
21.375000000000 21.773437500000 5.059997558594 153 153 153
21.375000000000 21.773437500000 5.099990844727 137 137 137
21.375000000000 21.773437500000 5.138992309570 152 152 152
21.375000000000 21.781250000000 5.179000854492 147 147 147
21.375000000000 21.773437500000 5.216995239258 149 149 149
21.375000000000 21.773437500000 5.256988525391 155 155 155
21.375000000000 21.781250000000 5.297988891602 157 157 157
21.375000000000 21.773437500000 5.335998535156 162 162 162
21.390625000000 21.781250000000 5.377990722656 159 159 159
21.375000000000 21.781250000000 5.416992187500 155 155 155
21.390625000000 21.781250000000 5.457992553711 161 161 161
21.375000000000 21.781250000000 5.496994018555 158 158 158
21.375000000000 21.773437500000 5.534988403320 146 146 146
21.375000000000 21.789062500000 5.575988769531 130 130 130
21.375000000000 21.796875000000 5.617996215820 129 129 129
21.375000000000 21.789062500000 5.655990600586 114 114 114
21.375000000000 21.796875000000 5.697998046875 96 96 96
21.328125000000 21.750000000000 5.723999023438 128 128 128
21.250000000000 21.703125000000 5.739990234375 150 150 150
21.250000000000 21.718750000000 5.784988403320 139 139 139
21.265625000000 21.718750000000 5.825988769531 86 86 86
21.312500000000 21.750000000000 5.882995605469 108 108 108
21.250000000000 21.703125000000 5.899002075195 122 122 122
21.218750000000 21.695312500000 5.933990478516 134 134 134
21.281250000000 21.726562500000 5.992996215820 74 74 74
21.703125000000 21.585937500000 4.315002441406 96 96 96
21.703125000000 21.593750000000 4.356002807617 172 172 172
21.718750000000 21.593750000000 4.395996093750 184 184 184
21.703125000000 21.593750000000 4.436996459961 181 181 181
21.703125000000 21.593750000000 4.476989746094 174 174 174
21.703125000000 21.593750000000 4.517990112305 139 139 139
21.593750000000 21.539062500000 5.033996582031 185 185 185
21.593750000000 21.531250000000 5.072998046875 220 220 220
21.593750000000 21.531250000000 5.113998413086 205 205 205
21.593750000000 21.531250000000 5.152999877930 226 226 226
21.593750000000 21.531250000000 5.194000244141 214 214 214
21.578125000000 21.531250000000 5.233001708984 228 228 228
21.593750000000 21.531250000000 5.274993896484 191 191 191
21.625000000000 21.546875000000 5.362991333008 27 27 27
21.593750000000 21.531250000000 5.399002075195 237 237 237
21.593750000000 21.531250000000 5.438995361328 203 203 203
21.578125000000 21.531250000000 5.478988647461 237 237 237
21.593750000000 21.531250000000 5.522994995117 8 8 8
21.578125000000 21.531250000000 5.561996459961 248 248 248
21.562500000000 21.523437500000 5.601989746094 228 228 228
21.781250000000 21.281250000000 5.033996582031 182 182 182
21.796875000000 21.281250000000 5.076995849609 178 178 178
21.765625000000 21.265625000000 5.533996582031 157 157 157
21.765625000000 21.265625000000 5.575988769531 248 248 248
21.750000000000 21.265625000000 5.617996215820 236 236 236
21.750000000000 21.257812500000 5.656997680664 213 213 213
21.750000000000 21.265625000000 5.703002929688 14 14 14
21.093750000000 22.218750000000 5.733001708984 134 134 134
21.093750000000 22.218750000000 5.695999145508 172 172 172
21.062500000000 22.210937500000 5.658996582031 179 179 179
21.062500000000 22.210937500000 5.623992919922 179 179 179
21.062500000000 22.210937500000 5.588989257813 180 180 180
21.093750000000 22.218750000000 5.556991577148 115 115 115
21.093750000000 22.218750000000 5.153991699219 118 118 118
21.093750000000 22.218750000000 5.118988037109 160 160 160
21.093750000000 22.218750000000 5.086990356445 166 166 166
21.093750000000 22.218750000000 5.054992675781 168 168 168
21.093750000000 22.218750000000 5.020996093750 157 157 157
21.093750000000 22.218750000000 4.988998413086 161 161 161
21.093750000000 22.218750000000 4.957000732422 143 143 143
21.093750000000 22.218750000000 4.922988891602 47 47 47
21.343750000000 22.210937500000 4.493988037109 81 81 81
21.328125000000 22.203125000000 4.458999633789 97 97 97
21.328125000000 22.203125000000 4.425003051758 106 106 106
21.296875000000 22.203125000000 4.389999389648 48 48 48
21.250000000000 21.843750000000 5.906997680664 114 114 114
21.453125000000 21.851562500000 5.940002441406 109 109 109
21.500000000000 21.851562500000 5.917999267578 106 106 106
21.468750000000 21.859375000000 5.867996215820 107 107 107
21.312500000000 21.843750000000 5.782989501953 97 97 97
21.312500000000 21.843750000000 5.748001098633 107 107 107
21.406250000000 21.859375000000 5.736999511719 106 106 106
21.343750000000 21.859375000000 5.503997802734 153 153 153
21.343750000000 21.859375000000 5.470993041992 174 174 174
21.343750000000 21.859375000000 5.433990478516 168 168 168
21.343750000000 21.859375000000 5.399002075195 170 170 170
21.343750000000 21.859375000000 5.363998413086 175 175 175
21.343750000000 21.859375000000 5.330001831055 168 168 168
21.343750000000 21.859375000000 5.291992187500 168 168 168
21.343750000000 21.859375000000 5.259994506836 167 167 167
21.375000000000 21.843750000000 5.226989746094 166 166 166
21.375000000000 21.851562500000 5.192993164063 162 162 162
21.390625000000 21.859375000000 5.162002563477 26 26 26
21.468750000000 21.843750000000 4.621002197266 100 100 100
21.500000000000 21.843750000000 4.589996337891 157 157 157
21.437500000000 21.843750000000 4.550003051758 176 176 176
21.421875000000 21.859375000000 4.513992309570 157 157 157
21.437500000000 21.843750000000 4.481002807617 162 162 162
21.375000000000 21.851562500000 4.442001342773 148 148 148
21.359375000000 21.843750000000 4.406997680664 140 140 140
21.406250000000 21.843750000000 4.377990722656 152 152 152
21.437500000000 21.843750000000 4.345001220703 164 164 164
21.406250000000 21.843750000000 4.308990478516 152 152 152
21.359375000000 21.843750000000 4.274002075195 144 144 144
21.359375000000 21.843750000000 4.239990234375 134 134 134
21.406250000000 21.843750000000 4.208999633789 126 126 126
21.375000000000 21.843750000000 4.173995971680 111 111 111
21.375000000000 21.843750000000 4.139999389648 114 114 114
21.375000000000 21.843750000000 4.106994628906 113 113 113
21.375000000000 21.843750000000 4.073989868164 114 114 114
21.375000000000 21.859375000000 4.041000366211 129 129 129
21.390625000000 21.843750000000 4.007995605469 122 122 122
21.390625000000 21.843750000000 3.973999023438 131 131 131
21.359375000000 21.843750000000 3.940994262695 130 130 130
21.343750000000 21.843750000000 3.907989501953 129 129 129
21.343750000000 21.843750000000 3.873992919922 142 142 142
21.343750000000 21.843750000000 3.840988159180 141 141 141
21.343750000000 21.859375000000 3.807998657227 137 137 137
21.359375000000 21.843750000000 3.774993896484 143 143 143
21.359375000000 21.843750000000 3.740997314453 135 135 135
21.359375000000 21.843750000000 3.707992553711 141 141 141
21.359375000000 21.843750000000 3.675003051758 144 144 144
21.343750000000 21.843750000000 3.641998291016 131 131 131
21.343750000000 21.851562500000 3.608993530273 132 132 132
21.359375000000 21.843750000000 3.574996948242 139 139 139
21.343750000000 21.859375000000 3.541992187500 138 138 138
21.343750000000 21.843750000000 3.509002685547 134 134 134
21.343750000000 21.843750000000 3.474990844727 134 134 134
21.343750000000 21.843750000000 3.442001342773 128 128 128
21.343750000000 21.851562500000 3.408996582031 130 130 130
21.343750000000 21.843750000000 3.375000000000 130 130 130
21.343750000000 21.851562500000 3.341995239258 136 136 136
21.343750000000 21.843750000000 3.307998657227 132 132 132
21.343750000000 21.843750000000 3.274993896484 130 130 130
21.343750000000 21.843750000000 3.240997314453 141 141 141
21.343750000000 21.843750000000 3.207992553711 140 140 140
21.390625000000 21.843750000000 3.168991088867 112 112 112
21.406250000000 21.843750000000 2.720993041992 90 90 90
21.343750000000 21.843750000000 2.658996582031 96 96 96
21.296875000000 21.835937500000 2.638000488281 118 118 118
21.281250000000 21.828125000000 2.603988647461 128 128 128
21.281250000000 21.828125000000 2.569992065430 122 122 122
21.281250000000 21.828125000000 2.537002563477 114 114 114
21.281250000000 21.828125000000 2.502990722656 113 113 113
21.281250000000 21.828125000000 2.466995239258 136 136 136
21.281250000000 21.828125000000 2.435989379883 141 141 141
21.281250000000 21.828125000000 2.399002075195 142 142 142
21.281250000000 21.828125000000 2.361999511719 144 144 144
21.406250000000 21.843750000000 2.927993774414 92 92 92
21.406250000000 21.843750000000 2.893997192383 88 88 88
21.406250000000 21.843750000000 2.856994628906 88 88 88
21.375000000000 21.835937500000 2.828002929688 89 89 89
21.375000000000 21.843750000000 2.795989990234 87 87 87
21.375000000000 21.843750000000 2.759994506836 89 89 89
21.375000000000 21.843750000000 2.692001342773 85 85 85
21.343750000000 21.500000000000 5.878997802734 42 42 42
21.437500000000 21.492187500000 5.876998901367 67 67 67
21.625000000000 21.484375000000 5.634002685547 139 139 139
21.625000000000 21.484375000000 5.597991943359 171 171 171
21.625000000000 21.484375000000 5.558990478516 173 173 173
21.625000000000 21.484375000000 5.522994995117 178 178 178
21.625000000000 21.492187500000 5.488998413086 197 197 197
21.625000000000 21.484375000000 5.448989868164 187 187 187
21.625000000000 21.492187500000 5.412994384766 112 112 112
21.625000000000 21.492187500000 5.229995727539 97 97 97
21.640625000000 21.500000000000 5.194992065430 175 175 175
21.656250000000 21.484375000000 5.162002563477 199 199 199
21.656250000000 21.484375000000 5.125991821289 190 190 190
21.640625000000 21.500000000000 5.087997436523 182 182 182
21.656250000000 21.484375000000 5.052993774414 177 177 177
21.656250000000 21.500000000000 5.015991210938 156 156 156
21.656250000000 21.484375000000 4.981994628906 113 113 113
21.093750000000 22.218750000000 5.718994140625 24 24 24
21.093750000000 22.234375000000 5.679000854492 84 84 84
21.062500000000 22.250000000000 5.634994506836 100 100 100
21.062500000000 22.250000000000 5.595993041992 91 91 91
21.078125000000 22.250000000000 5.102996826172 89 89 89
21.078125000000 22.250000000000 5.065002441406 68 68 68
21.093750000000 22.257812500000 5.029998779297 69 69 69
21.406250000000 22.101562500000 4.608993530273 120 120 120
21.406250000000 22.101562500000 4.569000244141 115 115 115
21.406250000000 22.101562500000 4.529998779297 110 110 110
21.375000000000 22.109375000000 4.490997314453 114 114 114
21.375000000000 22.109375000000 4.451995849609 125 125 125
21.375000000000 22.125000000000 4.412994384766 123 123 123
21.375000000000 22.125000000000 4.373992919922 120 120 120
21.359375000000 22.140625000000 4.335998535156 122 122 122
21.359375000000 22.140625000000 4.296997070313 122 122 122
21.375000000000 22.140625000000 4.259002685547 87 87 87
21.437500000000 22.078125000000 4.220993041992 101 101 101
21.562500000000 22.023437500000 4.182998657227 81 81 81
21.562500000000 22.039062500000 4.142990112305 106 106 106
21.296875000000 21.750000000000 5.998992919922 132 132 132
21.250000000000 21.789062500000 5.940002441406 134 134 134
21.281250000000 21.765625000000 5.910995483398 134 134 134
21.312500000000 21.742187500000 5.878997802734 122 122 122
21.281250000000 21.765625000000 5.828002929688 94 94 94
21.281250000000 21.765625000000 5.789001464844 149 149 149
21.281250000000 21.781250000000 5.746002197266 144 144 144
21.375000000000 21.718750000000 5.733001708984 128 128 128
21.375000000000 21.710937500000 5.690002441406 142 142 142
21.359375000000 21.726562500000 5.646987915039 142 142 142
21.359375000000 21.726562500000 5.606994628906 152 152 152
21.359375000000 21.726562500000 5.567001342773 151 151 151
21.375000000000 21.718750000000 5.527999877930 152 152 152
21.359375000000 21.726562500000 5.485992431641 153 153 153
21.359375000000 21.726562500000 5.444000244141 152 152 152
21.359375000000 21.726562500000 5.405990600586 152 152 152
21.375000000000 21.734375000000 5.366989135742 156 156 156
21.359375000000 21.726562500000 5.325988769531 151 151 151
21.375000000000 21.734375000000 5.289001464844 152 152 152
21.375000000000 21.734375000000 5.246994018555 155 155 155
21.375000000000 21.734375000000 5.207992553711 160 160 160
21.375000000000 21.734375000000 5.168991088867 154 154 154
21.375000000000 21.734375000000 5.128997802734 153 153 153
21.359375000000 21.750000000000 5.088989257813 153 153 153
21.343750000000 21.742187500000 5.048995971680 156 156 156
21.359375000000 21.750000000000 5.009994506836 153 153 153
21.375000000000 21.734375000000 4.972991943359 155 155 155
21.359375000000 21.750000000000 4.931991577148 160 160 160
21.359375000000 21.750000000000 4.892990112305 152 152 152
21.359375000000 21.750000000000 4.853988647461 152 152 152
21.359375000000 21.750000000000 4.815994262695 153 153 153
21.359375000000 21.765625000000 4.776000976563 154 154 154
21.359375000000 21.750000000000 4.737991333008 154 154 154
21.359375000000 21.765625000000 4.697998046875 158 158 158
21.359375000000 21.765625000000 4.659988403320 155 155 155
21.375000000000 21.750000000000 4.621994018555 154 154 154
21.375000000000 21.765625000000 4.582992553711 145 145 145
21.375000000000 21.765625000000 4.544998168945 154 154 154
21.375000000000 21.765625000000 4.505996704102 156 156 156
21.359375000000 21.765625000000 4.466995239258 155 155 155
21.343750000000 21.781250000000 4.429000854492 153 153 153
21.375000000000 21.765625000000 4.390991210938 152 152 152
21.343750000000 21.781250000000 4.351989746094 163 163 163
21.375000000000 21.765625000000 4.313995361328 154 154 154
21.343750000000 21.781250000000 4.274993896484 155 155 155
21.359375000000 21.781250000000 4.236999511719 155 155 155
21.343750000000 21.781250000000 4.198989868164 151 151 151
21.359375000000 21.781250000000 4.160995483398 149 149 149
21.359375000000 21.781250000000 4.121994018555 146 146 146
21.359375000000 21.781250000000 4.083999633789 147 147 147
21.343750000000 21.796875000000 4.045989990234 142 142 142
21.359375000000 21.781250000000 4.007995605469 148 148 148
21.343750000000 21.796875000000 3.968994140625 147 147 147
21.343750000000 21.796875000000 3.930999755859 147 147 147
21.359375000000 21.781250000000 3.892990112305 148 148 148
21.343750000000 21.796875000000 3.854995727539 142 142 142
21.343750000000 21.796875000000 3.817001342773 148 148 148
21.343750000000 21.796875000000 3.778991699219 142 142 142
21.359375000000 21.796875000000 3.739990234375 145 145 145
21.343750000000 21.796875000000 3.701995849609 142 142 142
21.343750000000 21.796875000000 3.662994384766 141 141 141
21.343750000000 21.812500000000 3.625991821289 142 142 142
21.359375000000 21.796875000000 3.586990356445 145 145 145
21.343750000000 21.812500000000 3.548995971680 139 139 139
21.343750000000 21.812500000000 3.509994506836 139 139 139
21.343750000000 21.812500000000 3.472000122070 135 135 135
21.343750000000 21.812500000000 3.433990478516 144 144 144
21.343750000000 21.812500000000 3.394989013672 147 147 147
21.343750000000 21.812500000000 3.356002807617 147 147 147
21.343750000000 21.828125000000 3.319000244141 152 152 152
21.343750000000 21.812500000000 3.279998779297 143 143 143
21.343750000000 21.828125000000 3.242996215820 142 142 142
21.343750000000 21.828125000000 3.201995849609 148 148 148
21.343750000000 21.828125000000 3.164001464844 148 148 148
21.343750000000 21.828125000000 3.125000000000 146 146 146
21.343750000000 21.828125000000 3.086990356445 148 148 148
21.343750000000 21.828125000000 3.047988891602 145 145 145
21.343750000000 21.828125000000 3.009002685547 138 138 138
21.343750000000 21.828125000000 2.970001220703 147 147 147
21.328125000000 21.843750000000 2.930999755859 147 147 147
21.343750000000 21.843750000000 2.890991210938 144 144 144
21.328125000000 21.843750000000 2.852996826172 144 144 144
21.328125000000 21.843750000000 2.813995361328 145 145 145
21.343750000000 21.843750000000 2.774002075195 142 142 142
21.343750000000 21.843750000000 2.733001708984 142 142 142
21.343750000000 21.843750000000 2.694000244141 137 137 137
21.312500000000 21.843750000000 2.657989501953 146 146 146
21.328125000000 21.843750000000 2.616989135742 143 143 143
21.328125000000 21.843750000000 2.576995849609 146 146 146
21.328125000000 21.843750000000 2.537002563477 139 139 139
21.312500000000 21.843750000000 2.498992919922 142 142 142
21.328125000000 21.843750000000 2.455001831055 134 134 134
21.328125000000 21.843750000000 2.416992187500 140 140 140
21.328125000000 21.843750000000 2.375000000000 142 142 142
21.312500000000 21.859375000000 2.340988159180 144 144 144
7.062500000000 10.984375000000 5.197998046875 173 173 173
7.062500000000 10.992187500000 5.145996093750 177 177 177
7.062500000000 10.992187500000 5.093002319336 175 175 175
7.062500000000 10.992187500000 5.041992187500 171 171 171
7.093750000000 10.984375000000 4.990997314453 143 143 143
7.125000000000 10.984375000000 4.733001708984 128 128 128
7.109375000000 10.992187500000 4.682998657227 143 143 143
7.125000000000 10.984375000000 4.631988525391 140 140 140
7.125000000000 10.984375000000 4.582000732422 147 147 147
7.125000000000 10.984375000000 4.531997680664 133 133 133
6.968750000000 11.000000000000 4.136001586914 35 35 35
6.968750000000 11.000000000000 4.084991455078 121 121 121
6.984375000000 10.984375000000 4.033996582031 134 134 134
6.984375000000 10.984375000000 3.983993530273 141 141 141
7.000000000000 10.992187500000 3.932998657227 139 139 139
7.000000000000 10.992187500000 3.881988525391 119 119 119
6.968750000000 11.000000000000 3.830993652344 67 67 67
6.906250000000 11.289062500000 5.037994384766 110 110 110
6.906250000000 11.289062500000 4.985992431641 172 172 172
6.937500000000 11.281250000000 4.930999755859 155 155 155
6.937500000000 11.281250000000 4.879989624023 149 149 149
6.937500000000 11.281250000000 4.828002929688 149 149 149
6.937500000000 11.281250000000 4.776992797852 153 153 153
6.921875000000 11.289062500000 4.725997924805 160 160 160
6.906250000000 11.289062500000 4.418991088867 90 90 90
6.859375000000 11.281250000000 4.164993286133 140 140 140
6.875000000000 11.281250000000 4.113998413086 119 119 119
6.875000000000 11.281250000000 4.061996459961 125 125 125
6.859375000000 11.281250000000 4.011001586914 127 127 127
6.968750000000 11.289062500000 3.958999633789 111 111 111
6.859375000000 11.281250000000 3.907989501953 121 121 121
6.875000000000 11.296875000000 3.856994628906 114 114 114
6.953125000000 11.281250000000 3.806991577148 109 109 109
6.875000000000 11.289062500000 3.754989624023 104 104 104
6.890625000000 11.296875000000 3.703994750977 103 103 103
6.906250000000 11.289062500000 3.652999877930 91 91 91
6.906250000000 11.296875000000 3.601989746094 101 101 101
6.875000000000 11.296875000000 3.550003051758 116 116 116
6.875000000000 11.289062500000 3.498001098633 145 145 145
6.875000000000 11.289062500000 3.446990966797 167 167 167
6.906250000000 11.296875000000 3.396987915039 148 148 148
6.906250000000 11.296875000000 3.345001220703 142 142 142
6.921875000000 11.289062500000 3.294998168945 115 115 115
6.921875000000 11.289062500000 3.243988037109 117 117 117
6.921875000000 11.289062500000 3.192993164063 114 114 114
6.921875000000 11.289062500000 3.141998291016 111 111 111
6.937500000000 11.296875000000 3.090988159180 104 104 104
6.937500000000 11.296875000000 3.039001464844 103 103 103
6.937500000000 11.296875000000 2.987991333008 106 106 106
6.937500000000 11.296875000000 2.936996459961 108 108 108
6.937500000000 11.296875000000 2.884994506836 102 102 102
6.937500000000 11.296875000000 2.833999633789 103 103 103
6.921875000000 11.289062500000 2.779998779297 104 104 104
6.937500000000 11.296875000000 2.729995727539 103 103 103
6.937500000000 11.296875000000 2.677993774414 109 109 109
6.937500000000 11.296875000000 2.625991821289 107 107 107
6.937500000000 11.296875000000 2.573989868164 103 103 103
6.937500000000 11.296875000000 2.521987915039 108 108 108
6.937500000000 11.296875000000 2.470993041992 102 102 102
6.937500000000 11.296875000000 2.419998168945 105 105 105
6.937500000000 11.296875000000 2.366989135742 111 111 111
6.937500000000 11.296875000000 2.312988281250 109 109 109
6.937500000000 11.296875000000 2.261001586914 107 107 107
6.953125000000 11.304687500000 2.210998535156 106 106 106
6.937500000000 11.296875000000 2.156997680664 100 100 100
6.937500000000 11.296875000000 2.103988647461 110 110 110
6.937500000000 11.296875000000 2.052001953125 99 99 99
6.937500000000 11.296875000000 1.996994018555 101 101 101
6.937500000000 11.296875000000 1.944992065430 92 92 92
6.968750000000 11.296875000000 1.895996093750 98 98 98
6.968750000000 11.296875000000 1.843002319336 102 102 102
6.734375000000 11.570312500000 5.136993408203 102 102 102
6.750000000000 11.562500000000 5.082000732422 137 137 137
6.734375000000 11.570312500000 5.030990600586 129 129 129
6.750000000000 11.562500000000 4.976989746094 134 134 134
6.734375000000 11.578125000000 4.925994873047 117 117 117
6.734375000000 11.578125000000 4.819000244141 75 75 75
6.718750000000 11.562500000000 4.768997192383 149 149 149
6.734375000000 11.570312500000 4.715988159180 146 146 146
6.718750000000 11.562500000000 4.664001464844 148 148 148
6.718750000000 11.562500000000 4.610992431641 142 142 142
6.718750000000 11.578125000000 4.559997558594 78 78 78
6.546875000000 11.867187500000 5.134002685547 78 78 78
6.562500000000 11.859375000000 5.078002929688 11 11 11
6.531250000000 11.859375000000 4.597000122070 59 59 59
7.187500000000 10.812500000000 4.537994384766 206 206 206
7.187500000000 10.820312500000 4.593994140625 4 4 4
7.187500000000 10.820312500000 4.651000976563 183 183 183
7.125000000000 10.812500000000 5.108001708984 215 215 215
7.125000000000 10.812500000000 5.166000366211 221 221 221
7.125000000000 10.812500000000 5.222991943359 136 136 136
7.000000000000 10.968750000000 3.884994506836 103 103 103
6.968750000000 10.968750000000 3.942001342773 167 167 167
6.968750000000 10.968750000000 4.000000000000 176 176 176
6.968750000000 10.968750000000 4.057998657227 130 130 130
6.968750000000 10.968750000000 4.114990234375 23 23 23
7.031250000000 11.039062500000 4.514999389648 5 5 5
7.062500000000 11.046875000000 4.570999145508 9 9 9
7.046875000000 11.039062500000 4.628997802734 20 20 20
7.062500000000 11.046875000000 4.685989379883 14 14 14
7.046875000000 11.039062500000 4.743988037109 17 17 17
7.046875000000 11.062500000000 4.800994873047 143 143 143
7.031250000000 11.046875000000 4.916992187500 81 81 81
7.031250000000 11.046875000000 4.973999023438 231 231 231
7.031250000000 11.046875000000 5.032989501953 226 226 226
7.000000000000 11.046875000000 5.090988159180 226 226 226
7.000000000000 11.046875000000 5.149002075195 223 223 223
6.812500000000 11.140625000000 3.496994018555 31 31 31
6.843750000000 11.156250000000 3.555999755859 178 178 178
6.843750000000 11.156250000000 3.615997314453 166 166 166
6.812500000000 11.164062500000 3.672988891602 187 187 187
6.843750000000 11.171875000000 3.731994628906 196 196 196
6.890625000000 11.203125000000 3.792999267578 191 191 191
6.875000000000 11.195312500000 3.850997924805 187 187 187
6.890625000000 11.203125000000 3.909988403320 184 184 184
6.921875000000 11.234375000000 3.968002319336 156 156 156
6.812500000000 11.156250000000 4.024993896484 190 190 190
6.812500000000 11.179687500000 4.083999633789 187 187 187
6.812500000000 11.179687500000 4.141998291016 200 200 200
6.812500000000 11.171875000000 4.200988769531 14 14 14
6.921875000000 11.273437500000 4.720993041992 5 5 5
6.906250000000 11.265625000000 4.779998779297 44 44 44
6.906250000000 11.265625000000 4.837997436523 29 29 29
6.921875000000 11.273437500000 4.895996093750 15 15 15
6.906250000000 11.265625000000 4.955001831055 8 8 8
6.906250000000 11.281250000000 5.011993408203 238 238 238
6.937500000000 11.296875000000 5.069000244141 9 9 9
6.937500000000 11.296875000000 5.125991821289 15 15 15
6.937500000000 11.296875000000 5.185989379883 37 37 37
6.671875000000 11.359375000000 3.513000488281 34 34 34
6.671875000000 11.359375000000 3.572998046875 175 175 175
6.656250000000 11.359375000000 3.632995605469 178 178 178
6.656250000000 11.359375000000 3.692993164063 183 183 183
6.656250000000 11.359375000000 3.752990722656 184 184 184
6.671875000000 11.359375000000 3.812988281250 195 195 195
6.671875000000 11.359375000000 3.871994018555 159 159 159
6.718750000000 11.406250000000 3.932998657227 136 136 136
6.687500000000 11.390625000000 3.991989135742 132 132 132
6.656250000000 11.375000000000 4.050994873047 166 166 166
6.656250000000 11.375000000000 4.110992431641 201 201 201
6.656250000000 11.375000000000 4.170989990234 153 153 153
6.781250000000 11.468750000000 4.640991210938 235 235 235
6.750000000000 11.460937500000 4.700988769531 30 30 30
6.765625000000 11.468750000000 4.759002685547 25 25 25
6.765625000000 11.468750000000 4.817993164063 14 14 14
6.781250000000 11.500000000000 4.875991821289 249 249 249
6.781250000000 11.500000000000 4.934997558594 251 251 251
6.781250000000 11.500000000000 4.993988037109 246 246 246
6.781250000000 11.500000000000 5.052993774414 243 243 243
6.625000000000 11.671875000000 4.500000000000 6 6 6
6.609375000000 11.671875000000 4.560989379883 43 43 43
6.625000000000 11.671875000000 4.619995117188 23 23 23
6.625000000000 11.671875000000 4.679992675781 18 18 18
6.609375000000 11.671875000000 4.739990234375 189 189 189
6.625000000000 11.695312500000 4.978988647461 195 195 195
6.640625000000 11.703125000000 5.037994384766 244 244 244
6.640625000000 11.703125000000 5.098999023438 240 240 240
6.625000000000 11.703125000000 5.159988403320 238 238 238
6.625000000000 11.718750000000 5.218994140625 203 203 203
6.781250000000 10.945312500000 4.080993652344 16 16 16
6.843750000000 10.921875000000 4.020996093750 50 50 50
7.046875000000 11.039062500000 5.162994384766 98 98 98
7.046875000000 11.039062500000 5.104995727539 109 109 109
7.046875000000 11.039062500000 5.044998168945 115 115 115
7.062500000000 11.046875000000 4.985992431641 106 106 106
7.062500000000 11.046875000000 4.927993774414 30 30 30
7.109375000000 11.015625000000 4.748001098633 81 81 81
7.093750000000 11.031250000000 4.690002441406 86 86 86
7.093750000000 11.031250000000 4.631988525391 83 83 83
7.093750000000 11.031250000000 4.573989868164 84 84 84
6.812500000000 11.218750000000 4.167999267578 71 71 71
6.812500000000 11.234375000000 4.108001708984 95 95 95
6.859375000000 11.187500000000 4.048995971680 101 101 101
6.875000000000 11.171875000000 3.988998413086 82 82 82
6.859375000000 11.203125000000 3.929000854492 96 96 96
6.859375000000 11.203125000000 3.868988037109 122 122 122
6.843750000000 11.210937500000 3.808990478516 126 126 126
6.890625000000 11.179687500000 3.750991821289 92 92 92
6.875000000000 11.187500000000 3.690002441406 112 112 112
6.843750000000 11.218750000000 3.628997802734 55 55 55
6.812500000000 11.250000000000 3.565994262695 136 136 136
6.812500000000 11.234375000000 3.505996704102 107 107 107
6.937500000000 11.218750000000 2.246002197266 21 21 21
6.937500000000 11.218750000000 2.184997558594 39 39 39
6.937500000000 11.226562500000 2.123992919922 37 37 37
6.953125000000 11.210937500000 2.062988281250 35 35 35
6.937500000000 11.234375000000 1.994995117188 34 34 34
6.937500000000 11.234375000000 1.933990478516 49 49 49
6.921875000000 11.250000000000 1.868988037109 61 61 61
6.937500000000 11.242187500000 1.809997558594 90 90 90
6.968750000000 11.359375000000 5.201995849609 144 144 144
6.968750000000 11.359375000000 5.141998291016 136 136 136
7.000000000000 11.343750000000 5.080993652344 132 132 132
6.968750000000 11.359375000000 5.022994995117 142 142 142
6.968750000000 11.359375000000 4.962997436523 132 132 132
6.984375000000 11.359375000000 4.902999877930 127 127 127
6.984375000000 11.359375000000 4.843994140625 135 135 135
7.000000000000 11.367187500000 4.784988403320 147 147 147
7.000000000000 11.367187500000 4.725997924805 134 134 134
7.000000000000 11.367187500000 4.666992187500 125 125 125
6.968750000000 11.375000000000 4.608993530273 125 125 125
6.984375000000 11.382812500000 4.550003051758 130 130 130
7.000000000000 11.375000000000 4.490997314453 121 121 121
6.984375000000 11.382812500000 4.431991577148 115 115 115
7.000000000000 11.390625000000 4.373001098633 108 108 108
7.000000000000 11.390625000000 4.313995361328 100 100 100
7.000000000000 11.390625000000 4.254989624023 99 99 99
7.000000000000 11.390625000000 4.196990966797 93 93 93
7.000000000000 11.390625000000 4.138000488281 83 83 83
7.000000000000 11.390625000000 4.078994750977 83 83 83
7.000000000000 11.390625000000 4.019989013672 80 80 80
6.984375000000 11.406250000000 3.960998535156 84 84 84
6.984375000000 11.406250000000 3.901992797852 73 73 73
7.000000000000 11.390625000000 3.843994140625 53 53 53
7.000000000000 11.406250000000 3.784988403320 16 16 16
6.625000000000 11.640625000000 4.462997436523 197 197 197
6.656250000000 11.671875000000 4.520996093750 19 19 19
6.640625000000 11.656250000000 4.580993652344 34 34 34
6.656250000000 11.664062500000 4.640991210938 24 24 24
6.656250000000 11.664062500000 4.700988769531 14 14 14
6.625000000000 11.656250000000 5.002990722656 206 206 206
6.656250000000 11.687500000000 5.059997558594 237 237 237
6.656250000000 11.687500000000 5.121002197266 237 237 237
6.656250000000 11.687500000000 5.180999755859 230 230 230
6.656250000000 11.687500000000 5.241989135742 218 218 218
6.703125000000 11.359375000000 3.595001220703 133 133 133
6.703125000000 11.359375000000 3.653991699219 179 179 179
6.687500000000 11.375000000000 3.713989257813 180 180 180
6.687500000000 11.375000000000 3.774002075195 172 172 172
6.687500000000 11.375000000000 3.833999633789 185 185 185
6.703125000000 11.375000000000 3.893997192383 128 128 128
6.734375000000 11.390625000000 3.953994750977 142 142 142
6.734375000000 11.390625000000 4.013992309570 137 137 137
6.687500000000 11.367187500000 4.072998046875 178 178 178
6.687500000000 11.367187500000 4.132995605469 195 195 195
6.687500000000 11.375000000000 4.192001342773 94 94 94
6.796875000000 11.453125000000 4.603988647461 7 7 7
6.796875000000 11.453125000000 4.662994384766 10 10 10
6.796875000000 11.445312500000 4.722000122070 18 18 18
6.796875000000 11.453125000000 4.780990600586 19 19 19
6.796875000000 11.468750000000 4.839996337891 6 6 6
6.812500000000 11.468750000000 4.897994995117 251 251 251
6.812500000000 11.468750000000 4.957000732422 246 246 246
6.812500000000 11.468750000000 5.016998291016 248 248 248
6.812500000000 11.468750000000 5.074996948242 235 235 235
6.875000000000 11.132812500000 3.519989013672 155 155 155
6.875000000000 11.132812500000 3.578994750977 180 180 180
6.875000000000 11.132812500000 3.638000488281 164 164 164
6.875000000000 11.156250000000 3.696990966797 185 185 185
6.875000000000 11.148437500000 3.754989624023 187 187 187
6.953125000000 11.195312500000 3.817001342773 188 188 188
6.890625000000 11.156250000000 3.873001098633 184 184 184
6.937500000000 11.187500000000 3.932998657227 181 181 181
6.937500000000 11.179687500000 3.990997314453 179 179 179
6.843750000000 11.140625000000 4.047988891602 189 189 189
6.843750000000 11.140625000000 4.106994628906 194 194 194
6.843750000000 11.140625000000 4.166000366211 199 199 199
