9.875000000000 1.851562500000 7.532989501953 156 156 156
9.875000000000 1.859375000000 7.582000732422 162 162 162
9.875000000000 1.867187500000 7.632995605469 165 165 165
9.875000000000 1.867187500000 7.683990478516 169 169 169
9.875000000000 1.867187500000 7.731002807617 160 160 160
9.875000000000 1.875000000000 7.780990600586 161 161 161
9.859375000000 1.859375000000 7.839996337891 138 138 138
9.875000000000 1.875000000000 7.881988525391 148 148 148
9.875000000000 1.875000000000 7.933990478516 153 153 153
9.875000000000 1.875000000000 7.983993530273 148 148 148
9.875000000000 1.875000000000 8.033996582031 144 144 144
9.859375000000 1.882812500000 8.093994140625 149 149 149
9.875000000000 1.890625000000 8.141998291016 113 113 113
9.859375000000 1.882812500000 8.196990966797 150 150 150
9.859375000000 1.882812500000 8.250000000000 151 151 151
9.875000000000 1.890625000000 8.302993774414 153 153 153
9.875000000000 1.890625000000 8.354995727539 150 150 150
9.875000000000 1.890625000000 8.405990600586 152 152 152
9.859375000000 1.882812500000 8.470993041992 154 154 154
9.875000000000 1.890625000000 8.519989013672 153 153 153
9.843750000000 1.898437500000 8.580993652344 153 153 153
9.875000000000 1.906250000000 8.628997802734 151 151 151
9.875000000000 1.906250000000 8.685989379883 152 152 152
9.859375000000 1.906250000000 8.746002197266 151 151 151
9.859375000000 1.906250000000 8.805999755859 155 155 155
9.859375000000 1.906250000000 8.862991333008 151 151 151
9.875000000000 1.906250000000 8.916992187500 149 149 149
9.875000000000 1.914062500000 8.965988159180 31 31 31
6.031250000000 11.312500000000 8.886993408203 100 100 100
6.000000000000 11.320312500000 8.826995849609 152 152 152
6.000000000000 11.320312500000 8.753997802734 151 151 151
6.000000000000 11.320312500000 8.684997558594 147 147 147
6.000000000000 11.320312500000 8.616989135742 150 150 150
6.000000000000 11.320312500000 8.544998168945 139 139 139
6.015625000000 11.328125000000 8.473999023438 141 141 141
6.000000000000 11.312500000000 8.410995483398 142 142 142
6.000000000000 11.320312500000 8.338989257813 137 137 137
6.000000000000 11.320312500000 8.271987915039 146 146 146
6.000000000000 11.312500000000 8.207992553711 146 146 146
6.000000000000 11.312500000000 8.140991210938 124 124 124
6.000000000000 11.320312500000 8.069000244141 123 123 123
6.000000000000 11.312500000000 8.006988525391 148 148 148
6.000000000000 11.312500000000 7.942001342773 143 143 143
6.000000000000 11.312500000000 7.875991821289 149 149 149
6.000000000000 11.312500000000 7.809997558594 154 154 154
6.000000000000 11.312500000000 7.744995117188 149 149 149
6.000000000000 11.312500000000 7.680999755859 151 151 151
6.000000000000 11.312500000000 7.612991333008 146 146 146
5.984375000000 11.312500000000 7.552001953125 150 150 150
5.984375000000 11.312500000000 7.487991333008 155 155 155
5.984375000000 11.312500000000 7.425003051758 154 154 154
6.000000000000 11.312500000000 7.358993530273 153 153 153
5.968750000000 11.304687500000 7.300994873047 156 156 156
5.984375000000 11.312500000000 7.235000610352 157 157 157
5.968750000000 11.304687500000 7.173995971680 158 158 158
5.968750000000 11.304687500000 7.111999511719 155 155 155
5.968750000000 11.304687500000 7.048995971680 158 158 158
5.968750000000 11.312500000000 6.989990234375 164 164 164
5.968750000000 11.312500000000 6.927993774414 159 159 159
5.968750000000 11.304687500000 6.860992431641 141 141 141
5.968750000000 11.296875000000 6.802001953125 145 145 145
5.968750000000 11.296875000000 6.741989135742 166 166 166
5.953125000000 11.312500000000 6.683990478516 163 163 163
5.968750000000 11.312500000000 6.621002197266 165 165 165
5.937500000000 11.312500000000 6.563995361328 161 161 161
5.937500000000 11.312500000000 6.502990722656 157 157 157
5.937500000000 11.312500000000 6.442001342773 163 163 163
5.937500000000 11.312500000000 6.381988525391 163 163 163
5.937500000000 11.304687500000 6.323989868164 167 167 167
5.937500000000 11.312500000000 6.261993408203 162 162 162
5.937500000000 11.312500000000 6.201995849609 160 160 160
5.937500000000 11.304687500000 6.144989013672 167 167 167
5.937500000000 11.304687500000 6.083999633789 166 166 166
5.937500000000 11.296875000000 6.026000976563 163 163 163
5.937500000000 11.296875000000 5.965988159180 163 163 163
5.937500000000 11.304687500000 5.904998779297 162 162 162
5.937500000000 11.304687500000 5.845993041992 166 166 166
5.937500000000 11.296875000000 5.789001464844 167 167 167
5.937500000000 11.296875000000 5.729995727539 169 169 169
5.937500000000 11.296875000000 5.670989990234 171 171 171
5.937500000000 11.296875000000 5.611999511719 167 167 167
5.937500000000 11.296875000000 5.554000854492 160 160 160
5.921875000000 11.296875000000 5.496002197266 166 166 166
5.937500000000 11.296875000000 5.435989379883 168 168 168
6.046875000000 11.000000000000 8.033996582031 35 35 35
6.046875000000 11.000000000000 6.819992065430 114 114 114
6.156250000000 10.710937500000 7.888000488281 27 27 27
6.171875000000 10.703125000000 6.813995361328 100 100 100
6.312500000000 10.414062500000 7.724990844727 12 12 12
6.281250000000 10.406250000000 7.666992187500 15 15 15
6.296875000000 10.406250000000 6.800003051758 99 99 99
6.406250000000 10.117187500000 7.521987915039 58 58 58
6.406250000000 10.109375000000 6.791992187500 120 120 120
6.531250000000 9.804687500000 7.388992309570 64 64 64
6.546875000000 9.812500000000 6.782989501953 121 121 121
6.640625000000 9.507812500000 7.203994750977 34 34 34
6.671875000000 9.500000000000 6.780990600586 124 124 124
6.781250000000 9.203125000000 7.069000244141 79 79 79
6.843750000000 9.203125000000 6.815002441406 23 23 23
6.812500000000 9.203125000000 6.771987915039 95 95 95
6.906250000000 8.890625000000 6.935989379883 77 77 77
6.921875000000 8.906250000000 6.815994262695 30 30 30
6.906250000000 8.898437500000 6.761993408203 100 100 100
7.062500000000 8.593750000000 6.793991088867 90 90 90
7.031250000000 8.609375000000 6.744995117188 68 68 68
7.031250000000 8.609375000000 6.461990356445 106 106 106
7.187500000000 8.328125000000 6.776992797852 114 114 114
7.140625000000 8.312500000000 6.733001708984 32 32 32
7.156250000000 8.312500000000 6.453002929688 100 100 100
7.296875000000 8.015625000000 6.767990112305 120 120 120
7.265625000000 8.015625000000 6.720993041992 13 13 13
7.281250000000 8.007812500000 6.444992065430 96 96 96
7.406250000000 7.703125000000 6.759994506836 129 129 129
7.406250000000 7.703125000000 6.442001342773 84 84 84
7.562500000000 7.390625000000 6.792999267578 13 13 13
7.531250000000 7.390625000000 6.748001098633 119 119 119
7.500000000000 7.390625000000 6.656997680664 177 177 177
7.500000000000 7.390625000000 6.603988647461 164 164 164
7.468750000000 7.406250000000 6.552993774414 156 156 156
7.500000000000 7.390625000000 6.496002197266 188 188 188
7.515625000000 7.398437500000 6.436996459961 104 104 104
7.656250000000 7.101562500000 6.780990600586 92 92 92
7.656250000000 7.093750000000 6.731994628906 81 81 81
7.593750000000 7.093750000000 6.697998046875 86 86 86
7.593750000000 7.109375000000 6.646987915039 176 176 176
7.593750000000 7.093750000000 6.591995239258 115 115 115
7.593750000000 7.093750000000 6.539993286133 153 153 153
7.625000000000 7.101562500000 6.479995727539 191 191 191
7.625000000000 7.101562500000 6.427001953125 60 60 60
7.781250000000 6.812500000000 6.759002685547 120 120 120
7.750000000000 6.812500000000 6.718994140625 19 19 19
7.687500000000 6.812500000000 6.682998657227 111 111 111
7.718750000000 6.796875000000 6.625991821289 197 197 197
7.718750000000 6.796875000000 6.569000244141 198 198 198
7.734375000000 6.804687500000 6.515991210938 184 184 184
7.734375000000 6.804687500000 6.463989257813 178 178 178
7.890625000000 6.515625000000 6.791992187500 14 14 14
7.906250000000 6.515625000000 6.736999511719 119 119 119
7.843750000000 6.523437500000 6.655990600586 174 174 174
7.843750000000 6.515625000000 6.602996826172 161 161 161
7.859375000000 6.515625000000 6.548995971680 145 145 145
7.875000000000 6.515625000000 6.491989135742 189 189 189
7.875000000000 6.515625000000 6.440994262695 123 123 123
8.031250000000 6.210937500000 6.768997192383 105 105 105
8.000000000000 6.203125000000 6.726989746094 103 103 103
7.968750000000 6.203125000000 6.685989379883 63 63 63
7.968750000000 6.203125000000 6.636001586914 192 192 192
7.984375000000 6.210937500000 6.578994750977 158 158 158
7.984375000000 6.210937500000 6.528991699219 148 148 148
8.015625000000 6.203125000000 6.472000122070 187 187 187
8.000000000000 6.203125000000 6.421997070313 81 81 81
8.156250000000 5.906250000000 6.754989624023 129 129 129
8.125000000000 5.890625000000 6.715988159180 49 49 49
8.093750000000 5.890625000000 6.671997070313 131 131 131
8.109375000000 5.898437500000 6.619995117188 174 174 174
8.125000000000 5.890625000000 6.562988281250 161 161 161
8.125000000000 5.890625000000 6.509994506836 180 180 180
8.125000000000 5.890625000000 6.458999633789 177 177 177
8.281250000000 5.609375000000 6.785995483398 63 63 63
8.281250000000 5.609375000000 6.735992431641 125 125 125
8.218750000000 5.601562500000 6.707000732422 13 13 13
8.234375000000 5.593750000000 6.649002075195 190 190 190
8.250000000000 5.593750000000 6.595001220703 184 184 184
8.250000000000 5.593750000000 6.542999267578 183 183 183
8.281250000000 5.609375000000 6.487991333008 194 194 194
8.281250000000 5.609375000000 6.438995361328 122 122 122
8.390625000000 5.312500000000 6.757995605469 137 137 137
8.375000000000 5.304687500000 6.716995239258 20 20 20
8.406250000000 5.304687500000 6.459991455078 113 113 113
8.531250000000 5.007812500000 6.776000976563 105 105 105
8.500000000000 5.015625000000 6.738998413086 115 115 115
8.531250000000 5.007812500000 6.483993530273 42 42 42
8.531250000000 5.007812500000 6.437988281250 58 58 58
8.656250000000 4.703125000000 6.800994873047 37 37 37
8.656250000000 4.703125000000 6.750991821289 134 134 134
8.656250000000 4.703125000000 6.462997436523 116 116 116
8.781250000000 4.390625000000 6.876998901367 83 83 83
8.765625000000 4.390625000000 6.830001831055 13 13 13
8.781250000000 4.390625000000 6.776992797852 136 136 136
8.750000000000 4.398437500000 6.736999511719 76 76 76
8.781250000000 4.398437500000 6.487991333008 72 72 72
8.781250000000 4.398437500000 6.442993164063 23 23 23
8.875000000000 4.109375000000 7.001998901367 104 104 104
8.906250000000 4.109375000000 6.795989990234 101 101 101
8.890625000000 4.093750000000 6.759002685547 111 111 111
9.000000000000 3.796875000000 7.162002563477 109 109 109
9.031250000000 3.796875000000 6.815002441406 40 40 40
9.031250000000 3.796875000000 6.769989013672 128 128 128
9.109375000000 3.500000000000 7.323989868164 114 114 114
9.125000000000 3.500000000000 6.836990356445 25 25 25
9.140625000000 3.500000000000 6.785995483398 137 137 137
9.250000000000 3.203125000000 7.465988159180 110 110 110
9.281250000000 3.195312500000 6.839996337891 28 28 28
9.265625000000 3.187500000000 6.794998168945 140 140 140
9.406250000000 2.890625000000 7.658996582031 53 53 53
9.375000000000 2.890625000000 7.630996704102 77 77 77
9.406250000000 2.890625000000 6.850997924805 16 16 16
9.390625000000 2.890625000000 6.809997558594 141 141 141
9.515625000000 2.609375000000 7.824996948242 99 99 99
9.531250000000 2.593750000000 6.823989868164 144 144 144
9.500000000000 2.601562500000 6.789001464844 25 25 25
9.625000000000 2.296875000000 7.985000610352 102 102 102
9.656250000000 2.289062500000 6.832000732422 147 147 147
9.609375000000 2.281250000000 6.810989379883 25 25 25
9.843750000000 1.984375000000 8.927993774414 132 132 132
9.828125000000 1.984375000000 8.873001098633 137 137 137
9.843750000000 1.984375000000 8.809997558594 131 131 131
9.843750000000 1.984375000000 8.751998901367 126 126 126
9.828125000000 1.984375000000 8.700988769531 116 116 116
9.812500000000 1.984375000000 8.644989013672 134 134 134
9.828125000000 1.984375000000 8.583999633789 113 113 113
9.828125000000 1.984375000000 8.526000976563 107 107 107
9.812500000000 2.000000000000 8.481002807617 98 98 98
9.812500000000 2.000000000000 8.423995971680 90 90 90
9.812500000000 1.992187500000 8.373001098633 86 86 86
9.812500000000 1.992187500000 8.323989868164 83 83 83
9.812500000000 1.992187500000 8.265991210938 74 74 74
9.796875000000 1.984375000000 8.220001220703 66 66 66
9.843750000000 1.984375000000 8.128997802734 92 92 92
9.812500000000 1.992187500000 8.108993530273 109 109 109
9.750000000000 1.992187500000 8.087997436523 111 111 111
9.750000000000 1.984375000000 8.043991088867 40 40 40
9.875000000000 1.992187500000 6.873992919922 87 87 87
9.843750000000 1.984375000000 6.845993041992 113 113 113
9.781250000000 1.984375000000 6.840988159180 145 145 145
6.000000000000 11.296875000000 8.878997802734 151 151 151
6.000000000000 11.312500000000 8.807998657227 158 158 158
6.000000000000 11.312500000000 8.731994628906 152 152 152
6.000000000000 11.312500000000 8.655990600586 158 158 158
5.984375000000 11.328125000000 8.583999633789 153 153 153
5.984375000000 11.328125000000 8.511001586914 142 142 142
6.000000000000 11.328125000000 8.434997558594 135 135 135
6.000000000000 11.328125000000 8.358993530273 135 135 135
6.000000000000 11.328125000000 8.283996582031 140 140 140
5.984375000000 11.328125000000 8.213989257813 130 130 130
5.984375000000 11.328125000000 8.138992309570 105 105 105
5.984375000000 11.328125000000 8.069000244141 109 109 109
5.984375000000 11.328125000000 7.996994018555 110 110 110
5.968750000000 11.343750000000 7.925994873047 102 102 102
5.968750000000 11.343750000000 7.852996826172 98 98 98
5.968750000000 11.359375000000 7.785995483398 91 91 91
5.968750000000 11.343750000000 7.712997436523 82 82 82
5.968750000000 11.359375000000 7.641998291016 68 68 68
5.968750000000 11.359375000000 7.572998046875 53 53 53
5.968750000000 11.359375000000 7.501998901367 34 34 34
5.953125000000 11.375000000000 7.432998657227 3 3 3
6.000000000000 11.031250000000 8.029998779297 42 42 42
5.984375000000 11.078125000000 6.836990356445 79 79 79
5.812500000000 11.171875000000 6.813995361328 43 43 43
5.812500000000 11.203125000000 6.261993408203 19 19 19
5.812500000000 11.187500000000 6.190994262695 57 57 57
5.828125000000 11.187500000000 6.121002197266 75 75 75
5.828125000000 11.187500000000 6.052001953125 96 96 96
5.828125000000 11.187500000000 5.985992431641 101 101 101
5.843750000000 11.195312500000 5.914993286133 106 106 106
5.843750000000 11.195312500000 5.847991943359 117 117 117
5.843750000000 11.195312500000 5.778991699219 128 128 128
5.843750000000 11.195312500000 5.710998535156 131 131 131
5.843750000000 11.195312500000 5.642990112305 138 138 138
5.843750000000 11.195312500000 5.575988769531 153 153 153
5.843750000000 11.195312500000 5.509002685547 167 167 167
5.843750000000 11.203125000000 5.440994262695 172 172 172
5.843750000000 11.203125000000 5.373992919922 172 172 172
5.859375000000 11.203125000000 5.305999755859 163 163 163
5.859375000000 11.203125000000 5.238998413086 171 171 171
5.859375000000 11.203125000000 5.171997070313 182 182 182
5.859375000000 11.203125000000 5.104995727539 170 170 170
5.859375000000 11.203125000000 5.037994384766 168 168 168
5.859375000000 11.203125000000 4.972000122070 159 159 159
5.859375000000 11.203125000000 4.904998779297 173 173 173
5.859375000000 11.203125000000 4.837997436523 174 174 174
5.859375000000 11.203125000000 4.771987915039 173 173 173
5.875000000000 11.210937500000 4.703994750977 168 168 168
5.859375000000 11.203125000000 4.638000488281 169 169 169
5.875000000000 11.210937500000 4.571990966797 165 165 165
5.875000000000 11.210937500000 4.504989624023 170 170 170
5.859375000000 11.226562500000 4.438995361328 164 164 164
5.875000000000 11.210937500000 4.371994018555 165 165 165
5.859375000000 11.226562500000 4.305999755859 165 165 165
5.859375000000 11.226562500000 4.239990234375 165 165 165
5.875000000000 11.218750000000 4.172988891602 165 165 165
5.875000000000 11.234375000000 4.106994628906 159 159 159
5.875000000000 11.234375000000 4.039993286133 156 156 156
5.875000000000 11.234375000000 3.973999023438 174 174 174
5.875000000000 11.234375000000 3.907989501953 169 169 169
5.875000000000 11.234375000000 3.840988159180 170 170 170
5.875000000000 11.234375000000 3.774993896484 164 164 164
5.875000000000 11.250000000000 3.707992553711 169 169 169
5.859375000000 11.250000000000 3.640991210938 169 169 169
5.859375000000 11.250000000000 3.573989868164 170 170 170
5.843750000000 11.265625000000 3.506988525391 172 172 172
5.875000000000 11.250000000000 3.440994262695 172 172 172
5.843750000000 11.265625000000 3.373001098633 171 171 171
5.843750000000 11.265625000000 3.306991577148 174 174 174
5.843750000000 11.265625000000 3.238998413086 171 171 171
5.843750000000 11.257812500000 3.170989990234 163 163 163
5.843750000000 11.265625000000 3.103988647461 168 168 168
5.828125000000 11.273437500000 3.035995483398 164 164 164
5.843750000000 11.265625000000 2.970001220703 155 155 155
5.843750000000 11.265625000000 2.902999877930 150 150 150
5.843750000000 11.265625000000 2.834991455078 150 150 150
5.843750000000 11.265625000000 2.766998291016 150 150 150
5.843750000000 11.281250000000 2.697998046875 143 143 143
5.843750000000 11.265625000000 2.631988525391 144 144 144
5.843750000000 11.281250000000 2.562988281250 132 132 132
5.828125000000 11.296875000000 2.492996215820 125 125 125
5.843750000000 11.281250000000 2.425994873047 126 126 126
5.843750000000 11.296875000000 2.356994628906 121 121 121
5.812500000000 11.304687500000 2.285995483398 110 110 110
5.812500000000 11.312500000000 2.216995239258 95 95 95
5.812500000000 11.304687500000 2.146987915039 73 73 73
5.812500000000 11.320312500000 2.074996948242 17 17 17
6.156250000000 10.671875000000 6.824996948242 72 72 72
5.687500000000 11.101562500000 1.591995239258 18 18 18
5.687500000000 11.109375000000 1.521987915039 54 54 54
5.687500000000 11.109375000000 1.451995849609 80 80 80
5.625000000000 11.148437500000 1.287002563477 22 22 22
6.312500000000 10.265625000000 7.625000000000 24 24 24
6.312500000000 10.296875000000 6.811996459961 92 92 92
6.453125000000 9.906250000000 7.464996337891 17 17 17
6.468750000000 9.921875000000 6.794998168945 104 104 104
6.625000000000 9.515625000000 7.231994628906 39 39 39
6.625000000000 9.531250000000 6.776000976563 92 92 92
6.781250000000 9.109375000000 7.020996093750 14 14 14
6.812500000000 9.125000000000 6.821990966797 55 55 55
6.796875000000 9.109375000000 6.763000488281 60 60 60
6.968750000000 8.710937500000 6.875991821289 30 30 30
7.000000000000 8.718750000000 6.804992675781 89 89 89
6.984375000000 8.718750000000 6.742996215820 69 69 69
6.968750000000 8.718750000000 6.498001098633 44 44 44
7.156250000000 8.312500000000 6.787994384766 85 85 85
7.125000000000 8.335937500000 6.735992431641 5 5 5
7.125000000000 8.343750000000 6.487991333008 51 51 51
7.281250000000 7.937500000000 6.770996093750 104 104 104
7.281250000000 7.968750000000 6.477996826172 67 67 67
7.437500000000 7.562500000000 6.748992919922 91 91 91
7.406250000000 7.593750000000 6.463989257813 70 70 70
7.625000000000 7.171875000000 6.783996582031 86 86 86
7.593750000000 7.187500000000 6.733993530273 36 36 36
7.531250000000 7.210937500000 6.694992065430 96 96 96
7.531250000000 7.218750000000 6.636001586914 163 163 163
7.531250000000 7.218750000000 6.574996948242 149 149 149
7.531250000000 7.218750000000 6.513992309570 165 165 165
7.562500000000 7.218750000000 6.445999145508 86 86 86
7.765625000000 6.781250000000 6.766998291016 106 106 106
7.718750000000 6.796875000000 6.724990844727 10 10 10
7.671875000000 6.835937500000 6.680999755859 90 90 90
7.687500000000 6.828125000000 6.617996215820 146 146 146
7.687500000000 6.828125000000 6.559997558594 152 152 152
7.718750000000 6.812500000000 6.498992919922 168 168 168
7.718750000000 6.812500000000 6.437988281250 68 68 68
7.953125000000 6.367187500000 6.797988891602 5 5 5
7.937500000000 6.390625000000 6.746994018555 117 117 117
7.875000000000 6.406250000000 6.652999877930 150 150 150
7.859375000000 6.421875000000 6.597000122070 160 160 160
7.875000000000 6.414062500000 6.533996582031 158 158 158
7.906250000000 6.406250000000 6.474990844727 152 152 152
8.093750000000 5.984375000000 6.777999877930 90 90 90
8.078125000000 6.000000000000 6.727996826172 61 61 61
8.031250000000 6.015625000000 6.682998657227 86 86 86
8.062500000000 6.007812500000 6.625000000000 156 156 156
8.062500000000 6.007812500000 6.569000244141 159 159 159
8.062500000000 6.000000000000 6.509002685547 169 169 169
8.093750000000 6.000000000000 6.447998046875 102 102 102
8.250000000000 5.593750000000 6.752990722656 116 116 116
8.187500000000 5.632812500000 6.658996582031 154 154 154
8.218750000000 5.617187500000 6.598999023438 140 140 140
8.234375000000 5.609375000000 6.537994384766 127 127 127
8.250000000000 5.593750000000 6.479995727539 154 154 154
8.250000000000 5.609375000000 6.427993774414 23 23 23
8.437500000000 5.203125000000 6.767990112305 90 90 90
8.375000000000 5.234375000000 6.731994628906 46 46 46
8.406250000000 5.210937500000 6.450988769531 79 79 79
8.593750000000 4.812500000000 6.793991088867 76 76 76
8.578125000000 4.820312500000 6.746994018555 95 95 95
8.593750000000 4.812500000000 6.479995727539 94 94 94
8.750000000000 4.414062500000 6.871994018555 58 58 58
8.718750000000 4.437500000000 6.830001831055 87 87 87
8.750000000000 4.406250000000 6.761993408203 116 116 116
8.687500000000 4.453125000000 6.735992431641 60 60 60
8.781250000000 4.406250000000 6.500000000000 12 12 12
8.734375000000 4.429687500000 6.459991455078 35 35 35
8.890625000000 4.015625000000 7.050994873047 96 96 96
8.984375000000 3.984375000000 6.808990478516 68 68 68
8.937500000000 4.000000000000 6.776000976563 117 117 117
8.875000000000 4.031250000000 6.746994018555 13 13 13
9.062500000000 3.609375000000 7.264999389648 101 101 101
9.062500000000 3.625000000000 6.796997070313 108 108 108
9.031250000000 3.640625000000 6.757995605469 12 12 12
9.250000000000 3.187500000000 7.504989624023 47 47 47
9.218750000000 3.218750000000 7.465988159180 93 93 93
9.234375000000 3.234375000000 6.807998657227 117 117 117
9.406250000000 2.812500000000 7.718002319336 100 100 100
9.375000000000 2.828125000000 7.679992675781 17 17 17
9.421875000000 2.820312500000 6.848999023438 45 45 45
9.406250000000 2.843750000000 6.809997558594 125 125 125
9.593750000000 2.390625000000 7.951995849609 90 90 90
9.562500000000 2.421875000000 7.919998168945 44 44 44
9.578125000000 2.445312500000 6.854995727539 97 97 97
9.531250000000 2.468750000000 6.821990966797 93 93 93
9.843750000000 1.914062500000 8.970001220703 76 76 76
9.843750000000 1.914062500000 8.914001464844 166 166 166
9.843750000000 1.914062500000 8.849990844727 163 163 163
9.843750000000 1.914062500000 8.798995971680 166 166 166
9.843750000000 1.921875000000 8.733993530273 160 160 160
9.843750000000 1.921875000000 8.679000854492 164 164 164
9.843750000000 1.921875000000 8.621994018555 165 165 165
9.843750000000 1.921875000000 8.567001342773 168 168 168
9.843750000000 1.937500000000 8.511993408203 164 164 164
9.843750000000 1.937500000000 8.459991455078 161 161 161
9.843750000000 1.937500000000 8.402999877930 152 152 152
9.828125000000 1.945312500000 8.354995727539 152 152 152
9.843750000000 1.937500000000 8.294998168945 163 163 163
9.843750000000 1.953125000000 8.244995117188 149 149 149
9.828125000000 1.945312500000 8.192993164063 140 140 140
9.843750000000 1.937500000000 8.131988525391 105 105 105
9.843750000000 1.953125000000 8.082992553711 157 157 157
9.812500000000 1.953125000000 8.046997070313 152 152 152
9.843750000000 1.953125000000 7.979995727539 121 121 121
9.843750000000 1.953125000000 7.925003051758 100 100 100
9.843750000000 1.953125000000 7.871994018555 102 102 102
9.859375000000 1.937500000000 7.815002441406 88 88 88
9.843750000000 1.953125000000 7.768997192383 86 86 86
9.843750000000 1.953125000000 7.723999023438 87 87 87
9.843750000000 1.968750000000 7.672988891602 61 61 61
9.843750000000 1.953125000000 7.614990234375 37 37 37
9.843750000000 1.953125000000 7.563995361328 11 11 11
9.843750000000 1.984375000000 6.893997192383 121 121 121
9.859375000000 1.968750000000 6.845001220703 118 118 118
9.734375000000 2.039062500000 6.854995727539 125 125 125
9.687500000000 2.062500000000 6.828002929688 41 41 41
9.750000000000 1.750000000000 6.155990600586 42 42 42
9.750000000000 1.750000000000 6.108993530273 85 85 85
9.781250000000 1.742187500000 6.056991577148 99 99 99
9.750000000000 1.750000000000 6.017990112305 103 103 103
9.781250000000 1.742187500000 5.970993041992 113 113 113
9.781250000000 1.750000000000 5.925994873047 125 125 125
9.781250000000 1.750000000000 5.884002685547 118 118 118
9.781250000000 1.750000000000 5.840988159180 131 131 131
9.781250000000 1.750000000000 5.794998168945 129 129 129
9.781250000000 1.750000000000 5.754989624023 136 136 136
9.812500000000 1.734375000000 5.707000732422 145 145 145
9.781250000000 1.750000000000 5.666992187500 149 149 149
9.781250000000 1.750000000000 5.623992919922 133 133 133
9.812500000000 1.734375000000 5.580001831055 146 146 146
9.796875000000 1.750000000000 5.539001464844 149 149 149
9.812500000000 1.742187500000 5.493988037109 156 156 156
9.796875000000 1.750000000000 5.455001831055 160 160 160
9.796875000000 1.750000000000 5.414001464844 164 164 164
9.796875000000 1.750000000000 5.369995117188 165 165 165
9.796875000000 1.750000000000 5.328994750977 163 163 163
9.812500000000 1.742187500000 5.285995483398 173 173 173
9.796875000000 1.757812500000 5.244995117188 177 177 177
9.796875000000 1.757812500000 5.203994750977 178 178 178
9.812500000000 1.742187500000 5.162002563477 176 176 176
9.812500000000 1.742187500000 5.119995117188 174 174 174
9.812500000000 1.742187500000 5.078002929688 175 175 175
9.812500000000 1.742187500000 5.037002563477 179 179 179
9.812500000000 1.750000000000 4.994995117188 177 177 177
9.843750000000 1.734375000000 4.953002929688 176 176 176
9.828125000000 1.750000000000 4.912994384766 170 170 170
9.843750000000 1.734375000000 4.871002197266 181 181 181
9.828125000000 1.750000000000 4.830993652344 179 179 179
9.843750000000 1.734375000000 4.789993286133 179 179 179
9.843750000000 1.734375000000 4.748992919922 185 185 185
9.859375000000 1.726562500000 4.707000732422 181 181 181
9.843750000000 1.734375000000 4.667999267578 184 184 184
9.843750000000 1.734375000000 4.626998901367 178 178 178
9.843750000000 1.734375000000 4.586990356445 185 185 185
9.843750000000 1.742187500000 4.545989990234 174 174 174
9.843750000000 1.742187500000 4.505996704102 175 175 175
9.859375000000 1.750000000000 4.464996337891 180 180 180
9.859375000000 1.750000000000 4.425003051758 186 186 186
9.859375000000 1.750000000000 4.384994506836 179 179 179
9.859375000000 1.750000000000 4.345001220703 181 181 181
9.859375000000 1.750000000000 4.304992675781 174 174 174
9.875000000000 1.750000000000 4.263992309570 178 178 178
9.875000000000 1.750000000000 4.223999023438 177 177 177
9.875000000000 1.750000000000 4.183990478516 178 178 178
9.875000000000 1.750000000000 4.143997192383 182 182 182
9.875000000000 1.734375000000 4.103988647461 181 181 181
9.875000000000 1.750000000000 4.063995361328 185 185 185
9.875000000000 1.734375000000 4.024002075195 183 183 183
9.875000000000 1.734375000000 3.983993530273 177 177 177
9.875000000000 1.750000000000 3.942993164063 177 177 177
9.875000000000 1.750000000000 3.902999877930 183 183 183
9.875000000000 1.734375000000 3.862991333008 180 180 180
9.875000000000 1.750000000000 3.822998046875 178 178 178
9.875000000000 1.750000000000 3.782989501953 182 182 182
9.875000000000 1.757812500000 3.742996215820 182 182 182
9.875000000000 1.757812500000 3.701995849609 181 181 181
9.875000000000 1.757812500000 3.662994384766 181 181 181
9.875000000000 1.757812500000 3.621994018555 182 182 182
9.875000000000 1.757812500000 3.582000732422 172 172 172
9.875000000000 1.757812500000 3.541992187500 174 174 174
9.890625000000 1.750000000000 3.501998901367 172 172 172
9.890625000000 1.750000000000 3.460998535156 175 175 175
9.890625000000 1.750000000000 3.420989990234 174 174 174
9.890625000000 1.750000000000 3.380996704102 177 177 177
9.875000000000 1.765625000000 3.339996337891 180 180 180
9.875000000000 1.765625000000 3.298995971680 180 180 180
9.906250000000 1.750000000000 3.259002685547 180 180 180
9.906250000000 1.750000000000 3.218994140625 182 182 182
9.906250000000 1.750000000000 3.179000854492 176 176 176
9.906250000000 1.750000000000 3.136993408203 179 179 179
9.906250000000 1.750000000000 3.097000122070 175 175 175
9.906250000000 1.750000000000 3.055999755859 177 177 177
9.906250000000 1.750000000000 3.014999389648 174 174 174
9.906250000000 1.765625000000 2.973999023438 181 181 181
9.906250000000 1.765625000000 2.932998657227 180 180 180
9.906250000000 1.750000000000 2.891998291016 177 177 177
9.906250000000 1.750000000000 2.850997924805 180 180 180
9.906250000000 1.750000000000 2.809997558594 178 178 178
9.906250000000 1.750000000000 2.767990112305 180 180 180
9.906250000000 1.765625000000 2.725997924805 176 176 176
9.906250000000 1.765625000000 2.683990478516 171 171 171
9.906250000000 1.750000000000 2.643997192383 172 172 172
9.906250000000 1.750000000000 2.601989746094 175 175 175
9.921875000000 1.757812500000 2.560989379883 173 173 173
9.921875000000 1.757812500000 2.519989013672 174 174 174
9.921875000000 1.757812500000 2.476989746094 174 174 174
9.906250000000 1.765625000000 2.431991577148 174 174 174
9.921875000000 1.757812500000 2.391998291016 173 173 173
9.921875000000 1.757812500000 2.348999023438 174 174 174
9.921875000000 1.757812500000 2.306991577148 174 174 174
9.921875000000 1.757812500000 2.263992309570 172 172 172
9.937500000000 1.765625000000 2.222991943359 164 164 164
9.937500000000 1.765625000000 2.179000854492 167 167 167
9.937500000000 1.765625000000 2.136001586914 169 169 169
9.921875000000 1.781250000000 2.091995239258 166 166 166
9.921875000000 1.781250000000 2.047988891602 167 167 167
9.921875000000 1.781250000000 2.003997802734 164 164 164
9.921875000000 1.781250000000 1.959991455078 167 167 167
9.921875000000 1.781250000000 1.916992187500 164 164 164
9.921875000000 1.781250000000 1.871994018555 166 166 166
9.921875000000 1.781250000000 1.826995849609 165 165 165
9.921875000000 1.781250000000 1.780990600586 165 165 165
9.937500000000 1.781250000000 1.737991333008 165 165 165
9.937500000000 1.781250000000 1.692001342773 165 165 165
9.937500000000 1.781250000000 1.647994995117 164 164 164
9.937500000000 1.781250000000 1.601989746094 165 165 165
9.937500000000 1.781250000000 1.557998657227 164 164 164
9.937500000000 1.781250000000 1.514999389648 170 170 170
9.937500000000 1.781250000000 1.468002319336 171 171 171
9.937500000000 1.781250000000 1.421997070313 164 164 164
9.937500000000 1.781250000000 1.377990722656 164 164 164
9.937500000000 1.875000000000 1.479995727539 185 185 185
9.937500000000 1.875000000000 1.524993896484 178 178 178
9.921875000000 1.875000000000 1.567993164063 182 182 182
9.921875000000 1.890625000000 1.657989501953 186 186 186
9.906250000000 1.890625000000 1.696990966797 184 184 184
9.906250000000 1.890625000000 1.742996215820 178 178 178
9.906250000000 1.890625000000 1.785995483398 187 187 187
9.906250000000 1.890625000000 1.828002929688 186 186 186
9.906250000000 1.890625000000 1.873001098633 181 181 181
9.906250000000 1.890625000000 1.916992187500 185 185 185
9.906250000000 1.890625000000 1.958999633789 188 188 188
9.906250000000 1.890625000000 2.001998901367 191 191 191
9.890625000000 1.882812500000 2.042999267578 190 190 190
9.906250000000 1.890625000000 2.087997436523 186 186 186
9.875000000000 1.898437500000 2.129989624023 186 186 186
9.875000000000 1.898437500000 2.171997070313 188 188 188
9.875000000000 1.890625000000 2.213989257813 185 185 185
9.875000000000 1.898437500000 2.256988525391 185 185 185
9.890625000000 1.906250000000 2.300994873047 186 186 186
9.875000000000 1.890625000000 2.339996337891 185 185 185
9.875000000000 1.890625000000 2.379989624023 189 189 189
9.875000000000 1.890625000000 2.423995971680 188 188 188
9.875000000000 1.890625000000 2.466995239258 187 187 187
9.875000000000 1.890625000000 2.506988525391 190 190 190
9.875000000000 1.890625000000 2.547988891602 192 192 192
9.875000000000 1.890625000000 2.589996337891 188 188 188
9.875000000000 1.906250000000 2.630996704102 188 188 188
9.875000000000 1.906250000000 2.671997070313 191 191 191
9.875000000000 1.906250000000 2.713989257813 193 193 193
9.859375000000 1.906250000000 2.753997802734 189 189 189
9.859375000000 1.906250000000 2.794998168945 191 191 191
9.843750000000 1.898437500000 2.834991455078 191 191 191
9.843750000000 1.898437500000 2.875991821289 189 189 189
9.843750000000 1.898437500000 2.916000366211 192 192 192
9.843750000000 1.898437500000 2.957000732422 189 189 189
9.843750000000 1.898437500000 2.998992919922 189 189 189
9.843750000000 1.898437500000 3.039001464844 192 192 192
9.859375000000 1.906250000000 3.080993652344 191 191 191
9.843750000000 1.890625000000 3.118988037109 188 188 188
9.843750000000 1.890625000000 3.158996582031 191 191 191
9.843750000000 1.914062500000 3.200988769531 190 190 190
9.828125000000 1.906250000000 3.238998413086 190 190 190
9.828125000000 1.906250000000 3.280990600586 191 191 191
9.812500000000 1.906250000000 3.319992065430 191 191 191
9.828125000000 1.906250000000 3.360992431641 192 192 192
9.812500000000 1.906250000000 3.401000976563 189 189 189
9.828125000000 1.906250000000 3.440994262695 190 190 190
9.828125000000 1.906250000000 3.481994628906 183 183 183
9.812500000000 1.906250000000 3.520996093750 182 182 182
9.812500000000 1.906250000000 3.561996459961 175 175 175
9.812500000000 1.906250000000 3.601989746094 168 168 168
9.812500000000 1.921875000000 3.641998291016 167 167 167
9.812500000000 1.921875000000 3.681991577148 167 167 167
9.812500000000 1.921875000000 3.722000122070 164 164 164
9.812500000000 1.921875000000 3.763000488281 163 163 163
9.796875000000 1.914062500000 3.802001953125 159 159 159
9.796875000000 1.914062500000 3.841995239258 162 162 162
9.796875000000 1.914062500000 3.881988525391 159 159 159
9.796875000000 1.906250000000 3.921997070313 161 161 161
9.796875000000 1.914062500000 3.961990356445 152 152 152
9.781250000000 1.906250000000 4.001998901367 148 148 148
9.796875000000 1.906250000000 4.041992187500 146 146 146
9.781250000000 1.906250000000 4.082000732422 143 143 143
9.781250000000 1.906250000000 4.121994018555 144 144 144
9.781250000000 1.898437500000 4.162994384766 147 147 147
9.781250000000 1.921875000000 4.203002929688 147 147 147
9.781250000000 1.921875000000 4.242996215820 131 131 131
9.765625000000 1.914062500000 4.282989501953 128 128 128
9.781250000000 1.921875000000 4.322998046875 116 116 116
9.781250000000 1.921875000000 4.363998413086 119 119 119
9.781250000000 1.921875000000 4.402999877930 119 119 119
9.781250000000 1.921875000000 4.444000244141 118 118 118
9.781250000000 1.921875000000 4.483993530273 107 107 107
9.781250000000 1.921875000000 4.524002075195 107 107 107
9.781250000000 1.921875000000 4.565002441406 111 111 111
9.781250000000 1.921875000000 4.606002807617 114 114 114
9.781250000000 1.937500000000 4.645996093750 108 108 108
9.781250000000 1.937500000000 4.684997558594 108 108 108
9.781250000000 1.937500000000 4.725997924805 104 104 104
9.781250000000 1.937500000000 4.765991210938 104 104 104
9.781250000000 1.937500000000 4.807998657227 109 109 109
9.781250000000 1.945312500000 4.847000122070 98 98 98
9.781250000000 1.937500000000 4.888000488281 93 93 93
9.781250000000 1.937500000000 4.929000854492 86 86 86
9.781250000000 1.937500000000 4.970001220703 74 74 74
9.765625000000 1.937500000000 5.011993408203 56 56 56
9.781250000000 1.937500000000 5.050994873047 38 38 38
9.765625000000 1.937500000000 5.095001220703 20 20 20
9.687500000000 1.953125000000 6.811996459961 39 39 39
9.765625000000 2.000000000000 6.817001342773 150 150 150
9.796875000000 2.007812500000 6.850997924805 87 87 87
9.687500000000 2.007812500000 8.097000122070 81 81 81
9.781250000000 2.054687500000 8.093002319336 111 111 111
9.812500000000 2.078125000000 8.115997314453 41 41 41
9.625000000000 2.296875000000 6.809997558594 155 155 155
9.656250000000 2.312500000000 6.847000122070 47 47 47
9.625000000000 2.335937500000 7.951995849609 77 77 77
9.625000000000 2.335937500000 8.002990722656 10 10 10
9.515625000000 2.609375000000 6.796997070313 146 146 146
9.531250000000 2.617187500000 6.838989257813 54 54 54
9.500000000000 2.625000000000 7.798995971680 87 87 87
9.390625000000 2.882812500000 6.776992797852 101 101 101
9.406250000000 2.890625000000 6.817993164063 128 128 128
9.375000000000 2.906250000000 7.627990722656 43 43 43
9.406250000000 2.906250000000 7.672988891602 30 30 30
9.281250000000 3.164062500000 6.783996582031 149 149 149
9.281250000000 3.171875000000 7.492996215820 123 123 123
9.156250000000 3.453125000000 6.753997802734 95 95 95
9.156250000000 3.453125000000 6.800003051758 120 120 120
9.156250000000 3.468750000000 7.312988281250 16 16 16
9.156250000000 3.468750000000 7.362991333008 58 58 58
9.031250000000 3.734375000000 6.731994628906 63 63 63
9.062500000000 3.750000000000 6.771987915039 139 139 139
9.031250000000 3.757812500000 7.190002441406 93 93 93
8.906250000000 4.046875000000 6.709991455078 12 12 12
8.921875000000 4.054687500000 6.757995605469 146 146 146
8.875000000000 4.062500000000 7.026000976563 108 108 108
8.796875000000 4.343750000000 6.430999755859 24 24 24
8.812500000000 4.351562500000 6.475997924805 62 62 62
8.796875000000 4.359375000000 6.733993530273 122 122 122
8.781250000000 4.359375000000 6.787002563477 85 85 85
8.765625000000 4.343750000000 6.899002075195 96 96 96
8.687500000000 4.640625000000 6.435989379883 87 87 87
8.687500000000 4.640625000000 6.746002197266 146 146 146
8.562500000000 4.914062500000 6.440002441406 129 129 129
8.546875000000 4.906250000000 6.705993652344 51 51 51
8.562500000000 4.929687500000 6.754989624023 136 136 136
8.453125000000 5.203125000000 6.451995849609 81 81 81
8.437500000000 5.203125000000 6.720993041992 128 128 128
8.437500000000 5.203125000000 6.774002075195 39 39 39
8.312500000000 5.500000000000 6.422988891602 121 121 121
8.281250000000 5.484375000000 6.595001220703 11 11 11
8.281250000000 5.484375000000 6.647994995117 50 50 50
8.312500000000 5.492187500000 6.694992065430 88 88 88
8.312500000000 5.500000000000 6.744995117188 134 134 134
8.187500000000 5.781250000000 6.399993896484 23 23 23
8.187500000000 5.804687500000 6.448989868164 189 189 189
8.171875000000 5.796875000000 6.506988525391 186 186 186
8.171875000000 5.796875000000 6.563995361328 132 132 132
8.156250000000 5.781250000000 6.625000000000 202 202 202
8.156250000000 5.781250000000 6.677001953125 29 29 29
8.187500000000 5.796875000000 6.722000122070 142 142 142
8.187500000000 5.804687500000 6.776000976563 31 31 31
8.062500000000 6.093750000000 6.408996582031 86 86 86
8.062500000000 6.093750000000 6.464996337891 201 201 201
8.031250000000 6.078125000000 6.522994995117 158 158 158
8.031250000000 6.078125000000 6.578002929688 168 168 168
8.031250000000 6.078125000000 6.636001586914 192 192 192
8.062500000000 6.093750000000 6.735000610352 151 151 151
7.953125000000 6.367187500000 6.410995483398 112 112 112
7.937500000000 6.359375000000 6.468994140625 212 212 212
7.937500000000 6.375000000000 6.526992797852 209 209 209
7.921875000000 6.375000000000 6.585998535156 206 206 206
7.906250000000 6.367187500000 6.645996093750 177 177 177
7.937500000000 6.375000000000 6.694000244141 84 84 84
7.968750000000 6.390625000000 6.740997314453 143 143 143
7.812500000000 6.656250000000 6.419998168945 146 146 146
7.812500000000 6.648437500000 6.478988647461 190 190 190
7.812500000000 6.640625000000 6.537002563477 208 208 208
7.781250000000 6.640625000000 6.597991943359 214 214 214
7.781250000000 6.640625000000 6.655990600586 146 146 146
7.812500000000 6.656250000000 6.701995849609 57 57 57
7.843750000000 6.687500000000 6.748992919922 116 116 116
7.687500000000 6.937500000000 6.433990478516 170 170 170
7.671875000000 6.929687500000 6.493988037109 181 181 181
7.671875000000 6.929687500000 6.552001953125 189 189 189
7.656250000000 6.921875000000 6.612991333008 198 198 198
7.687500000000 6.937500000000 6.666000366211 112 112 112
7.703125000000 6.953125000000 6.712997436523 92 92 92
7.718750000000 6.953125000000 6.766998291016 80 80 80
7.562500000000 7.218750000000 6.446990966797 185 185 185
7.562500000000 7.234375000000 6.502990722656 112 112 112
7.546875000000 7.218750000000 6.567001342773 191 191 191
7.546875000000 7.218750000000 6.626998901367 202 202 202
7.546875000000 7.218750000000 6.683990478516 67 67 67
7.593750000000 7.250000000000 6.726989746094 121 121 121
7.453125000000 7.523437500000 6.401000976563 18 18 18
7.453125000000 7.523437500000 6.458999633789 159 159 159
7.437500000000 7.515625000000 6.519989013672 175 175 175
7.437500000000 7.515625000000 6.580001831055 168 168 168
7.421875000000 7.531250000000 6.640991210938 168 168 168
7.437500000000 7.531250000000 6.696990966797 69 69 69
7.468750000000 7.562500000000 6.741989135742 133 133 133
7.343750000000 7.843750000000 6.460998535156 54 54 54
7.375000000000 7.859375000000 6.750000000000 130 130 130
7.250000000000 8.125000000000 6.462997436523 78 78 78
7.250000000000 8.140625000000 6.759994506836 132 132 132
7.109375000000 8.406250000000 6.462997436523 85 85 85
7.125000000000 8.421875000000 6.761001586914 126 126 126
7.000000000000 8.703125000000 6.457992553711 104 104 104
7.000000000000 8.703125000000 6.703994750977 70 70 70
7.031250000000 8.718750000000 6.761993408203 124 124 124
7.015625000000 8.710937500000 6.825988769531 44 44 44
6.875000000000 8.992187500000 6.716995239258 14 14 14
6.875000000000 9.000000000000 6.776000976563 111 111 111
6.875000000000 8.992187500000 6.968994140625 39 39 39
6.734375000000 9.296875000000 6.733001708984 59 59 59
6.750000000000 9.312500000000 6.789993286133 84 84 84
6.750000000000 9.312500000000 7.112991333008 64 64 64
6.625000000000 9.593750000000 6.739990234375 84 84 84
6.625000000000 9.601562500000 6.802001953125 49 49 49
6.593750000000 9.609375000000 7.263000488281 82 82 82
6.500000000000 9.859375000000 6.736999511719 25 25 25
6.515625000000 9.875000000000 6.795989990234 99 99 99
6.500000000000 9.898437500000 7.391998291016 67 67 67
6.390625000000 10.164062500000 6.783996582031 117 117 117
6.375000000000 10.171875000000 7.522994995117 40 40 40
6.281250000000 10.437500000000 6.776000976563 97 97 97
6.281250000000 10.476562500000 7.724990844727 24 24 24
6.156250000000 10.750000000000 6.787994384766 103 103 103
6.140625000000 10.781250000000 7.886001586914 27 27 27
6.031250000000 11.039062500000 6.802001953125 109 109 109
6.031250000000 11.093750000000 8.052993774414 16 16 16
5.859375000000 11.187500000000 3.300003051758 4 4 4
5.859375000000 11.187500000000 3.365997314453 33 33 33
5.843750000000 11.187500000000 3.431991577148 67 67 67
5.859375000000 11.187500000000 3.498001098633 82 82 82
5.843750000000 11.187500000000 3.562988281250 104 104 104
5.859375000000 11.187500000000 3.628997802734 96 96 96
5.859375000000 11.203125000000 3.694992065430 110 110 110
5.859375000000 11.203125000000 3.761001586914 113 113 113
5.875000000000 11.210937500000 3.825988769531 108 108 108
5.875000000000 11.218750000000 3.891998291016 114 114 114
5.875000000000 11.218750000000 3.957000732422 113 113 113
5.875000000000 11.218750000000 4.022994995117 99 99 99
5.875000000000 11.218750000000 4.087997436523 121 121 121
5.875000000000 11.234375000000 4.152999877930 113 113 113
5.875000000000 11.234375000000 4.218994140625 117 117 117
5.890625000000 11.242187500000 4.283996582031 114 114 114
5.906250000000 11.250000000000 4.348999023438 113 113 113
5.890625000000 11.242187500000 4.414001464844 126 126 126
5.906250000000 11.265625000000 4.804992675781 140 140 140
5.906250000000 11.265625000000 4.869995117188 152 152 152
5.906250000000 11.265625000000 4.935989379883 163 163 163
5.906250000000 11.281250000000 5.000991821289 164 164 164
5.921875000000 11.296875000000 5.391998291016 173 173 173
5.906250000000 11.296875000000 5.457992553711 173 173 173
5.906250000000 11.296875000000 5.524993896484 167 167 167
5.906250000000 11.296875000000 5.588989257813 166 166 166
5.906250000000 11.296875000000 5.655990600586 171 171 171
5.921875000000 11.296875000000 5.720993041992 167 167 167
5.921875000000 11.296875000000 5.787994384766 168 168 168
5.937500000000 11.304687500000 5.852996826172 171 171 171
5.937500000000 11.328125000000 5.917999267578 168 168 168
5.906250000000 11.312500000000 5.986999511719 175 175 175
5.937500000000 11.328125000000 6.050994873047 176 176 176
5.921875000000 11.320312500000 6.118988037109 179 179 179
5.937500000000 11.328125000000 6.184997558594 167 167 167
5.937500000000 11.328125000000 6.250991821289 176 176 176
5.937500000000 11.328125000000 6.319992065430 180 180 180
5.937500000000 11.343750000000 6.384002685547 179 179 179
5.937500000000 11.343750000000 6.451995849609 179 179 179
5.937500000000 11.343750000000 6.517990112305 171 171 171
5.937500000000 11.343750000000 6.585998535156 183 183 183
5.937500000000 11.343750000000 6.653991699219 175 175 175
5.937500000000 11.351562500000 6.718994140625 175 175 175
5.937500000000 11.351562500000 6.787002563477 164 164 164
5.937500000000 11.367187500000 6.856002807617 170 170 170
5.937500000000 11.367187500000 6.923995971680 177 177 177
5.937500000000 11.375000000000 6.990997314453 177 177 177
5.937500000000 11.375000000000 7.059997558594 176 176 176
5.937500000000 11.375000000000 7.129989624023 175 175 175
5.937500000000 11.375000000000 7.198989868164 181 181 181
5.937500000000 11.390625000000 7.265991210938 175 175 175
5.937500000000 11.390625000000 7.335998535156 174 174 174
5.937500000000 11.390625000000 7.406997680664 175 175 175
5.953125000000 11.390625000000 7.474990844727 179 179 179
5.953125000000 11.390625000000 7.544998168945 174 174 174
5.953125000000 11.390625000000 7.615997314453 164 164 164
5.937500000000 11.390625000000 7.687988281250 166 166 166
5.937500000000 11.406250000000 7.757995605469 170 170 170
5.937500000000 11.406250000000 7.828002929688 169 169 169
5.953125000000 11.414062500000 7.897994995117 171 171 171
5.968750000000 11.421875000000 7.968002319336 167 167 167
5.968750000000 11.421875000000 8.041000366211 175 175 175
5.953125000000 11.414062500000 8.115997314453 147 147 147
5.953125000000 11.414062500000 8.187988281250 170 170 170
5.968750000000 11.437500000000 8.257995605469 170 170 170
5.968750000000 11.437500000000 8.333999633789 173 173 173
5.968750000000 11.437500000000 8.406997680664 152 152 152
5.968750000000 11.437500000000 8.479995727539 149 149 149
5.968750000000 11.437500000000 8.554992675781 159 159 159
5.968750000000 11.437500000000 8.629989624023 163 163 163
5.968750000000 11.453125000000 8.703002929688 172 172 172
5.968750000000 11.453125000000 8.776992797852 185 185 185
5.968750000000 11.453125000000 8.848999023438 172 172 172
9.765625000000 1.968750000000 6.750991821289 53 53 53
9.812500000000 1.968750000000 6.774993896484 141 141 141
9.843750000000 1.984375000000 6.793991088867 127 127 127
9.875000000000 1.984375000000 6.828002929688 119 119 119
9.828125000000 1.968750000000 6.897994995117 65 65 65
9.812500000000 1.968750000000 6.948989868164 64 64 64
9.812500000000 1.968750000000 6.994995117188 71 71 71
9.812500000000 1.976562500000 7.034988403320 82 82 82
9.812500000000 1.976562500000 7.078994750977 100 100 100
9.812500000000 1.976562500000 7.125991821289 108 108 108
9.812500000000 1.976562500000 7.169998168945 126 126 126
9.828125000000 1.968750000000 7.209991455078 121 121 121
9.828125000000 1.968750000000 7.255996704102 126 126 126
9.843750000000 1.968750000000 7.297988891602 139 139 139
9.828125000000 1.968750000000 7.351989746094 145 145 145
9.843750000000 1.968750000000 7.392990112305 141 141 141
9.828125000000 1.968750000000 7.442001342773 134 134 134
