21.375000000000 25.625000000000 38.444999694824 155 155 155
21.125000000000 25.562500000000 36.841999053955 118 118 118
21.125000000000 25.562500000000 36.916999816895 108 108 108
21.125000000000 25.562500000000 36.993000030518 86 86 86
21.125000000000 25.562500000000 37.066001892090 97 97 97
21.187500000000 25.562500000000 37.142002105713 104 104 104
21.187500000000 25.562500000000 37.215999603271 98 98 98
21.125000000000 25.562500000000 37.290000915527 100 100 100
21.125000000000 25.562500000000 37.365001678467 90 90 90
21.125000000000 25.562500000000 37.439998626709 96 96 96
21.312500000000 25.625000000000 37.651000976563 59 59 59
21.312500000000 25.625000000000 37.723999023438 184 184 184
21.312500000000 25.625000000000 37.796001434326 180 180 180
21.312500000000 25.625000000000 37.868000030518 181 181 181
21.312500000000 25.625000000000 38.233001708984 132 132 132
21.312500000000 25.625000000000 38.307998657227 185 185 185
21.312500000000 25.625000000000 38.381999969482 184 184 184
21.312500000000 25.625000000000 38.453998565674 178 178 178
21.125000000000 25.625000000000 36.764999389648 53 53 53
21.062500000000 25.562500000000 36.835998535156 107 107 107
21.062500000000 25.562500000000 36.914001464844 101 101 101
21.125000000000 25.625000000000 36.990001678467 92 92 92
21.187500000000 25.625000000000 37.068000793457 115 115 115
21.187500000000 25.625000000000 37.142002105713 107 107 107
21.187500000000 25.625000000000 37.215999603271 99 99 99
21.250000000000 25.687500000000 37.289001464844 108 108 108
21.062500000000 25.562500000000 37.366001129150 92 92 92
21.062500000000 25.562500000000 37.442001342773 88 88 88
21.250000000000 25.687500000000 37.727001190186 185 185 185
21.250000000000 25.687500000000 37.799999237061 180 180 180
21.250000000000 25.687500000000 37.874000549316 185 185 185
21.250000000000 25.687500000000 37.948001861572 57 57 57
21.312500000000 25.687500000000 38.241001129150 185 185 185
21.312500000000 25.687500000000 38.316001892090 188 188 188
21.312500000000 25.687500000000 38.390998840332 190 190 190
21.000000000000 25.625000000000 36.833000183105 95 95 95
21.000000000000 25.625000000000 36.909000396729 96 96 96
21.000000000000 25.625000000000 36.986999511719 103 103 103
21.125000000000 25.687500000000 37.066001892090 104 104 104
21.062500000000 25.625000000000 37.139999389648 117 117 117
21.125000000000 25.687500000000 37.215999603271 103 103 103
21.125000000000 25.687500000000 37.291000366211 102 102 102
21.000000000000 25.625000000000 37.368000030518 98 98 98
21.000000000000 25.562500000000 37.444999694824 93 93 93
21.250000000000 25.687500000000 37.731998443604 83 83 83
21.250000000000 25.687500000000 37.805999755859 184 184 184
21.250000000000 25.687500000000 37.880001068115 181 181 181
21.250000000000 25.687500000000 37.953998565674 181 181 181
21.250000000000 25.687500000000 38.177001953125 186 186 186
21.250000000000 25.687500000000 38.251998901367 189 189 189
21.250000000000 25.687500000000 38.326999664307 183 183 183
21.250000000000 25.687500000000 38.402000427246 74 74 74
20.937500000000 25.625000000000 36.906002044678 85 85 85
20.937500000000 25.625000000000 36.984001159668 97 97 97
21.062500000000 25.687500000000 37.063999176025 107 107 107
21.125000000000 25.687500000000 37.140998840332 118 118 118
21.187500000000 25.750000000000 37.216999053955 112 112 112
21.125000000000 25.687500000000 37.291999816895 101 101 101
20.937500000000 25.625000000000 37.369998931885 92 92 92
20.937500000000 25.625000000000 37.448001861572 91 91 91
21.187500000000 25.750000000000 37.812000274658 187 187 187
21.187500000000 25.750000000000 37.888000488281 181 181 181
21.187500000000 25.750000000000 37.962001800537 183 183 183
21.187500000000 25.750000000000 38.111000061035 103 103 103
21.187500000000 25.750000000000 38.186000823975 181 181 181
21.187500000000 25.750000000000 38.263000488281 185 185 185
21.187500000000 25.750000000000 38.335998535156 180 180 180
21.250000000000 25.875000000000 35.101001739502 122 122 122
21.250000000000 25.875000000000 35.189998626709 114 114 114
20.875000000000 25.687500000000 37.059001922607 98 98 98
20.875000000000 25.687500000000 37.137001037598 96 96 96
21.062500000000 25.812500000000 37.215999603271 120 120 120
20.937500000000 25.687500000000 37.291999816895 77 77 77
20.875000000000 25.687500000000 37.371002197266 88 88 88
20.875000000000 25.687500000000 37.449001312256 85 85 85
21.125000000000 25.812500000000 37.816001892090 122 122 122
21.062500000000 25.812500000000 37.892002105713 184 184 184
21.062500000000 25.812500000000 37.967998504639 183 183 183
21.062500000000 25.812500000000 38.043998718262 136 136 136
21.125000000000 25.812500000000 38.118999481201 187 187 187
21.125000000000 25.812500000000 38.194000244141 188 188 188
21.125000000000 25.812500000000 38.270999908447 184 184 184
20.875000000000 25.687500000000 37.136001586914 70 70 70
21.062500000000 25.812500000000 37.215000152588 112 112 112
20.812500000000 25.687500000000 37.292999267578 89 89 89
20.812500000000 25.687500000000 37.372001647949 92 92 92
20.812500000000 25.687500000000 37.451000213623 44 44 44
21.062500000000 25.812500000000 37.899002075195 184 184 184
21.062500000000 25.812500000000 37.974998474121 185 185 185
21.062500000000 25.812500000000 38.049999237061 189 189 189
21.062500000000 25.812500000000 38.126998901367 188 188 188
21.062500000000 25.812500000000 38.203998565674 185 185 185
21.062500000000 25.812500000000 38.279998779297 127 127 127
21.125000000000 25.937500000000 35.038002014160 133 133 133
20.937500000000 25.875000000000 35.324001312256 31 31 31
21.000000000000 25.875000000000 35.408000946045 23 23 23
21.000000000000 25.875000000000 37.139999389648 78 78 78
21.000000000000 25.875000000000 37.215999603271 117 117 117
20.937500000000 25.812500000000 37.292999267578 94 94 94
21.000000000000 25.875000000000 37.904998779297 177 177 177
21.000000000000 25.875000000000 37.981998443604 188 188 188
21.000000000000 25.875000000000 38.057998657227 188 188 188
21.000000000000 25.875000000000 38.137001037598 190 190 190
21.000000000000 25.875000000000 38.213001251221 186 186 186
21.000000000000 25.937500000000 35.250999450684 127 127 127
21.000000000000 25.937500000000 35.332000732422 126 126 126
21.000000000000 25.937500000000 35.418998718262 127 127 127
21.000000000000 25.937500000000 35.498001098633 132 132 132
21.000000000000 25.937500000000 35.578998565674 137 137 137
21.000000000000 25.937500000000 35.659999847412 135 135 135
21.000000000000 25.937500000000 35.738998413086 144 144 144
21.000000000000 25.937500000000 35.819999694824 136 136 136
21.000000000000 25.937500000000 35.899002075195 140 140 140
21.000000000000 25.937500000000 35.979000091553 143 143 143
21.000000000000 25.937500000000 36.059001922607 148 148 148
21.000000000000 25.937500000000 36.138000488281 146 146 146
21.000000000000 25.937500000000 36.215999603271 150 150 150
21.000000000000 25.937500000000 36.292999267578 165 165 165
21.000000000000 25.937500000000 36.369998931885 158 158 158
21.000000000000 25.937500000000 36.449001312256 159 159 159
21.000000000000 25.937500000000 36.525001525879 162 162 162
21.000000000000 25.937500000000 36.603000640869 166 166 166
21.000000000000 25.937500000000 36.680999755859 168 168 168
21.000000000000 25.937500000000 36.756999969482 180 180 180
21.000000000000 25.937500000000 36.833999633789 166 166 166
21.000000000000 25.937500000000 36.909999847412 181 181 181
21.000000000000 25.937500000000 36.986999511719 186 186 186
21.000000000000 25.937500000000 37.063999176025 187 187 187
21.000000000000 25.937500000000 37.140998840332 132 132 132
21.000000000000 25.937500000000 37.216999053955 182 182 182
21.000000000000 25.937500000000 37.292999267578 125 125 125
21.000000000000 25.937500000000 37.369998931885 197 197 197
21.000000000000 25.937500000000 37.446998596191 190 190 190
21.000000000000 25.937500000000 37.524002075195 189 189 189
21.000000000000 25.937500000000 37.599998474121 186 186 186
21.000000000000 25.937500000000 37.677001953125 187 187 187
21.000000000000 25.937500000000 37.754001617432 185 185 185
21.000000000000 25.937500000000 37.831001281738 176 176 176
21.000000000000 25.937500000000 37.909000396729 172 172 172
21.000000000000 25.937500000000 37.985000610352 185 185 185
21.000000000000 25.937500000000 38.063999176025 184 184 184
21.000000000000 25.937500000000 38.140998840332 181 181 181
21.000000000000 25.937500000000 38.220001220703 164 164 164
21.000000000000 25.937500000000 38.296001434326 158 158 158
21.000000000000 25.937500000000 38.375999450684 153 153 153
21.000000000000 25.937500000000 38.451999664307 91 91 91
21.062500000000 26.062500000000 35.263000488281 138 138 138
21.000000000000 26.000000000000 35.333999633789 135 135 135
21.000000000000 26.000000000000 35.416000366211 151 151 151
21.000000000000 26.000000000000 35.500000000000 156 156 156
21.000000000000 26.000000000000 35.578998565674 172 172 172
21.000000000000 26.000000000000 35.661998748779 175 175 175
21.000000000000 26.000000000000 35.742000579834 177 177 177
21.000000000000 26.000000000000 35.823001861572 180 180 180
21.062500000000 26.062500000000 35.903999328613 181 181 181
21.062500000000 26.062500000000 35.983001708984 183 183 183
21.062500000000 26.062500000000 36.062999725342 185 185 185
21.062500000000 26.062500000000 36.139999389648 190 190 190
21.062500000000 26.062500000000 36.219001770020 189 189 189
21.062500000000 26.062500000000 36.296001434326 191 191 191
21.062500000000 26.062500000000 36.375000000000 194 194 194
21.062500000000 26.062500000000 36.451999664307 196 196 196
21.062500000000 26.062500000000 36.529998779297 197 197 197
21.062500000000 26.062500000000 36.606998443604 198 198 198
21.062500000000 26.062500000000 36.684001922607 198 198 198
21.062500000000 26.062500000000 36.760002136230 198 198 198
21.062500000000 26.062500000000 36.837001800537 200 200 200
21.062500000000 26.062500000000 36.913002014160 203 203 203
21.062500000000 26.062500000000 36.988998413086 202 202 202
21.062500000000 26.062500000000 37.066001892090 206 206 206
21.062500000000 26.062500000000 37.142002105713 217 217 217
21.062500000000 26.062500000000 37.217998504639 237 237 237
21.062500000000 26.062500000000 37.293998718262 255 255 255
21.062500000000 26.000000000000 37.369998931885 255 255 255
21.062500000000 26.062500000000 37.445999145508 235 235 235
21.062500000000 26.062500000000 37.521999359131 217 217 217
21.062500000000 26.062500000000 37.597999572754 205 205 205
21.062500000000 26.062500000000 37.673999786377 201 201 201
21.062500000000 26.062500000000 37.750000000000 198 198 198
21.062500000000 26.062500000000 37.826999664307 199 199 199
21.062500000000 26.062500000000 37.903999328613 199 199 199
21.062500000000 26.062500000000 37.979999542236 196 196 196
21.062500000000 26.062500000000 38.056999206543 196 196 196
21.062500000000 26.062500000000 38.133998870850 194 194 194
21.062500000000 26.062500000000 38.210998535156 193 193 193
21.062500000000 26.062500000000 38.289001464844 193 193 193
21.062500000000 26.062500000000 38.366001129150 188 188 188
21.062500000000 26.062500000000 38.444000244141 169 169 169
20.937500000000 26.062500000000 36.208000183105 21 21 21
20.937500000000 26.062500000000 36.289001464844 22 22 22
20.937500000000 26.062500000000 36.368000030518 24 24 24
20.937500000000 26.062500000000 36.448001861572 29 29 29
20.937500000000 26.062500000000 36.522998809814 30 30 30
20.937500000000 26.062500000000 36.599998474121 33 33 33
20.937500000000 26.062500000000 36.679000854492 39 39 39
20.937500000000 26.062500000000 36.757999420166 56 56 56
20.937500000000 26.062500000000 36.833999633789 50 50 50
20.937500000000 26.062500000000 36.910999298096 59 59 59
20.937500000000 26.062500000000 36.986999511719 52 52 52
20.937500000000 26.062500000000 37.063999176025 74 74 74
20.937500000000 26.062500000000 37.140998840332 83 83 83
20.937500000000 26.062500000000 37.217998504639 103 103 103
20.937500000000 26.062500000000 37.295001983643 103 103 103
20.937500000000 26.062500000000 37.373001098633 107 107 107
20.937500000000 26.062500000000 37.450000762939 105 105 105
20.937500000000 26.062500000000 37.525001525879 66 66 66
20.937500000000 26.062500000000 37.602001190186 67 67 67
20.937500000000 26.062500000000 37.678001403809 72 72 72
20.937500000000 26.062500000000 37.756000518799 68 68 68
20.937500000000 26.062500000000 37.832000732422 70 70 70
20.937500000000 26.062500000000 37.916999816895 134 134 134
20.937500000000 26.062500000000 37.996002197266 142 142 142
20.937500000000 26.062500000000 38.074001312256 143 143 143
20.937500000000 26.062500000000 38.151000976563 130 130 130
20.937500000000 26.062500000000 38.222999572754 105 105 105
21.000000000000 26.062500000000 38.298000335693 82 82 82
21.000000000000 26.062500000000 38.375999450684 82 82 82
21.000000000000 26.062500000000 38.453998565674 32 32 32
20.562500000000 25.875000000000 36.967998504639 94 94 94
20.562500000000 25.875000000000 37.050998687744 37 37 37
20.562500000000 25.875000000000 37.132999420166 101 101 101
20.750000000000 26.000000000000 37.216999053955 106 106 106
20.562500000000 25.875000000000 37.298000335693 90 90 90
20.562500000000 25.875000000000 37.381000518799 85 85 85
20.562500000000 25.875000000000 37.465000152588 92 92 92
20.750000000000 26.000000000000 37.851001739502 122 122 122
20.812500000000 26.062500000000 37.930000305176 185 185 185
20.812500000000 26.062500000000 38.010002136230 183 183 183
20.750000000000 26.000000000000 38.090000152588 178 178 178
20.750000000000 26.000000000000 38.172000885010 184 184 184
20.750000000000 26.000000000000 38.251998901367 169 169 169
20.562500000000 25.937500000000 36.883998870850 98 98 98
20.562500000000 25.937500000000 36.966999053955 102 102 102
20.562500000000 25.937500000000 37.052001953125 113 113 113
20.625000000000 26.000000000000 37.136001586914 115 115 115
20.687500000000 26.062500000000 37.216999053955 107 107 107
20.625000000000 26.000000000000 37.298000335693 105 105 105
20.562500000000 25.937500000000 37.382999420166 91 91 91
20.562500000000 25.937500000000 37.465999603271 96 96 96
20.750000000000 26.062500000000 37.856998443604 185 185 185
20.750000000000 26.062500000000 37.937000274658 186 186 186
20.750000000000 26.062500000000 38.015998840332 185 185 185
20.750000000000 26.062500000000 38.097999572754 181 181 181
20.750000000000 26.062500000000 38.180000305176 175 175 175
20.750000000000 26.062500000000 38.262001037598 169 169 169
20.500000000000 26.000000000000 36.799999237061 31 31 31
20.500000000000 26.000000000000 36.881999969482 99 99 99
20.500000000000 26.000000000000 36.965000152588 98 98 98
20.562500000000 26.062500000000 37.052001953125 114 114 114
20.562500000000 26.062500000000 37.133998870850 113 113 113
20.687500000000 26.062500000000 37.215999603271 109 109 109
20.625000000000 26.062500000000 37.297000885010 117 117 117
20.500000000000 26.000000000000 37.381999969482 95 95 95
20.500000000000 25.937500000000 37.465999603271 92 92 92
20.687500000000 26.125000000000 37.779998779297 138 138 138
20.687500000000 26.125000000000 37.861999511719 185 185 185
20.687500000000 26.125000000000 37.942001342773 179 179 179
20.687500000000 26.125000000000 38.022998809814 82 82 82
20.687500000000 26.125000000000 38.103000640869 70 70 70
20.687500000000 26.062500000000 38.187000274658 176 176 176
20.687500000000 26.125000000000 38.269001007080 170 170 170
20.687500000000 26.062500000000 38.353000640869 95 95 95
20.500000000000 26.062500000000 36.797000885010 93 93 93
20.500000000000 26.062500000000 36.880001068115 95 95 95
20.500000000000 26.062500000000 36.964000701904 104 104 104
20.562500000000 26.062500000000 37.050998687744 111 111 111
20.562500000000 26.125000000000 37.132999420166 112 112 112
20.625000000000 26.125000000000 37.215000152588 106 106 106
20.625000000000 26.125000000000 37.297000885010 118 118 118
20.500000000000 26.062500000000 37.381000518799 95 95 95
20.500000000000 26.062500000000 37.465000152588 96 96 96
20.625000000000 26.125000000000 37.784000396729 185 185 185
20.625000000000 26.125000000000 37.866001129150 184 184 184
20.687500000000 26.187500000000 37.946998596191 184 184 184
20.625000000000 26.125000000000 38.195999145508 173 173 173
20.625000000000 26.125000000000 38.277000427246 169 169 169
20.625000000000 26.125000000000 38.361000061035 174 174 174
20.500000000000 26.125000000000 36.797000885010 70 70 70
20.500000000000 26.125000000000 36.881000518799 104 104 104
20.500000000000 26.125000000000 36.964000701904 97 97 97
20.500000000000 26.125000000000 37.048000335693 98 98 98
20.625000000000 26.187500000000 37.133998870850 113 113 113
20.562500000000 26.187500000000 37.215000152588 100 100 100
20.625000000000 26.187500000000 37.297000885010 113 113 113
20.500000000000 26.125000000000 37.381999969482 99 99 99
20.500000000000 26.125000000000 37.465999603271 99 99 99
20.625000000000 26.187500000000 37.707000732422 150 150 150
20.625000000000 26.187500000000 37.789001464844 182 182 182
20.625000000000 26.187500000000 37.872001647949 179 179 179
20.625000000000 26.187500000000 37.952999114990 43 43 43
20.625000000000 26.187500000000 38.201999664307 159 159 159
20.625000000000 26.187500000000 38.286998748779 167 167 167
20.625000000000 26.187500000000 38.369998931885 170 170 170
20.500000000000 26.187500000000 36.881000518799 104 104 104
20.500000000000 26.187500000000 36.964000701904 98 98 98
20.500000000000 26.187500000000 37.048000335693 105 105 105
20.500000000000 26.187500000000 37.131999969482 114 114 114
20.500000000000 26.187500000000 37.215000152588 99 99 99
20.500000000000 26.187500000000 37.298999786377 101 101 101
20.500000000000 26.187500000000 37.382999420166 103 103 103
20.500000000000 26.187500000000 37.466999053955 95 95 95
20.562500000000 26.187500000000 37.712001800537 188 188 188
20.562500000000 26.187500000000 37.795001983643 184 184 184
20.562500000000 26.187500000000 37.878002166748 179 179 179
20.562500000000 26.187500000000 38.213001251221 34 34 34
20.562500000000 26.187500000000 38.296001434326 163 163 163
20.562500000000 26.187500000000 38.378002166748 168 168 168
20.562500000000 26.187500000000 38.465999603271 91 91 91
20.437500000000 26.187500000000 36.881000518799 64 64 64
20.437500000000 26.187500000000 36.964000701904 96 96 96
20.437500000000 26.187500000000 37.048000335693 103 103 103
20.437500000000 26.187500000000 37.131999969482 105 105 105
20.437500000000 26.250000000000 37.215999603271 101 101 101
20.437500000000 26.250000000000 37.299999237061 91 91 91
20.437500000000 26.187500000000 37.383998870850 100 100 100
20.437500000000 26.187500000000 37.467998504639 103 103 103
20.437500000000 26.250000000000 37.716999053955 192 192 192
20.437500000000 26.250000000000 37.800998687744 182 182 182
20.437500000000 26.250000000000 38.305999755859 175 175 175
20.437500000000 26.250000000000 38.389999389648 160 160 160
20.437500000000 26.250000000000 38.476001739502 104 104 104
20.437500000000 26.312500000000 37.048999786377 103 103 103
20.437500000000 26.312500000000 37.133998870850 105 105 105
20.437500000000 26.312500000000 37.217998504639 107 107 107
20.437500000000 26.312500000000 37.302001953125 95 95 95
20.437500000000 26.312500000000 37.386001586914 99 99 99
20.437500000000 26.312500000000 37.471000671387 95 95 95
20.437500000000 26.312500000000 37.805999755859 139 139 139
20.437500000000 26.312500000000 38.314998626709 129 129 129
20.437500000000 26.312500000000 37.133998870850 100 100 100
20.437500000000 26.312500000000 37.217998504639 99 99 99
20.437500000000 26.312500000000 37.303001403809 92 92 92
20.437500000000 26.312500000000 37.387001037598 94 94 94
20.437500000000 26.312500000000 37.472000122070 24 24 24
20.437500000000 26.437500000000 37.220001220703 80 80 80
20.437500000000 26.437500000000 37.304000854492 95 95 95
20.437500000000 26.437500000000 37.388999938965 70 70 70
20.875000000000 25.312500000000 37.382999420166 78 78 78
20.937500000000 25.312500000000 37.070999145508 41 41 41
21.250000000000 25.187500000000 37.373001098633 76 76 76
20.375000000000 25.687500000000 37.314998626709 54 54 54
21.062500000000 25.312500000000 37.075000762939 92 92 92
21.250000000000 25.250000000000 37.374000549316 90 90 90
20.875000000000 25.500000000000 37.307998657227 126 126 126
20.562500000000 25.687500000000 37.230998992920 40 40 40
21.062500000000 25.375000000000 37.077999114990 99 99 99
20.562500000000 25.750000000000 37.481998443604 36 36 36
21.250000000000 25.312500000000 37.374000549316 93 93 93
21.187500000000 25.312500000000 37.302001953125 118 118 118
20.875000000000 25.500000000000 37.229999542236 124 124 124
20.562500000000 25.750000000000 37.149002075195 91 91 91
21.125000000000 25.437500000000 37.078998565674 106 106 106
21.125000000000 25.437500000000 37.004001617432 86 86 86
20.562500000000 25.812500000000 37.481998443604 90 90 90
21.312500000000 25.375000000000 37.374000549316 95 95 95
21.312500000000 25.375000000000 37.299999237061 110 110 110
21.312500000000 25.375000000000 37.228000640869 122 122 122
21.062500000000 25.500000000000 37.153999328613 127 127 127
21.125000000000 25.500000000000 37.078998565674 102 102 102
21.187500000000 25.437500000000 37.005001068115 126 126 126
21.187500000000 25.500000000000 36.930000305176 119 119 119
21.000000000000 25.562500000000 36.847000122070 77 77 77
21.312500000000 25.437500000000 37.448001861572 130 130 130
21.375000000000 25.437500000000 37.372001647949 140 140 140
21.375000000000 25.375000000000 37.299999237061 118 118 118
21.312500000000 25.437500000000 37.228000640869 120 120 120
21.375000000000 25.437500000000 37.156002044678 101 101 101
21.375000000000 25.437500000000 37.083999633789 68 68 68
21.312500000000 25.437500000000 37.010002136230 64 64 64
21.125000000000 25.562500000000 36.931999206543 132 132 132
21.187500000000 25.500000000000 36.858001708984 43 43 43
20.500000000000 26.000000000000 37.485000610352 89 89 89
20.500000000000 26.000000000000 37.401000976563 95 95 95
21.062500000000 25.687500000000 37.305999755859 126 126 126
21.187500000000 25.562500000000 37.229999542236 149 149 149
21.187500000000 25.562500000000 37.156002044678 156 156 156
20.500000000000 26.000000000000 37.066001892090 100 100 100
20.500000000000 26.000000000000 36.981998443604 96 96 96
20.500000000000 26.000000000000 36.897998809814 96 96 96
20.500000000000 26.000000000000 36.816001892090 98 98 98
20.500000000000 26.062500000000 37.486000061035 92 92 92
20.500000000000 26.062500000000 37.402000427246 96 96 96
21.187500000000 25.625000000000 37.304000854492 129 129 129
21.250000000000 25.625000000000 37.229999542236 153 153 153
21.250000000000 25.625000000000 37.156002044678 154 154 154
21.187500000000 25.687500000000 37.081001281738 135 135 135
20.500000000000 26.062500000000 36.981998443604 96 96 96
20.500000000000 26.062500000000 36.897998809814 90 90 90
20.500000000000 26.062500000000 36.817001342773 106 106 106
21.375000000000 25.625000000000 38.465000152588 35 35 35
21.375000000000 25.562500000000 38.382999420166 64 64 64
21.375000000000 25.562500000000 38.310001373291 76 76 76
21.312500000000 25.687500000000 37.886001586914 85 85 85
21.375000000000 25.625000000000 37.804000854492 118 118 118
21.312500000000 25.625000000000 37.735000610352 111 111 111
21.375000000000 25.625000000000 37.659999847412 46 46 46
20.500000000000 26.187500000000 37.486999511719 90 90 90
20.500000000000 26.187500000000 37.402000427246 103 103 103
20.625000000000 26.062500000000 37.313999176025 103 103 103
21.187500000000 25.687500000000 37.229999542236 122 122 122
20.625000000000 26.062500000000 37.151000976563 111 111 111
20.625000000000 26.062500000000 37.069000244141 121 121 121
20.500000000000 26.187500000000 36.980998992920 94 94 94
20.500000000000 26.125000000000 36.897998809814 90 90 90
20.500000000000 26.187500000000 36.812999725342 23 23 23
20.937500000000 25.875000000000 35.978000640869 41 41 41
20.937500000000 25.875000000000 35.901000976563 69 69 69
20.937500000000 25.875000000000 35.817001342773 80 80 80
20.937500000000 25.875000000000 35.741001129150 93 93 93
20.937500000000 25.875000000000 35.657001495361 99 99 99
20.937500000000 25.875000000000 35.576999664307 106 106 106
20.937500000000 25.937500000000 35.479999542236 192 192 192
20.937500000000 25.875000000000 35.399002075195 164 164 164
20.937500000000 25.875000000000 35.318000793457 155 155 155
20.937500000000 25.875000000000 35.233001708984 152 152 152
20.937500000000 25.875000000000 35.145999908447 149 149 149
20.937500000000 25.875000000000 35.067001342773 133 133 133
21.250000000000 25.750000000000 38.351001739502 62 62 62
21.125000000000 25.812500000000 38.285999298096 95 95 95
21.062500000000 25.812500000000 38.217998504639 119 119 119
21.062500000000 25.875000000000 38.145999908447 146 146 146
21.000000000000 25.875000000000 38.076000213623 151 151 151
21.000000000000 25.875000000000 38.000000000000 166 166 166
21.000000000000 25.937500000000 37.923999786377 155 155 155
20.937500000000 25.875000000000 37.848999023438 149 149 149
20.937500000000 25.937500000000 37.771999359131 169 169 169
20.937500000000 25.937500000000 37.694000244141 184 184 184
20.937500000000 25.937500000000 37.617000579834 197 197 197
20.937500000000 25.937500000000 37.540000915527 209 209 209
20.937500000000 25.937500000000 37.462001800537 221 221 221
20.937500000000 25.937500000000 37.385002136230 233 233 233
20.937500000000 25.937500000000 37.307998657227 221 221 221
20.937500000000 25.937500000000 37.230998992920 255 255 255
20.937500000000 25.937500000000 37.152999877930 224 224 224
20.937500000000 25.937500000000 37.076000213623 230 230 230
20.937500000000 25.937500000000 36.999000549316 226 226 226
21.000000000000 25.937500000000 36.922000885010 213 213 213
20.937500000000 25.937500000000 36.844001770020 204 204 204
20.937500000000 25.937500000000 36.767002105713 197 197 197
20.937500000000 25.937500000000 36.688999176025 190 190 190
20.937500000000 25.937500000000 36.611000061035 195 195 195
20.937500000000 25.937500000000 36.534000396729 193 193 193
20.937500000000 25.937500000000 36.455001831055 186 186 186
20.937500000000 25.937500000000 36.378002166748 179 179 179
21.000000000000 25.937500000000 36.299999237061 176 176 176
20.937500000000 25.937500000000 36.219001770020 173 173 173
20.937500000000 25.937500000000 36.140998840332 163 163 163
21.000000000000 25.937500000000 36.062999725342 160 160 160
21.000000000000 25.937500000000 35.983001708984 145 145 145
21.000000000000 25.937500000000 35.904998779297 138 138 138
21.000000000000 25.937500000000 35.826999664307 125 125 125
21.000000000000 25.937500000000 35.743999481201 130 130 130
21.000000000000 25.937500000000 35.665000915527 129 129 129
21.000000000000 25.937500000000 35.585998535156 129 129 129
21.000000000000 25.937500000000 35.503002166748 125 125 125
21.000000000000 25.937500000000 35.423000335693 124 124 124
21.000000000000 25.937500000000 35.337001800537 129 129 129
21.000000000000 25.937500000000 35.256000518799 128 128 128
21.000000000000 25.937500000000 35.170001983643 125 125 125
21.000000000000 25.937500000000 35.089000701904 130 130 130
21.000000000000 25.937500000000 38.472999572754 35 35 35
21.000000000000 25.937500000000 38.395000457764 166 166 166
21.000000000000 25.937500000000 38.312999725342 164 164 164
21.000000000000 25.937500000000 38.235000610352 156 156 156
21.000000000000 25.937500000000 38.156002044678 153 153 153
21.000000000000 25.937500000000 38.077999114990 155 155 155
21.000000000000 25.937500000000 38.000000000000 161 161 161
21.000000000000 25.937500000000 37.923000335693 162 162 162
21.000000000000 25.937500000000 37.844001770020 168 168 168
21.000000000000 25.937500000000 37.767002105713 172 172 172
21.000000000000 25.937500000000 37.691001892090 178 178 178
21.000000000000 25.937500000000 37.613998413086 183 183 183
21.000000000000 25.937500000000 37.536998748779 193 193 193
21.000000000000 25.937500000000 37.459999084473 204 204 204
21.062500000000 25.937500000000 37.383998870850 223 223 223
21.000000000000 25.937500000000 37.307998657227 255 255 255
21.062500000000 25.937500000000 37.230998992920 255 255 255
21.000000000000 25.937500000000 37.153999328613 255 255 255
21.000000000000 25.937500000000 37.077999114990 243 243 243
21.000000000000 25.937500000000 37.001998901367 225 225 225
21.000000000000 26.000000000000 36.923000335693 223 223 223
21.000000000000 25.937500000000 36.848999023438 170 170 170
21.000000000000 25.937500000000 36.771999359131 181 181 181
21.000000000000 25.937500000000 36.694999694824 178 178 178
21.000000000000 25.937500000000 36.618000030518 179 179 179
21.062500000000 25.937500000000 36.541999816895 190 190 190
21.062500000000 25.937500000000 36.464000701904 186 186 186
21.062500000000 25.937500000000 36.387001037598 183 183 183
21.000000000000 25.937500000000 36.307998657227 184 184 184
21.000000000000 25.937500000000 36.229999542236 180 180 180
21.000000000000 25.937500000000 36.152000427246 176 176 176
21.062500000000 25.937500000000 36.075000762939 173 173 173
21.000000000000 25.937500000000 35.993999481201 169 169 169
21.000000000000 25.937500000000 35.915000915527 164 164 164
21.000000000000 25.937500000000 35.833999633789 162 162 162
21.000000000000 25.937500000000 35.754001617432 158 158 158
21.000000000000 25.937500000000 35.674999237061 152 152 152
21.000000000000 25.937500000000 35.591999053955 151 151 151
21.000000000000 25.937500000000 35.513000488281 137 137 137
21.000000000000 25.937500000000 35.429000854492 137 137 137
21.000000000000 25.937500000000 35.345001220703 129 129 129
21.000000000000 25.937500000000 35.263999938965 121 121 121
21.000000000000 25.937500000000 35.178001403809 123 123 123
21.000000000000 26.000000000000 35.090999603271 115 115 115
21.187500000000 25.875000000000 35.070999145508 123 123 123
21.062500000000 26.000000000000 38.463001251221 124 124 124
21.062500000000 26.000000000000 38.386001586914 175 175 175
21.062500000000 26.000000000000 38.305999755859 174 174 174
21.062500000000 26.000000000000 38.229000091553 176 176 176
21.062500000000 26.000000000000 38.150001525879 172 172 172
21.062500000000 26.000000000000 38.073001861572 172 172 172
21.062500000000 26.000000000000 37.996002197266 173 173 173
21.062500000000 26.000000000000 37.918998718262 169 169 169
21.062500000000 26.000000000000 37.844001770020 168 168 168
21.062500000000 26.000000000000 37.765998840332 156 156 156
21.062500000000 26.000000000000 37.689998626709 157 157 157
21.062500000000 26.000000000000 37.612998962402 151 151 151
21.062500000000 26.000000000000 37.536998748779 141 141 141
21.062500000000 26.000000000000 37.460998535156 135 135 135
21.062500000000 26.000000000000 37.383998870850 124 124 124
21.062500000000 26.000000000000 37.309001922607 135 135 135
21.062500000000 26.000000000000 37.231998443604 143 143 143
21.062500000000 26.000000000000 37.156002044678 108 108 108
21.062500000000 26.000000000000 37.080001831055 98 98 98
21.062500000000 26.000000000000 37.004001617432 100 100 100
21.062500000000 26.000000000000 36.927001953125 85 85 85
21.062500000000 26.000000000000 36.851001739502 84 84 84
21.062500000000 26.000000000000 36.775001525879 92 92 92
21.062500000000 26.000000000000 36.698001861572 71 71 71
21.062500000000 26.062500000000 36.619998931885 60 60 60
21.062500000000 26.000000000000 36.543998718262 50 50 50
21.062500000000 26.062500000000 36.465999603271 34 34 34
21.062500000000 26.062500000000 36.386001586914 20 20 20
21.250000000000 25.875000000000 35.199001312256 120 120 120
33.375000000000 14.875000000000 37.463001251221 12 12 12
32.937500000000 14.750000000000 38.497001647949 86 86 86
32.937500000000 14.750000000000 37.990001678467 20 20 20
33.000000000000 14.750000000000 37.924999237061 12 12 12
33.312500000000 14.750000000000 37.539001464844 35 35 35
33.250000000000 14.750000000000 37.458000183105 66 66 66
33.625000000000 14.750000000000 37.247001647949 80 80 80
33.437500000000 14.750000000000 37.166000366211 13 13 13
33.000000000000 14.687500000000 38.598999023438 97 97 97
33.062500000000 14.687500000000 38.531002044678 141 141 141
33.062500000000 14.687500000000 38.456001281738 141 141 141
33.062500000000 14.687500000000 38.381000518799 90 90 90
33.062500000000 14.687500000000 38.090000152588 68 68 68
33.062500000000 14.687500000000 38.013999938965 135 135 135
33.062500000000 14.687500000000 37.941001892090 134 134 134
33.062500000000 14.687500000000 37.868000030518 120 120 120
33.312500000000 14.687500000000 37.604000091553 91 91 91
33.312500000000 14.687500000000 37.529998779297 83 83 83
33.312500000000 14.687500000000 37.456001281738 99 99 99
33.312500000000 14.687500000000 37.381999969482 97 97 97
33.312500000000 14.687500000000 37.306999206543 109 109 109
33.312500000000 14.687500000000 37.230998992920 54 54 54
33.375000000000 14.687500000000 37.159999847412 94 94 94
33.187500000000 14.562500000000 38.488998413086 136 136 136
33.187500000000 14.562500000000 38.411998748779 142 142 142
33.187500000000 14.562500000000 38.335998535156 131 131 131
33.250000000000 14.562500000000 38.189998626709 86 86 86
33.250000000000 14.562500000000 38.112998962402 141 141 141
33.250000000000 14.562500000000 38.039001464844 132 132 132
33.250000000000 14.562500000000 37.962001800537 110 110 110
33.437500000000 14.562500000000 37.618000030518 89 89 89
33.437500000000 14.562500000000 37.541999816895 100 100 100
33.312500000000 14.562500000000 37.458999633789 73 73 73
33.312500000000 14.562500000000 37.383998870850 74 74 74
33.437500000000 14.562500000000 37.313999176025 111 111 111
33.437500000000 14.562500000000 37.237998962402 132 132 132
33.437500000000 14.562500000000 37.161998748779 83 83 83
33.437500000000 14.562500000000 37.085998535156 150 150 150
33.437500000000 14.562500000000 37.011001586914 137 137 137
33.312500000000 14.500000000000 38.438999176025 17 17 17
33.312500000000 14.437500000000 38.368000030518 137 137 137
33.312500000000 14.437500000000 38.291000366211 137 137 137
33.312500000000 14.500000000000 38.210998535156 133 133 133
33.312500000000 14.500000000000 38.139999389648 134 134 134
33.312500000000 14.500000000000 38.062999725342 87 87 87
33.562500000000 14.437500000000 37.631000518799 84 84 84
33.562500000000 14.437500000000 37.554000854492 84 84 84
33.562500000000 14.500000000000 37.476001739502 87 87 87
33.375000000000 14.500000000000 37.385002136230 125 125 125
33.375000000000 14.500000000000 37.309001922607 125 125 125
33.562500000000 14.437500000000 37.243000030518 107 107 107
33.500000000000 14.500000000000 37.163002014160 50 50 50
33.500000000000 14.500000000000 37.087001800537 67 67 67
33.562500000000 14.500000000000 37.011001586914 71 71 71
33.375000000000 14.375000000000 38.610000610352 125 125 125
33.375000000000 14.375000000000 38.531002044678 133 133 133
33.375000000000 14.375000000000 38.453998565674 137 137 137
33.375000000000 14.375000000000 38.375999450684 140 140 140
33.375000000000 14.375000000000 38.298000335693 141 141 141
33.375000000000 14.375000000000 38.222999572754 142 142 142
33.375000000000 14.375000000000 38.145000457764 148 148 148
33.375000000000 14.375000000000 38.068000793457 154 154 154
33.375000000000 14.375000000000 37.991001129150 150 150 150
33.375000000000 14.375000000000 37.915000915527 151 151 151
33.375000000000 14.375000000000 37.838001251221 153 153 153
33.375000000000 14.375000000000 37.763000488281 161 161 161
33.375000000000 14.375000000000 37.687999725342 162 162 162
33.375000000000 14.375000000000 37.611000061035 161 161 161
33.375000000000 14.375000000000 37.534999847412 166 166 166
33.437500000000 14.437500000000 37.459999084473 168 168 168
33.437500000000 14.437500000000 37.385002136230 177 177 177
33.437500000000 14.437500000000 37.309001922607 184 184 184
33.437500000000 14.437500000000 37.233001708984 193 193 193
33.437500000000 14.437500000000 37.158000946045 197 197 197
33.437500000000 14.375000000000 37.083000183105 241 241 241
33.437500000000 14.437500000000 37.006999969482 169 169 169
33.437500000000 14.437500000000 36.931999206543 198 198 198
33.437500000000 14.437500000000 36.856998443604 195 195 195
33.437500000000 14.437500000000 36.781002044678 194 194 194
33.437500000000 14.437500000000 36.705001831055 185 185 185
33.437500000000 14.437500000000 36.630001068115 185 185 185
33.437500000000 14.437500000000 36.554000854492 183 183 183
33.437500000000 14.437500000000 36.477001190186 182 182 182
33.437500000000 14.437500000000 36.401000976563 177 177 177
33.437500000000 14.437500000000 36.325000762939 174 174 174
33.437500000000 14.437500000000 36.248001098633 172 172 172
33.437500000000 14.437500000000 36.172000885010 173 173 173
33.437500000000 14.375000000000 36.094001770020 170 170 170
33.437500000000 14.437500000000 36.017002105713 171 171 171
33.437500000000 14.437500000000 35.938999176025 170 170 170
33.437500000000 14.375000000000 35.861000061035 170 170 170
33.437500000000 14.375000000000 35.783000946045 171 171 171
33.437500000000 14.437500000000 35.705001831055 168 168 168
33.437500000000 14.375000000000 35.625000000000 168 168 168
33.437500000000 14.375000000000 35.546001434326 164 164 164
33.437500000000 14.375000000000 35.465999603271 163 163 163
33.437500000000 14.437500000000 35.387001037598 165 165 165
33.437500000000 14.437500000000 35.306999206543 163 163 163
33.437500000000 14.437500000000 35.223999023438 160 160 160
33.375000000000 14.312500000000 38.606998443604 105 105 105
33.375000000000 14.312500000000 38.527000427246 110 110 110
33.375000000000 14.312500000000 38.446998596191 111 111 111
33.375000000000 14.312500000000 38.372001647949 125 125 125
33.375000000000 14.312500000000 38.291000366211 121 121 121
33.375000000000 14.312500000000 38.214000701904 127 127 127
33.375000000000 14.312500000000 38.136001586914 124 124 124
33.375000000000 14.312500000000 38.060001373291 132 132 132
33.375000000000 14.312500000000 37.983001708984 127 127 127
33.375000000000 14.312500000000 37.906002044678 129 129 129
33.375000000000 14.312500000000 37.831001281738 133 133 133
33.375000000000 14.312500000000 37.756999969482 134 134 134
33.375000000000 14.312500000000 37.680000305176 134 134 134
33.375000000000 14.312500000000 37.604999542236 140 140 140
33.375000000000 14.312500000000 37.529998779297 145 145 145
33.375000000000 14.312500000000 37.453998565674 145 145 145
33.375000000000 14.312500000000 37.379001617432 152 152 152
33.375000000000 14.312500000000 37.305000305176 156 156 156
33.375000000000 14.312500000000 37.229000091553 158 158 158
33.375000000000 14.312500000000 37.154998779297 161 161 161
33.375000000000 14.312500000000 37.080001831055 166 166 166
33.375000000000 14.312500000000 37.005001068115 167 167 167
33.375000000000 14.312500000000 36.930000305176 165 165 165
33.375000000000 14.312500000000 36.855998992920 166 166 166
33.375000000000 14.312500000000 36.781002044678 165 165 165
33.375000000000 14.312500000000 36.706001281738 163 163 163
33.375000000000 14.312500000000 36.631000518799 162 162 162
33.375000000000 14.312500000000 36.555999755859 160 160 160
33.375000000000 14.312500000000 36.480998992920 158 158 158
33.375000000000 14.312500000000 36.404998779297 161 161 161
33.375000000000 14.312500000000 36.330001831055 161 161 161
33.375000000000 14.312500000000 36.253002166748 161 161 161
33.375000000000 14.312500000000 36.178001403809 160 160 160
33.375000000000 14.312500000000 36.099998474121 162 162 162
33.375000000000 14.312500000000 36.025001525879 161 161 161
33.375000000000 14.312500000000 35.948001861572 161 161 161
33.375000000000 14.312500000000 35.872001647949 161 161 161
33.375000000000 14.312500000000 35.795001983643 160 160 160
33.375000000000 14.312500000000 35.715999603271 161 161 161
33.375000000000 14.312500000000 35.637001037598 163 163 163
33.375000000000 14.312500000000 35.556999206543 158 158 158
33.375000000000 14.312500000000 35.478000640869 159 159 159
33.375000000000 14.312500000000 35.400001525879 157 157 157
33.375000000000 14.312500000000 35.319000244141 155 155 155
33.375000000000 14.312500000000 35.238998413086 156 156 156
33.375000000000 14.312500000000 35.157001495361 154 154 154
33.812500000000 14.187500000000 38.643001556396 19 19 19
33.812500000000 14.187500000000 38.555999755859 110 110 110
33.812500000000 14.187500000000 38.472999572754 119 119 119
33.812500000000 14.187500000000 38.382999420166 63 63 63
33.750000000000 14.187500000000 38.129001617432 112 112 112
33.750000000000 14.187500000000 38.048999786377 132 132 132
33.750000000000 14.187500000000 37.967998504639 130 130 130
33.937500000000 14.125000000000 38.506999969482 29 29 29
33.875000000000 14.125000000000 38.067001342773 16 16 16
33.875000000000 14.125000000000 37.991001129150 132 132 132
33.875000000000 14.125000000000 37.906002044678 160 160 160
32.937500000000 14.750000000000 37.979000091553 87 87 87
32.937500000000 14.750000000000 38.466999053955 41 41 41
33.000000000000 14.687500000000 37.821998596191 57 57 57
33.000000000000 14.687500000000 37.904998779297 163 163 163
33.000000000000 14.687500000000 37.986000061035 196 196 196
33.000000000000 14.687500000000 38.481998443604 168 168 168
33.000000000000 14.687500000000 38.568000793457 181 181 181
33.000000000000 14.687500000000 38.652999877930 126 126 126
33.062500000000 14.687500000000 37.914001464844 181 181 181
33.062500000000 14.687500000000 37.997001647949 180 180 180
33.062500000000 14.687500000000 38.081001281738 166 166 166
33.062500000000 14.687500000000 38.414001464844 168 168 168
33.062500000000 14.687500000000 38.500000000000 179 179 179
33.062500000000 14.687500000000 38.584999084473 175 175 175
33.312500000000 14.687500000000 37.340999603271 94 94 94
33.312500000000 14.687500000000 37.425998687744 85 85 85
33.312500000000 14.687500000000 37.510002136230 88 88 88
33.312500000000 14.687500000000 37.595001220703 59 59 59
33.187500000000 14.625000000000 37.921001434326 155 155 155
33.187500000000 14.625000000000 38.006000518799 186 186 186
33.187500000000 14.625000000000 38.090000152588 177 177 177
33.187500000000 14.625000000000 38.344001770020 124 124 124
33.187500000000 14.625000000000 38.430000305176 187 187 187
33.187500000000 14.625000000000 38.514999389648 179 179 179
33.312500000000 14.687500000000 37.171001434326 62 62 62
33.312500000000 14.625000000000 37.256000518799 18 18 18
33.312500000000 14.687500000000 37.342998504639 99 99 99
33.312500000000 14.687500000000 37.428001403809 97 97 97
33.312500000000 14.687500000000 37.514999389648 86 86 86
33.312500000000 14.687500000000 37.601001739502 84 84 84
33.250000000000 14.562500000000 38.017002105713 176 176 176
33.250000000000 14.562500000000 38.102001190186 165 165 165
33.250000000000 14.562500000000 38.188999176025 164 164 164
33.250000000000 14.562500000000 38.272998809814 19 19 19
33.250000000000 14.562500000000 38.356998443604 174 174 174
33.250000000000 14.562500000000 38.444999694824 178 178 178
33.250000000000 14.562500000000 38.528999328613 117 117 117
33.375000000000 14.625000000000 37.084999084473 115 115 115
33.312500000000 14.562500000000 37.172000885010 20 20 20
33.375000000000 14.625000000000 37.258998870850 95 95 95
33.375000000000 14.625000000000 37.345001220703 142 142 142
33.312500000000 14.562500000000 37.430000305176 74 74 74
33.312500000000 14.562500000000 37.517002105713 78 78 78
33.375000000000 14.625000000000 37.605998992920 97 97 97
33.312500000000 14.562500000000 38.025001525879 145 145 145
33.312500000000 14.562500000000 38.113998413086 174 174 174
33.312500000000 14.562500000000 38.200000762939 172 172 172
33.312500000000 14.562500000000 38.284999847412 164 164 164
33.312500000000 14.562500000000 38.372001647949 168 168 168
33.312500000000 14.562500000000 38.462001800537 174 174 174
33.375000000000 14.562500000000 36.996002197266 84 84 84
33.437500000000 14.562500000000 37.082000732422 100 100 100
33.437500000000 14.562500000000 37.170001983643 138 138 138
33.437500000000 14.562500000000 37.257999420166 126 126 126
33.437500000000 14.562500000000 37.345001220703 90 90 90
33.437500000000 14.562500000000 37.432998657227 96 96 96
33.437500000000 14.562500000000 37.521999359131 85 85 85
33.437500000000 14.562500000000 37.610000610352 82 82 82
33.312500000000 14.500000000000 38.124000549316 170 170 170
33.312500000000 14.500000000000 38.208000183105 153 153 153
33.312500000000 14.500000000000 38.298000335693 176 176 176
33.312500000000 14.500000000000 38.383998870850 167 167 167
33.312500000000 14.437500000000 36.298000335693 23 23 23
33.437500000000 14.437500000000 36.385002136230 51 51 51
33.437500000000 14.437500000000 36.472999572754 73 73 73
33.437500000000 14.437500000000 36.561000823975 83 83 83
33.375000000000 14.437500000000 36.649002075195 92 92 92
33.437500000000 14.437500000000 36.735000610352 109 109 109
33.375000000000 14.437500000000 36.823001861572 111 111 111
33.375000000000 14.437500000000 36.909999847412 115 115 115
33.437500000000 14.437500000000 36.996002197266 136 136 136
33.437500000000 14.437500000000 37.083000183105 147 147 147
33.437500000000 14.437500000000 37.170001983643 161 161 161
33.437500000000 14.437500000000 37.256999969482 189 189 189
33.437500000000 14.437500000000 37.345001220703 177 177 177
33.437500000000 14.437500000000 37.430999755859 165 165 165
33.437500000000 14.437500000000 37.519001007080 166 166 166
33.437500000000 14.437500000000 37.605998992920 163 163 163
33.437500000000 14.437500000000 37.693000793457 164 164 164
33.375000000000 14.437500000000 37.778999328613 159 159 159
33.375000000000 14.437500000000 37.867000579834 155 155 155
33.375000000000 14.437500000000 37.952999114990 148 148 148
33.375000000000 14.437500000000 38.041000366211 148 148 148
33.375000000000 14.437500000000 38.130001068115 152 152 152
33.375000000000 14.437500000000 38.217998504639 155 155 155
33.375000000000 14.437500000000 38.304000854492 150 150 150
33.375000000000 14.437500000000 38.392002105713 145 145 145
33.375000000000 14.437500000000 38.479000091553 134 134 134
33.375000000000 14.437500000000 38.569000244141 134 134 134
33.375000000000 14.375000000000 38.652000427246 85 85 85
33.437500000000 14.375000000000 35.111999511719 132 132 132
33.437500000000 14.375000000000 35.200000762939 131 131 131
33.437500000000 14.375000000000 35.304000854492 120 120 120
33.437500000000 14.375000000000 35.395999908447 122 122 122
33.375000000000 14.375000000000 35.488998413086 125 125 125
33.375000000000 14.375000000000 35.583000183105 116 116 116
33.375000000000 14.375000000000 35.675998687744 114 114 114
33.375000000000 14.375000000000 35.767002105713 116 116 116
33.375000000000 14.375000000000 35.858001708984 115 115 115
33.375000000000 14.312500000000 35.948001861572 129 129 129
33.375000000000 14.375000000000 36.034999847412 127 127 127
33.375000000000 14.312500000000 36.125999450684 130 130 130
33.375000000000 14.312500000000 36.214000701904 132 132 132
33.375000000000 14.312500000000 36.300998687744 139 139 139
33.375000000000 14.312500000000 36.388999938965 143 143 143
33.375000000000 14.312500000000 36.476001739502 145 145 145
33.375000000000 14.312500000000 36.562999725342 162 162 162
33.375000000000 14.312500000000 36.650001525879 169 169 169
33.375000000000 14.312500000000 36.736999511719 175 175 175
33.375000000000 14.312500000000 36.824001312256 186 186 186
33.375000000000 14.312500000000 36.909999847412 189 189 189
33.375000000000 14.312500000000 36.997001647949 196 196 196
33.375000000000 14.312500000000 37.083000183105 198 198 198
33.375000000000 14.312500000000 37.170001983643 205 205 205
33.375000000000 14.312500000000 37.256000518799 224 224 224
33.375000000000 14.312500000000 37.341999053955 209 209 209
33.375000000000 14.312500000000 37.428001403809 202 202 202
33.375000000000 14.312500000000 37.514999389648 197 197 197
33.375000000000 14.312500000000 37.601001739502 198 198 198
33.375000000000 14.312500000000 37.687999725342 193 193 193
