26.750000000000 40.250000000000 42.256000518799 105 105 105
26.812500000000 40.312500000000 41.986000061035 117 117 117
26.875000000000 40.312500000000 41.978000640869 63 63 63
26.437500000000 39.937500000000 42.302001953125 83 83 83
26.750000000000 40.187500000000 41.257999420166 128 128 128
26.875000000000 40.250000000000 42.332000732422 108 108 108
26.937500000000 40.250000000000 42.267002105713 93 93 93
26.937500000000 40.312500000000 41.926002502441 113 113 113
27.000000000000 40.312500000000 41.901000976563 93 93 93
26.437500000000 39.937500000000 41.076000213623 60 60 60
26.375000000000 39.875000000000 42.289001464844 72 72 72
26.937500000000 40.187500000000 41.277000427246 107 107 107
27.000000000000 40.250000000000 41.277999877930 81 81 81
26.437500000000 39.812500000000 41.051002502441 118 118 118
26.375000000000 39.812500000000 42.302001953125 66 66 66
26.437500000000 39.750000000000 41.049999237061 150 150 150
26.375000000000 39.687500000000 42.291999816895 50 50 50
26.437500000000 39.625000000000 41.053001403809 126 126 126
26.437500000000 39.625000000000 42.282001495361 37 37 37
26.437500000000 39.562500000000 41.056999206543 176 176 176
26.375000000000 39.500000000000 41.042999267578 48 48 48
26.437500000000 39.500000000000 42.284000396729 37 37 37
26.437500000000 39.562500000000 41.053001403809 27 27 27
26.437500000000 39.562500000000 42.285999298096 84 84 84
26.437500000000 39.687500000000 41.053001403809 31 31 31
26.437500000000 39.625000000000 42.276000976563 107 107 107
26.375000000000 39.687500000000 41.054000854492 53 53 53
26.375000000000 39.687500000000 42.283000946045 84 84 84
26.375000000000 39.812500000000 41.051002502441 64 64 64
26.437500000000 39.750000000000 42.287002563477 48 48 48
26.437500000000 39.875000000000 41.041999816895 153 153 153
26.437500000000 39.937500000000 41.049999237061 218 218 218
26.375000000000 40.000000000000 41.045001983643 255 255 255
26.375000000000 40.062500000000 41.054000854492 255 255 255
25.250000000000 40.125000000000 41.177001953125 123 123 123
25.312500000000 40.125000000000 41.186000823975 113 113 113
25.375000000000 40.125000000000 41.194999694824 111 111 111
25.437500000000 40.125000000000 41.188999176025 104 104 104
25.500000000000 40.125000000000 41.195999145508 100 100 100
25.562500000000 40.125000000000 41.135002136230 104 104 104
25.562500000000 40.125000000000 41.180000305176 124 124 124
25.625000000000 40.125000000000 41.201999664307 77 77 77
25.687500000000 40.125000000000 41.187000274658 71 71 71
25.687500000000 40.125000000000 41.206001281738 60 60 60
25.750000000000 40.125000000000 41.231998443604 44 44 44
26.437500000000 40.187500000000 41.062000274658 235 235 235
26.437500000000 40.187500000000 41.057998657227 244 244 244
26.437500000000 40.187500000000 41.163002014160 138 138 138
26.562500000000 40.187500000000 41.240001678467 106 106 106
26.625000000000 40.187500000000 41.249000549316 129 129 129
26.625000000000 40.187500000000 42.240001678467 77 77 77
26.687500000000 40.187500000000 42.250999450684 88 88 88
26.750000000000 40.187500000000 42.249000549316 92 92 92
26.812500000000 40.187500000000 42.257999420166 99 99 99
26.875000000000 40.187500000000 42.260002136230 104 104 104
26.937500000000 40.187500000000 42.258998870850 109 109 109
27.000000000000 40.187500000000 42.273002624512 114 114 114
27.062500000000 40.187500000000 42.267002105713 116 116 116
27.125000000000 40.187500000000 42.315998077393 118 118 118
26.187500000000 40.250000000000 42.214000701904 99 99 99
26.250000000000 40.250000000000 42.189998626709 102 102 102
26.375000000000 40.312500000000 41.093997955322 255 255 255
26.375000000000 40.312500000000 42.119998931885 120 120 120
26.437500000000 40.312500000000 42.108001708984 107 107 107
26.562500000000 40.250000000000 42.076000213623 110 110 110
26.562500000000 40.250000000000 42.059001922607 118 118 118
26.625000000000 40.250000000000 42.039001464844 120 120 120
26.687500000000 40.250000000000 42.013000488281 117 117 117
26.750000000000 40.250000000000 41.993000030518 116 116 116
26.812500000000 40.250000000000 41.960998535156 123 123 123
26.875000000000 40.250000000000 41.942001342773 118 118 118
26.937500000000 40.312500000000 41.927001953125 123 123 123
27.000000000000 40.312500000000 41.910999298096 111 111 111
27.062500000000 40.312500000000 41.881999969482 106 106 106
27.062500000000 40.250000000000 41.860000610352 106 106 106
26.375000000000 40.312500000000 41.061000823975 226 226 226
26.375000000000 40.312500000000 42.136001586914 111 111 111
26.437500000000 40.437500000000 41.053001403809 199 199 199
26.437500000000 40.500000000000 41.059001922607 144 144 144
26.375000000000 40.562500000000 41.062000274658 120 120 120
26.437500000000 40.562500000000 42.292999267578 87 87 87
26.437500000000 40.687500000000 41.054000854492 90 90 90
26.437500000000 40.687500000000 42.292999267578 71 71 71
26.437500000000 40.750000000000 41.062000274658 84 84 84
26.437500000000 40.750000000000 42.287002563477 97 97 97
26.437500000000 39.562500000000 41.051002502441 169 169 169
26.437500000000 39.562500000000 42.267002105713 73 73 73
26.437500000000 39.625000000000 41.053001403809 179 179 179
26.437500000000 39.625000000000 42.278999328613 85 85 85
26.437500000000 39.687500000000 41.040000915527 156 156 156
26.437500000000 39.687500000000 42.273002624512 82 82 82
26.375000000000 39.750000000000 41.042999267578 168 168 168
26.375000000000 39.750000000000 42.275001525879 68 68 68
26.437500000000 39.812500000000 41.052001953125 176 176 176
26.437500000000 39.812500000000 42.292999267578 60 60 60
26.437500000000 39.875000000000 41.049999237061 152 152 152
26.437500000000 39.875000000000 42.298999786377 35 35 35
27.062500000000 40.250000000000 42.263000488281 44 44 44
26.437500000000 39.937500000000 41.056999206543 161 161 161
26.812500000000 40.187500000000 41.255001068115 46 46 46
26.875000000000 40.187500000000 41.264999389648 135 135 135
27.000000000000 40.312500000000 42.253002166748 60 60 60
27.000000000000 40.312500000000 41.881000518799 68 68 68
26.375000000000 40.000000000000 41.056999206543 163 163 163
26.750000000000 40.187500000000 41.256999969482 67 67 67
26.750000000000 40.187500000000 41.251998901367 130 130 130
26.812500000000 40.250000000000 42.258998870850 141 141 141
26.875000000000 40.312500000000 41.981998443604 61 61 61
26.937500000000 40.312500000000 41.923000335693 140 140 140
26.375000000000 40.062500000000 41.044002532959 154 154 154
26.625000000000 40.187500000000 41.231998443604 105 105 105
26.625000000000 40.187500000000 41.250999450684 109 109 109
26.687500000000 40.250000000000 42.238998413086 73 73 73
26.750000000000 40.250000000000 42.246002197266 127 127 127
26.812500000000 40.312500000000 41.985000610352 104 104 104
26.875000000000 40.312500000000 41.954998016357 102 102 102
26.437500000000 40.187500000000 41.062999725342 163 163 163
26.375000000000 40.125000000000 42.298999786377 46 46 46
26.500000000000 40.187500000000 41.237998962402 109 109 109
26.562500000000 40.187500000000 41.238998413086 95 95 95
26.562500000000 40.250000000000 41.182998657227 46 46 46
26.625000000000 40.250000000000 42.249000549316 119 119 119
26.625000000000 40.250000000000 42.215000152588 100 100 100
26.687500000000 40.312500000000 42.008998870850 127 127 127
26.687500000000 40.312500000000 42.027000427246 33 33 33
26.375000000000 40.187500000000 41.159999847412 118 118 118
26.437500000000 40.250000000000 41.059001922607 180 180 180
26.375000000000 40.187500000000 42.276000976563 99 99 99
26.500000000000 40.250000000000 42.222000122070 133 133 133
26.562500000000 40.312500000000 42.126998901367 89 89 89
26.562500000000 40.312500000000 42.044002532959 113 113 113
26.250000000000 40.187500000000 41.146999359131 120 120 120
26.312500000000 40.250000000000 41.250999450684 60 60 60
26.375000000000 40.312500000000 41.055000305176 180 180 180
26.375000000000 40.312500000000 42.196998596191 129 129 129
26.437500000000 40.312500000000 42.112998962402 103 103 103
26.437500000000 40.312500000000 42.098999023438 97 97 97
26.125000000000 40.187500000000 41.141002655029 118 118 118
26.125000000000 40.187500000000 41.230998992920 37 37 37
26.187500000000 40.250000000000 42.223999023438 106 106 106
26.250000000000 40.312500000000 42.221000671387 104 104 104
26.375000000000 40.375000000000 41.065998077393 175 175 175
26.375000000000 40.312500000000 42.116001129150 106 106 106
25.937500000000 40.187500000000 41.193000793457 46 46 46
26.000000000000 40.187500000000 41.158000946045 113 113 113
26.125000000000 40.312500000000 42.213001251221 119 119 119
26.187500000000 40.312500000000 42.214000701904 85 85 85
26.250000000000 40.312500000000 42.178001403809 124 124 124
26.437500000000 40.437500000000 41.064998626709 167 167 167
25.812500000000 40.187500000000 41.146999359131 59 59 59
25.875000000000 40.187500000000 41.159000396729 110 110 110
26.437500000000 40.500000000000 41.055000305176 156 156 156
25.687500000000 40.187500000000 41.119998931885 80 80 80
25.750000000000 40.187500000000 41.173999786377 110 110 110
26.375000000000 40.562500000000 41.056999206543 144 144 144
26.375000000000 40.562500000000 42.311000823975 29 29 29
25.562500000000 40.187500000000 41.122001647949 127 127 127
25.625000000000 40.187500000000 41.186000823975 117 117 117
26.375000000000 40.625000000000 41.059001922607 125 125 125
26.437500000000 40.625000000000 42.302001953125 49 49 49
25.437500000000 40.125000000000 41.208000183105 34 34 34
25.500000000000 40.187500000000 41.200000762939 140 140 140
26.437500000000 40.687500000000 41.060001373291 180 180 180
26.437500000000 40.687500000000 42.298000335693 79 79 79
25.375000000000 40.187500000000 41.194000244141 135 135 135
25.375000000000 40.187500000000 41.203998565674 44 44 44
25.250000000000 40.187500000000 41.189998626709 65 65 65
26.437500000000 39.500000000000 42.283000946045 92 92 92
26.375000000000 39.500000000000 41.059001922607 148 148 148
25.312500000000 40.187500000000 41.194999694824 131 131 131
26.437500000000 39.562500000000 42.271999359131 91 91 91
26.437500000000 39.562500000000 41.049999237061 149 149 149
25.437500000000 40.125000000000 41.207000732422 121 121 121
25.375000000000 40.187500000000 41.199001312256 64 64 64
26.437500000000 39.625000000000 42.285999298096 86 86 86
26.437500000000 39.687500000000 41.056999206543 150 150 150
25.562500000000 40.125000000000 41.184001922607 113 113 113
25.500000000000 40.125000000000 41.145999908447 117 117 117
26.375000000000 39.687500000000 42.287002563477 60 60 60
26.375000000000 39.687500000000 41.055999755859 155 155 155
25.625000000000 40.187500000000 41.209999084473 144 144 144
25.625000000000 40.187500000000 41.122001647949 95 95 95
26.437500000000 39.750000000000 42.285999298096 30 30 30
26.375000000000 39.812500000000 41.053001403809 153 153 153
25.750000000000 40.187500000000 41.224998474121 133 133 133
25.750000000000 40.187500000000 41.132999420166 119 119 119
26.437500000000 39.875000000000 41.061000823975 156 156 156
25.937500000000 40.187500000000 41.216999053955 89 89 89
25.875000000000 40.187500000000 41.185001373291 162 162 162
26.437500000000 39.937500000000 41.061000823975 161 161 161
26.062500000000 40.125000000000 41.236999511719 84 84 84
25.937500000000 40.187500000000 41.187999725342 141 141 141
26.375000000000 40.000000000000 41.062999725342 170 170 170
26.187500000000 40.187500000000 41.237998962402 67 67 67
26.125000000000 40.187500000000 41.209999084473 141 141 141
26.062500000000 40.187500000000 41.125000000000 59 59 59
26.375000000000 40.062500000000 41.060001373291 154 154 154
26.250000000000 40.187500000000 41.222999572754 144 144 144
26.250000000000 40.187500000000 41.116001129150 91 91 91
26.375000000000 40.187500000000 42.288002014160 123 123 123
26.437500000000 40.187500000000 41.061000823975 150 150 150
26.375000000000 40.187500000000 41.238998413086 143 143 143
26.375000000000 40.187500000000 41.133998870850 140 140 140
26.125000000000 40.250000000000 42.221000671387 85 85 85
26.500000000000 40.187500000000 41.241001129150 141 141 141
26.375000000000 40.187500000000 42.277000427246 117 117 117
26.437500000000 40.187500000000 41.070999145508 166 166 166
26.250000000000 40.312500000000 42.180999755859 126 126 126
26.187500000000 40.312500000000 42.187999725342 79 79 79
26.625000000000 40.187500000000 41.235000610352 114 114 114
26.562500000000 40.187500000000 41.248001098633 131 131 131
26.500000000000 40.250000000000 42.266002655029 105 105 105
26.437500000000 40.250000000000 42.128002166748 77 77 77
26.375000000000 40.312500000000 42.122001647949 130 130 130
26.375000000000 40.312500000000 41.069000244141 158 158 158
26.687500000000 40.187500000000 41.258998870850 125 125 125
26.687500000000 40.187500000000 41.277000427246 98 98 98
26.625000000000 40.187500000000 42.256000518799 137 137 137
26.625000000000 40.250000000000 42.190998077393 71 71 71
26.562500000000 40.250000000000 42.075000762939 124 124 124
26.437500000000 40.312500000000 42.100997924805 60 60 60
26.375000000000 40.312500000000 41.052001953125 151 151 151
26.812500000000 40.187500000000 41.253002166748 95 95 95
26.812500000000 40.187500000000 41.257999420166 96 96 96
26.750000000000 40.187500000000 42.250999450684 102 102 102
26.750000000000 40.187500000000 42.250000000000 124 124 124
26.687500000000 40.250000000000 42.012001037598 107 107 107
26.687500000000 40.312500000000 42.031002044678 108 108 108
26.437500000000 40.437500000000 41.064998626709 164 164 164
26.875000000000 40.187500000000 42.271999359131 133 133 133
26.812500000000 40.250000000000 42.023002624512 99 99 99
26.812500000000 40.250000000000 41.977001190186 128 128 128
26.437500000000 40.500000000000 41.062000274658 177 177 177
26.937500000000 40.187500000000 41.250999450684 92 92 92
27.000000000000 40.250000000000 42.046001434326 96 96 96
26.937500000000 40.250000000000 41.934001922607 136 136 136
26.875000000000 40.312500000000 41.964000701904 25 25 25
26.375000000000 40.562500000000 41.060001373291 178 178 178
27.000000000000 40.187500000000 42.267002105713 69 69 69
26.437500000000 40.562500000000 42.306999206543 33 33 33
26.375000000000 40.625000000000 41.054000854492 201 201 201
26.437500000000 40.687500000000 42.291000366211 86 86 86
26.437500000000 40.687500000000 41.062999725342 131 131 131
26.437500000000 40.750000000000 42.289001464844 99 99 99
26.437500000000 40.750000000000 41.068000793457 133 133 133
26.625000000000 40.187500000000 41.242000579834 92 92 92
26.562500000000 40.250000000000 42.062999725342 80 80 80
26.562500000000 40.250000000000 42.235000610352 95 95 95
26.687500000000 40.187500000000 41.290000915527 166 166 166
26.750000000000 40.187500000000 41.250999450684 116 116 116
26.687500000000 40.312500000000 42.027000427246 134 134 134
26.687500000000 40.250000000000 42.020999908447 76 76 76
26.750000000000 40.250000000000 42.247001647949 137 137 137
26.812500000000 40.187500000000 41.277000427246 150 150 150
26.812500000000 40.187500000000 41.256000518799 107 107 107
26.750000000000 40.312500000000 41.986999511719 86 86 86
26.812500000000 40.312500000000 41.961997985840 121 121 121
26.812500000000 40.250000000000 42.207000732422 106 106 106
26.875000000000 40.187500000000 42.263999938965 135 135 135
26.937500000000 40.187500000000 41.264999389648 130 130 130
26.937500000000 40.187500000000 41.261001586914 69 69 69
26.875000000000 40.312500000000 41.927001953125 114 114 114
26.937500000000 40.250000000000 41.907001495361 121 121 121
27.000000000000 40.250000000000 42.257999420166 139 139 139
27.000000000000 40.187500000000 42.256999969482 81 81 81
27.062500000000 40.187500000000 41.276000976563 137 137 137
27.062500000000 40.187500000000 41.270999908447 45 45 45
27.000000000000 40.312500000000 41.869998931885 130 130 130
27.062500000000 40.250000000000 41.906002044678 129 129 129
27.125000000000 40.187500000000 42.268001556396 140 140 140
27.125000000000 40.187500000000 41.270999908447 141 141 141
27.125000000000 40.312500000000 41.859001159668 28 28 28
27.125000000000 40.250000000000 41.817001342773 131 131 131
27.187500000000 40.250000000000 41.910999298096 134 134 134
27.250000000000 40.187500000000 42.278999328613 82 82 82
27.250000000000 40.187500000000 41.274002075195 139 139 139
27.250000000000 40.312500000000 41.787002563477 48 48 48
27.312500000000 40.250000000000 41.771999359131 141 141 141
27.312500000000 40.250000000000 41.834999084473 125 125 125
27.375000000000 40.250000000000 41.283000946045 66 66 66
27.375000000000 40.187500000000 41.273002624512 126 126 126
27.375000000000 40.312500000000 41.741001129150 41 41 41
27.437500000000 40.250000000000 41.718997955322 145 145 145
27.437500000000 40.250000000000 41.684001922607 80 80 80
27.437500000000 40.250000000000 41.285999298096 102 102 102
27.500000000000 40.187500000000 41.289001464844 100 100 100
27.437500000000 40.250000000000 41.835998535156 91 91 91
27.500000000000 40.250000000000 41.666000366211 137 137 137
27.562500000000 40.250000000000 41.641002655029 87 87 87
27.562500000000 40.187500000000 41.285999298096 123 123 123
27.625000000000 40.187500000000 41.284999847412 61 61 61
27.750000000000 40.187500000000 42.374000549316 123 123 123
27.562500000000 40.250000000000 41.618000030518 134 134 134
27.687500000000 40.187500000000 41.602001190186 103 103 103
27.687500000000 40.187500000000 41.299999237061 130 130 130
27.812500000000 40.187500000000 42.321998596191 111 111 111
27.875000000000 40.187500000000 42.375000000000 104 104 104
27.750000000000 40.250000000000 41.567001342773 127 127 127
27.812500000000 40.187500000000 41.541000366211 110 110 110
27.812500000000 40.250000000000 41.304000854492 78 78 78
27.812500000000 40.187500000000 41.284000396729 106 106 106
27.937500000000 40.187500000000 42.334999084473 77 77 77
27.937500000000 40.187500000000 42.328998565674 137 137 137
27.875000000000 40.250000000000 41.525001525879 130 130 130
27.937500000000 40.187500000000 41.500999450684 122 122 122
27.937500000000 40.250000000000 41.298000335693 130 130 130
27.937500000000 40.187500000000 41.297000885010 31 31 31
28.062500000000 40.187500000000 42.336997985840 138 138 138
28.125000000000 40.187500000000 42.342998504639 43 43 43
28.000000000000 40.250000000000 41.479999542236 119 119 119
28.062500000000 40.250000000000 41.416999816895 134 134 134
28.062500000000 40.187500000000 41.302001953125 126 126 126
28.187500000000 40.187500000000 42.346000671387 136 136 136
28.250000000000 40.187500000000 42.341999053955 92 92 92
28.125000000000 40.250000000000 41.409000396729 103 103 103
28.125000000000 40.250000000000 41.332000732422 145 145 145
28.187500000000 40.187500000000 41.298999786377 88 88 88
28.312500000000 40.187500000000 42.361000061035 107 107 107
28.312500000000 40.125000000000 42.347000122070 123 123 123
28.187500000000 40.312500000000 41.317001342773 84 84 84
28.250000000000 40.250000000000 41.321998596191 106 106 106
28.312500000000 40.187500000000 41.324001312256 121 121 121
28.312500000000 40.187500000000 41.333999633789 79 79 79
28.437500000000 40.187500000000 42.369998931885 81 81 81
28.437500000000 40.187500000000 42.361000061035 130 130 130
28.375000000000 40.187500000000 41.336997985840 81 81 81
28.437500000000 40.187500000000 41.312000274658 142 142 142
28.437500000000 40.187500000000 41.288002014160 86 86 86
28.562500000000 40.187500000000 42.400001525879 49 49 49
28.625000000000 40.187500000000 42.372001647949 146 146 146
28.500000000000 40.187500000000 41.298999786377 67 67 67
28.562500000000 40.187500000000 41.267002105713 142 142 142
28.562500000000 40.187500000000 41.243999481201 104 104 104
28.687500000000 40.187500000000 42.407001495361 34 34 34
28.750000000000 40.187500000000 42.381999969482 141 141 141
28.625000000000 40.187500000000 41.243999481201 57 57 57
28.687500000000 40.187500000000 41.216999053955 146 146 146
28.750000000000 40.187500000000 41.194999694824 116 116 116
28.812500000000 40.187500000000 42.395000457764 31 31 31
28.875000000000 40.187500000000 42.393001556396 137 137 137
28.812500000000 40.250000000000 41.197998046875 52 52 52
28.875000000000 40.187500000000 41.170001983643 142 142 142
28.875000000000 40.187500000000 41.145000457764 113 113 113
29.000000000000 40.187500000000 42.402000427246 149 149 149
28.937500000000 40.187500000000 41.142002105713 41 41 41
29.000000000000 40.187500000000 41.118000030518 137 137 137
29.000000000000 40.187500000000 41.092998504639 119 119 119
29.062500000000 40.187500000000 42.422000885010 45 45 45
29.125000000000 40.187500000000 42.410999298096 125 125 125
29.187500000000 40.125000000000 42.402000427246 17 17 17
29.062500000000 40.187500000000 41.090000152588 49 49 49
29.125000000000 40.187500000000 41.070999145508 139 139 139
29.125000000000 40.187500000000 41.031002044678 105 105 105
29.187500000000 40.125000000000 41.020999908447 41 41 41
29.187500000000 40.187500000000 42.416000366211 95 95 95
29.250000000000 40.125000000000 42.415000915527 119 119 119
29.312500000000 40.125000000000 42.417999267578 72 72 72
29.187500000000 40.187500000000 41.032001495361 111 111 111
29.250000000000 40.187500000000 41.010002136230 152 152 152
29.250000000000 40.187500000000 40.986999511719 127 127 127
29.312500000000 40.125000000000 40.966999053955 82 82 82
29.375000000000 40.125000000000 40.935001373291 36 36 36
30.312500000000 39.500000000000 42.238998413086 101 101 101
29.312500000000 40.187500000000 42.420001983643 97 97 97
29.375000000000 40.125000000000 42.399002075195 112 112 112
29.437500000000 40.062500000000 42.416999816895 80 80 80
29.312500000000 40.187500000000 40.987998962402 98 98 98
29.375000000000 40.187500000000 40.937999725342 137 137 137
29.375000000000 40.187500000000 40.908000946045 120 120 120
29.437500000000 40.125000000000 40.891002655029 112 112 112
29.562500000000 40.062500000000 40.895999908447 70 70 70
29.375000000000 40.250000000000 42.464000701904 22 22 22
29.375000000000 40.187500000000 42.434001922607 110 110 110
29.437500000000 40.187500000000 42.420001983643 132 132 132
29.500000000000 40.125000000000 42.421001434326 111 111 111
29.625000000000 40.062500000000 42.421001434326 76 76 76
29.437500000000 40.187500000000 40.938999176025 121 121 121
29.437500000000 40.187500000000 40.901000976563 123 123 123
29.500000000000 40.187500000000 40.888999938965 127 127 127
29.562500000000 40.125000000000 40.875999450684 117 117 117
29.562500000000 40.125000000000 40.818000793457 65 65 65
29.500000000000 40.187500000000 42.459999084473 21 21 21
29.562500000000 40.187500000000 42.430999755859 106 106 106
29.562500000000 40.125000000000 42.412002563477 122 122 122
29.750000000000 40.062500000000 42.453998565674 47 47 47
30.125000000000 39.812500000000 43.111000061035 14 14 14
30.250000000000 39.750000000000 42.236999511719 81 81 81
29.562500000000 40.250000000000 40.916999816895 88 88 88
29.562500000000 40.187500000000 40.895000457764 100 100 100
29.625000000000 40.187500000000 40.854000091553 146 146 146
29.687500000000 40.125000000000 40.859001159668 138 138 138
29.750000000000 40.125000000000 40.802001953125 83 83 83
29.625000000000 40.187500000000 42.451000213623 55 55 55
29.687500000000 40.187500000000 42.485000610352 67 67 67
29.812500000000 40.125000000000 42.416999816895 100 100 100
29.812500000000 40.125000000000 42.350997924805 104 104 104
29.937500000000 40.062500000000 42.340999603271 109 109 109
30.312500000000 39.812500000000 42.248001098633 70 70 70
29.937500000000 40.062500000000 41.360000610352 28 28 28
29.937500000000 40.062500000000 41.270000457764 41 41 41
29.937500000000 40.062500000000 41.167999267578 54 54 54
29.937500000000 40.062500000000 41.081001281738 66 66 66
29.812500000000 40.125000000000 40.825000762939 125 125 125
29.812500000000 40.125000000000 40.754001617432 126 126 126
29.875000000000 40.125000000000 40.713001251221 125 125 125
29.937500000000 40.062500000000 40.708000183105 136 136 136
29.937500000000 40.062500000000 40.664001464844 109 109 109
29.937500000000 40.062500000000 40.585998535156 101 101 101
29.937500000000 40.062500000000 40.506999969482 99 99 99
29.937500000000 40.062500000000 40.432998657227 104 104 104
29.937500000000 40.062500000000 40.354999542236 113 113 113
29.937500000000 40.062500000000 40.291000366211 114 114 114
29.937500000000 40.062500000000 40.215000152588 114 114 114
29.937500000000 40.062500000000 40.148002624512 114 114 114
29.937500000000 40.062500000000 40.086997985840 111 111 111
29.937500000000 40.062500000000 40.019001007080 116 116 116
29.937500000000 40.062500000000 39.945999145508 120 120 120
29.937500000000 40.062500000000 39.889999389648 121 121 121
29.937500000000 40.062500000000 39.822998046875 120 120 120
30.000000000000 40.062500000000 43.225997924805 93 93 93
30.000000000000 40.062500000000 43.076000213623 95 95 95
29.937500000000 40.062500000000 42.912002563477 105 105 105
30.000000000000 40.062500000000 42.780002593994 104 104 104
29.937500000000 40.125000000000 42.595001220703 118 118 118
29.875000000000 40.125000000000 42.368999481201 124 124 124
29.937500000000 40.125000000000 42.312999725342 125 125 125
30.000000000000 40.125000000000 42.250000000000 100 100 100
30.000000000000 40.125000000000 42.125999450684 101 101 101
29.937500000000 40.062500000000 42.008998870850 114 114 114
29.937500000000 40.125000000000 41.891002655029 110 110 110
29.937500000000 40.125000000000 41.778999328613 117 117 117
29.937500000000 40.125000000000 41.670001983643 118 118 118
29.937500000000 40.125000000000 41.570999145508 118 118 118
29.937500000000 40.125000000000 41.472000122070 117 117 117
29.937500000000 40.125000000000 41.369998931885 121 121 121
29.937500000000 40.125000000000 41.281002044678 117 117 117
29.937500000000 40.125000000000 41.180999755859 123 123 123
29.937500000000 40.125000000000 41.098999023438 123 123 123
29.937500000000 40.125000000000 41.005001068115 122 122 122
29.937500000000 40.125000000000 40.913002014160 127 127 127
29.937500000000 40.187500000000 40.796001434326 139 139 139
29.937500000000 40.187500000000 40.715999603271 132 132 132
29.937500000000 40.125000000000 40.666000366211 128 128 128
29.937500000000 40.125000000000 40.592998504639 118 118 118
29.937500000000 40.125000000000 40.507999420166 123 123 123
29.937500000000 40.125000000000 40.439998626709 126 126 126
29.937500000000 40.125000000000 40.367000579834 120 120 120
29.937500000000 40.125000000000 40.294002532959 127 127 127
29.937500000000 40.187500000000 40.222000122070 130 130 130
29.937500000000 40.187500000000 40.156002044678 125 125 125
29.937500000000 40.187500000000 40.079998016357 123 123 123
29.937500000000 40.187500000000 40.019001007080 121 121 121
29.937500000000 40.187500000000 39.958000183105 121 121 121
29.937500000000 40.187500000000 39.895999908447 127 127 127
29.937500000000 40.187500000000 39.825000762939 127 127 127
30.000000000000 40.187500000000 43.224998474121 109 109 109
30.000000000000 40.187500000000 43.071998596191 108 108 108
30.000000000000 40.187500000000 42.929000854492 121 121 121
30.000000000000 40.187500000000 42.784000396729 115 115 115
30.000000000000 40.187500000000 42.638999938965 115 115 115
30.000000000000 40.187500000000 42.497001647949 119 119 119
30.000000000000 40.187500000000 42.342998504639 109 109 109
30.000000000000 40.187500000000 42.244998931885 116 116 116
30.000000000000 40.187500000000 42.131999969482 113 113 113
30.000000000000 40.187500000000 42.014999389648 111 111 111
30.000000000000 40.187500000000 41.895999908447 108 108 108
30.000000000000 40.187500000000 41.790000915527 105 105 105
30.000000000000 40.187500000000 41.681999206543 109 109 109
30.000000000000 40.187500000000 41.585998535156 99 99 99
30.000000000000 40.187500000000 41.478000640869 102 102 102
30.000000000000 40.187500000000 41.389999389648 103 103 103
30.000000000000 40.187500000000 41.284999847412 96 96 96
30.000000000000 40.187500000000 41.197998046875 94 94 94
30.000000000000 40.187500000000 41.116001129150 103 103 103
30.000000000000 40.187500000000 41.028999328613 93 93 93
30.000000000000 40.187500000000 40.950000762939 98 98 98
30.000000000000 40.187500000000 40.879001617432 100 100 100
29.937500000000 40.187500000000 40.743999481201 109 109 109
29.937500000000 40.187500000000 40.700000762939 125 125 125
30.000000000000 40.187500000000 40.659000396729 114 114 114
30.062500000000 40.187500000000 40.596000671387 114 114 114
30.062500000000 40.187500000000 40.535999298096 120 120 120
30.062500000000 40.187500000000 40.464000701904 124 124 124
30.000000000000 40.187500000000 40.347000122070 100 100 100
30.000000000000 40.187500000000 40.277000427246 100 100 100
30.062500000000 40.125000000000 40.281002044678 124 124 124
30.062500000000 40.125000000000 40.224998474121 128 128 128
30.062500000000 40.125000000000 40.159999847412 130 130 130
30.062500000000 40.125000000000 40.113998413086 130 130 130
30.062500000000 40.062500000000 40.056999206543 126 126 126
30.062500000000 40.062500000000 40.006000518799 135 135 135
30.062500000000 40.062500000000 39.943000793457 137 137 137
30.125000000000 40.062500000000 39.891002655029 137 137 137
30.125000000000 40.062500000000 39.840999603271 139 139 139
30.062500000000 40.187500000000 43.204998016357 76 76 76
30.062500000000 40.187500000000 43.093997955322 108 108 108
30.062500000000 40.125000000000 42.993000030518 98 98 98
30.062500000000 40.125000000000 42.862998962402 101 101 101
30.062500000000 40.125000000000 42.733001708984 103 103 103
30.062500000000 40.125000000000 42.597999572754 108 108 108
30.062500000000 40.187500000000 42.388000488281 108 108 108
30.062500000000 40.187500000000 42.340999603271 108 108 108
30.062500000000 40.125000000000 42.250999450684 107 107 107
30.062500000000 40.125000000000 42.144001007080 106 106 106
30.062500000000 40.125000000000 42.037002563477 108 108 108
30.062500000000 40.125000000000 41.915000915527 105 105 105
30.062500000000 40.187500000000 41.755001068115 88 88 88
30.062500000000 40.187500000000 41.650001525879 98 98 98
30.062500000000 40.125000000000 41.609001159668 106 106 106
30.062500000000 40.125000000000 41.513999938965 101 101 101
30.062500000000 40.125000000000 41.414001464844 105 105 105
30.062500000000 40.125000000000 41.322998046875 104 104 104
30.062500000000 40.125000000000 41.228000640869 112 112 112
30.062500000000 40.125000000000 41.143001556396 103 103 103
30.062500000000 40.125000000000 41.047000885010 106 106 106
30.125000000000 40.187500000000 40.974998474121 110 110 110
30.125000000000 40.187500000000 40.894001007080 114 114 114
30.125000000000 40.187500000000 40.812999725342 110 110 110
30.125000000000 40.187500000000 40.736000061035 111 111 111
30.125000000000 40.187500000000 40.657001495361 110 110 110
30.125000000000 40.187500000000 40.571998596191 112 112 112
30.125000000000 40.187500000000 40.500000000000 114 114 114
30.062500000000 40.187500000000 40.410999298096 96 96 96
30.062500000000 40.187500000000 40.327999114990 100 100 100
30.125000000000 40.187500000000 40.285999298096 111 111 111
30.125000000000 40.187500000000 40.214000701904 104 104 104
30.125000000000 40.187500000000 40.151000976563 106 106 106
30.125000000000 40.187500000000 40.075000762939 112 112 112
30.125000000000 40.187500000000 40.020999908447 106 106 106
30.125000000000 40.187500000000 39.952999114990 108 108 108
30.125000000000 40.187500000000 39.891002655029 107 107 107
30.125000000000 40.187500000000 39.821998596191 110 110 110
30.125000000000 40.187500000000 43.075000762939 116 116 116
30.187500000000 40.125000000000 43.076999664307 33 33 33
30.125000000000 40.187500000000 42.285999298096 100 100 100
30.187500000000 40.125000000000 42.326000213623 152 152 152
30.187500000000 40.125000000000 42.221000671387 145 145 145
30.250000000000 40.062500000000 42.190998077393 102 102 102
30.250000000000 40.187500000000 42.297000885010 92 92 92
30.312500000000 40.125000000000 42.256000518799 91 91 91
30.312500000000 40.187500000000 42.263000488281 39 39 39
30.312500000000 40.375000000000 42.254001617432 26 26 26
30.312500000000 40.437500000000 42.253002166748 46 46 46
30.312500000000 40.500000000000 42.242000579834 61 61 61
30.312500000000 40.562500000000 42.243999481201 71 71 71
30.125000000000 40.687500000000 43.055000305176 16 16 16
30.312500000000 40.625000000000 42.257999420166 88 88 88
30.312500000000 40.687500000000 42.238998413086 88 88 88
30.312500000000 39.562500000000 42.234001159668 148 148 148
30.312500000000 39.562500000000 42.238998413086 148 148 148
30.312500000000 39.687500000000 42.244998931885 146 146 146
30.312500000000 39.750000000000 42.253002166748 136 136 136
30.312500000000 39.812500000000 42.242000579834 132 132 132
30.312500000000 39.875000000000 42.249000549316 115 115 115
30.125000000000 39.937500000000 43.104999542236 49 49 49
30.312500000000 39.937500000000 42.246002197266 87 87 87
26.375000000000 40.062500000000 42.292999267578 21 21 21
30.062500000000 40.000000000000 43.052001953125 134 134 134
30.062500000000 40.000000000000 42.292999267578 40 40 40
30.250000000000 40.000000000000 42.241001129150 101 101 101
29.937500000000 40.062500000000 40.713001251221 79 79 79
26.375000000000 40.062500000000 42.288002014160 70 70 70
29.375000000000 40.062500000000 42.415000915527 65 65 65
29.500000000000 40.062500000000 42.447998046875 76 76 76
29.562500000000 40.062500000000 42.432998657227 82 82 82
29.687500000000 40.062500000000 42.423999786377 90 90 90
30.000000000000 40.062500000000 42.909999847412 91 91 91
30.000000000000 40.062500000000 42.758998870850 97 97 97
30.000000000000 40.062500000000 42.579998016357 90 90 90
29.937500000000 40.062500000000 42.386001586914 99 99 99
30.000000000000 40.062500000000 42.287002563477 124 124 124
30.000000000000 40.062500000000 42.151000976563 97 97 97
30.000000000000 40.062500000000 42.019001007080 104 104 104
29.312500000000 40.062500000000 40.972999572754 118 118 118
29.437500000000 40.062500000000 40.990001678467 138 138 138
30.000000000000 40.062500000000 41.693000793457 92 92 92
30.000000000000 40.062500000000 41.563999176025 101 101 101
29.687500000000 40.062500000000 40.984001159668 135 135 135
29.625000000000 40.062500000000 40.874000549316 128 128 128
29.937500000000 40.062500000000 41.203998565674 124 124 124
29.937500000000 40.062500000000 41.108001708984 124 124 124
29.937500000000 40.062500000000 41.013000488281 119 119 119
29.937500000000 40.062500000000 40.906002044678 124 124 124
29.937500000000 40.125000000000 40.767002105713 131 131 131
29.937500000000 40.125000000000 40.694999694824 142 142 142
29.937500000000 40.062500000000 40.646999359131 129 129 129
29.937500000000 40.062500000000 40.567001342773 118 118 118
29.937500000000 40.062500000000 40.481998443604 122 122 122
29.937500000000 40.062500000000 40.400001525879 125 125 125
29.937500000000 40.062500000000 40.327999114990 130 130 130
29.937500000000 40.062500000000 40.247001647949 136 136 136
29.937500000000 40.062500000000 40.178001403809 128 128 128
29.937500000000 40.125000000000 40.104000091553 138 138 138
29.937500000000 40.125000000000 40.033000946045 132 132 132
29.937500000000 40.125000000000 39.963001251221 138 138 138
29.937500000000 40.125000000000 39.895999908447 134 134 134
29.937500000000 40.125000000000 39.827999114990 136 136 136
26.375000000000 40.187500000000 42.275001525879 99 99 99
28.375000000000 40.187500000000 42.359001159668 39 39 39
28.437500000000 40.187500000000 42.353000640869 52 52 52
28.625000000000 40.187500000000 42.367000579834 66 66 66
28.687500000000 40.187500000000 42.369998931885 83 83 83
28.750000000000 40.187500000000 42.379001617432 99 99 99
28.812500000000 40.187500000000 42.381999969482 112 112 112
28.875000000000 40.187500000000 42.380001068115 115 115 115
28.937500000000 40.187500000000 42.381000518799 118 118 118
29.000000000000 40.125000000000 42.394001007080 137 137 137
29.062500000000 40.125000000000 42.401000976563 143 143 143
29.187500000000 40.187500000000 42.408000946045 131 131 131
29.250000000000 40.187500000000 42.406002044678 130 130 130
29.312500000000 40.187500000000 42.413002014160 144 144 144
29.375000000000 40.187500000000 42.368000030518 102 102 102
29.437500000000 40.125000000000 42.401000976563 129 129 129
29.562500000000 40.187500000000 42.437999725342 116 116 116
29.625000000000 40.125000000000 42.444999694824 103 103 103
29.000000000000 40.187500000000 41.118999481201 85 85 85
29.062500000000 40.187500000000 41.118000030518 166 166 166
29.125000000000 40.187500000000 41.069000244141 146 146 146
29.187500000000 40.187500000000 41.049999237061 139 139 139
29.187500000000 40.187500000000 41.017002105713 144 144 144
29.250000000000 40.187500000000 40.994998931885 156 156 156
29.312500000000 40.187500000000 40.978000640869 156 156 156
29.312500000000 40.187500000000 40.937000274658 107 107 107
29.375000000000 40.187500000000 40.923999786377 135 135 135
29.437500000000 40.187500000000 40.909999847412 140 140 140
29.500000000000 40.187500000000 40.886001586914 146 146 146
29.500000000000 40.187500000000 40.856998443604 143 143 143
29.562500000000 40.187500000000 40.831001281738 126 126 126
29.687500000000 40.187500000000 40.871002197266 140 140 140
29.750000000000 40.187500000000 40.856998443604 138 138 138
29.812500000000 40.187500000000 40.847000122070 134 134 134
29.812500000000 40.187500000000 40.795001983643 146 146 146
29.937500000000 40.187500000000 40.748001098633 143 143 143
29.937500000000 40.187500000000 40.696998596191 142 142 142
30.000000000000 40.187500000000 40.655002593994 136 136 136
30.000000000000 40.187500000000 40.572998046875 122 122 122
29.937500000000 40.187500000000 40.484001159668 127 127 127
29.937500000000 40.187500000000 40.406002044678 136 136 136
29.937500000000 40.187500000000 40.328998565674 140 140 140
29.937500000000 40.187500000000 40.248001098633 138 138 138
30.000000000000 40.187500000000 40.186000823975 138 138 138
30.000000000000 40.187500000000 40.112998962402 134 134 134
29.937500000000 40.187500000000 40.037002563477 139 139 139
29.937500000000 40.187500000000 39.967998504639 138 138 138
29.937500000000 40.187500000000 39.895999908447 134 134 134
29.937500000000 40.187500000000 39.832000732422 140 140 140
29.687500000000 40.125000000000 42.481998443604 96 96 96
26.500000000000 40.250000000000 41.167999267578 81 81 81
26.500000000000 40.250000000000 42.263999938965 91 91 91
26.625000000000 40.250000000000 41.236999511719 117 117 117
26.562500000000 40.187500000000 42.238998413086 117 117 117
26.625000000000 40.187500000000 42.249000549316 123 123 123
26.687500000000 40.187500000000 42.248001098633 124 124 124
26.750000000000 40.187500000000 42.257999420166 131 131 131
26.812500000000 40.250000000000 42.262001037598 138 138 138
26.875000000000 40.250000000000 42.254001617432 141 141 141
26.937500000000 40.250000000000 42.264999389648 145 145 145
27.000000000000 40.250000000000 42.263999938965 147 147 147
27.062500000000 40.250000000000 42.270000457764 151 151 151
27.125000000000 40.187500000000 42.270999908447 152 152 152
27.187500000000 40.187500000000 42.276000976563 143 143 143
27.250000000000 40.250000000000 42.281002044678 142 142 142
27.312500000000 40.250000000000 42.284999847412 134 134 134
27.375000000000 40.250000000000 42.294002532959 131 131 131
27.437500000000 40.250000000000 42.333999633789 125 125 125
27.437500000000 40.250000000000 42.336997985840 112 112 112
27.562500000000 40.250000000000 42.355998992920 94 94 94
27.437500000000 40.250000000000 41.306999206543 78 78 78
27.437500000000 40.250000000000 41.340999603271 127 127 127
27.562500000000 40.250000000000 41.305000305176 117 117 117
27.562500000000 40.250000000000 41.314998626709 131 131 131
27.687500000000 40.250000000000 41.329998016357 135 135 135
27.687500000000 40.187500000000 41.310001373291 134 134 134
27.750000000000 40.187500000000 41.307998657227 142 142 142
27.812500000000 40.250000000000 41.303001403809 143 143 143
27.875000000000 40.250000000000 41.302001953125 148 148 148
27.937500000000 40.250000000000 41.299999237061 144 144 144
27.937500000000 40.187500000000 41.298999786377 148 148 148
28.000000000000 40.250000000000 41.306999206543 148 148 148
28.062500000000 40.250000000000 41.304000854492 148 148 148
28.125000000000 40.250000000000 41.297000885010 153 153 153
28.187500000000 40.250000000000 41.311000823975 150 150 150
28.187500000000 40.250000000000 41.298999786377 145 145 145
28.250000000000 40.187500000000 41.306999206543 140 140 140
28.312500000000 40.187500000000 41.332000732422 124 124 124
28.375000000000 40.187500000000 41.318000793457 126 126 126
28.437500000000 40.187500000000 41.305999755859 116 116 116
28.500000000000 40.250000000000 41.287002563477 100 100 100
28.500000000000 40.187500000000 41.269001007080 77 77 77
28.562500000000 40.187500000000 41.250000000000 59 59 59
28.625000000000 40.250000000000 41.240001678467 32 32 32
29.375000000000 40.187500000000 42.423999786377 35 35 35
29.500000000000 40.187500000000 42.465000152588 43 43 43
29.562500000000 40.187500000000 42.435001373291 39 39 39
29.625000000000 40.187500000000 42.430000305176 50 50 50
30.125000000000 40.187500000000 43.053001403809 118 118 118
29.937500000000 40.187500000000 42.307998657227 49 49 49
29.375000000000 40.250000000000 40.964000701904 87 87 87
29.437500000000 40.250000000000 40.968997955322 41 41 41
30.312500000000 40.187500000000 42.255001068115 72 72 72
29.625000000000 40.250000000000 40.856998443604 38 38 38
29.937500000000 40.250000000000 40.718997955322 74 74 74
26.437500000000 40.250000000000 42.281002044678 99 99 99
26.562500000000 40.250000000000 42.249000549316 101 101 101
26.375000000000 40.312500000000 42.125000000000 137 137 137
26.437500000000 40.312500000000 42.093997955322 135 135 135
26.500000000000 40.312500000000 42.083000183105 137 137 137
26.562500000000 40.312500000000 42.055999755859 135 135 135
26.687500000000 40.312500000000 42.035999298096 138 138 138
26.750000000000 40.312500000000 42.003002166748 138 138 138
26.812500000000 40.312500000000 41.983001708984 134 134 134
26.875000000000 40.312500000000 41.958999633789 129 129 129
26.875000000000 40.312500000000 41.938999176025 121 121 121
26.937500000000 40.312500000000 41.905002593994 107 107 107
27.000000000000 40.312500000000 41.881999969482 99 99 99
27.062500000000 40.312500000000 41.861000061035 79 79 79
27.125000000000 40.312500000000 41.850997924805 71 71 71
27.187500000000 40.312500000000 41.815998077393 42 42 42
30.312500000000 40.312500000000 42.253002166748 127 127 127
26.375000000000 40.375000000000 42.156002044678 36 36 36
30.312500000000 40.375000000000 42.246002197266 130 130 130
30.312500000000 40.437500000000 42.250999450684 132 132 132
30.312500000000 40.500000000000 42.244998931885 141 141 141
30.312500000000 40.562500000000 42.251998901367 134 134 134
30.312500000000 40.625000000000 42.249000549316 134 134 134
30.312500000000 40.687500000000 42.248001098633 138 138 138
30.312500000000 40.750000000000 42.244998931885 148 148 148
30.187500000000 39.562500000000 43.088001251221 110 110 110
30.187500000000 39.562500000000 43.100997924805 105 105 105
30.250000000000 39.750000000000 42.284000396729 42 42 42
30.187500000000 39.687500000000 43.081001281738 93 93 93
30.250000000000 39.812500000000 42.284999847412 70 70 70
30.125000000000 39.750000000000 43.093997955322 78 78 78
30.250000000000 39.875000000000 42.287002563477 89 89 89
30.125000000000 39.812500000000 43.099998474121 46 46 46
30.312500000000 39.937500000000 42.289001464844 123 123 123
30.125000000000 39.875000000000 43.104999542236 22 22 22
30.187500000000 40.000000000000 42.242000579834 150 150 150
30.187500000000 40.000000000000 42.340000152588 157 157 157
30.125000000000 39.937500000000 43.108001708984 41 41 41
30.062500000000 40.000000000000 39.815998077393 50 50 50
30.125000000000 40.062500000000 39.881999969482 43 43 43
30.062500000000 40.000000000000 39.944000244141 36 36 36
30.062500000000 40.000000000000 40.007999420166 41 41 41
30.125000000000 40.062500000000 40.078998565674 28 28 28
30.187500000000 40.062500000000 42.196998596191 114 114 114
30.125000000000 40.062500000000 42.258998870850 157 157 157
30.125000000000 40.000000000000 42.324001312256 117 117 117
30.062500000000 40.000000000000 43.090000152588 125 125 125
30.062500000000 39.937500000000 43.106998443604 37 37 37
30.125000000000 40.062500000000 39.821998596191 123 123 123
30.125000000000 40.062500000000 39.882999420166 124 124 124
30.125000000000 40.062500000000 39.956001281738 124 124 124
30.125000000000 40.062500000000 40.019001007080 127 127 127
30.125000000000 40.062500000000 40.076999664307 125 125 125
30.125000000000 40.062500000000 40.148002624512 116 116 116
30.125000000000 40.062500000000 40.221000671387 122 122 122
30.125000000000 40.062500000000 40.284999847412 117 117 117
30.062500000000 40.062500000000 40.313999176025 118 118 118
30.062500000000 40.062500000000 40.333000183105 100 100 100
30.062500000000 40.062500000000 40.423000335693 106 106 106
30.125000000000 40.062500000000 40.569999694824 119 119 119
30.062500000000 40.062500000000 40.642002105713 127 127 127
30.125000000000 40.062500000000 40.731998443604 128 128 128
30.125000000000 40.062500000000 40.807998657227 125 125 125
30.062500000000 40.062500000000 40.882999420166 122 122 122
30.062500000000 40.062500000000 40.964000701904 124 124 124
30.062500000000 40.062500000000 41.048000335693 121 121 121
30.062500000000 40.062500000000 41.132999420166 122 122 122
30.062500000000 40.062500000000 41.213001251221 120 120 120
30.062500000000 40.062500000000 41.302001953125 114 114 114
30.062500000000 40.062500000000 41.389999389648 115 115 115
30.062500000000 40.062500000000 41.479999542236 111 111 111
30.062500000000 40.062500000000 41.583000183105 113 113 113
30.062500000000 40.062500000000 41.652999877930 111 111 111
30.062500000000 40.000000000000 41.687999725342 85 85 85
30.062500000000 40.062500000000 41.875000000000 110 110 110
30.062500000000 40.062500000000 41.981998443604 106 106 106
30.062500000000 40.062500000000 42.095001220703 109 109 109
30.062500000000 40.062500000000 42.192001342773 115 115 115
30.062500000000 40.062500000000 42.299999237061 118 118 118
30.062500000000 40.062500000000 42.429000854492 112 112 112
30.062500000000 40.000000000000 42.534999847412 98 98 98
30.062500000000 40.000000000000 42.665000915527 101 101 101
30.062500000000 40.000000000000 42.801002502441 95 95 95
30.062500000000 40.000000000000 42.930000305176 98 98 98
30.062500000000 40.000000000000 43.049999237061 110 110 110
30.062500000000 40.000000000000 43.166000366211 90 90 90
30.000000000000 40.062500000000 39.803001403809 103 103 103
30.000000000000 40.062500000000 39.871002197266 103 103 103
30.000000000000 40.062500000000 39.921001434326 108 108 108
30.000000000000 40.062500000000 39.981998443604 105 105 105
30.000000000000 40.062500000000 40.048999786377 102 102 102
30.000000000000 40.062500000000 40.111000061035 105 105 105
30.000000000000 40.062500000000 40.180000305176 102 102 102
29.937500000000 40.062500000000 40.233001708984 100 100 100
29.937500000000 40.062500000000 40.303001403809 97 97 97
29.937500000000 40.062500000000 40.373001098633 94 94 94
29.937500000000 40.062500000000 40.449001312256 101 101 101
29.937500000000 40.062500000000 40.520999908447 104 104 104
29.937500000000 40.062500000000 40.598999023438 102 102 102
29.937500000000 40.062500000000 40.662002563477 100 100 100
29.937500000000 40.062500000000 40.715999603271 123 123 123
29.937500000000 40.062500000000 40.821998596191 95 95 95
29.937500000000 40.062500000000 40.903999328613 89 89 89
29.937500000000 40.062500000000 40.991001129150 90 90 90
29.937500000000 40.062500000000 41.070999145508 94 94 94
29.937500000000 40.062500000000 41.167999267578 95 95 95
29.937500000000 40.062500000000 41.251998901367 96 96 96
29.937500000000 40.062500000000 41.347999572754 93 93 93
29.937500000000 40.062500000000 41.428001403809 89 89 89
29.937500000000 40.062500000000 41.534999847412 92 92 92
