30.546875000000 21.250000000000 63.098007202148 157 157 157
30.796875000000 20.765625000000 63.219009399414 163 163 163
30.796875000000 20.757812500000 63.169998168945 180 180 180
30.781250000000 20.750000000000 63.120010375977 179 179 179
30.968750000000 20.320312500000 63.212005615234 179 179 179
30.968750000000 20.320312500000 63.160995483398 177 177 177
30.968750000000 20.320312500000 63.109008789063 153 153 153
31.140625000000 19.875000000000 63.205001831055 181 181 181
31.140625000000 19.875000000000 63.150009155273 180 180 180
31.140625000000 19.867187500000 63.096008300781 49 49 49
31.343750000000 19.429687500000 63.248001098633 61 61 61
31.328125000000 19.437500000000 63.195999145508 176 176 176
31.312500000000 19.437500000000 63.143005371094 173 173 173
31.359375000000 19.406250000000 63.078002929688 69 69 69
18.421875000000 13.296875000000 63.770004272461 152 152 152
18.453125000000 13.304687500000 63.746002197266 172 172 172
18.500000000000 13.296875000000 63.722000122070 180 180 180
18.484375000000 13.296875000000 63.688995361328 182 182 182
18.500000000000 13.296875000000 63.658004760742 179 179 179
18.500000000000 13.296875000000 63.628005981445 184 184 184
18.484375000000 13.296875000000 63.595001220703 180 180 180
19.359375000000 13.320312500000 63.750000000000 161 161 161
19.484375000000 13.328125000000 63.753997802734 149 149 149
19.515625000000 13.320312500000 63.731002807617 179 179 179
19.515625000000 13.320312500000 63.706008911133 179 179 179
19.515625000000 13.320312500000 63.680999755859 178 178 178
19.515625000000 13.320312500000 63.654998779297 183 183 183
19.515625000000 13.320312500000 63.628005981445 181 181 181
19.515625000000 13.320312500000 63.602005004883 183 183 183
19.515625000000 13.320312500000 63.578002929688 184 184 184
19.515625000000 13.320312500000 63.551010131836 183 183 183
19.515625000000 13.320312500000 63.524002075195 170 170 170
18.453125000000 13.640625000000 63.755004882813 35 35 35
18.453125000000 13.640625000000 63.727005004883 175 175 175
18.468750000000 13.648437500000 63.697006225586 178 178 178
18.453125000000 13.640625000000 63.664001464844 182 182 182
18.453125000000 13.640625000000 63.632995605469 184 184 184
18.453125000000 13.640625000000 63.602005004883 184 184 184
18.453125000000 13.640625000000 63.569000244141 126 126 126
19.328125000000 13.656250000000 63.727996826172 166 166 166
19.328125000000 13.656250000000 63.699996948242 172 172 172
19.328125000000 13.656250000000 63.673995971680 177 177 177
19.312500000000 13.664062500000 63.645004272461 177 177 177
19.312500000000 13.664062500000 63.619003295898 173 173 173
19.312500000000 13.664062500000 63.591003417969 179 179 179
19.328125000000 13.656250000000 63.567001342773 154 154 154
18.796875000000 14.000000000000 63.798004150391 113 113 113
18.953125000000 14.000000000000 63.798995971680 108 108 108
19.046875000000 14.000000000000 63.789001464844 167 167 167
19.078125000000 13.992187500000 63.764007568359 177 177 177
19.171875000000 14.007812500000 63.753997802734 206 206 206
19.203125000000 14.007812500000 63.735000610352 176 176 176
19.203125000000 14.007812500000 63.708999633789 179 179 179
19.203125000000 14.007812500000 63.680999755859 182 182 182
19.203125000000 14.007812500000 63.654006958008 177 177 177
19.203125000000 13.992187500000 63.626998901367 177 177 177
19.203125000000 13.992187500000 63.600997924805 179 179 179
19.171875000000 14.007812500000 63.565002441406 172 172 172
19.078125000000 13.992187500000 63.514007568359 187 187 187
19.078125000000 14.000000000000 63.486999511719 191 191 191
19.062500000000 14.007812500000 63.454010009766 202 202 202
19.062500000000 14.007812500000 63.423995971680 203 203 203
19.078125000000 13.992187500000 63.395996093750 197 197 197
19.046875000000 14.000000000000 63.365997314453 214 214 214
19.078125000000 13.992187500000 63.339996337891 208 208 208
19.078125000000 13.992187500000 63.309997558594 207 207 207
19.078125000000 13.992187500000 63.281005859375 205 205 205
19.078125000000 13.992187500000 63.251998901367 205 205 205
19.078125000000 13.992187500000 63.222000122070 203 203 203
19.078125000000 13.992187500000 63.193008422852 198 198 198
19.078125000000 13.992187500000 63.166000366211 182 182 182
19.078125000000 13.992187500000 63.134002685547 170 170 170
19.046875000000 14.000000000000 63.100997924805 169 169 169
19.015625000000 14.000000000000 63.054000854492 163 163 163
18.953125000000 13.992187500000 63.007995605469 160 160 160
18.953125000000 13.992187500000 62.975006103516 161 161 161
18.953125000000 13.992187500000 62.945999145508 156 156 156
18.953125000000 13.992187500000 62.915008544922 155 155 155
18.953125000000 13.992187500000 62.885009765625 153 153 153
18.953125000000 13.992187500000 62.852996826172 152 152 152
18.546875000000 14.328125000000 63.729003906250 176 176 176
18.546875000000 14.328125000000 63.699005126953 180 180 180
18.546875000000 14.335937500000 63.669006347656 175 175 175
18.546875000000 14.328125000000 63.636001586914 179 179 179
19.171875000000 14.343750000000 63.736999511719 173 173 173
19.156250000000 14.343750000000 63.708007812500 171 171 171
19.171875000000 14.351562500000 63.682998657227 174 174 174
19.171875000000 14.343750000000 63.654998779297 173 173 173
19.171875000000 14.343750000000 63.626998901367 170 170 170
19.171875000000 14.351562500000 63.600997924805 173 173 173
19.171875000000 14.343750000000 63.572006225586 124 124 124
18.515625000000 14.671875000000 63.742004394531 109 109 109
18.515625000000 14.671875000000 63.710998535156 189 189 189
18.515625000000 14.671875000000 63.680007934570 208 208 208
18.546875000000 14.679687500000 63.654006958008 205 205 205
19.078125000000 14.687500000000 63.731002807617 230 230 230
19.109375000000 14.679687500000 63.708007812500 222 222 222
19.109375000000 14.687500000000 63.682998657227 217 217 217
19.109375000000 14.687500000000 63.654006958008 221 221 221
19.109375000000 14.687500000000 63.628005981445 222 222 222
19.125000000000 14.679687500000 63.602005004883 218 218 218
19.109375000000 14.679687500000 63.572998046875 51 51 51
18.515625000000 15.015625000000 63.723007202148 197 197 197
18.531250000000 15.007812500000 63.693008422852 212 212 212
18.531250000000 15.007812500000 63.664001464844 202 202 202
19.015625000000 15.031250000000 63.729995727539 238 238 238
19.062500000000 15.023437500000 63.714004516602 220 220 220
19.078125000000 15.015625000000 63.686996459961 219 219 219
19.062500000000 15.023437500000 63.658996582031 218 218 218
19.078125000000 15.023437500000 63.632995605469 220 220 220
19.078125000000 15.015625000000 63.604003906250 221 221 221
19.078125000000 15.023437500000 63.576995849609 46 46 46
18.484375000000 15.359375000000 63.734008789063 150 150 150
18.515625000000 15.359375000000 63.708007812500 193 193 193
18.515625000000 15.351562500000 63.676010131836 219 219 219
18.953125000000 15.367187500000 63.729003906250 237 237 237
19.015625000000 15.367187500000 63.716995239258 221 221 221
19.031250000000 15.359375000000 63.690002441406 217 217 217
19.031250000000 15.359375000000 63.662002563477 219 219 219
19.015625000000 15.367187500000 63.632003784180 220 220 220
19.031250000000 15.359375000000 63.606002807617 219 219 219
19.031250000000 15.359375000000 63.578002929688 34 34 34
18.515625000000 15.687500000000 63.716003417969 196 196 196
18.515625000000 15.695312500000 63.686004638672 187 187 187
18.953125000000 15.703125000000 63.740005493164 212 212 212
18.984375000000 15.703125000000 63.716003417969 221 221 221
18.984375000000 15.710937500000 63.690002441406 215 215 215
18.984375000000 15.703125000000 63.660995483398 218 218 218
18.984375000000 15.695312500000 63.634002685547 216 216 216
18.968750000000 15.703125000000 63.602996826172 219 219 219
18.515625000000 16.039062500000 63.725006103516 190 190 190
18.515625000000 16.039062500000 63.695999145508 207 207 207
18.859375000000 16.046875000000 63.729995727539 223 223 223
18.921875000000 16.039062500000 63.714004516602 214 214 214
18.921875000000 16.039062500000 63.686004638672 215 215 215
18.921875000000 16.046875000000 63.660003662109 211 211 211
18.921875000000 16.046875000000 63.632003784180 214 214 214
18.921875000000 16.046875000000 63.602005004883 213 213 213
18.515625000000 16.382812500000 63.738998413086 69 69 69
18.515625000000 16.375000000000 63.707000732422 200 200 200
18.718750000000 16.382812500000 63.714996337891 219 219 219
18.859375000000 16.390625000000 63.714004516602 217 217 217
18.875000000000 16.375000000000 63.686996459961 190 190 190
18.875000000000 16.375000000000 63.660003662109 186 186 186
18.875000000000 16.375000000000 63.630004882813 220 220 220
18.859375000000 16.375000000000 63.600997924805 212 212 212
18.515625000000 16.710937500000 63.720001220703 187 187 187
18.656250000000 16.718750000000 63.714996337891 204 204 204
18.812500000000 16.726562500000 63.716003417969 214 214 214
18.812500000000 16.726562500000 63.688995361328 205 205 205
18.812500000000 16.726562500000 63.656997680664 179 179 179
18.812500000000 16.726562500000 63.630004882813 218 218 218
18.812500000000 16.726562500000 63.600997924805 210 210 210
18.484375000000 17.070312500000 63.729995727539 65 65 65
18.531250000000 17.054687500000 63.707000732422 197 197 197
18.750000000000 17.070312500000 63.718002319336 214 214 214
18.765625000000 17.054687500000 63.688995361328 214 214 214
18.765625000000 17.062500000000 63.663009643555 208 208 208
18.765625000000 17.054687500000 63.632003784180 220 220 220
18.765625000000 17.054687500000 63.602005004883 214 214 214
18.515625000000 17.398437500000 63.716003417969 181 181 181
18.687500000000 17.398437500000 63.719009399414 213 213 213
18.718750000000 17.398437500000 63.694000244141 222 222 222
18.718750000000 17.398437500000 63.665008544922 212 212 212
18.703125000000 17.390625000000 63.634002685547 217 217 217
18.703125000000 17.406250000000 63.604003906250 215 215 215
18.640625000000 17.734375000000 63.722000122070 199 199 199
18.656250000000 17.742187500000 63.695007324219 216 216 216
18.640625000000 17.734375000000 63.664001464844 219 219 219
18.640625000000 17.734375000000 63.635009765625 217 217 217
18.640625000000 17.734375000000 63.604995727539 221 221 221
18.671875000000 17.734375000000 63.581008911133 105 105 105
18.546875000000 18.078125000000 63.718002319336 166 166 166
18.578125000000 18.078125000000 63.692001342773 206 206 206
18.578125000000 18.085937500000 63.663009643555 209 209 209
18.578125000000 18.078125000000 63.630996704102 205 205 205
18.578125000000 18.078125000000 63.600997924805 205 205 205
18.578125000000 18.078125000000 63.570999145508 103 103 103
18.515625000000 18.437500000000 63.721008300781 119 119 119
18.515625000000 18.437500000000 63.691009521484 221 221 221
18.515625000000 18.429687500000 63.660003662109 224 224 224
18.515625000000 18.429687500000 63.630004882813 220 220 220
18.515625000000 18.429687500000 63.600006103516 221 221 221
18.546875000000 18.429687500000 63.574996948242 96 96 96
18.500000000000 18.765625000000 63.695999145508 214 214 214
18.484375000000 18.765625000000 63.665008544922 224 224 224
18.500000000000 18.765625000000 63.636001586914 219 219 219
18.484375000000 18.765625000000 63.604995727539 220 220 220
18.515625000000 18.765625000000 63.578002929688 174 174 174
18.484375000000 19.109375000000 63.704010009766 185 185 185
18.484375000000 19.101562500000 63.673004150391 220 220 220
18.484375000000 19.101562500000 63.643997192383 221 221 221
18.484375000000 19.101562500000 63.613006591797 220 220 220
18.484375000000 19.109375000000 63.583999633789 201 201 201
18.421875000000 19.437500000000 63.708007812500 68 68 68
18.453125000000 19.429687500000 63.682006835938 221 221 221
18.453125000000 19.445312500000 63.654006958008 218 218 218
18.453125000000 19.437500000000 63.622009277344 221 221 221
18.453125000000 19.429687500000 63.589996337891 219 219 219
18.484375000000 19.437500000000 63.565002441406 35 35 35
18.421875000000 19.781250000000 63.690002441406 199 199 199
18.421875000000 19.781250000000 63.658996582031 222 222 222
18.421875000000 19.781250000000 63.626998901367 222 222 222
18.421875000000 19.781250000000 63.598999023438 218 218 218
18.421875000000 19.781250000000 63.570007324219 152 152 152
18.375000000000 20.132812500000 63.692001342773 169 169 169
18.390625000000 20.125000000000 63.665008544922 218 218 218
18.390625000000 20.125000000000 63.632995605469 220 220 220
18.390625000000 20.125000000000 63.602996826172 218 218 218
18.390625000000 20.125000000000 63.572998046875 178 178 178
18.328125000000 20.476562500000 63.695999145508 69 69 69
18.375000000000 20.468750000000 63.669998168945 219 219 219
18.375000000000 20.468750000000 63.639007568359 217 217 217
18.359375000000 20.468750000000 63.606002807617 224 224 224
18.375000000000 20.468750000000 63.578002929688 202 202 202
18.328125000000 20.812500000000 63.675003051758 206 206 206
18.328125000000 20.812500000000 63.643997192383 220 220 220
18.328125000000 20.812500000000 63.613006591797 219 219 219
18.328125000000 20.812500000000 63.582000732422 216 216 216
19.484375000000 13.320312500000 63.514007568359 146 146 146
19.484375000000 13.320312500000 63.546997070313 175 175 175
19.484375000000 13.320312500000 63.576004028320 178 178 178
19.484375000000 13.320312500000 63.607009887695 169 169 169
19.484375000000 13.320312500000 63.637008666992 175 175 175
19.484375000000 13.320312500000 63.667007446289 171 171 171
19.484375000000 13.320312500000 63.695007324219 173 173 173
19.484375000000 13.328125000000 63.727005004883 168 168 168
19.468750000000 13.312500000000 63.751998901367 139 139 139
19.390625000000 13.265625000000 63.757003784180 101 101 101
19.296875000000 13.578125000000 63.565002441406 154 154 154
19.312500000000 13.562500000000 63.598007202148 163 163 163
19.312500000000 13.562500000000 63.628005981445 160 160 160
19.296875000000 13.570312500000 63.656005859375 160 160 160
19.296875000000 13.554687500000 63.688003540039 157 157 157
19.312500000000 13.562500000000 63.720001220703 161 161 161
19.046875000000 13.781250000000 63.074005126953 154 154 154
19.046875000000 13.781250000000 63.107009887695 177 177 177
19.046875000000 13.781250000000 63.141006469727 177 177 177
19.046875000000 13.781250000000 63.173995971680 176 176 176
19.078125000000 13.773437500000 63.208999633789 176 176 176
19.078125000000 13.773437500000 63.242004394531 175 175 175
19.078125000000 13.773437500000 63.276000976563 175 175 175
19.078125000000 13.773437500000 63.311004638672 173 173 173
19.078125000000 13.773437500000 63.341995239258 175 175 175
19.078125000000 13.773437500000 63.376007080078 171 171 171
19.078125000000 13.773437500000 63.410003662109 169 169 169
19.078125000000 13.773437500000 63.442001342773 168 168 168
19.078125000000 13.773437500000 63.473999023438 169 169 169
19.171875000000 13.828125000000 63.538009643555 163 163 163
19.234375000000 13.875000000000 63.587005615234 168 168 168
19.234375000000 13.875000000000 63.617996215820 168 168 168
19.234375000000 13.867187500000 63.648010253906 167 167 167
19.234375000000 13.875000000000 63.680999755859 171 171 171
19.234375000000 13.875000000000 63.712997436523 170 170 170
19.171875000000 13.828125000000 63.727005004883 179 179 179
19.015625000000 13.742187500000 63.719009399414 175 175 175
18.406250000000 13.382812500000 63.604995727539 133 133 133
18.468750000000 13.406250000000 63.652999877930 147 147 147
18.468750000000 13.406250000000 63.688995361328 148 148 148
18.453125000000 13.406250000000 63.723999023438 153 153 153
18.406250000000 13.382812500000 63.750000000000 164 164 164
18.359375000000 13.335937500000 63.773010253906 106 106 106
18.906250000000 14.046875000000 62.854003906250 152 152 152
18.890625000000 14.039062500000 62.889007568359 158 158 158
18.921875000000 14.031250000000 62.928009033203 160 160 160
18.921875000000 14.031250000000 62.962997436523 166 166 166
18.921875000000 14.031250000000 62.999008178711 180 180 180
19.046875000000 14.109375000000 63.085006713867 182 182 182
19.046875000000 14.109375000000 63.121002197266 182 182 182
19.046875000000 14.101562500000 63.150009155273 183 183 183
19.046875000000 14.109375000000 63.188003540039 178 178 178
19.046875000000 14.101562500000 63.219009399414 182 182 182
19.046875000000 14.101562500000 63.250000000000 179 179 179
19.046875000000 14.101562500000 63.285003662109 182 182 182
19.046875000000 14.101562500000 63.319000244141 181 181 181
19.046875000000 14.101562500000 63.350006103516 181 181 181
19.046875000000 14.109375000000 63.386001586914 178 178 178
19.046875000000 14.101562500000 63.417007446289 178 178 178
19.046875000000 14.101562500000 63.451995849609 180 180 180
19.046875000000 14.101562500000 63.481002807617 180 180 180
19.046875000000 14.109375000000 63.520996093750 180 180 180
19.171875000000 14.179687500000 63.583999633789 156 156 156
19.171875000000 14.179687500000 63.615997314453 149 149 149
19.171875000000 14.187500000000 63.649002075195 155 155 155
19.171875000000 14.187500000000 63.680999755859 156 156 156
19.171875000000 14.187500000000 63.712005615234 153 153 153
19.140625000000 14.156250000000 63.732009887695 157 157 157
19.046875000000 14.101562500000 63.742996215820 176 176 176
19.046875000000 14.101562500000 63.774002075195 174 174 174
18.984375000000 14.062500000000 63.792999267578 121 121 121
18.828125000000 13.984375000000 63.791000366211 120 120 120
18.703125000000 13.906250000000 63.796005249023 87 87 87
19.125000000000 14.500000000000 63.559005737305 47 47 47
19.125000000000 14.500000000000 63.589996337891 157 157 157
19.125000000000 14.500000000000 63.621002197266 160 160 160
19.125000000000 14.500000000000 63.652008056641 155 155 155
19.125000000000 14.500000000000 63.684005737305 161 161 161
19.109375000000 14.492187500000 63.714996337891 157 157 157
19.093750000000 14.476562500000 63.738006591797 156 156 156
18.531250000000 14.140625000000 63.634002685547 157 157 157
18.515625000000 14.132812500000 63.667007446289 147 147 147
18.515625000000 14.132812500000 63.703002929688 151 151 151
18.515625000000 14.132812500000 63.738006591797 103 103 103
19.078125000000 14.820312500000 63.593002319336 217 217 217
19.078125000000 14.828125000000 63.626007080078 220 220 220
19.078125000000 14.820312500000 63.656997680664 221 221 221
19.078125000000 14.812500000000 63.691009521484 220 220 220
19.078125000000 14.804687500000 63.721008300781 222 222 222
18.484375000000 14.468750000000 63.604995727539 136 136 136
18.515625000000 14.468750000000 63.647003173828 154 154 154
18.515625000000 14.468750000000 63.682998657227 141 141 141
18.515625000000 14.468750000000 63.719009399414 146 146 146
18.500000000000 14.460937500000 63.751998901367 18 18 18
19.046875000000 15.132812500000 63.595001220703 211 211 211
19.046875000000 15.132812500000 63.626998901367 219 219 219
19.031250000000 15.148437500000 63.658004760742 221 221 221
19.015625000000 15.140625000000 63.688995361328 221 221 221
19.046875000000 15.132812500000 63.722000122070 222 222 222
18.484375000000 14.796875000000 63.617004394531 211 211 211
18.515625000000 14.820312500000 63.660003662109 201 201 201
18.500000000000 14.812500000000 63.693008422852 204 204 204
18.500000000000 14.812500000000 63.729003906250 171 171 171
18.984375000000 15.468750000000 63.593002319336 201 201 201
18.984375000000 15.460937500000 63.624008178711 220 220 220
18.984375000000 15.468750000000 63.656997680664 217 217 217
18.984375000000 15.468750000000 63.688995361328 220 220 220
18.984375000000 15.460937500000 63.720001220703 222 222 222
18.484375000000 15.156250000000 63.628005981445 211 211 211
18.500000000000 15.171875000000 63.667999267578 217 217 217
18.484375000000 15.164062500000 63.701995849609 192 192 192
18.484375000000 15.156250000000 63.736007690430 87 87 87
18.953125000000 15.789062500000 63.594009399414 205 205 205
18.953125000000 15.789062500000 63.625000000000 220 220 220
18.953125000000 15.789062500000 63.658996582031 221 221 221
18.953125000000 15.781250000000 63.688003540039 219 219 219
18.953125000000 15.781250000000 63.721008300781 221 221 221
18.515625000000 15.523437500000 63.650009155273 221 221 221
18.484375000000 15.507812500000 63.682006835938 213 213 213
18.484375000000 15.507812500000 63.714996337891 194 194 194
18.906250000000 16.101562500000 63.595001220703 206 206 206
18.906250000000 16.101562500000 63.628997802734 220 220 220
18.890625000000 16.093750000000 63.658996582031 193 193 193
18.890625000000 16.093750000000 63.691009521484 198 198 198
18.890625000000 16.093750000000 63.723007202148 222 222 222
18.484375000000 15.851562500000 63.663009643555 222 222 222
18.484375000000 15.851562500000 63.697998046875 198 198 198
18.484375000000 15.851562500000 63.732009887695 91 91 91
18.859375000000 16.398437500000 63.596008300781 209 209 209
18.859375000000 16.398437500000 63.628997802734 220 220 220
18.843750000000 16.390625000000 63.660995483398 159 159 159
18.859375000000 16.398437500000 63.695007324219 220 220 220
18.828125000000 16.406250000000 63.723999023438 223 223 223
18.484375000000 16.187500000000 63.679000854492 213 213 213
18.484375000000 16.203125000000 63.712997436523 200 200 200
18.796875000000 16.726562500000 63.596008300781 209 209 209
18.796875000000 16.710937500000 63.628997802734 219 219 219
18.796875000000 16.710937500000 63.663009643555 158 158 158
18.796875000000 16.710937500000 63.695007324219 221 221 221
18.750000000000 16.703125000000 63.720001220703 222 222 222
18.484375000000 16.546875000000 63.695007324219 191 191 191
18.484375000000 16.546875000000 63.731002807617 110 110 110
18.734375000000 17.031250000000 63.591995239258 207 207 207
18.765625000000 17.039062500000 63.630004882813 216 216 216
18.734375000000 17.046875000000 63.662002563477 211 211 211
18.750000000000 17.039062500000 63.695007324219 220 220 220
18.703125000000 17.007812500000 63.718002319336 222 222 222
18.484375000000 16.882812500000 63.704010009766 194 194 194
18.671875000000 17.351562500000 63.593002319336 210 210 210
18.703125000000 17.367187500000 63.630004882813 202 202 202
18.703125000000 17.367187500000 63.664001464844 158 158 158
18.687500000000 17.359375000000 63.695999145508 216 216 216
18.625000000000 17.312500000000 63.712997436523 201 201 201
18.500000000000 17.226562500000 63.719009399414 143 143 143
18.640625000000 17.671875000000 63.596008300781 211 211 211
18.640625000000 17.671875000000 63.628997802734 220 220 220
18.640625000000 17.671875000000 63.663009643555 219 219 219
18.640625000000 17.671875000000 63.697006225586 216 216 216
18.562500000000 17.609375000000 63.712997436523 194 194 194
18.562500000000 17.617187500000 63.748001098633 150 150 150
18.562500000000 17.617187500000 63.781997680664 150 150 150
18.562500000000 17.617187500000 63.817001342773 144 144 144
18.531250000000 17.617187500000 63.846008300781 89 89 89
18.484375000000 17.578125000000 63.870010375977 41 41 41
18.593750000000 17.992187500000 63.566009521484 97 97 97
18.593750000000 17.992187500000 63.600006103516 222 222 222
18.593750000000 17.992187500000 63.634002685547 223 223 223
18.609375000000 18.000000000000 63.669998168945 222 222 222
18.593750000000 17.992187500000 63.703002929688 216 216 216
18.515625000000 17.929687500000 63.718002319336 119 119 119
18.500000000000 18.273437500000 63.557006835938 21 21 21
18.515625000000 18.289062500000 63.595001220703 221 221 221
18.515625000000 18.289062500000 63.630004882813 218 218 218
18.515625000000 18.289062500000 63.666000366211 220 220 220
18.515625000000 18.289062500000 63.699005126953 214 214 214
18.515625000000 18.632812500000 63.572006225586 134 134 134
18.500000000000 18.625000000000 63.602996826172 220 220 220
18.484375000000 18.617187500000 63.637008666992 221 221 221
18.500000000000 18.625000000000 63.673995971680 220 220 220
18.484375000000 18.617187500000 63.705001831055 180 180 180
18.484375000000 18.945312500000 63.576004028320 193 193 193
18.468750000000 18.937500000000 63.609008789063 219 219 219
18.484375000000 18.953125000000 63.647003173828 218 218 218
18.468750000000 18.937500000000 63.679000854492 222 222 222
18.453125000000 18.945312500000 63.710998535156 78 78 78
18.437500000000 19.273437500000 63.581008911133 216 216 216
18.453125000000 19.281250000000 63.617996215820 215 215 215
18.453125000000 19.281250000000 63.652999877930 219 219 219
18.453125000000 19.281250000000 63.688003540039 210 210 210
18.421875000000 19.601562500000 63.589004516602 220 220 220
18.421875000000 19.609375000000 63.625000000000 218 218 218
18.421875000000 19.617187500000 63.662002563477 219 219 219
18.406250000000 19.601562500000 63.693008422852 174 174 174
18.390625000000 19.945312500000 63.561004638672 143 143 143
18.390625000000 19.937500000000 63.595001220703 223 223 223
18.390625000000 19.945312500000 63.632995605469 218 218 218
18.390625000000 19.945312500000 63.667999267578 221 221 221
18.359375000000 19.929687500000 63.697006225586 66 66 66
18.359375000000 20.265625000000 63.566009521484 180 180 180
18.359375000000 20.273437500000 63.602996826172 220 220 220
18.359375000000 20.273437500000 63.638000488281 219 219 219
18.359375000000 20.265625000000 63.673004150391 212 212 212
18.328125000000 20.609375000000 63.570999145508 206 206 206
18.328125000000 20.617187500000 63.608001708984 221 221 221
18.359375000000 20.601562500000 63.645004272461 219 219 219
18.328125000000 20.601562500000 63.676010131836 188 188 188
18.312500000000 20.921875000000 63.576995849609 218 218 218
18.328125000000 20.937500000000 63.613998413086 219 219 219
18.328125000000 20.937500000000 63.651000976563 221 221 221
18.296875000000 20.929687500000 63.680007934570 91 91 91
18.359375000000 13.398437500000 63.777999877930 58 58 58
18.453125000000 13.343750000000 63.766006469727 149 149 149
18.500000000000 13.312500000000 63.740005493164 140 140 140
18.500000000000 13.312500000000 63.706008911133 150 150 150
18.500000000000 13.312500000000 63.669998168945 143 143 143
18.515625000000 13.304687500000 63.634002685547 149 149 149
18.500000000000 13.312500000000 63.597000122070 150 150 150
18.484375000000 13.320312500000 63.555007934570 149 149 149
18.453125000000 13.679687500000 63.748001098633 42 42 42
18.468750000000 13.664062500000 63.714996337891 152 152 152
18.484375000000 13.656250000000 63.680007934570 153 153 153
18.484375000000 13.656250000000 63.643997192383 153 153 153
18.484375000000 13.656250000000 63.607009887695 154 154 154
18.453125000000 13.656250000000 63.569000244141 140 140 140
18.765625000000 13.843750000000 63.800003051758 93 93 93
18.875000000000 13.789062500000 63.794006347656 134 134 134
18.921875000000 13.757812500000 63.770996093750 141 141 141
18.921875000000 13.757812500000 63.740997314453 141 141 141
18.921875000000 13.757812500000 63.707000732422 144 144 144
18.921875000000 13.757812500000 63.673004150391 144 144 144
19.281250000000 13.562500000000 63.736999511719 161 161 161
19.453125000000 13.468750000000 63.757003784180 130 130 130
19.500000000000 13.445312500000 63.738998413086 170 170 170
19.515625000000 13.437500000000 63.710998535156 171 171 171
19.515625000000 13.437500000000 63.680999755859 170 170 170
19.515625000000 13.437500000000 63.652008056641 169 169 169
19.515625000000 13.437500000000 63.622009277344 168 168 168
19.515625000000 13.437500000000 63.594009399414 171 171 171
19.500000000000 13.437500000000 63.561996459961 171 171 171
19.500000000000 13.437500000000 63.531997680664 167 167 167
18.921875000000 13.726562500000 63.307998657227 151 151 151
18.921875000000 13.726562500000 63.273010253906 145 145 145
18.921875000000 13.726562500000 63.240005493164 144 144 144
18.937500000000 13.710937500000 63.208007812500 148 148 148
18.937500000000 13.710937500000 63.173004150391 146 146 146
18.937500000000 13.710937500000 63.138000488281 143 143 143
18.937500000000 13.710937500000 63.104995727539 151 151 151
18.734375000000 14.195312500000 63.776000976563 137 137 137
18.953125000000 14.078125000000 63.794006347656 114 114 114
19.078125000000 14.015625000000 63.790008544922 156 156 156
19.078125000000 14.000000000000 63.763000488281 167 167 167
19.078125000000 14.015625000000 63.729003906250 169 169 169
19.218750000000 13.929687500000 63.734008789063 133 133 133
19.234375000000 13.921875000000 63.710006713867 136 136 136
19.234375000000 13.914062500000 63.676010131836 140 140 140
19.218750000000 13.929687500000 63.643005371094 141 141 141
19.250000000000 13.914062500000 63.619003295898 127 127 127
19.250000000000 13.914062500000 63.587997436523 129 129 129
19.109375000000 13.976562500000 63.514999389648 164 164 164
19.078125000000 13.992187500000 63.473007202148 175 175 175
19.078125000000 13.992187500000 63.438995361328 180 180 180
19.078125000000 13.992187500000 63.406997680664 178 178 178
19.078125000000 13.992187500000 63.374008178711 181 181 181
19.078125000000 13.984375000000 63.341995239258 181 181 181
19.078125000000 13.984375000000 63.309005737305 177 177 177
19.078125000000 13.984375000000 63.279006958008 177 177 177
19.078125000000 13.984375000000 63.242004394531 176 176 176
19.078125000000 13.984375000000 63.208007812500 180 180 180
19.078125000000 13.984375000000 63.177001953125 177 177 177
19.078125000000 13.984375000000 63.143005371094 164 164 164
19.078125000000 13.984375000000 63.107009887695 155 155 155
19.046875000000 13.976562500000 63.065002441406 173 173 173
18.859375000000 14.078125000000 62.837005615234 177 177 177
18.546875000000 14.640625000000 63.740005493164 126 126 126
18.546875000000 14.625000000000 63.707000732422 166 166 166
18.578125000000 14.609375000000 63.680007934570 204 204 204
18.578125000000 14.609375000000 63.645004272461 207 207 207
18.546875000000 14.617187500000 63.604003906250 181 181 181
19.187500000000 14.296875000000 63.735000610352 148 148 148
19.171875000000 14.289062500000 63.703002929688 148 148 148
19.171875000000 14.289062500000 63.671997070313 147 147 147
19.171875000000 14.289062500000 63.639007568359 149 149 149
19.187500000000 14.273437500000 63.611007690430 148 148 148
19.187500000000 14.273437500000 63.580001831055 136 136 136
18.531250000000 14.976562500000 63.718002319336 187 187 187
18.546875000000 14.960937500000 63.684005737305 209 209 209
18.546875000000 14.960937500000 63.648010253906 209 209 209
18.546875000000 14.960937500000 63.613998413086 201 201 201
19.140625000000 14.656250000000 63.734008789063 204 204 204
19.140625000000 14.656250000000 63.703002929688 212 212 212
19.140625000000 14.656250000000 63.671997070313 213 213 213
19.140625000000 14.640625000000 63.641006469727 212 212 212
19.140625000000 14.656250000000 63.608001708984 212 212 212
19.140625000000 14.640625000000 63.579010009766 125 125 125
18.515625000000 15.304687500000 63.733001708984 149 149 149
18.515625000000 15.304687500000 63.697998046875 184 184 184
18.515625000000 15.304687500000 63.663009643555 209 209 209
18.546875000000 15.296875000000 63.628997802734 214 214 214
19.078125000000 15.015625000000 63.733001708984 212 212 212
19.078125000000 15.007812500000 63.705001831055 213 213 213
19.078125000000 15.007812500000 63.673004150391 208 208 208
19.093750000000 15.000000000000 63.643005371094 212 212 212
19.093750000000 15.000000000000 63.611007690430 212 212 212
19.093750000000 15.000000000000 63.580001831055 114 114 114
18.531250000000 15.640625000000 63.718002319336 183 183 183
18.531250000000 15.640625000000 63.682998657227 157 157 157
18.546875000000 15.632812500000 63.654006958008 133 133 133
19.031250000000 15.375000000000 63.740005493164 188 188 188
19.046875000000 15.367187500000 63.710998535156 215 215 215
19.046875000000 15.367187500000 63.679000854492 210 210 210
19.046875000000 15.367187500000 63.648010253906 211 211 211
19.046875000000 15.367187500000 63.615997314453 213 213 213
19.046875000000 15.351562500000 63.587005615234 130 130 130
18.515625000000 15.992187500000 63.731002807617 102 102 102
18.531250000000 15.976562500000 63.699996948242 185 185 185
18.531250000000 15.976562500000 63.664001464844 209 209 209
18.875000000000 15.789062500000 63.714996337891 226 226 226
18.984375000000 15.734375000000 63.710998535156 207 207 207
19.000000000000 15.726562500000 63.680007934570 193 193 193
19.000000000000 15.726562500000 63.649002075195 197 197 197
18.984375000000 15.726562500000 63.613998413086 211 211 211
19.015625000000 15.710937500000 63.589004516602 151 151 151
18.531250000000 16.312500000000 63.710006713867 195 195 195
18.531250000000 16.312500000000 63.676010131836 212 212 212
18.859375000000 16.132812500000 63.723007202148 223 223 223
18.921875000000 16.109375000000 63.707000732422 201 201 201
18.937500000000 16.093750000000 63.675003051758 180 180 180
18.937500000000 16.093750000000 63.643005371094 201 201 201
18.937500000000 16.093750000000 63.611007690430 209 209 209
18.890625000000 16.117187500000 63.567001342773 46 46 46
18.515625000000 16.664062500000 63.719009399414 182 182 182
18.546875000000 16.656250000000 63.686996459961 195 195 195
18.843750000000 16.484375000000 63.725006103516 211 211 211
18.859375000000 16.476562500000 63.701995849609 208 208 208
18.859375000000 16.468750000000 63.667999267578 199 199 199
18.859375000000 16.468750000000 63.636001586914 210 210 210
18.859375000000 16.468750000000 63.602005004883 202 202 202
18.500000000000 17.015625000000 63.729003906250 32 32 32
18.531250000000 17.000000000000 63.701004028320 187 187 187
18.750000000000 16.875000000000 63.719009399414 215 215 215
18.796875000000 16.851562500000 63.699005126953 204 204 204
18.796875000000 16.843750000000 63.665008544922 197 197 197
18.812500000000 16.835937500000 63.635009765625 209 209 209
18.812500000000 16.835937500000 63.600997924805 200 200 200
18.515625000000 17.335937500000 63.719009399414 149 149 149
18.609375000000 17.281250000000 63.706008911133 193 193 193
18.750000000000 17.210937500000 63.706008911133 204 204 204
18.765625000000 17.195312500000 63.673004150391 180 180 180
18.765625000000 17.195312500000 63.639999389648 179 179 179
18.734375000000 17.203125000000 63.602005004883 203 203 203
18.609375000000 17.632812500000 63.822998046875 133 133 133
18.609375000000 17.617187500000 63.790008544922 101 101 101
18.609375000000 17.617187500000 63.755996704102 141 141 141
18.640625000000 17.601562500000 63.729003906250 157 157 157
18.703125000000 17.570312500000 63.706008911133 204 204 204
18.703125000000 17.562500000000 63.673995971680 188 188 188
18.703125000000 17.562500000000 63.641006469727 193 193 193
18.703125000000 17.562500000000 63.606002807617 204 204 204
18.546875000000 17.976562500000 63.718002319336 132 132 132
18.640625000000 17.929687500000 63.705001831055 210 210 210
18.640625000000 17.945312500000 63.669006347656 210 210 210
18.640625000000 17.929687500000 63.637008666992 206 206 206
18.640625000000 17.929687500000 63.602005004883 214 214 214
18.625000000000 17.945312500000 63.563995361328 90 90 90
18.531250000000 18.343750000000 63.723999023438 72 72 72
18.546875000000 18.320312500000 63.695007324219 212 212 212
18.546875000000 18.320312500000 63.660995483398 212 212 212
18.546875000000 18.312500000000 63.625000000000 212 212 212
18.546875000000 18.312500000000 63.589996337891 203 203 203
18.515625000000 18.679687500000 63.699996948242 202 202 202
18.515625000000 18.671875000000 63.667007446289 209 209 209
18.515625000000 18.671875000000 63.632003784180 213 213 213
18.515625000000 18.671875000000 63.597000122070 213 213 213
18.484375000000 19.031250000000 63.706008911133 148 148 148
18.500000000000 19.031250000000 63.675003051758 208 208 208
18.500000000000 19.031250000000 63.641006469727 211 211 211
18.500000000000 19.031250000000 63.607009887695 211 211 211
18.484375000000 19.023437500000 63.570999145508 140 140 140
18.468750000000 19.375000000000 63.684997558594 209 209 209
18.468750000000 19.375000000000 63.650009155273 209 209 209
18.484375000000 19.359375000000 63.617004394531 213 213 213
18.484375000000 19.359375000000 63.583007812500 195 195 195
18.437500000000 19.726562500000 63.694000244141 161 161 161
18.453125000000 19.718750000000 63.660995483398 213 213 213
18.453125000000 19.718750000000 63.626007080078 210 210 210
18.453125000000 19.718750000000 63.589004516602 212 212 212
18.390625000000 20.085937500000 63.699005126953 96 96 96
18.421875000000 20.078125000000 63.667999267578 208 208 208
18.421875000000 20.070312500000 63.632995605469 208 208 208
18.406250000000 20.070312500000 63.597000122070 208 208 208
18.406250000000 20.070312500000 63.559997558594 110 110 110
18.390625000000 20.429687500000 63.677001953125 198 198 198
18.390625000000 20.421875000000 63.641998291016 212 212 212
18.390625000000 20.429687500000 63.606002807617 209 209 209
18.390625000000 20.421875000000 63.570999145508 179 179 179
18.359375000000 20.789062500000 63.680999755859 165 165 165
18.359375000000 20.789062500000 63.647003173828 208 208 208
18.359375000000 20.789062500000 63.610000610352 210 210 210
18.359375000000 20.789062500000 63.574005126953 196 196 196
18.359375000000 20.757812500000 63.733001708984 79 79 79
18.343750000000 20.750000000000 63.701004028320 220 220 220
18.343750000000 20.750000000000 63.671005249023 220 220 220
18.343750000000 20.750000000000 63.639007568359 218 218 218
18.359375000000 20.757812500000 63.611007690430 183 183 183
18.343750000000 20.460937500000 63.733001708984 79 79 79
18.359375000000 20.460937500000 63.706008911133 218 218 218
18.359375000000 20.460937500000 63.676010131836 217 217 217
18.359375000000 20.460937500000 63.643997192383 221 221 221
18.359375000000 20.460937500000 63.613006591797 201 201 201
18.375000000000 20.164062500000 63.740997314453 31 31 31
18.390625000000 20.156250000000 63.714004516602 215 215 215
18.390625000000 20.156250000000 63.682006835938 217 217 217
18.390625000000 20.156250000000 63.651000976563 221 221 221
18.390625000000 20.156250000000 63.620010375977 218 218 218
18.406250000000 19.875000000000 63.738998413086 143 143 143
18.406250000000 19.875000000000 63.710998535156 219 219 219
18.406250000000 19.875000000000 63.678009033203 221 221 221
18.406250000000 19.875000000000 63.649002075195 218 218 218
18.406250000000 19.875000000000 63.617996215820 199 199 199
18.421875000000 19.601562500000 63.751998901367 91 91 91
18.421875000000 19.609375000000 63.723007202148 219 219 219
18.421875000000 19.601562500000 63.692001342773 218 218 218
18.421875000000 19.601562500000 63.662002563477 217 217 217
18.421875000000 19.609375000000 63.632995605469 212 212 212
18.453125000000 19.328125000000 63.734008789063 214 214 214
18.437500000000 19.335937500000 63.701004028320 224 224 224
18.453125000000 19.328125000000 63.671005249023 221 221 221
18.437500000000 19.335937500000 63.639999389648 219 219 219
18.468750000000 19.335937500000 63.613998413086 99 99 99
18.453125000000 19.054687500000 63.750000000000 121 121 121
18.468750000000 19.054687500000 63.720001220703 223 223 223
18.484375000000 19.039062500000 63.691009521484 221 221 221
18.484375000000 19.046875000000 63.663009643555 218 218 218
18.484375000000 19.046875000000 63.632003784180 215 215 215
18.484375000000 18.757812500000 63.751998901367 110 110 110
18.500000000000 18.750000000000 63.723999023438 218 218 218
18.484375000000 18.757812500000 63.693008422852 223 223 223
18.500000000000 18.750000000000 63.664001464844 221 221 221
18.500000000000 18.750000000000 63.632995605469 220 220 220
18.515625000000 18.750000000000 63.608001708984 74 74 74
18.515625000000 18.468750000000 63.757003784180 137 137 137
18.515625000000 18.460937500000 63.725997924805 221 221 221
18.515625000000 18.460937500000 63.695007324219 223 223 223
18.531250000000 18.453125000000 63.666000366211 219 219 219
18.515625000000 18.445312500000 63.636001586914 223 223 223
18.546875000000 18.460937500000 63.613006591797 78 78 78
18.546875000000 18.164062500000 63.747009277344 212 212 212
18.546875000000 18.164062500000 63.716995239258 223 223 223
18.531250000000 18.164062500000 63.686004638672 222 222 222
18.546875000000 18.171875000000 63.658996582031 218 218 218
18.546875000000 18.171875000000 63.630004882813 208 208 208
18.609375000000 17.906250000000 63.766006469727 178 178 178
18.609375000000 17.906250000000 63.736999511719 219 219 219
18.625000000000 17.890625000000 63.708999633789 216 216 216
18.625000000000 17.890625000000 63.680007934570 212 212 212
18.593750000000 17.898437500000 63.647003173828 224 224 224
18.640625000000 17.898437500000 63.624008178711 137 137 137
18.578125000000 17.625000000000 63.766998291016 168 168 168
18.656250000000 17.632812500000 63.753005981445 213 213 213
18.656250000000 17.632812500000 63.723999023438 209 209 209
18.656250000000 17.632812500000 63.695007324219 213 213 213
18.671875000000 17.617187500000 63.666000366211 208 208 208
18.656250000000 17.632812500000 63.635009765625 205 205 205
18.546875000000 17.343750000000 63.748001098633 200 200 200
18.703125000000 17.343750000000 63.749008178711 217 217 217
18.734375000000 17.343750000000 63.723007202148 198 198 198
18.734375000000 17.343750000000 63.694000244141 199 199 199
18.703125000000 17.343750000000 63.660995483398 218 218 218
18.703125000000 17.343750000000 63.632003784180 202 202 202
18.515625000000 17.046875000000 63.740997314453 197 197 197
18.734375000000 17.046875000000 63.753997802734 214 214 214
18.765625000000 17.054687500000 63.727996826172 218 218 218
18.765625000000 17.046875000000 63.701004028320 203 203 203
18.765625000000 17.046875000000 63.669998168945 212 212 212
18.750000000000 17.046875000000 63.639999389648 215 215 215
18.765625000000 17.054687500000 63.615997314453 56 56 56
18.515625000000 16.757812500000 63.768005371094 139 139 139
18.546875000000 16.750000000000 63.742004394531 187 187 187
18.796875000000 16.750000000000 63.760009765625 213 213 213
18.796875000000 16.757812500000 63.734008789063 212 212 212
18.796875000000 16.750000000000 63.703002929688 167 167 167
18.796875000000 16.750000000000 63.675003051758 214 214 214
18.796875000000 16.750000000000 63.645004272461 216 216 216
18.796875000000 16.742187500000 63.613998413086 67 67 67
18.515625000000 16.468750000000 63.781997680664 60 60 60
18.500000000000 16.468750000000 63.751007080078 203 203 203
18.703125000000 16.468750000000 63.757995605469 216 216 216
18.843750000000 16.476562500000 63.755004882813 216 216 216
18.859375000000 16.476562500000 63.727996826172 213 213 213
18.859375000000 16.460937500000 63.699996948242 212 212 212
18.843750000000 16.476562500000 63.669998168945 219 219 219
18.843750000000 16.476562500000 63.641006469727 206 206 206
18.500000000000 16.195312500000 63.757003784180 207 207 207
18.546875000000 16.203125000000 63.732009887695 215 215 215
18.875000000000 16.203125000000 63.768997192383 216 216 216
18.890625000000 16.195312500000 63.742996215820 208 208 208
18.906250000000 16.203125000000 63.716003417969 201 201 201
18.890625000000 16.195312500000 63.684997558594 216 216 216
18.890625000000 16.195312500000 63.656997680664 219 219 219
18.890625000000 16.195312500000 63.630004882813 120 120 120
18.500000000000 15.914062500000 63.766998291016 189 189 189
18.515625000000 15.921875000000 63.738998413086 199 199 199
18.765625000000 15.921875000000 63.757995605469 229 229 229
18.921875000000 15.921875000000 63.759002685547 218 218 218
18.937500000000 15.929687500000 63.732009887695 218 218 218
18.921875000000 15.921875000000 63.703002929688 218 218 218
18.953125000000 15.921875000000 63.676010131836 216 216 216
18.953125000000 15.921875000000 63.648010253906 218 218 218
18.515625000000 15.625000000000 63.757003784180 197 197 197
18.515625000000 15.632812500000 63.729003906250 181 181 181
18.937500000000 15.640625000000 63.779998779297 202 202 202
18.984375000000 15.632812500000 63.761001586914 218 218 218
18.953125000000 15.640625000000 63.729003906250 223 223 223
18.984375000000 15.625000000000 63.703002929688 217 217 217
18.984375000000 15.632812500000 63.677001953125 215 215 215
18.984375000000 15.632812500000 63.649002075195 217 217 217
18.984375000000 15.632812500000 63.622009277344 71 71 71
18.515625000000 15.328125000000 63.755996704102 202 202 202
18.515625000000 15.328125000000 63.725006103516 214 214 214
18.531250000000 15.328125000000 63.699005126953 212 212 212
19.015625000000 15.343750000000 63.764007568359 223 223 223
19.015625000000 15.343750000000 63.736999511719 224 224 224
19.015625000000 15.328125000000 63.712005615234 218 218 218
19.015625000000 15.343750000000 63.680999755859 222 222 222
19.015625000000 15.328125000000 63.656997680664 220 220 220
19.031250000000 15.335937500000 63.630004882813 180 180 180
18.500000000000 15.023437500000 63.781005859375 72 72 72
18.515625000000 15.031250000000 63.751998901367 197 197 197
18.515625000000 15.039062500000 63.723007202148 213 213 213
18.531250000000 15.031250000000 63.694000244141 202 202 202
19.046875000000 15.039062500000 63.768997192383 217 217 217
19.062500000000 15.046875000000 63.742996215820 220 220 220
19.062500000000 15.046875000000 63.716003417969 220 220 220
19.046875000000 15.039062500000 63.686004638672 223 223 223
19.062500000000 15.046875000000 63.660003662109 219 219 219
19.062500000000 15.046875000000 63.632995605469 209 209 209
18.515625000000 14.750000000000 63.768997192383 183 183 183
18.515625000000 14.750000000000 63.738998413086 193 193 193
18.515625000000 14.750000000000 63.707000732422 217 217 217
18.484375000000 14.742187500000 63.671005249023 206 206 206
19.109375000000 14.765625000000 63.766006469727 217 217 217
19.109375000000 14.765625000000 63.738006591797 223 223 223
19.109375000000 14.765625000000 63.710998535156 218 218 218
19.109375000000 14.765625000000 63.682998657227 220 220 220
19.109375000000 14.765625000000 63.656997680664 221 221 221
19.109375000000 14.765625000000 63.628005981445 198 198 198
18.515625000000 14.476562500000 63.777999877930 161 161 161
18.515625000000 14.476562500000 63.748001098633 171 171 171
18.515625000000 14.476562500000 63.716995239258 173 173 173
18.515625000000 14.476562500000 63.686996459961 171 171 171
19.140625000000 14.500000000000 63.781997680664 168 168 168
19.140625000000 14.492187500000 63.753997802734 167 167 167
19.140625000000 14.492187500000 63.725997924805 174 174 174
19.140625000000 14.492187500000 63.699005126953 169 169 169
19.140625000000 14.492187500000 63.673004150391 173 173 173
19.140625000000 14.492187500000 63.645004272461 175 175 175
19.156250000000 14.484375000000 63.617996215820 119 119 119
18.515625000000 14.203125000000 63.789001464844 83 83 83
18.531250000000 14.203125000000 63.761001586914 177 177 177
18.546875000000 14.210937500000 63.731002807617 171 171 171
18.546875000000 14.195312500000 63.699996948242 180 180 180
18.500000000000 14.210937500000 63.662002563477 181 181 181
19.187500000000 14.210937500000 63.772003173828 176 176 176
19.171875000000 14.226562500000 63.742996215820 177 177 177
19.171875000000 14.210937500000 63.716003417969 168 168 168
19.171875000000 14.210937500000 63.688995361328 167 167 167
19.171875000000 14.210937500000 63.662002563477 174 174 174
19.171875000000 14.210937500000 63.635009765625 169 169 169
19.187500000000 14.210937500000 63.609008789063 116 116 116
19.046875000000 14.195312500000 63.514999389648 52 52 52
19.046875000000 14.195312500000 63.486007690430 73 73 73
19.015625000000 14.210937500000 63.455001831055 105 105 105
19.046875000000 14.195312500000 63.429000854492 113 113 113
19.015625000000 14.210937500000 63.398010253906 121 121 121
19.015625000000 14.203125000000 63.367996215820 132 132 132
19.046875000000 14.195312500000 63.343002319336 133 133 133
19.015625000000 14.203125000000 63.304000854492 188 188 188
19.031250000000 14.195312500000 63.281997680664 172 172 172
19.031250000000 14.187500000000 63.251007080078 167 167 167
19.046875000000 14.195312500000 63.225997924805 161 161 161
19.031250000000 14.195312500000 63.194000244141 159 159 159
19.046875000000 14.195312500000 63.171005249023 161 161 161
19.046875000000 14.195312500000 63.137008666992 163 163 163
