20.640625000000 3.804687500000 65.402008056641 164 164 164
20.640625000000 3.812500000000 65.380004882813 165 165 165
20.640625000000 3.804687500000 65.357009887695 166 166 166
20.640625000000 3.804687500000 65.333999633789 162 162 162
20.640625000000 3.804687500000 65.311004638672 165 165 165
20.640625000000 3.804687500000 65.288009643555 163 163 163
20.640625000000 3.804687500000 65.264999389648 164 164 164
20.640625000000 3.789062500000 65.242996215820 166 166 166
20.640625000000 3.796875000000 65.220001220703 166 166 166
20.640625000000 3.796875000000 65.197006225586 166 166 166
20.640625000000 3.796875000000 65.175003051758 167 167 167
20.640625000000 3.781250000000 65.152008056641 167 167 167
20.640625000000 3.781250000000 65.128997802734 166 166 166
20.640625000000 3.781250000000 65.107009887695 165 165 165
20.671875000000 3.773437500000 65.083999633789 165 165 165
20.671875000000 3.773437500000 65.061004638672 165 165 165
20.640625000000 3.773437500000 65.039001464844 164 164 164
20.640625000000 3.773437500000 65.016006469727 165 165 165
20.640625000000 3.773437500000 64.992996215820 165 165 165
20.640625000000 3.773437500000 64.971008300781 165 165 165
20.656250000000 3.765625000000 64.947998046875 164 164 164
20.656250000000 3.765625000000 64.926010131836 162 162 162
20.656250000000 3.765625000000 64.902999877930 165 165 165
20.656250000000 3.765625000000 64.880996704102 163 163 163
20.656250000000 3.765625000000 64.858001708984 165 165 165
20.640625000000 3.765625000000 64.835006713867 165 165 165
20.640625000000 3.765625000000 64.813003540039 162 162 162
20.640625000000 3.765625000000 64.790008544922 163 163 163
20.640625000000 3.765625000000 64.766998291016 160 160 160
20.640625000000 3.765625000000 64.745010375977 163 163 163
20.640625000000 3.757812500000 64.721008300781 159 159 159
20.656250000000 3.750000000000 64.699005126953 162 162 162
20.640625000000 3.757812500000 64.676010131836 163 163 163
20.656250000000 3.750000000000 64.654006958008 160 160 160
20.640625000000 3.742187500000 64.630996704102 162 162 162
20.640625000000 3.742187500000 64.609008789063 165 165 165
20.640625000000 3.742187500000 64.585998535156 163 163 163
20.640625000000 3.742187500000 64.563003540039 161 161 161
20.640625000000 3.742187500000 64.540008544922 160 160 160
20.640625000000 3.742187500000 64.516998291016 159 159 159
20.656250000000 3.734375000000 64.495010375977 163 163 163
20.656250000000 3.734375000000 64.472000122070 161 161 161
20.640625000000 3.742187500000 64.447006225586 162 162 162
20.640625000000 3.734375000000 64.426010131836 162 162 162
20.640625000000 3.734375000000 64.402008056641 160 160 160
20.640625000000 3.734375000000 64.380004882813 160 160 160
20.640625000000 3.734375000000 64.357009887695 158 158 158
20.640625000000 3.734375000000 64.333999633789 162 162 162
20.656250000000 3.718750000000 64.311996459961 160 160 160
20.656250000000 3.718750000000 64.287002563477 161 161 161
20.640625000000 3.734375000000 64.264007568359 159 159 159
20.656250000000 3.710937500000 64.240997314453 162 162 162
20.656250000000 3.710937500000 64.216995239258 161 161 161
20.640625000000 3.726562500000 64.192001342773 161 161 161
20.656250000000 3.718750000000 64.171997070313 158 158 158
20.656250000000 3.710937500000 64.148010253906 158 158 158
20.671875000000 3.695312500000 64.125000000000 160 160 160
20.656250000000 3.710937500000 64.098999023438 158 158 158
20.656250000000 3.710937500000 64.074996948242 163 163 163
20.671875000000 3.695312500000 64.053009033203 162 162 162
20.671875000000 3.695312500000 64.029006958008 161 161 161
20.671875000000 3.695312500000 64.005996704102 160 160 160
20.671875000000 3.695312500000 63.983001708984 158 158 158
20.671875000000 3.687500000000 63.958007812500 159 159 159
20.671875000000 3.687500000000 63.932998657227 160 160 160
20.671875000000 3.687500000000 63.908996582031 158 158 158
20.671875000000 3.687500000000 63.885009765625 158 158 158
20.671875000000 3.687500000000 63.860000610352 158 158 158
20.671875000000 3.679687500000 63.835998535156 158 158 158
20.656250000000 3.687500000000 63.809005737305 157 157 157
20.671875000000 3.679687500000 63.785995483398 158 158 158
20.671875000000 3.679687500000 63.760009765625 160 160 160
20.671875000000 3.679687500000 63.740005493164 158 158 158
20.671875000000 3.679687500000 63.712997436523 157 157 157
20.671875000000 3.679687500000 63.688995361328 158 158 158
20.671875000000 3.679687500000 63.663009643555 163 163 163
20.671875000000 3.679687500000 63.639007568359 160 160 160
20.671875000000 3.664062500000 63.615005493164 161 161 161
20.656250000000 3.671875000000 63.585998535156 159 159 159
20.671875000000 3.664062500000 63.565002441406 160 160 160
20.671875000000 3.656250000000 63.535995483398 155 155 155
20.671875000000 3.656250000000 63.509002685547 152 152 152
20.656250000000 3.656250000000 63.483001708984 147 147 147
20.671875000000 3.656250000000 63.460006713867 148 148 148
20.656250000000 3.656250000000 63.430007934570 146 146 146
20.656250000000 3.656250000000 63.404006958008 146 146 146
20.656250000000 3.656250000000 63.376007080078 143 143 143
20.656250000000 3.656250000000 63.352005004883 139 139 139
20.656250000000 3.648437500000 63.320999145508 137 137 137
20.656250000000 3.648437500000 63.294998168945 134 134 134
20.656250000000 3.648437500000 63.266998291016 130 130 130
20.640625000000 3.656250000000 63.231002807617 133 133 133
20.640625000000 3.656250000000 63.207000732422 127 127 127
20.671875000000 3.640625000000 63.192001342773 148 148 148
20.671875000000 3.640625000000 63.167999267578 150 150 150
20.671875000000 3.625000000000 63.141998291016 147 147 147
20.671875000000 3.625000000000 63.115997314453 149 149 149
20.671875000000 3.625000000000 63.085006713867 151 151 151
20.671875000000 3.625000000000 63.055999755859 151 151 151
20.671875000000 3.617187500000 63.026000976563 148 148 148
20.687500000000 3.609375000000 63.010009765625 158 158 158
20.703125000000 3.609375000000 62.990997314453 145 145 145
20.734375000000 3.593750000000 62.985000610352 150 150 150
20.265625000000 3.789062500000 66.523010253906 161 161 161
20.265625000000 3.789062500000 66.495010375977 161 161 161
20.265625000000 3.781250000000 66.469009399414 158 158 158
20.265625000000 3.789062500000 66.438003540039 157 157 157
20.265625000000 3.781250000000 66.414001464844 158 158 158
20.265625000000 3.781250000000 66.387008666992 158 158 158
20.359375000000 3.734375000000 66.326995849609 161 161 161
20.562500000000 3.617187500000 66.235000610352 133 133 133
20.578125000000 3.609375000000 66.205001831055 162 162 162
20.578125000000 3.609375000000 66.180007934570 175 175 175
20.562500000000 3.617187500000 66.158004760742 183 183 183
20.562500000000 3.617187500000 66.132003784180 164 164 164
20.546875000000 3.609375000000 66.111007690430 154 154 154
20.515625000000 3.632812500000 66.098999023438 103 103 103
20.515625000000 3.632812500000 66.072998046875 117 117 117
20.296875000000 3.742187500000 66.104003906250 165 165 165
20.265625000000 3.765625000000 66.085998535156 163 163 163
20.265625000000 3.765625000000 66.059997558594 167 167 167
20.250000000000 3.765625000000 66.033004760742 167 167 167
20.250000000000 3.765625000000 66.005996704102 162 162 162
20.250000000000 3.765625000000 65.977996826172 166 166 166
20.250000000000 3.765625000000 65.954010009766 166 166 166
20.250000000000 3.765625000000 65.926010131836 164 164 164
20.250000000000 3.765625000000 65.900009155273 161 161 161
20.234375000000 3.757812500000 65.875000000000 162 162 162
20.234375000000 3.757812500000 65.848007202148 162 162 162
20.234375000000 3.757812500000 65.822006225586 163 163 163
20.234375000000 3.750000000000 65.796997070313 164 164 164
20.265625000000 3.742187500000 65.768997192383 163 163 163
20.265625000000 3.742187500000 65.742996215820 161 161 161
20.265625000000 3.734375000000 65.718002319336 163 163 163
20.265625000000 3.734375000000 65.692001342773 161 161 161
20.265625000000 3.734375000000 65.666000366211 159 159 159
20.265625000000 3.734375000000 65.641006469727 163 163 163
20.265625000000 3.734375000000 65.613998413086 163 163 163
20.250000000000 3.734375000000 65.589004516602 161 161 161
20.250000000000 3.734375000000 65.563003540039 160 160 160
20.250000000000 3.734375000000 65.537002563477 161 161 161
20.250000000000 3.734375000000 65.512008666992 159 159 159
20.250000000000 3.734375000000 65.486007690430 163 163 163
20.265625000000 3.718750000000 65.460006713867 160 160 160
20.234375000000 3.726562500000 65.434997558594 159 159 159
20.250000000000 3.710937500000 65.408996582031 161 161 161
20.234375000000 3.726562500000 65.384002685547 159 159 159
20.250000000000 3.710937500000 65.358001708984 164 164 164
20.234375000000 3.726562500000 65.333007812500 159 159 159
20.234375000000 3.726562500000 65.307998657227 162 162 162
20.250000000000 3.710937500000 65.281997680664 161 161 161
20.234375000000 3.710937500000 65.257003784180 160 160 160
20.265625000000 3.703125000000 65.231002807617 161 161 161
20.265625000000 3.703125000000 65.206008911133 162 162 162
20.234375000000 3.710937500000 65.180999755859 161 161 161
20.234375000000 3.703125000000 65.154998779297 161 161 161
20.250000000000 3.703125000000 65.130004882813 167 167 167
20.359375000000 3.648437500000 65.104003906250 144 144 144
20.375000000000 3.632812500000 65.080001831055 137 137 137
20.359375000000 3.648437500000 65.055007934570 137 137 137
20.359375000000 3.640625000000 65.029998779297 136 136 136
20.359375000000 3.640625000000 65.005996704102 141 141 141
20.359375000000 3.640625000000 64.981002807617 141 141 141
20.359375000000 3.640625000000 64.957000732422 142 142 142
20.359375000000 3.640625000000 64.932006835938 139 139 139
20.265625000000 3.679687500000 64.902999877930 163 163 163
20.234375000000 3.687500000000 64.876998901367 163 163 163
20.234375000000 3.687500000000 64.850997924805 166 166 166
20.234375000000 3.687500000000 64.826004028320 162 162 162
20.234375000000 3.687500000000 64.801010131836 162 162 162
20.250000000000 3.671875000000 64.776000976563 160 160 160
20.265625000000 3.671875000000 64.751998901367 160 160 160
20.281250000000 3.664062500000 64.727996826172 165 165 165
20.296875000000 3.648437500000 64.704010009766 169 169 169
20.265625000000 3.656250000000 64.678009033203 163 163 163
20.296875000000 3.648437500000 64.654006958008 170 170 170
20.281250000000 3.640625000000 64.628005981445 162 162 162
20.281250000000 3.640625000000 64.602996826172 157 157 157
20.265625000000 3.648437500000 64.576004028320 155 155 155
20.265625000000 3.648437500000 64.551010131836 154 154 154
20.281250000000 3.640625000000 64.526000976563 154 154 154
20.281250000000 3.632812500000 64.500000000000 149 149 149
20.281250000000 3.632812500000 64.475006103516 148 148 148
20.265625000000 3.648437500000 64.447998046875 143 143 143
20.281250000000 3.632812500000 64.423995971680 148 148 148
20.281250000000 3.632812500000 64.399002075195 148 148 148
20.296875000000 3.625000000000 64.376007080078 147 147 147
20.296875000000 3.625000000000 64.348999023438 150 150 150
20.265625000000 3.632812500000 64.322006225586 144 144 144
20.265625000000 3.632812500000 64.296005249023 136 136 136
20.265625000000 3.632812500000 64.270004272461 134 134 134
20.265625000000 3.625000000000 64.242004394531 125 125 125
20.265625000000 3.625000000000 64.216003417969 125 125 125
20.250000000000 3.632812500000 64.186996459961 123 123 123
20.265625000000 3.617187500000 64.162002563477 122 122 122
20.234375000000 3.632812500000 64.132995605469 125 125 125
20.234375000000 3.632812500000 64.107009887695 130 130 130
20.250000000000 3.617187500000 64.083007812500 127 127 127
20.234375000000 3.632812500000 64.054000854492 123 123 123
20.234375000000 3.640625000000 64.024002075195 126 126 126
20.218750000000 3.640625000000 63.996002197266 117 117 117
20.234375000000 3.625000000000 63.973999023438 107 107 107
20.234375000000 3.625000000000 63.943008422852 100 100 100
20.234375000000 3.625000000000 63.917999267578 95 95 95
20.234375000000 3.625000000000 63.889007568359 86 86 86
20.203125000000 3.632812500000 63.860000610352 91 91 91
20.234375000000 3.617187500000 63.833007812500 88 88 88
20.234375000000 3.617187500000 63.805007934570 84 84 84
20.234375000000 3.617187500000 63.781005859375 82 82 82
20.203125000000 3.625000000000 63.747009277344 75 75 75
20.218750000000 3.609375000000 63.723007202148 73 73 73
20.218750000000 3.609375000000 63.694000244141 65 65 65
20.203125000000 3.625000000000 63.662002563477 47 47 47
20.203125000000 3.593750000000 63.201004028320 42 42 42
20.203125000000 3.585937500000 63.178009033203 159 159 159
20.203125000000 3.585937500000 63.147003173828 146 146 146
20.218750000000 3.578125000000 63.117996215820 147 147 147
20.203125000000 3.570312500000 63.085998535156 146 146 146
20.203125000000 3.578125000000 63.053009033203 146 146 146
20.203125000000 3.570312500000 63.025009155273 144 144 144
20.203125000000 3.570312500000 62.999008178711 154 154 154
20.265625000000 3.546875000000 62.992004394531 140 140 140
20.328125000000 3.515625000000 62.990997314453 139 139 139
20.390625000000 3.476562500000 62.994003295898 145 145 145
20.421875000000 3.460937500000 62.995010375977 148 148 148
20.453125000000 3.437500000000 62.981002807617 138 138 138
20.453125000000 4.023437500000 62.964004516602 132 132 132
20.453125000000 4.023437500000 62.995010375977 131 131 131
20.390625000000 3.992187500000 62.992004394531 135 135 135
20.359375000000 3.960937500000 62.999008178711 131 131 131
20.296875000000 3.937500000000 62.996002197266 126 126 126
20.234375000000 3.890625000000 62.992004394531 121 121 121
20.203125000000 3.851562500000 62.995010375977 152 152 152
20.187500000000 3.851562500000 63.018997192383 148 148 148
20.171875000000 3.843750000000 63.048995971680 158 158 158
20.187500000000 3.851562500000 63.083007812500 155 155 155
20.187500000000 3.851562500000 63.113998413086 155 155 155
20.203125000000 3.851562500000 63.147003173828 153 153 153
20.203125000000 3.851562500000 63.177001953125 155 155 155
20.171875000000 3.835937500000 63.199005126953 46 46 46
20.187500000000 3.820312500000 63.580001831055 33 33 33
20.187500000000 3.828125000000 63.611007690430 43 43 43
20.203125000000 3.835937500000 63.641998291016 52 52 52
20.187500000000 3.828125000000 63.667999267578 65 65 65
20.187500000000 3.828125000000 63.697006225586 65 65 65
20.203125000000 3.835937500000 63.727005004883 76 76 76
20.187500000000 3.828125000000 63.753997802734 88 88 88
20.203125000000 3.835937500000 63.783004760742 91 91 91
20.203125000000 3.835937500000 63.811004638672 98 98 98
20.203125000000 3.835937500000 63.839996337891 95 95 95
20.203125000000 3.835937500000 63.865005493164 95 95 95
20.203125000000 3.820312500000 63.893997192383 96 96 96
20.203125000000 3.820312500000 63.921005249023 101 101 101
20.203125000000 3.820312500000 63.949996948242 100 100 100
20.218750000000 3.828125000000 63.979003906250 97 97 97
20.203125000000 3.820312500000 64.003005981445 101 101 101
20.203125000000 3.820312500000 64.031997680664 101 101 101
20.218750000000 3.828125000000 64.059005737305 100 100 100
20.234375000000 3.828125000000 64.087997436523 105 105 105
20.218750000000 3.828125000000 64.113006591797 105 105 105
20.218750000000 3.828125000000 64.139999389648 104 104 104
20.234375000000 3.828125000000 64.167999267578 110 110 110
20.234375000000 3.828125000000 64.195007324219 108 108 108
20.234375000000 3.835937500000 64.222000122070 110 110 110
20.234375000000 3.835937500000 64.249008178711 112 112 112
20.218750000000 3.828125000000 64.273010253906 113 113 113
20.218750000000 3.828125000000 64.298995971680 118 118 118
20.234375000000 3.828125000000 64.326004028320 117 117 117
20.234375000000 3.820312500000 64.352005004883 123 123 123
20.250000000000 3.835937500000 64.380004882813 118 118 118
20.234375000000 3.820312500000 64.404998779297 124 124 124
20.234375000000 3.828125000000 64.430999755859 129 129 129
20.250000000000 3.835937500000 64.458999633789 130 130 130
20.234375000000 3.828125000000 64.483001708984 134 134 134
20.234375000000 3.828125000000 64.509002685547 131 131 131
20.234375000000 3.828125000000 64.535003662109 131 131 131
20.234375000000 3.828125000000 64.559997558594 128 128 128
20.234375000000 3.820312500000 64.585998535156 128 128 128
20.234375000000 3.828125000000 64.611999511719 132 132 132
20.234375000000 3.828125000000 64.638000488281 128 128 128
20.234375000000 3.828125000000 64.664001464844 124 124 124
20.265625000000 3.835937500000 64.690002441406 128 128 128
20.250000000000 3.835937500000 64.714996337891 129 129 129
20.265625000000 3.835937500000 64.740997314453 126 126 126
20.265625000000 3.835937500000 64.766998291016 123 123 123
20.250000000000 3.835937500000 64.792007446289 131 131 131
20.250000000000 3.835937500000 64.817001342773 122 122 122
20.265625000000 3.820312500000 64.841995239258 123 123 123
20.265625000000 3.828125000000 64.867996215820 133 133 133
20.265625000000 3.828125000000 64.893997192383 141 141 141
20.265625000000 3.828125000000 64.919006347656 130 130 130
20.281250000000 3.828125000000 64.944000244141 126 126 126
20.281250000000 3.828125000000 64.970001220703 127 127 127
20.281250000000 3.835937500000 64.995010375977 123 123 123
20.281250000000 3.835937500000 65.020004272461 125 125 125
20.265625000000 3.828125000000 65.044998168945 132 132 132
20.281250000000 3.835937500000 65.070007324219 124 124 124
20.281250000000 3.835937500000 65.095001220703 133 133 133
20.281250000000 3.828125000000 65.121002197266 145 145 145
20.281250000000 3.835937500000 65.145996093750 161 161 161
20.281250000000 3.835937500000 65.171005249023 168 168 168
20.296875000000 3.835937500000 65.195999145508 178 178 178
20.296875000000 3.835937500000 65.221008300781 171 171 171
20.296875000000 3.835937500000 65.246002197266 163 163 163
20.296875000000 3.835937500000 65.270996093750 162 162 162
20.296875000000 3.835937500000 65.296005249023 159 159 159
20.296875000000 3.828125000000 65.322006225586 163 163 163
20.296875000000 3.828125000000 65.347000122070 160 160 160
20.296875000000 3.828125000000 65.373001098633 164 164 164
20.296875000000 3.835937500000 65.397003173828 160 160 160
20.296875000000 3.820312500000 65.423995971680 153 153 153
20.296875000000 3.835937500000 65.447006225586 151 151 151
20.296875000000 3.828125000000 65.473999023438 152 152 152
20.296875000000 3.820312500000 65.500000000000 151 151 151
20.296875000000 3.820312500000 65.525009155273 153 153 153
20.281250000000 3.820312500000 65.551010131836 153 153 153
20.265625000000 3.812500000000 65.578002929688 152 152 152
20.265625000000 3.812500000000 65.604995727539 162 162 162
20.265625000000 3.812500000000 65.628997802734 155 155 155
20.265625000000 3.812500000000 65.656005859375 163 163 163
20.265625000000 3.804687500000 65.682998657227 159 159 159
20.265625000000 3.812500000000 65.706008911133 162 162 162
20.265625000000 3.812500000000 65.734008789063 159 159 159
20.265625000000 3.812500000000 65.760009765625 167 167 167
20.265625000000 3.812500000000 65.785995483398 168 168 168
20.281250000000 3.796875000000 65.809997558594 165 165 165
20.296875000000 3.804687500000 65.835006713867 170 170 170
20.281250000000 3.796875000000 65.863006591797 167 167 167
20.296875000000 3.804687500000 65.888000488281 170 170 170
20.281250000000 3.796875000000 65.915008544922 174 174 174
20.265625000000 3.796875000000 65.942001342773 174 174 174
20.281250000000 3.796875000000 65.968002319336 172 172 172
20.265625000000 3.796875000000 65.995010375977 172 172 172
20.281250000000 3.796875000000 66.020996093750 168 168 168
20.265625000000 3.796875000000 66.048995971680 168 168 168
20.296875000000 3.804687500000 66.072006225586 165 165 165
20.328125000000 3.843750000000 66.083007812500 98 98 98
20.359375000000 3.851562500000 66.100997924805 106 106 106
20.390625000000 3.875000000000 66.117996215820 152 152 152
20.390625000000 3.875000000000 66.145996093750 160 160 160
20.390625000000 3.875000000000 66.171997070313 153 153 153
20.390625000000 3.875000000000 66.195007324219 149 149 149
20.390625000000 3.867187500000 66.225006103516 136 136 136
20.265625000000 3.789062500000 66.292007446289 133 133 133
20.250000000000 3.773437500000 66.326995849609 163 163 163
20.265625000000 3.781250000000 66.352996826172 161 161 161
20.250000000000 3.773437500000 66.382003784180 164 164 164
20.265625000000 3.781250000000 66.408996582031 162 162 162
20.265625000000 3.765625000000 66.438003540039 158 158 158
20.265625000000 3.765625000000 66.466995239258 163 163 163
20.265625000000 3.773437500000 66.492004394531 164 164 164
20.265625000000 3.773437500000 66.520996093750 163 163 163
20.718750000000 3.898437500000 62.986007690430 162 162 162
20.687500000000 3.875000000000 62.992004394531 144 144 144
20.671875000000 3.851562500000 63.005004882813 164 164 164
20.656250000000 3.851562500000 63.029998779297 155 155 155
20.656250000000 3.851562500000 63.057998657227 156 156 156
20.656250000000 3.851562500000 63.087005615234 156 156 156
20.656250000000 3.851562500000 63.113998413086 155 155 155
20.656250000000 3.851562500000 63.141006469727 155 155 155
20.656250000000 3.851562500000 63.171997070313 154 154 154
20.656250000000 3.843750000000 63.197006225586 156 156 156
20.640625000000 3.843750000000 63.220001220703 149 149 149
20.656250000000 3.843750000000 63.249008178711 145 145 145
20.640625000000 3.843750000000 63.275009155273 144 144 144
20.640625000000 3.843750000000 63.302001953125 148 148 148
20.656250000000 3.843750000000 63.332000732422 156 156 156
20.656250000000 3.843750000000 63.358001708984 150 150 150
20.656250000000 3.843750000000 63.385009765625 156 156 156
20.640625000000 3.843750000000 63.410003662109 158 158 158
20.656250000000 3.843750000000 63.438995361328 156 156 156
20.656250000000 3.843750000000 63.464004516602 156 156 156
20.640625000000 3.843750000000 63.488998413086 162 162 162
20.640625000000 3.843750000000 63.516006469727 158 158 158
20.656250000000 3.843750000000 63.542999267578 163 163 163
20.640625000000 3.843750000000 63.568008422852 165 165 165
20.656250000000 3.828125000000 63.593002319336 165 165 165
20.671875000000 3.828125000000 63.621002197266 163 163 163
20.640625000000 3.820312500000 63.643005371094 165 165 165
20.671875000000 3.828125000000 63.671997070313 165 165 165
20.640625000000 3.820312500000 63.694000244141 165 165 165
20.640625000000 3.820312500000 63.718002319336 167 167 167
20.656250000000 3.828125000000 63.745010375977 167 167 167
20.656250000000 3.828125000000 63.770004272461 168 168 168
20.640625000000 3.820312500000 63.794006347656 169 169 169
20.640625000000 3.820312500000 63.818008422852 168 168 168
20.640625000000 3.820312500000 63.844009399414 168 168 168
20.640625000000 3.820312500000 63.869003295898 169 169 169
20.640625000000 3.820312500000 63.893005371094 168 168 168
20.640625000000 3.820312500000 63.917999267578 166 166 166
20.640625000000 3.812500000000 63.940002441406 167 167 167
20.640625000000 3.812500000000 63.964996337891 168 168 168
20.640625000000 3.812500000000 63.988998413086 168 168 168
20.640625000000 3.812500000000 64.014007568359 169 169 169
20.640625000000 3.812500000000 64.038009643555 168 168 168
20.640625000000 3.812500000000 64.061004638672 166 166 166
20.640625000000 3.820312500000 64.087005615234 166 166 166
20.640625000000 3.812500000000 64.110000610352 166 166 166
20.656250000000 3.812500000000 64.136001586914 166 166 166
20.640625000000 3.812500000000 64.156997680664 169 169 169
20.640625000000 3.804687500000 64.182006835938 170 170 170
20.640625000000 3.804687500000 64.206008911133 168 168 168
20.640625000000 3.804687500000 64.227996826172 173 173 173
20.640625000000 3.804687500000 64.253005981445 167 167 167
20.640625000000 3.804687500000 64.275009155273 167 167 167
20.640625000000 3.804687500000 64.298004150391 165 165 165
20.640625000000 3.804687500000 64.322006225586 166 166 166
20.640625000000 3.804687500000 64.346008300781 171 171 171
20.640625000000 3.804687500000 64.370010375977 170 170 170
20.640625000000 3.804687500000 64.391998291016 170 170 170
20.640625000000 3.804687500000 64.416000366211 169 169 169
20.640625000000 3.804687500000 64.438995361328 170 170 170
20.640625000000 3.804687500000 64.462005615234 170 170 170
20.640625000000 3.804687500000 64.485000610352 174 174 174
20.640625000000 3.804687500000 64.509002685547 170 170 170
20.640625000000 3.796875000000 64.531005859375 170 170 170
20.640625000000 3.796875000000 64.554000854492 170 170 170
20.640625000000 3.804687500000 64.578002929688 168 168 168
20.640625000000 3.796875000000 64.600006103516 171 171 171
20.640625000000 3.796875000000 64.623001098633 174 174 174
20.640625000000 3.796875000000 64.645996093750 171 171 171
20.640625000000 3.789062500000 64.667999267578 171 171 171
20.640625000000 3.789062500000 64.692001342773 171 171 171
20.640625000000 3.781250000000 64.714996337891 170 170 170
20.640625000000 3.773437500000 64.736999511719 169 169 169
20.640625000000 3.773437500000 64.760009765625 172 172 172
20.640625000000 3.781250000000 64.783004760742 173 173 173
20.640625000000 3.773437500000 64.805999755859 172 172 172
20.640625000000 3.773437500000 64.828002929688 171 171 171
20.640625000000 3.781250000000 64.852005004883 172 172 172
20.640625000000 3.773437500000 64.874008178711 172 172 172
20.640625000000 3.773437500000 64.897003173828 170 170 170
20.640625000000 3.781250000000 64.919998168945 174 174 174
20.640625000000 3.781250000000 64.943008422852 172 172 172
20.640625000000 3.773437500000 64.964996337891 173 173 173
20.640625000000 3.789062500000 64.988006591797 174 174 174
20.640625000000 3.781250000000 65.011001586914 171 171 171
20.640625000000 3.773437500000 65.033996582031 174 174 174
20.640625000000 3.773437500000 65.055999755859 173 173 173
20.640625000000 3.773437500000 65.079010009766 172 172 172
20.640625000000 3.773437500000 65.102005004883 173 173 173
20.640625000000 3.773437500000 65.125000000000 169 169 169
20.640625000000 3.773437500000 65.148010253906 170 170 170
20.640625000000 3.773437500000 65.169998168945 171 171 171
20.640625000000 3.773437500000 65.193008422852 170 170 170
20.625000000000 3.765625000000 65.216003417969 172 172 172
20.640625000000 3.765625000000 65.238998413086 170 170 170
20.640625000000 3.757812500000 65.262008666992 171 171 171
20.640625000000 3.765625000000 65.285003662109 169 169 169
20.640625000000 3.765625000000 65.307006835938 168 168 168
20.640625000000 3.765625000000 65.330001831055 167 167 167
20.640625000000 3.765625000000 65.352996826172 165 165 165
20.656250000000 3.765625000000 65.375000000000 169 169 169
20.640625000000 3.757812500000 65.400009155273 167 167 167
20.640625000000 3.765625000000 65.421997070313 168 168 168
20.640625000000 3.757812500000 65.445007324219 168 168 168
20.640625000000 3.765625000000 65.468002319336 169 169 169
20.640625000000 3.757812500000 65.492004394531 169 169 169
20.640625000000 3.765625000000 65.514007568359 165 165 165
20.640625000000 3.757812500000 65.538009643555 168 168 168
20.640625000000 3.757812500000 65.561004638672 166 166 166
20.640625000000 3.757812500000 65.585006713867 165 165 165
20.640625000000 3.757812500000 65.607009887695 168 168 168
20.640625000000 3.757812500000 65.632003784180 166 166 166
20.640625000000 3.757812500000 65.654998779297 169 169 169
20.640625000000 3.757812500000 65.677001953125 167 167 167
20.640625000000 3.757812500000 65.701995849609 167 167 167
20.640625000000 3.750000000000 65.727005004883 165 165 165
20.640625000000 3.757812500000 65.750000000000 167 167 167
20.640625000000 3.750000000000 65.774002075195 168 168 168
20.640625000000 3.750000000000 65.798004150391 168 168 168
20.640625000000 3.742187500000 65.820007324219 166 166 166
20.640625000000 3.734375000000 65.845001220703 165 165 165
20.640625000000 3.742187500000 65.865997314453 165 165 165
20.640625000000 3.742187500000 65.891998291016 164 164 164
20.640625000000 3.734375000000 65.916000366211 165 165 165
20.640625000000 3.742187500000 65.938995361328 162 162 162
20.640625000000 3.734375000000 65.964996337891 167 167 167
20.640625000000 3.742187500000 65.986999511719 166 166 166
20.640625000000 3.734375000000 66.014007568359 166 166 166
20.640625000000 3.742187500000 66.035995483398 163 163 163
20.640625000000 3.742187500000 66.059997558594 163 163 163
20.640625000000 3.734375000000 66.087005615234 162 162 162
20.640625000000 3.726562500000 66.111999511719 163 163 163
20.640625000000 3.742187500000 66.134002685547 163 163 163
20.640625000000 3.734375000000 66.158996582031 166 166 166
20.640625000000 3.734375000000 66.184997558594 163 163 163
20.640625000000 3.734375000000 66.208007812500 165 165 165
20.640625000000 3.726562500000 66.236007690430 164 164 164
20.640625000000 3.734375000000 66.260009765625 164 164 164
20.640625000000 3.718750000000 66.285003662109 161 161 161
20.640625000000 3.718750000000 66.311004638672 165 165 165
20.640625000000 3.726562500000 66.335006713867 162 162 162
20.640625000000 3.718750000000 66.365005493164 162 162 162
20.640625000000 3.718750000000 66.391006469727 160 160 160
20.640625000000 3.718750000000 66.416000366211 160 160 160
20.640625000000 3.718750000000 66.438995361328 164 164 164
20.640625000000 3.718750000000 66.464004516602 158 158 158
20.640625000000 3.718750000000 66.490997314453 162 162 162
20.640625000000 3.718750000000 66.518997192383 162 162 162
20.734375000000 3.609375000000 62.975997924805 153 153 153
20.703125000000 3.593750000000 62.990997314453 147 147 147
20.671875000000 3.570312500000 62.997009277344 167 167 167
20.671875000000 3.554687500000 63.016998291016 153 153 153
20.671875000000 3.562500000000 63.050003051758 153 153 153
20.671875000000 3.562500000000 63.076004028320 159 159 159
20.640625000000 3.546875000000 63.091995239258 186 186 186
20.671875000000 3.554687500000 63.130004882813 111 111 111
20.765625000000 3.601562500000 63.014007568359 152 152 152
20.750000000000 3.585937500000 63.027999877930 152 152 152
20.703125000000 3.570312500000 63.031997680664 159 159 159
20.671875000000 3.554687500000 63.041000366211 153 153 153
20.640625000000 3.539062500000 63.055999755859 154 154 154
20.625000000000 3.515625000000 63.063995361328 151 151 151
20.546875000000 3.460937500000 63.042999267578 113 113 113
20.734375000000 3.945312500000 63.012008666992 159 159 159
20.718750000000 3.937500000000 63.027999877930 152 152 152
20.671875000000 3.906250000000 63.031005859375 163 163 163
20.671875000000 3.906250000000 63.057006835938 154 154 154
20.671875000000 3.906250000000 63.083999633789 154 154 154
20.671875000000 3.906250000000 63.113998413086 151 151 151
20.671875000000 3.906250000000 63.139999389648 150 150 150
20.671875000000 3.898437500000 63.166000366211 153 153 153
20.671875000000 3.898437500000 63.191009521484 148 148 148
20.671875000000 3.898437500000 63.219009399414 154 154 154
20.578125000000 3.851562500000 63.194000244141 132 132 132
20.578125000000 3.843750000000 63.219009399414 139 139 139
20.578125000000 3.851562500000 63.251998901367 135 135 135
20.593750000000 3.835937500000 63.279998779297 134 134 134
20.609375000000 3.851562500000 63.313003540039 132 132 132
20.609375000000 3.851562500000 63.345001220703 132 132 132
20.609375000000 3.859375000000 63.374008178711 127 127 127
20.609375000000 3.859375000000 63.402008056641 129 129 129
20.609375000000 3.851562500000 63.427001953125 129 129 129
20.625000000000 3.867187500000 63.458007812500 129 129 129
20.625000000000 3.867187500000 63.486007690430 127 127 127
20.640625000000 3.867187500000 63.513000488281 129 129 129
20.625000000000 3.867187500000 63.537002563477 127 127 127
20.609375000000 3.859375000000 63.561004638672 128 128 128
20.625000000000 3.867187500000 63.589996337891 131 131 131
20.640625000000 3.867187500000 63.617996215820 127 127 127
20.640625000000 3.867187500000 63.641998291016 125 125 125
20.625000000000 3.867187500000 63.666000366211 121 121 121
20.640625000000 3.875000000000 63.697006225586 127 127 127
20.640625000000 3.875000000000 63.720001220703 127 127 127
20.640625000000 3.867187500000 63.742996215820 131 131 131
20.640625000000 3.867187500000 63.768997192383 133 133 133
20.656250000000 3.867187500000 63.796997070313 132 132 132
20.640625000000 3.867187500000 63.817001342773 134 134 134
20.640625000000 3.859375000000 63.843002319336 134 134 134
20.640625000000 3.867187500000 63.869003295898 138 138 138
20.656250000000 3.867187500000 63.895004272461 134 134 134
20.640625000000 3.867187500000 63.917999267578 137 137 137
20.640625000000 3.867187500000 63.942001342773 135 135 135
20.640625000000 3.867187500000 63.966995239258 136 136 136
20.640625000000 3.867187500000 63.990997314453 135 135 135
20.640625000000 3.867187500000 64.014999389648 139 139 139
20.671875000000 3.875000000000 64.042999267578 140 140 140
20.656250000000 3.867187500000 64.063995361328 141 141 141
20.656250000000 3.867187500000 64.087005615234 140 140 140
20.640625000000 3.867187500000 64.110000610352 142 142 142
20.656250000000 3.867187500000 64.136001586914 145 145 145
20.656250000000 3.867187500000 64.160003662109 145 145 145
20.671875000000 3.875000000000 64.182998657227 149 149 149
20.656250000000 3.867187500000 64.206008911133 148 148 148
20.671875000000 3.875000000000 64.229995727539 150 150 150
20.656250000000 3.867187500000 64.253005981445 149 149 149
20.671875000000 3.875000000000 64.277008056641 152 152 152
20.656250000000 3.867187500000 64.298995971680 150 150 150
20.671875000000 3.882812500000 64.324005126953 151 151 151
20.671875000000 3.875000000000 64.347000122070 150 150 150
20.656250000000 3.867187500000 64.367996215820 154 154 154
20.656250000000 3.867187500000 64.389999389648 152 152 152
20.671875000000 3.875000000000 64.415008544922 153 153 153
20.656250000000 3.867187500000 64.436004638672 153 153 153
20.671875000000 3.875000000000 64.460006713867 155 155 155
20.671875000000 3.875000000000 64.483001708984 153 153 153
20.656250000000 3.867187500000 64.503997802734 155 155 155
20.671875000000 3.875000000000 64.529006958008 153 153 153
20.640625000000 3.867187500000 64.548995971680 157 157 157
20.640625000000 3.867187500000 64.572006225586 158 158 158
20.671875000000 3.859375000000 64.596008300781 159 159 159
20.671875000000 3.851562500000 64.617996215820 159 159 159
20.671875000000 3.851562500000 64.641006469727 161 161 161
20.671875000000 3.851562500000 64.663009643555 164 164 164
20.671875000000 3.851562500000 64.684997558594 160 160 160
20.671875000000 3.851562500000 64.708007812500 162 162 162
20.656250000000 3.851562500000 64.729003906250 163 163 163
20.671875000000 3.851562500000 64.751998901367 164 164 164
20.671875000000 3.859375000000 64.775009155273 163 163 163
20.671875000000 3.859375000000 64.796997070313 164 164 164
20.671875000000 3.851562500000 64.819000244141 169 169 169
20.671875000000 3.859375000000 64.841995239258 166 166 166
20.671875000000 3.851562500000 64.863998413086 167 167 167
20.671875000000 3.859375000000 64.886001586914 166 166 166
20.671875000000 3.851562500000 64.908004760742 169 169 169
20.671875000000 3.851562500000 64.930007934570 165 165 165
20.656250000000 3.851562500000 64.951995849609 164 164 164
20.671875000000 3.859375000000 64.975006103516 164 164 164
20.671875000000 3.851562500000 64.997009277344 163 163 163
20.671875000000 3.851562500000 65.018997192383 163 163 163
20.671875000000 3.851562500000 65.041000366211 168 168 168
20.656250000000 3.851562500000 65.063995361328 164 164 164
20.656250000000 3.851562500000 65.085998535156 164 164 164
20.671875000000 3.851562500000 65.108001708984 163 163 163
20.671875000000 3.851562500000 65.130004882813 164 164 164
20.656250000000 3.851562500000 65.152999877930 166 166 166
20.671875000000 3.851562500000 65.175003051758 166 166 166
20.671875000000 3.851562500000 65.197006225586 162 162 162
20.656250000000 3.851562500000 65.219009399414 163 163 163
20.656250000000 3.851562500000 65.242004394531 163 163 163
20.656250000000 3.843750000000 65.264007568359 161 161 161
20.671875000000 3.851562500000 65.285995483398 160 160 160
20.656250000000 3.851562500000 65.309005737305 162 162 162
20.656250000000 3.843750000000 65.331008911133 165 165 165
20.656250000000 3.851562500000 65.352996826172 164 164 164
20.671875000000 3.851562500000 65.375000000000 164 164 164
20.656250000000 3.843750000000 65.399002075195 162 162 162
20.656250000000 3.851562500000 65.421005249023 163 163 163
20.656250000000 3.851562500000 65.443008422852 162 162 162
20.656250000000 3.843750000000 65.466003417969 164 164 164
20.656250000000 3.851562500000 65.488006591797 163 163 163
20.656250000000 3.851562500000 65.511001586914 162 162 162
20.656250000000 3.843750000000 65.533996582031 166 166 166
20.656250000000 3.843750000000 65.555999755859 165 165 165
20.656250000000 3.843750000000 65.579010009766 164 164 164
20.656250000000 3.851562500000 65.600997924805 161 161 161
20.656250000000 3.843750000000 65.625000000000 162 162 162
20.671875000000 3.835937500000 65.645996093750 164 164 164
20.671875000000 3.828125000000 65.669998168945 164 164 164
20.671875000000 3.828125000000 65.693008422852 161 161 161
20.671875000000 3.828125000000 65.714996337891 163 163 163
20.671875000000 3.828125000000 65.738998413086 161 161 161
20.671875000000 3.828125000000 65.761001586914 161 161 161
20.671875000000 3.835937500000 65.783996582031 162 162 162
20.671875000000 3.828125000000 65.807998657227 161 161 161
20.656250000000 3.828125000000 65.832000732422 163 163 163
20.671875000000 3.828125000000 65.854003906250 160 160 160
20.671875000000 3.828125000000 65.878005981445 160 160 160
20.671875000000 3.828125000000 65.900009155273 159 159 159
20.656250000000 3.828125000000 65.926010131836 158 158 158
20.671875000000 3.828125000000 65.947998046875 161 161 161
20.671875000000 3.828125000000 65.971008300781 159 159 159
20.656250000000 3.828125000000 65.996002197266 160 160 160
20.671875000000 3.828125000000 66.018005371094 159 159 159
20.656250000000 3.828125000000 66.044998168945 160 160 160
20.671875000000 3.828125000000 66.065002441406 160 160 160
20.671875000000 3.828125000000 66.089996337891 160 160 160
20.671875000000 3.828125000000 66.113006591797 160 160 160
20.656250000000 3.828125000000 66.139999389648 158 158 158
20.671875000000 3.828125000000 66.160995483398 158 158 158
20.671875000000 3.828125000000 66.184997558594 159 159 159
20.656250000000 3.828125000000 66.210998535156 161 161 161
20.656250000000 3.828125000000 66.236007690430 161 161 161
20.656250000000 3.828125000000 66.262008666992 161 161 161
20.671875000000 3.828125000000 66.283996582031 163 163 163
20.656250000000 3.828125000000 66.311004638672 165 165 165
20.656250000000 3.828125000000 66.333999633789 161 161 161
20.656250000000 3.828125000000 66.360000610352 157 157 157
20.656250000000 3.828125000000 66.384002685547 160 160 160
20.656250000000 3.828125000000 66.408996582031 162 162 162
20.656250000000 3.828125000000 66.434005737305 157 157 157
20.656250000000 3.828125000000 66.460006713867 157 157 157
20.656250000000 3.828125000000 66.485000610352 157 157 157
20.656250000000 3.828125000000 66.511001586914 157 157 157
20.640625000000 3.820312500000 66.537002563477 160 160 160
20.265625000000 4.015625000000 62.969009399414 145 145 145
20.296875000000 4.031250000000 63.022003173828 130 130 130
20.265625000000 4.015625000000 63.027999877930 129 129 129
20.218750000000 3.984375000000 63.039001464844 155 155 155
20.203125000000 3.976562500000 63.059997558594 169 169 169
20.187500000000 3.960937500000 63.080001831055 98 98 98
20.765625000000 3.492187500000 63.020996093750 165 165 165
20.765625000000 3.492187500000 63.044998168945 165 165 165
20.703125000000 3.492187500000 63.046005249023 152 152 152
20.671875000000 3.492187500000 63.052001953125 143 143 143
20.609375000000 3.484375000000 63.041000366211 149 149 149
20.578125000000 3.484375000000 63.044006347656 151 151 151
20.515625000000 3.484375000000 63.044998168945 146 146 146
20.468750000000 3.492187500000 63.042007446289 150 150 150
20.437500000000 3.484375000000 63.048995971680 151 151 151
20.359375000000 3.484375000000 63.044006347656 145 145 145
20.312500000000 3.484375000000 63.046997070313 140 140 140
20.265625000000 3.484375000000 63.044006347656 149 149 149
20.234375000000 3.492187500000 63.061004638672 155 155 155
20.218750000000 3.476562500000 63.081008911133 151 151 151
20.187500000000 3.492187500000 63.094009399414 120 120 120
20.671875000000 3.835937500000 62.960006713867 189 189 189
20.750000000000 3.843750000000 63.033996582031 163 163 163
20.703125000000 3.851562500000 63.040008544922 154 154 154
20.687500000000 3.851562500000 63.052001953125 172 172 172
20.687500000000 3.851562500000 63.076004028320 161 161 161
20.671875000000 3.843750000000 63.096008300781 163 163 163
20.671875000000 3.843750000000 63.123001098633 162 162 162
20.671875000000 3.843750000000 63.147003173828 162 162 162
20.687500000000 3.851562500000 63.173995971680 166 166 166
20.687500000000 3.851562500000 63.201004028320 163 163 163
20.687500000000 3.851562500000 63.223007202148 163 163 163
20.671875000000 3.843750000000 63.246002197266 168 168 168
20.687500000000 3.851562500000 63.270996093750 170 170 170
20.671875000000 3.843750000000 63.292007446289 168 168 168
20.687500000000 3.851562500000 63.318008422852 168 168 168
20.671875000000 3.843750000000 63.339996337891 170 170 170
20.687500000000 3.851562500000 63.363998413086 169 169 169
20.671875000000 3.859375000000 63.382995605469 168 168 168
20.703125000000 3.851562500000 63.415008544922 168 168 168
20.687500000000 3.851562500000 63.432998657227 171 171 171
20.687500000000 3.851562500000 63.458007812500 172 172 172
20.671875000000 3.859375000000 63.477005004883 173 173 173
20.671875000000 3.859375000000 63.501007080078 170 170 170
20.687500000000 3.851562500000 63.527008056641 171 171 171
20.703125000000 3.851562500000 63.550003051758 174 174 174
20.671875000000 3.859375000000 63.567001342773 172 172 172
20.687500000000 3.851562500000 63.593002319336 174 174 174
20.703125000000 3.851562500000 63.615997314453 173 173 173
20.671875000000 3.867187500000 63.636001586914 169 169 169
20.671875000000 3.867187500000 63.656997680664 171 171 171
20.671875000000 3.867187500000 63.678009033203 170 170 170
20.671875000000 3.867187500000 63.701995849609 168 168 168
20.671875000000 3.867187500000 63.722000122070 167 167 167
20.671875000000 3.867187500000 63.742996215820 168 168 168
20.671875000000 3.867187500000 63.764007568359 168 168 168
20.671875000000 3.867187500000 63.787002563477 168 168 168
20.687500000000 3.867187500000 63.809997558594 165 165 165
20.671875000000 3.867187500000 63.829010009766 164 164 164
20.671875000000 3.867187500000 63.852005004883 161 161 161
20.671875000000 3.867187500000 63.872009277344 160 160 160
20.671875000000 3.867187500000 63.893005371094 160 160 160
20.671875000000 3.867187500000 63.914001464844 160 160 160
20.687500000000 3.867187500000 63.936004638672 152 152 152
20.687500000000 3.867187500000 63.957000732422 159 159 159
20.671875000000 3.875000000000 63.973999023438 159 159 159
20.671875000000 3.867187500000 63.997009277344 155 155 155
20.671875000000 3.867187500000 64.018997192383 156 156 156
20.671875000000 3.867187500000 64.039001464844 155 155 155
20.671875000000 3.882812500000 64.059005737305 154 154 154
20.687500000000 3.867187500000 64.082000732422 149 149 149
20.687500000000 3.867187500000 64.100997924805 150 150 150
20.671875000000 3.867187500000 64.121002197266 150 150 150
20.687500000000 3.867187500000 64.141998291016 147 147 147
20.671875000000 3.882812500000 64.162002563477 145 145 145
20.671875000000 3.882812500000 64.180999755859 148 148 148
20.671875000000 3.882812500000 64.201004028320 144 144 144
20.671875000000 3.882812500000 64.221008300781 145 145 145
20.671875000000 3.882812500000 64.242004394531 134 134 134
20.671875000000 3.882812500000 64.262008666992 133 133 133
20.671875000000 3.882812500000 64.281997680664 126 126 126
20.671875000000 3.882812500000 64.302001953125 114 114 114
20.671875000000 3.882812500000 64.322006225586 106 106 106
20.671875000000 3.890625000000 64.344009399414 103 103 103
20.671875000000 3.882812500000 64.363006591797 85 85 85
20.671875000000 3.882812500000 64.380996704102 68 68 68
20.671875000000 3.882812500000 64.402999877930 47 47 47
20.281250000000 3.789062500000 66.518005371094 167 167 167
20.281250000000 3.789062500000 66.488006591797 165 165 165
20.281250000000 3.789062500000 66.460006713867 166 166 166
20.265625000000 3.781250000000 66.434005737305 168 168 168
20.265625000000 3.781250000000 66.406997680664 166 166 166
20.390625000000 3.710937500000 66.341003417969 141 141 141
20.546875000000 3.625000000000 66.268005371094 163 163 163
20.546875000000 3.625000000000 66.242996215820 180 180 180
20.546875000000 3.625000000000 66.214996337891 189 189 189
20.546875000000 3.625000000000 66.191009521484 186 186 186
20.546875000000 3.625000000000 66.166000366211 176 176 176
20.500000000000 3.648437500000 66.154006958008 124 124 124
20.484375000000 3.656250000000 66.130004882813 135 135 135
20.406250000000 3.695312500000 66.126007080078 172 172 172
20.296875000000 3.765625000000 66.130004882813 170 170 170
20.296875000000 3.757812500000 66.104003906250 179 179 179
20.265625000000 3.773437500000 66.078002929688 178 178 178
20.265625000000 3.773437500000 66.051010131836 171 171 171
20.296875000000 3.757812500000 66.024002075195 175 175 175
20.265625000000 3.773437500000 65.998001098633 172 172 172
20.265625000000 3.773437500000 65.972000122070 171 171 171
20.296875000000 3.757812500000 65.944000244141 170 170 170
20.265625000000 3.773437500000 65.919998168945 175 175 175
20.265625000000 3.773437500000 65.893005371094 169 169 169
20.265625000000 3.773437500000 65.865997314453 172 172 172
20.281250000000 3.757812500000 65.839004516602 173 173 173
20.281250000000 3.757812500000 65.813003540039 171 171 171
20.281250000000 3.757812500000 65.787002563477 169 169 169
20.265625000000 3.773437500000 65.762008666992 168 168 168
20.281250000000 3.757812500000 65.735000610352 169 169 169
20.265625000000 3.765625000000 65.710006713867 167 167 167
20.281250000000 3.757812500000 65.682998657227 168 168 168
20.281250000000 3.757812500000 65.656997680664 170 170 170
20.265625000000 3.765625000000 65.632003784180 170 170 170
20.265625000000 3.750000000000 65.604995727539 169 169 169
20.265625000000 3.750000000000 65.580001831055 169 169 169
20.265625000000 3.750000000000 65.554000854492 170 170 170
20.265625000000 3.750000000000 65.527999877930 170 170 170
20.265625000000 3.750000000000 65.501998901367 170 170 170
20.250000000000 3.765625000000 65.477005004883 170 170 170
20.265625000000 3.750000000000 65.451004028320 169 169 169
20.265625000000 3.750000000000 65.425003051758 168 168 168
20.265625000000 3.750000000000 65.400009155273 170 170 170
20.250000000000 3.765625000000 65.374008178711 170 170 170
20.265625000000 3.750000000000 65.348007202148 170 170 170
20.265625000000 3.750000000000 65.322998046875 171 171 171
20.265625000000 3.750000000000 65.296997070313 168 168 168
20.265625000000 3.750000000000 65.270996093750 169 169 169
20.265625000000 3.750000000000 65.246002197266 167 167 167
20.265625000000 3.750000000000 65.220001220703 168 168 168
20.265625000000 3.750000000000 65.195007324219 165 165 165
20.234375000000 3.757812500000 65.169006347656 169 169 169
20.421875000000 3.648437500000 65.143005371094 147 147 147
20.421875000000 3.648437500000 65.119003295898 146 146 146
20.421875000000 3.648437500000 65.094009399414 147 147 147
20.421875000000 3.648437500000 65.070007324219 145 145 145
20.421875000000 3.640625000000 65.044998168945 146 146 146
20.421875000000 3.640625000000 65.020996093750 143 143 143
20.421875000000 3.648437500000 64.997009277344 146 146 146
20.421875000000 3.640625000000 64.972000122070 148 148 148
20.281250000000 3.726562500000 64.940002441406 170 170 170
20.265625000000 3.734375000000 64.913009643555 171 171 171
