17.671875000000 17.250000000000 67.658004760742 62 62 62
17.687500000000 17.265625000000 67.694000244141 152 152 152
17.640625000000 17.601562500000 67.371002197266 15 15 15
17.671875000000 17.609375000000 67.410003662109 173 173 173
17.671875000000 17.609375000000 67.455001831055 196 196 196
17.640625000000 17.593750000000 67.510009765625 134 134 134
17.640625000000 17.593750000000 67.555007934570 175 175 175
17.640625000000 17.585937500000 67.602996826172 185 185 185
17.640625000000 17.585937500000 67.649002075195 61 61 61
17.671875000000 17.617187500000 67.675003051758 138 138 138
17.671875000000 17.625000000000 67.716003417969 116 116 116
17.640625000000 17.968750000000 67.391998291016 137 137 137
17.640625000000 17.968750000000 67.436996459961 198 198 198
17.640625000000 17.968750000000 67.485000610352 176 176 176
17.640625000000 17.968750000000 67.529998779297 136 136 136
17.625000000000 17.953125000000 67.582000732422 167 167 167
17.625000000000 17.953125000000 67.628005981445 118 118 118
17.640625000000 17.968750000000 67.663009643555 76 76 76
17.671875000000 17.984375000000 67.699005126953 153 153 153
17.640625000000 18.343750000000 67.363006591797 54 54 54
17.625000000000 18.335937500000 67.416000366211 118 118 118
17.609375000000 18.328125000000 67.464004516602 134 134 134
17.609375000000 18.320312500000 67.514007568359 143 143 143
17.593750000000 18.312500000000 67.563995361328 158 158 158
17.609375000000 18.320312500000 67.604995727539 146 146 146
17.593750000000 18.312500000000 67.656997680664 85 85 85
17.671875000000 18.343750000000 67.676010131836 143 143 143
17.656250000000 18.335937500000 67.723007202148 111 111 111
17.640625000000 18.703125000000 67.378005981445 94 94 94
17.609375000000 18.671875000000 67.667999267578 62 62 62
17.640625000000 18.695312500000 67.701004028320 156 156 156
17.656250000000 19.046875000000 67.382995605469 26 26 26
17.671875000000 19.062500000000 67.419998168945 92 92 92
17.609375000000 19.023437500000 67.677001953125 96 96 96
17.625000000000 19.023437500000 67.714996337891 149 149 149
17.671875000000 19.414062500000 67.427001953125 118 118 118
17.593750000000 19.367187500000 67.691009521484 129 129 129
17.625000000000 19.375000000000 67.725006103516 143 143 143
17.546875000000 19.710937500000 67.682006835938 43 43 43
17.609375000000 19.734375000000 67.706008911133 149 149 149
17.609375000000 19.742187500000 67.747009277344 44 44 44
17.593750000000 19.726562500000 67.801010131836 105 105 105
17.562500000000 20.078125000000 67.697006225586 67 67 67
17.578125000000 20.093750000000 67.729995727539 159 159 159
17.578125000000 20.085937500000 67.925003051758 15 15 15
17.609375000000 20.109375000000 67.957000732422 79 79 79
17.546875000000 20.445312500000 67.712997436523 112 112 112
17.578125000000 20.445312500000 67.749008178711 139 139 139
17.578125000000 20.437500000000 68.083007812500 110 110 110
17.546875000000 20.781250000000 67.723007202148 101 101 101
17.562500000000 20.781250000000 67.763000488281 132 132 132
17.578125000000 20.796875000000 68.233001708984 113 113 113
17.546875000000 21.117187500000 67.734008789063 114 114 114
17.562500000000 21.140625000000 67.766998291016 122 122 122
17.562500000000 21.125000000000 68.395004272461 102 102 102
17.515625000000 21.484375000000 67.749008178711 128 128 128
17.546875000000 21.484375000000 67.783004760742 120 120 120
17.578125000000 21.484375000000 68.555999755859 101 101 101
17.515625000000 21.835937500000 67.768997192383 155 155 155
17.515625000000 21.843750000000 67.811004638672 71 71 71
17.562500000000 21.851562500000 68.735000610352 106 106 106
17.515625000000 22.195312500000 67.788009643555 153 153 153
17.562500000000 22.195312500000 68.916000366211 107 107 107
17.343750000000 22.562500000000 62.648010253906 196 196 196
17.343750000000 22.562500000000 62.691009521484 193 193 193
17.328125000000 22.554687500000 62.733001708984 195 195 195
17.328125000000 22.554687500000 62.776000976563 198 198 198
17.343750000000 22.562500000000 62.820999145508 196 196 196
17.343750000000 22.562500000000 62.865005493164 191 191 191
17.343750000000 22.562500000000 62.908004760742 196 196 196
17.343750000000 22.562500000000 62.951995849609 192 192 192
17.343750000000 22.562500000000 62.994003295898 189 189 189
17.328125000000 22.554687500000 63.035995483398 189 189 189
17.328125000000 22.554687500000 63.078002929688 188 188 188
17.328125000000 22.554687500000 63.120010375977 191 191 191
17.343750000000 22.562500000000 63.165008544922 192 192 192
17.328125000000 22.554687500000 63.206008911133 192 192 192
17.343750000000 22.562500000000 63.251007080078 194 194 194
17.343750000000 22.562500000000 63.292007446289 194 194 194
17.359375000000 22.570312500000 63.335006713867 194 194 194
17.359375000000 22.562500000000 63.378005981445 194 194 194
17.343750000000 22.562500000000 63.417999267578 189 189 189
17.359375000000 22.562500000000 63.460998535156 196 196 196
17.359375000000 22.562500000000 63.501007080078 188 188 188
17.359375000000 22.554687500000 63.542007446289 188 188 188
17.359375000000 22.562500000000 63.585006713867 194 194 194
17.359375000000 22.562500000000 63.626998901367 191 191 191
17.359375000000 22.562500000000 63.667007446289 187 187 187
17.359375000000 22.562500000000 63.708007812500 193 193 193
17.359375000000 22.562500000000 63.749008178711 190 190 190
17.359375000000 22.562500000000 63.790008544922 193 193 193
17.359375000000 22.562500000000 63.833007812500 192 192 192
17.359375000000 22.562500000000 63.873001098633 197 197 197
17.359375000000 22.562500000000 63.913009643555 191 191 191
17.359375000000 22.570312500000 63.955001831055 189 189 189
17.359375000000 22.562500000000 63.995010375977 192 192 192
17.359375000000 22.562500000000 64.035003662109 189 189 189
17.359375000000 22.562500000000 64.076004028320 185 185 185
17.359375000000 22.570312500000 64.117004394531 193 193 193
17.359375000000 22.562500000000 64.156997680664 191 191 191
17.359375000000 22.570312500000 64.197998046875 195 195 195
17.390625000000 22.554687500000 64.238006591797 192 192 192
17.375000000000 22.554687500000 64.277999877930 192 192 192
17.375000000000 22.554687500000 64.318008422852 191 191 191
17.375000000000 22.554687500000 64.359008789063 195 195 195
17.390625000000 22.554687500000 64.399002075195 193 193 193
17.390625000000 22.562500000000 64.438995361328 194 194 194
17.390625000000 22.562500000000 64.479003906250 194 194 194
17.390625000000 22.554687500000 64.518997192383 194 194 194
17.375000000000 22.554687500000 64.559005737305 191 191 191
17.390625000000 22.562500000000 64.598999023438 189 189 189
17.390625000000 22.562500000000 64.639007568359 192 192 192
17.390625000000 22.570312500000 64.679000854492 190 190 190
17.390625000000 22.562500000000 64.719009399414 193 193 193
17.390625000000 22.562500000000 64.757995605469 198 198 198
17.390625000000 22.562500000000 64.798004150391 195 195 195
17.390625000000 22.562500000000 64.837997436523 192 192 192
17.390625000000 22.562500000000 64.878005981445 195 195 195
17.390625000000 22.562500000000 64.917999267578 195 195 195
17.390625000000 22.562500000000 64.958007812500 194 194 194
17.406250000000 22.554687500000 64.997009277344 194 194 194
17.390625000000 22.546875000000 65.037002563477 197 197 197
17.406250000000 22.554687500000 65.076995849609 190 190 190
17.406250000000 22.554687500000 65.117004394531 194 194 194
17.406250000000 22.554687500000 65.156997680664 195 195 195
17.390625000000 22.546875000000 65.197006225586 194 194 194
17.406250000000 22.554687500000 65.236007690430 196 196 196
17.421875000000 22.562500000000 65.276000976563 192 192 192
17.421875000000 22.562500000000 65.315002441406 193 193 193
17.421875000000 22.562500000000 65.354995727539 194 194 194
17.421875000000 22.562500000000 65.395004272461 197 197 197
17.406250000000 22.554687500000 65.436004638672 195 195 195
17.421875000000 22.562500000000 65.475006103516 193 193 193
17.406250000000 22.554687500000 65.516006469727 189 189 189
17.421875000000 22.562500000000 65.555007934570 191 191 191
17.421875000000 22.562500000000 65.596008300781 193 193 193
17.421875000000 22.562500000000 65.636001586914 194 194 194
17.421875000000 22.562500000000 65.676010131836 193 193 193
17.453125000000 22.562500000000 65.714996337891 195 195 195
17.421875000000 22.554687500000 65.757003784180 196 196 196
17.437500000000 22.554687500000 65.796005249023 195 195 195
17.437500000000 22.554687500000 65.837005615234 196 196 196
17.437500000000 22.554687500000 65.878005981445 194 194 194
17.437500000000 22.554687500000 65.917999267578 192 192 192
17.437500000000 22.554687500000 65.958999633789 189 189 189
17.453125000000 22.562500000000 65.999008178711 196 196 196
17.437500000000 22.554687500000 66.040008544922 194 194 194
17.453125000000 22.562500000000 66.080001831055 196 196 196
17.453125000000 22.562500000000 66.121002197266 193 193 193
17.453125000000 22.562500000000 66.163009643555 194 194 194
17.437500000000 22.554687500000 66.205001831055 196 196 196
17.453125000000 22.562500000000 66.244003295898 197 197 197
17.453125000000 22.562500000000 66.285995483398 191 191 191
17.453125000000 22.570312500000 66.326004028320 195 195 195
17.453125000000 22.570312500000 66.367004394531 193 193 193
17.453125000000 22.554687500000 66.408004760742 196 196 196
17.453125000000 22.554687500000 66.449996948242 199 199 199
17.453125000000 22.554687500000 66.490997314453 197 197 197
17.453125000000 22.554687500000 66.533996582031 191 191 191
17.453125000000 22.554687500000 66.574996948242 189 189 189
17.453125000000 22.554687500000 66.617996215820 190 190 190
17.453125000000 22.554687500000 66.658996582031 190 190 190
17.468750000000 22.562500000000 66.699005126953 188 188 188
17.468750000000 22.562500000000 66.742996215820 188 188 188
17.468750000000 22.562500000000 66.783996582031 192 192 192
17.484375000000 22.570312500000 66.824996948242 192 192 192
17.484375000000 22.570312500000 66.867996215820 200 200 200
17.484375000000 22.570312500000 66.910003662109 185 185 185
17.484375000000 22.570312500000 66.955001831055 182 182 182
17.468750000000 22.562500000000 67.000000000000 190 190 190
17.468750000000 22.562500000000 67.042999267578 191 191 191
17.484375000000 22.562500000000 67.085006713867 190 190 190
17.484375000000 22.562500000000 67.128005981445 187 187 187
17.484375000000 22.562500000000 67.171997070313 190 190 190
17.484375000000 22.562500000000 67.216995239258 188 188 188
17.484375000000 22.562500000000 67.260009765625 186 186 186
17.484375000000 22.562500000000 67.304000854492 184 184 184
17.484375000000 22.562500000000 67.348007202148 189 189 189
17.484375000000 22.562500000000 67.391998291016 185 185 185
17.500000000000 22.570312500000 67.436004638672 182 182 182
17.500000000000 22.570312500000 67.482009887695 184 184 184
17.484375000000 22.562500000000 67.529006958008 184 184 184
17.500000000000 22.570312500000 67.574005126953 186 186 186
17.484375000000 22.562500000000 67.620010375977 187 187 187
17.500000000000 22.570312500000 67.663009643555 183 183 183
17.500000000000 22.570312500000 67.710006713867 186 186 186
17.500000000000 22.570312500000 67.755004882813 192 192 192
17.515625000000 22.562500000000 67.796997070313 177 177 177
17.484375000000 22.562500000000 67.854995727539 155 155 155
17.515625000000 22.554687500000 67.895996093750 182 182 182
17.515625000000 22.554687500000 67.944000244141 177 177 177
17.515625000000 22.562500000000 67.986999511719 184 184 184
17.515625000000 22.562500000000 68.037002563477 181 181 181
17.515625000000 22.562500000000 68.083007812500 180 180 180
17.515625000000 22.562500000000 68.132995605469 178 178 178
17.515625000000 22.562500000000 68.180999755859 180 180 180
17.515625000000 22.570312500000 68.227996826172 181 181 181
17.515625000000 22.570312500000 68.276000976563 170 170 170
17.515625000000 22.570312500000 68.326004028320 167 167 167
17.515625000000 22.562500000000 68.378005981445 175 175 175
17.515625000000 22.570312500000 68.423004150391 176 176 176
17.515625000000 22.570312500000 68.477996826172 177 177 177
17.546875000000 22.554687500000 68.522003173828 180 180 180
17.546875000000 22.562500000000 68.570007324219 176 176 176
17.546875000000 22.554687500000 68.626998901367 179 179 179
17.546875000000 22.554687500000 68.677001953125 173 173 173
17.546875000000 22.562500000000 68.722000122070 169 169 169
17.531250000000 22.554687500000 68.783996582031 172 172 172
17.546875000000 22.554687500000 68.833007812500 171 171 171
17.546875000000 22.562500000000 68.882995605469 171 171 171
17.546875000000 22.562500000000 68.934997558594 161 161 161
17.546875000000 22.554687500000 68.995010375977 143 143 143
17.546875000000 22.554687500000 69.048004150391 164 164 164
17.546875000000 22.562500000000 69.098007202148 163 163 163
17.546875000000 22.562500000000 69.151000976563 156 156 156
17.546875000000 22.562500000000 69.212005615234 149 149 149
17.562500000000 22.554687500000 69.263000488281 149 149 149
17.546875000000 22.554687500000 69.329010009766 165 165 165
17.562500000000 22.554687500000 69.375000000000 157 157 157
17.546875000000 22.554687500000 69.434005737305 149 149 149
17.546875000000 22.546875000000 69.499008178711 150 150 150
17.562500000000 22.554687500000 69.544998168945 147 147 147
17.578125000000 22.570312500000 69.591003417969 27 27 27
17.671875000000 11.617187500000 62.623001098633 184 184 184
17.578125000000 11.601562500000 62.635009765625 179 179 179
17.546875000000 11.601562500000 62.663009643555 176 176 176
17.515625000000 11.601562500000 62.695999145508 172 172 172
17.515625000000 11.601562500000 62.735000610352 170 170 170
17.515625000000 11.593750000000 62.773010253906 169 169 169
17.515625000000 11.601562500000 62.815002441406 162 162 162
17.515625000000 11.601562500000 62.852996826172 161 161 161
17.515625000000 11.609375000000 62.895004272461 165 165 165
17.515625000000 11.601562500000 62.932006835938 168 168 168
17.546875000000 11.601562500000 62.975997924805 168 168 168
17.531250000000 11.609375000000 63.014999389648 174 174 174
17.531250000000 11.609375000000 63.054000854492 173 173 173
17.562500000000 11.609375000000 63.096008300781 181 181 181
17.562500000000 11.609375000000 63.134002685547 175 175 175
17.562500000000 11.609375000000 63.173004150391 179 179 179
17.578125000000 11.617187500000 63.212005615234 184 184 184
17.578125000000 11.617187500000 63.251998901367 183 183 183
17.578125000000 11.617187500000 63.289001464844 185 185 185
17.578125000000 11.609375000000 63.331008911133 186 186 186
17.578125000000 11.609375000000 63.367004394531 179 179 179
17.593750000000 11.617187500000 63.406997680664 188 188 188
17.578125000000 11.609375000000 63.442001342773 185 185 185
17.609375000000 11.617187500000 63.484008789063 156 156 156
17.609375000000 11.617187500000 63.520996093750 157 157 157
17.609375000000 11.617187500000 63.559005737305 155 155 155
17.609375000000 11.625000000000 63.598007202148 159 159 159
17.609375000000 11.625000000000 63.634002685547 160 160 160
17.609375000000 11.625000000000 63.669998168945 162 162 162
17.625000000000 11.625000000000 63.708999633789 162 162 162
17.625000000000 11.625000000000 63.745010375977 163 163 163
17.640625000000 11.632812500000 63.781997680664 162 162 162
17.640625000000 11.632812500000 63.818008422852 166 166 166
17.640625000000 11.625000000000 63.854995727539 165 165 165
17.640625000000 11.625000000000 63.891006469727 170 170 170
17.640625000000 11.640625000000 63.927001953125 166 166 166
17.656250000000 11.625000000000 63.964004516602 173 173 173
17.656250000000 11.625000000000 64.000000000000 175 175 175
17.640625000000 11.640625000000 64.035003662109 179 179 179
17.656250000000 11.625000000000 64.070999145508 182 182 182
17.656250000000 11.632812500000 64.108001708984 185 185 185
17.656250000000 11.632812500000 64.143005371094 185 185 185
17.671875000000 11.632812500000 64.179000854492 184 184 184
17.656250000000 11.632812500000 64.212997436523 188 188 188
17.671875000000 11.632812500000 64.250000000000 188 188 188
17.703125000000 11.640625000000 64.285995483398 185 185 185
17.671875000000 11.640625000000 64.320999145508 185 185 185
17.671875000000 11.640625000000 64.356002807617 189 189 189
17.671875000000 11.648437500000 64.391006469727 189 189 189
17.703125000000 11.640625000000 64.427001953125 191 191 191
17.703125000000 11.640625000000 64.462005615234 195 195 195
17.703125000000 11.640625000000 64.497009277344 192 192 192
17.703125000000 11.640625000000 64.531997680664 192 192 192
17.703125000000 11.640625000000 64.567001342773 197 197 197
17.703125000000 11.648437500000 64.602005004883 199 199 199
17.703125000000 11.640625000000 64.636001586914 201 201 201
17.703125000000 11.648437500000 64.671005249023 207 207 207
17.703125000000 11.648437500000 64.706008911133 203 203 203
17.703125000000 11.648437500000 64.740997314453 200 200 200
17.703125000000 11.648437500000 64.776000976563 200 200 200
17.703125000000 11.648437500000 64.811004638672 205 205 205
17.703125000000 11.648437500000 64.845001220703 204 204 204
17.718750000000 11.656250000000 64.880004882813 203 203 203
17.718750000000 11.656250000000 64.915008544922 202 202 202
17.718750000000 11.656250000000 64.949005126953 193 193 193
17.718750000000 11.656250000000 64.984008789063 195 195 195
17.734375000000 11.648437500000 65.018005371094 203 203 203
17.734375000000 11.648437500000 65.053009033203 210 210 210
17.734375000000 11.664062500000 65.087997436523 210 210 210
17.734375000000 11.664062500000 65.123001098633 206 206 206
17.734375000000 11.664062500000 65.156997680664 211 211 211
17.734375000000 11.648437500000 65.192001342773 210 210 210
17.734375000000 11.664062500000 65.227005004883 212 212 212
17.734375000000 11.656250000000 65.261001586914 205 205 205
17.734375000000 11.656250000000 65.294998168945 210 210 210
17.734375000000 11.656250000000 65.331008911133 207 207 207
17.734375000000 11.656250000000 65.365005493164 205 205 205
17.734375000000 11.656250000000 65.400009155273 204 204 204
17.750000000000 11.656250000000 65.434005737305 200 200 200
17.750000000000 11.656250000000 65.470001220703 201 201 201
17.750000000000 11.656250000000 65.503997802734 203 203 203
17.765625000000 11.664062500000 65.539001464844 201 201 201
17.750000000000 11.656250000000 65.574005126953 203 203 203
17.765625000000 11.671875000000 65.607009887695 199 199 199
17.765625000000 11.664062500000 65.643005371094 199 199 199
17.765625000000 11.664062500000 65.678009033203 203 203 203
17.765625000000 11.671875000000 65.714004516602 198 198 198
17.765625000000 11.671875000000 65.748001098633 200 200 200
17.765625000000 11.671875000000 65.783004760742 198 198 198
17.765625000000 11.656250000000 65.817001342773 194 194 194
17.765625000000 11.671875000000 65.852996826172 197 197 197
17.765625000000 11.671875000000 65.889999389648 196 196 196
17.765625000000 11.671875000000 65.925003051758 197 197 197
17.765625000000 11.671875000000 65.960006713867 194 194 194
17.765625000000 11.679687500000 65.995010375977 196 196 196
17.765625000000 11.679687500000 66.031005859375 197 197 197
17.765625000000 11.679687500000 66.067001342773 195 195 195
17.765625000000 11.679687500000 66.102005004883 191 191 191
17.796875000000 11.664062500000 66.136001586914 188 188 188
17.796875000000 11.671875000000 66.171997070313 190 190 190
17.781250000000 11.679687500000 66.208999633789 193 193 193
17.781250000000 11.679687500000 66.245010375977 189 189 189
17.796875000000 11.671875000000 66.281005859375 190 190 190
17.796875000000 11.671875000000 66.317001342773 188 188 188
17.796875000000 11.671875000000 66.352996826172 188 188 188
17.796875000000 11.679687500000 66.388000488281 189 189 189
17.796875000000 11.679687500000 66.423995971680 189 189 189
17.796875000000 11.679687500000 66.462005615234 188 188 188
17.796875000000 11.679687500000 66.498001098633 190 190 190
17.796875000000 11.679687500000 66.535003662109 190 190 190
17.796875000000 11.679687500000 66.570999145508 183 183 183
17.796875000000 11.679687500000 66.611999511719 181 181 181
17.796875000000 11.679687500000 66.645004272461 183 183 183
17.796875000000 11.679687500000 66.684005737305 184 184 184
17.796875000000 11.679687500000 66.722000122070 180 180 180
17.812500000000 11.687500000000 66.757003784180 183 183 183
17.796875000000 11.679687500000 66.796997070313 181 181 181
17.812500000000 11.687500000000 66.833999633789 182 182 182
17.812500000000 11.687500000000 66.871002197266 186 186 186
17.812500000000 11.687500000000 66.908996582031 179 179 179
17.812500000000 11.687500000000 66.947998046875 180 180 180
17.828125000000 11.687500000000 66.985000610352 178 178 178
17.812500000000 11.687500000000 67.027008056641 178 178 178
17.828125000000 11.695312500000 67.059005737305 179 179 179
17.828125000000 11.695312500000 67.098999023438 180 180 180
17.828125000000 11.695312500000 67.138000488281 182 182 182
17.828125000000 11.695312500000 67.179000854492 183 183 183
17.828125000000 11.695312500000 67.218002319336 187 187 187
17.843750000000 11.695312500000 67.253005981445 179 179 179
17.828125000000 11.703125000000 67.294998168945 170 170 170
17.843750000000 11.695312500000 67.331008911133 177 177 177
17.843750000000 11.695312500000 67.372009277344 178 178 178
17.843750000000 11.695312500000 67.414001464844 177 177 177
17.859375000000 11.703125000000 67.451004028320 176 176 176
17.859375000000 11.703125000000 67.490997314453 176 176 176
17.859375000000 11.703125000000 67.533004760742 178 178 178
17.859375000000 11.710937500000 67.572998046875 177 177 177
17.859375000000 11.710937500000 67.613998413086 174 174 174
17.859375000000 11.710937500000 67.654006958008 172 172 172
17.859375000000 11.710937500000 67.693008422852 174 174 174
17.859375000000 11.710937500000 67.736007690430 172 172 172
17.859375000000 11.710937500000 67.783996582031 180 180 180
17.875000000000 11.718750000000 67.817001342773 138 138 138
17.875000000000 11.718750000000 67.861007690430 169 169 169
17.875000000000 11.718750000000 67.906005859375 173 173 173
17.875000000000 11.718750000000 67.947006225586 171 171 171
17.875000000000 11.718750000000 67.988998413086 174 174 174
17.875000000000 11.718750000000 68.033996582031 180 180 180
17.875000000000 11.718750000000 68.076004028320 164 164 164
17.875000000000 11.718750000000 68.120010375977 158 158 158
17.890625000000 11.710937500000 68.162002563477 165 165 165
17.890625000000 11.710937500000 68.207000732422 172 172 172
17.890625000000 11.710937500000 68.251007080078 169 169 169
17.890625000000 11.718750000000 68.292999267578 170 170 170
17.890625000000 11.718750000000 68.337005615234 158 158 158
17.906250000000 11.718750000000 68.380004882813 153 153 153
17.906250000000 11.718750000000 68.426010131836 162 162 162
17.906250000000 11.718750000000 68.473999023438 157 157 157
17.906250000000 11.718750000000 68.526000976563 161 161 161
17.921875000000 11.726562500000 68.563995361328 156 156 156
17.906250000000 11.718750000000 68.619003295898 152 152 152
17.921875000000 11.726562500000 68.660995483398 151 151 151
17.921875000000 11.726562500000 68.708999633789 150 150 150
17.921875000000 11.726562500000 68.753997802734 150 150 150
17.921875000000 11.726562500000 68.801010131836 148 148 148
17.921875000000 11.726562500000 68.854003906250 150 150 150
17.921875000000 11.734375000000 68.901000976563 153 153 153
17.937500000000 11.726562500000 68.947998046875 129 129 129
17.921875000000 11.734375000000 69.003005981445 155 155 155
17.953125000000 11.734375000000 69.046005249023 160 160 160
17.921875000000 11.734375000000 69.106002807617 160 160 160
17.953125000000 11.734375000000 69.152008056641 159 159 159
17.921875000000 11.742187500000 69.206008911133 157 157 157
17.953125000000 11.734375000000 69.255004882813 155 155 155
17.953125000000 11.734375000000 69.305007934570 157 157 157
17.937500000000 11.742187500000 69.363998413086 155 155 155
17.937500000000 11.742187500000 69.421005249023 146 146 146
17.953125000000 11.742187500000 69.456008911133 126 126 126
17.796875000000 12.062500000000 67.785003662109 75 75 75
17.812500000000 12.070312500000 67.809997558594 148 148 148
17.859375000000 12.078125000000 68.852005004883 52 52 52
17.890625000000 12.078125000000 68.884002685547 73 73 73
17.765625000000 12.421875000000 67.759002685547 28 28 28
17.796875000000 12.421875000000 67.792007446289 155 155 155
17.859375000000 12.445312500000 68.725006103516 93 93 93
17.781250000000 12.789062500000 67.772003173828 147 147 147
17.812500000000 12.789062500000 67.802001953125 91 91 91
17.828125000000 12.796875000000 68.563003540039 99 99 99
17.796875000000 13.140625000000 67.738006591797 94 94 94
17.796875000000 13.140625000000 67.774002075195 150 150 150
17.828125000000 13.156250000000 68.387008666992 98 98 98
17.765625000000 13.492187500000 67.742004394531 149 149 149
17.796875000000 13.484375000000 67.776000976563 109 109 109
17.796875000000 13.492187500000 68.257995605469 97 97 97
17.750000000000 13.843750000000 67.712997436523 60 60 60
17.765625000000 13.843750000000 67.746002197266 159 159 159
17.765625000000 13.851562500000 68.095001220703 118 118 118
17.750000000000 14.203125000000 67.716995239258 169 169 169
17.765625000000 14.195312500000 67.751998901367 96 96 96
17.765625000000 14.203125000000 67.934005737305 114 114 114
17.734375000000 14.562500000000 67.654998779297 83 83 83
17.765625000000 14.554687500000 67.690002441406 116 116 116
17.765625000000 14.554687500000 67.727005004883 161 161 161
17.765625000000 14.554687500000 67.776000976563 113 113 113
17.734375000000 14.921875000000 67.415008544922 147 147 147
17.718750000000 14.914062500000 67.678009033203 54 54 54
17.765625000000 14.914062500000 67.695007324219 171 171 171
17.750000000000 14.929687500000 67.744003295898 60 60 60
17.734375000000 15.265625000000 67.386001586914 113 113 113
17.734375000000 15.273437500000 67.425003051758 79 79 79
17.734375000000 15.265625000000 67.679000854492 133 133 133
17.734375000000 15.273437500000 67.712997436523 159 159 159
17.734375000000 15.617187500000 67.391006469727 144 144 144
17.734375000000 15.625000000000 67.680007934570 165 165 165
17.734375000000 15.632812500000 67.718002319336 96 96 96
17.718750000000 15.960937500000 67.363006591797 96 96 96
17.718750000000 15.968750000000 67.398010253906 96 96 96
17.703125000000 15.976562500000 67.660003662109 115 115 115
17.734375000000 15.968750000000 67.691009521484 168 168 168
17.703125000000 16.320312500000 67.380996704102 158 158 158
17.703125000000 16.320312500000 67.425003051758 196 196 196
17.687500000000 16.328125000000 67.471008300781 110 110 110
17.687500000000 16.328125000000 67.511001586914 168 168 168
17.671875000000 16.335937500000 67.563995361328 170 170 170
17.671875000000 16.343750000000 67.604003906250 120 120 120
17.687500000000 16.328125000000 67.639999389648 46 46 46
17.718750000000 16.335937500000 67.665008544922 171 171 171
17.703125000000 16.328125000000 67.710998535156 69 69 69
17.703125000000 16.695312500000 67.358001708984 109 109 109
17.687500000000 16.687500000000 67.402999877930 192 192 192
17.671875000000 16.687500000000 67.447006225586 190 190 190
17.671875000000 16.695312500000 67.492996215820 183 183 183
17.671875000000 16.687500000000 67.539001464844 183 183 183
17.656250000000 16.687500000000 67.583007812500 169 169 169
17.703125000000 16.695312500000 67.648010253906 154 154 154
17.703125000000 16.703125000000 67.686996459961 150 150 150
17.671875000000 17.046875000000 67.341003417969 21 21 21
17.671875000000 17.046875000000 67.386001586914 176 176 176
17.671875000000 17.046875000000 67.430007934570 201 201 201
17.671875000000 17.046875000000 67.471008300781 204 204 204
17.656250000000 17.054687500000 67.514999389648 199 199 199
17.656250000000 17.054687500000 67.559005737305 187 187 187
17.640625000000 17.046875000000 67.606002807617 121 121 121
17.671875000000 17.054687500000 67.632995605469 78 78 78
17.703125000000 17.046875000000 67.664001464844 174 174 174
17.703125000000 17.046875000000 67.710998535156 21 21 21
17.671875000000 17.398437500000 67.354995727539 105 105 105
17.671875000000 17.398437500000 67.395996093750 191 191 191
17.671875000000 17.398437500000 67.442001342773 143 143 143
17.640625000000 17.398437500000 67.490005493164 111 111 111
17.640625000000 17.398437500000 67.535003662109 104 104 104
17.640625000000 17.398437500000 67.574996948242 180 180 180
17.640625000000 17.398437500000 67.617996215820 64 64 64
17.671875000000 17.398437500000 67.650009155273 148 148 148
17.671875000000 17.406250000000 67.684005737305 149 149 149
17.640625000000 17.742187500000 67.371002197266 151 151 151
17.640625000000 17.757812500000 67.417007446289 199 199 199
17.640625000000 17.757812500000 67.456008911133 189 189 189
17.625000000000 17.757812500000 67.507995605469 121 121 121
17.625000000000 17.757812500000 67.550003051758 130 130 130
17.625000000000 17.757812500000 67.594009399414 148 148 148
17.640625000000 17.765625000000 67.634002685547 54 54 54
17.671875000000 17.757812500000 67.656005859375 180 180 180
17.640625000000 17.765625000000 67.705001831055 75 75 75
17.609375000000 18.109375000000 67.358001708984 85 85 85
17.640625000000 18.101562500000 67.391006469727 192 192 192
17.640625000000 18.101562500000 67.432006835938 177 177 177
17.609375000000 18.117187500000 67.482009887695 130 130 130
17.609375000000 18.109375000000 67.526000976563 116 116 116
17.609375000000 18.109375000000 67.569000244141 181 181 181
17.609375000000 18.117187500000 67.609008789063 75 75 75
17.640625000000 18.109375000000 67.643997192383 126 126 126
17.671875000000 18.109375000000 67.673995971680 163 163 163
17.640625000000 18.476562500000 67.359008789063 130 130 130
17.640625000000 18.468750000000 67.658004760742 167 167 167
17.656250000000 18.476562500000 67.694000244141 79 79 79
17.640625000000 18.828125000000 67.335998535156 29 29 29
17.656250000000 18.828125000000 67.376007080078 107 107 107
17.609375000000 18.835937500000 67.652999877930 145 145 145
17.640625000000 18.828125000000 67.682998657227 153 153 153
17.671875000000 19.179687500000 67.389007568359 132 132 132
17.578125000000 19.187500000000 67.645996093750 25 25 25
17.609375000000 19.187500000000 67.669998168945 176 176 176
17.609375000000 19.195312500000 67.708007812500 59 59 59
17.671875000000 19.531250000000 67.402008056641 128 128 128
17.578125000000 19.539062500000 67.656997680664 94 94 94
17.609375000000 19.546875000000 67.686996459961 162 162 162
17.578125000000 19.898437500000 67.669006347656 133 133 133
17.578125000000 19.898437500000 67.705001831055 144 144 144
17.578125000000 19.898437500000 67.843002319336 122 122 122
17.578125000000 20.242187500000 67.682998657227 166 166 166
17.578125000000 20.242187500000 67.723999023438 125 125 125
17.593750000000 20.250000000000 67.985000610352 111 111 111
17.546875000000 20.609375000000 67.673995971680 53 53 53
17.562500000000 20.617187500000 67.706008911133 160 160 160
17.578125000000 20.617187500000 68.104003906250 91 91 91
17.546875000000 20.968750000000 67.697998046875 128 128 128
17.546875000000 20.976562500000 67.733001708984 129 129 129
17.562500000000 20.984375000000 68.275009155273 59 59 59
17.593750000000 20.984375000000 68.300003051758 19 19 19
17.531250000000 21.335937500000 67.719009399414 150 150 150
17.531250000000 21.335937500000 67.759002685547 91 91 91
17.578125000000 21.343750000000 68.468002319336 93 93 93
17.515625000000 21.687500000000 67.736007690430 157 157 157
17.531250000000 21.687500000000 67.777008056641 79 79 79
17.562500000000 21.710937500000 68.639999389648 91 91 91
17.515625000000 22.023437500000 67.748001098633 161 161 161
17.515625000000 22.031250000000 67.787002563477 69 69 69
17.546875000000 22.054687500000 68.807998657227 98 98 98
17.484375000000 22.367187500000 67.141998291016 21 21 21
17.468750000000 22.367187500000 67.186004638672 25 25 25
17.468750000000 22.367187500000 67.227005004883 40 40 40
17.484375000000 22.375000000000 67.262008666992 52 52 52
17.484375000000 22.375000000000 67.305007934570 68 68 68
17.484375000000 22.367187500000 67.348999023438 83 83 83
17.484375000000 22.367187500000 67.391006469727 86 86 86
17.484375000000 22.375000000000 67.430007934570 84 84 84
17.484375000000 22.367187500000 67.475006103516 85 85 85
17.484375000000 22.375000000000 67.514999389648 96 96 96
17.484375000000 22.375000000000 67.555007934570 94 94 94
17.484375000000 22.382812500000 67.595001220703 101 101 101
17.484375000000 22.382812500000 67.635009765625 113 113 113
17.484375000000 22.382812500000 67.679000854492 125 125 125
17.484375000000 22.382812500000 67.727996826172 152 152 152
17.515625000000 22.390625000000 67.751998901367 125 125 125
17.593750000000 22.382812500000 67.764007568359 125 125 125
17.593750000000 22.382812500000 67.803009033203 102 102 102
17.500000000000 22.390625000000 67.895004272461 112 112 112
17.500000000000 22.390625000000 67.938995361328 110 110 110
17.515625000000 22.382812500000 67.977005004883 114 114 114
17.515625000000 22.382812500000 68.025009155273 116 116 116
17.515625000000 22.390625000000 68.067001342773 116 116 116
17.531250000000 22.398437500000 68.108001708984 119 119 119
17.531250000000 22.398437500000 68.154998779297 121 121 121
17.531250000000 22.398437500000 68.197998046875 124 124 124
17.546875000000 22.390625000000 68.238006591797 120 120 120
17.531250000000 22.398437500000 68.289001464844 118 118 118
17.531250000000 22.398437500000 68.333999633789 119 119 119
17.546875000000 22.406250000000 68.380996704102 126 126 126
17.546875000000 22.406250000000 68.427001953125 127 127 127
17.546875000000 22.390625000000 68.472000122070 132 132 132
17.546875000000 22.406250000000 68.523010253906 127 127 127
17.546875000000 22.390625000000 68.566009521484 134 134 134
17.546875000000 22.390625000000 68.617004394531 139 139 139
17.562500000000 22.398437500000 68.660003662109 140 140 140
17.578125000000 22.406250000000 68.707000732422 143 143 143
17.562500000000 22.398437500000 68.762008666992 148 148 148
17.578125000000 22.406250000000 68.807006835938 156 156 156
17.578125000000 22.406250000000 68.856002807617 159 159 159
17.578125000000 22.414062500000 68.901000976563 161 161 161
17.609375000000 22.414062500000 68.938003540039 145 145 145
17.609375000000 22.414062500000 68.999008178711 156 156 156
17.609375000000 22.414062500000 69.053009033203 159 159 159
17.578125000000 22.421875000000 69.107009887695 162 162 162
17.609375000000 22.414062500000 69.151000976563 160 160 160
17.609375000000 22.414062500000 69.206008911133 163 163 163
17.609375000000 22.421875000000 69.255996704102 166 166 166
17.609375000000 22.414062500000 69.313995361328 162 162 162
17.609375000000 22.421875000000 69.361999511719 157 157 157
17.609375000000 22.421875000000 69.413009643555 159 159 159
17.609375000000 22.421875000000 69.472000122070 161 161 161
17.640625000000 22.414062500000 69.516998291016 104 104 104
17.484375000000 11.437500000000 63.417007446289 17 17 17
17.484375000000 11.437500000000 63.373001098633 40 40 40
17.500000000000 11.429687500000 63.331008911133 45 45 45
17.484375000000 11.437500000000 63.194000244141 108 108 108
17.484375000000 11.437500000000 63.149002075195 119 119 119
17.437500000000 11.460937500000 63.089996337891 233 233 233
17.484375000000 11.429687500000 63.057006835938 135 135 135
17.484375000000 11.429687500000 63.014007568359 138 138 138
17.453125000000 11.453125000000 62.954010009766 203 203 203
17.421875000000 11.453125000000 62.906997680664 183 183 183
17.453125000000 11.445312500000 62.863006591797 185 185 185
17.421875000000 11.453125000000 62.813003540039 183 183 183
17.453125000000 11.445312500000 62.768997192383 179 179 179
17.453125000000 11.437500000000 62.729003906250 176 176 176
17.453125000000 11.429687500000 62.680999755859 169 169 169
17.531250000000 11.390625000000 62.665008544922 196 196 196
17.953125000000 11.781250000000 69.492996215820 101 101 101
17.968750000000 11.765625000000 69.429000854492 112 112 112
17.953125000000 11.781250000000 69.385009765625 105 105 105
17.953125000000 11.781250000000 69.326004028320 102 102 102
17.953125000000 11.773437500000 69.270004272461 101 101 101
17.953125000000 11.773437500000 69.221008300781 119 119 119
17.953125000000 11.773437500000 69.164001464844 109 109 109
17.921875000000 11.773437500000 69.117996215820 115 115 115
17.921875000000 11.773437500000 69.063003540039 111 111 111
17.937500000000 11.765625000000 69.000000000000 115 115 115
17.921875000000 11.773437500000 68.958999633789 146 146 146
17.890625000000 11.796875000000 68.923995971680 139 139 139
17.921875000000 11.765625000000 68.859008789063 75 75 75
17.921875000000 11.765625000000 68.809005737305 67 67 67
17.921875000000 11.765625000000 68.750000000000 61 61 61
17.921875000000 11.757812500000 68.694000244141 40 40 40
17.921875000000 11.765625000000 68.652008056641 13 13 13
17.906250000000 11.742187500000 67.872009277344 105 105 105
17.890625000000 11.742187500000 67.832000732422 126 126 126
17.796875000000 11.796875000000 67.824005126953 133 133 133
17.859375000000 12.156250000000 68.861999511719 102 102 102
17.796875000000 12.148437500000 67.844009399414 136 136 136
17.796875000000 12.148437500000 67.804000854492 95 95 95
17.843750000000 12.515625000000 68.688003540039 105 105 105
17.796875000000 12.507812500000 67.820999145508 142 142 142
17.796875000000 12.523437500000 67.781997680664 45 45 45
17.859375000000 12.859375000000 68.544998168945 110 110 110
17.796875000000 12.867187500000 67.832000732422 82 82 82
17.796875000000 12.867187500000 67.792007446289 130 130 130
17.843750000000 13.203125000000 68.399002075195 56 56 56
17.812500000000 13.218750000000 68.365997314453 45 45 45
17.796875000000 13.203125000000 67.792999267578 149 149 149
17.765625000000 13.218750000000 67.764007568359 23 23 23
17.796875000000 13.562500000000 68.232009887695 113 113 113
17.796875000000 13.539062500000 67.798004150391 109 109 109
17.765625000000 13.554687500000 67.760009765625 126 126 126
17.765625000000 13.921875000000 68.066009521484 113 113 113
17.765625000000 13.898437500000 67.777008056641 126 126 126
17.765625000000 13.914062500000 67.736007690430 86 86 86
17.750000000000 14.273437500000 67.906005859375 97 97 97
17.765625000000 14.265625000000 67.757003784180 160 160 160
17.734375000000 14.273437500000 67.718002319336 47 47 47
17.765625000000 14.617187500000 67.775009155273 111 111 111
17.734375000000 14.632812500000 67.734008789063 128 128 128
17.671875000000 14.656250000000 67.714996337891 38 38 38
17.750000000000 14.968750000000 67.738998413086 154 154 154
17.734375000000 14.992187500000 67.703002929688 62 62 62
17.734375000000 14.976562500000 67.468002319336 49 49 49
17.734375000000 14.968750000000 67.417999267578 103 103 103
17.750000000000 15.312500000000 67.747009277344 125 125 125
17.750000000000 15.312500000000 67.704010009766 134 134 134
17.734375000000 15.304687500000 67.427001953125 140 140 140
17.734375000000 15.664062500000 67.716003417969 160 160 160
17.703125000000 15.664062500000 67.677001953125 41 41 41
17.734375000000 15.656250000000 67.443008422852 29 29 29
17.734375000000 15.656250000000 67.397003173828 118 118 118
17.734375000000 16.007812500000 67.731002807617 107 107 107
17.718750000000 16.023437500000 67.693008422852 136 136 136
17.734375000000 16.007812500000 67.410003662109 64 64 64
17.703125000000 16.015625000000 67.375000000000 37 37 37
17.718750000000 16.382812500000 67.712005615234 157 157 157
17.703125000000 16.382812500000 67.671997070313 102 102 102
17.671875000000 16.414062500000 67.643997192383 87 87 87
17.671875000000 16.398437500000 67.591995239258 180 180 180
17.671875000000 16.398437500000 67.542007446289 127 127 127
17.671875000000 16.398437500000 67.498001098633 157 157 157
17.671875000000 16.390625000000 67.445999145508 196 196 196
17.703125000000 16.382812500000 67.395996093750 119 119 119
17.703125000000 16.750000000000 67.731002807617 68 68 68
17.703125000000 16.750000000000 67.691009521484 151 151 151
17.671875000000 16.773437500000 67.613006591797 161 161 161
17.640625000000 16.773437500000 67.570999145508 163 163 163
17.671875000000 16.773437500000 67.514999389648 173 173 173
17.671875000000 16.757812500000 67.464996337891 177 177 177
17.671875000000 16.742187500000 67.417999267578 182 182 182
17.671875000000 16.742187500000 67.372009277344 19 19 19
17.703125000000 17.109375000000 67.699005126953 142 142 142
17.671875000000 17.117187500000 67.660003662109 82 82 82
17.640625000000 17.132812500000 67.628997802734 123 123 123
17.640625000000 17.132812500000 67.581008911133 191 191 191
17.656250000000 17.117187500000 67.531005859375 194 194 194
17.656250000000 17.117187500000 67.482009887695 203 203 203
17.671875000000 17.109375000000 67.434005737305 194 194 194
17.671875000000 17.093750000000 67.385009765625 105 105 105
17.671875000000 17.453125000000 67.716003417969 126 126 126
17.671875000000 17.453125000000 67.669998168945 122 122 122
17.640625000000 17.476562500000 67.639999389648 100 100 100
17.640625000000 17.476562500000 67.597000122070 173 173 173
17.640625000000 17.468750000000 67.544006347656 145 145 145
17.640625000000 17.453125000000 67.496002197266 151 151 151
17.640625000000 17.453125000000 67.447006225586 203 203 203
17.671875000000 17.445312500000 67.399002075195 146 146 146
17.671875000000 17.796875000000 67.729003906250 59 59 59
17.671875000000 17.796875000000 67.684005737305 151 151 151
17.640625000000 17.804687500000 67.604995727539 168 168 168
17.625000000000 17.820312500000 67.561004638672 175 175 175
17.640625000000 17.804687500000 67.509002685547 151 151 151
17.640625000000 17.804687500000 67.464004516602 197 197 197
17.656250000000 17.804687500000 67.414001464844 186 186 186
17.640625000000 17.796875000000 67.371002197266 15 15 15
17.656250000000 18.156250000000 67.697998046875 154 154 154
17.625000000000 18.179687500000 67.664001464844 65 65 65
17.609375000000 18.195312500000 67.630004882813 87 87 87
17.609375000000 18.179687500000 67.581008911133 179 179 179
17.609375000000 18.179687500000 67.526000976563 166 166 166
17.609375000000 18.179687500000 67.479995727539 124 124 124
17.625000000000 18.164062500000 67.432006835938 199 199 199
17.625000000000 18.164062500000 67.382995605469 111 111 111
17.640625000000 18.531250000000 67.719009399414 121 121 121
17.625000000000 18.531250000000 67.677001953125 132 132 132
17.656250000000 18.515625000000 67.389007568359 120 120 120
17.640625000000 18.890625000000 67.697006225586 158 158 158
17.609375000000 18.906250000000 67.662002563477 20 20 20
17.671875000000 18.851562500000 67.406005859375 110 110 110
17.625000000000 19.234375000000 67.714996337891 154 154 154
17.593750000000 19.257812500000 67.680007934570 93 93 93
17.671875000000 19.203125000000 67.410995483398 132 132 132
17.609375000000 19.593750000000 67.775009155273 106 106 106
17.609375000000 19.585937500000 67.725997924805 125 125 125
17.578125000000 19.601562500000 67.688995361328 111 111 111
17.578125000000 19.601562500000 67.643005371094 61 61 61
17.687500000000 19.539062500000 67.458999633789 41 41 41
17.687500000000 19.539062500000 67.414001464844 80 80 80
17.578125000000 19.960937500000 67.934997558594 16 16 16
17.578125000000 19.968750000000 67.895004272461 28 28 28
17.609375000000 19.945312500000 67.740005493164 118 118 118
17.578125000000 19.960937500000 67.697006225586 122 122 122
17.578125000000 20.328125000000 68.054000854492 108 108 108
17.578125000000 20.312500000000 67.762008666992 60 60 60
17.578125000000 20.320312500000 67.719009399414 158 158 158
17.578125000000 20.695312500000 68.180007934570 63 63 63
17.546875000000 20.687500000000 67.746002197266 138 138 138
17.546875000000 20.695312500000 67.708007812500 76 76 76
17.578125000000 21.054687500000 68.352005004883 68 68 68
17.562500000000 21.046875000000 67.770004272461 105 105 105
17.546875000000 21.046875000000 67.727996826172 125 125 125
17.578125000000 21.406250000000 68.568008422852 24 24 24
17.578125000000 21.406250000000 68.516006469727 18 18 18
17.546875000000 21.398437500000 67.789001464844 108 108 108
17.531250000000 21.398437500000 67.747009277344 128 128 128
17.562500000000 21.765625000000 68.744003295898 16 16 16
17.546875000000 21.765625000000 68.697998046875 30 30 30
17.531250000000 21.742187500000 67.803009033203 101 101 101
17.515625000000 21.757812500000 67.759002685547 143 143 143
17.546875000000 22.132812500000 68.878997802734 67 67 67
17.515625000000 22.117187500000 67.829010009766 25 25 25
17.515625000000 22.117187500000 67.781005859375 155 155 155
17.640625000000 22.460937500000 69.570999145508 47 47 47
17.640625000000 22.476562500000 69.524002075195 152 152 152
17.625000000000 22.468750000000 69.466995239258 146 146 146
17.625000000000 22.468750000000 69.413009643555 155 155 155
17.609375000000 22.468750000000 69.356002807617 166 166 166
17.609375000000 22.468750000000 69.294998168945 173 173 173
17.625000000000 22.453125000000 69.235000610352 169 169 169
17.609375000000 22.468750000000 69.184997558594 175 175 175
17.609375000000 22.468750000000 69.130004882813 174 174 174
17.625000000000 22.453125000000 69.072006225586 175 175 175
17.609375000000 22.460937500000 69.020996093750 183 183 183
17.625000000000 22.445312500000 68.964996337891 136 136 136
17.609375000000 22.460937500000 68.913009643555 189 189 189
17.609375000000 22.460937500000 68.861999511719 189 189 189
17.609375000000 22.460937500000 68.807998657227 192 192 192
17.609375000000 22.460937500000 68.755004882813 188 188 188
17.609375000000 22.460937500000 68.703002929688 188 188 188
17.609375000000 22.453125000000 68.652008056641 189 189 189
17.609375000000 22.453125000000 68.600006103516 193 193 193
17.609375000000 22.453125000000 68.548004150391 192 192 192
17.609375000000 22.453125000000 68.501007080078 192 192 192
17.593750000000 22.445312500000 68.455001831055 193 193 193
17.578125000000 22.453125000000 68.404006958008 194 194 194
17.578125000000 22.453125000000 68.357009887695 192 192 192
17.593750000000 22.445312500000 68.304000854492 190 190 190
17.578125000000 22.453125000000 68.255004882813 177 177 177
17.593750000000 22.445312500000 68.206008911133 190 190 190
17.593750000000 22.445312500000 68.154998779297 194 194 194
17.578125000000 22.445312500000 68.109008789063 194 194 194
17.578125000000 22.445312500000 68.066009521484 191 191 191
17.578125000000 22.445312500000 68.016006469727 193 193 193
17.578125000000 22.445312500000 67.966003417969 190 190 190
17.578125000000 22.445312500000 67.917999267578 191 191 191
17.578125000000 22.445312500000 67.873001098633 191 191 191
17.578125000000 22.445312500000 67.822998046875 159 159 159
17.562500000000 22.437500000000 67.777008056641 188 188 188
17.562500000000 22.437500000000 67.729995727539 198 198 198
17.562500000000 22.437500000000 67.686004638672 193 193 193
17.562500000000 22.437500000000 67.635009765625 192 192 192
17.546875000000 22.429687500000 67.594009399414 196 196 196
17.546875000000 22.445312500000 67.550003051758 195 195 195
17.546875000000 22.429687500000 67.501998901367 189 189 189
17.546875000000 22.429687500000 67.456008911133 189 189 189
17.546875000000 22.429687500000 67.410003662109 195 195 195
17.546875000000 22.445312500000 67.367004394531 198 198 198
17.546875000000 22.445312500000 67.322006225586 197 197 197
17.546875000000 22.437500000000 67.277999877930 191 191 191
17.546875000000 22.437500000000 67.234008789063 196 196 196
17.546875000000 22.437500000000 67.190002441406 196 196 196
17.546875000000 22.437500000000 67.145004272461 198 198 198
17.531250000000 22.429687500000 67.100997924805 199 199 199
17.531250000000 22.429687500000 67.057998657227 194 194 194
17.531250000000 22.429687500000 67.013000488281 198 198 198
17.515625000000 22.437500000000 66.971008300781 194 194 194
17.515625000000 22.429687500000 66.926010131836 189 189 189
17.515625000000 22.429687500000 66.882995605469 194 194 194
17.515625000000 22.437500000000 66.841003417969 200 200 200
17.515625000000 22.429687500000 66.794998168945 192 192 192
