16.796875000000 12.679687500000 6.869003295898 63 63 63
16.843750000000 12.679687500000 6.847000122070 111 111 111
16.859375000000 12.648437500000 6.809997558594 131 131 131
16.890625000000 12.648437500000 6.775001525879 129 129 129
16.843750000000 12.679687500000 6.696998596191 71 71 71
16.843750000000 12.679687500000 6.649002075195 90 90 90
16.828125000000 12.679687500000 6.595001220703 92 92 92
16.828125000000 12.679687500000 6.543998718262 94 94 94
16.828125000000 12.679687500000 6.496002197266 105 105 105
16.828125000000 12.679687500000 6.456001281738 118 118 118
16.828125000000 12.679687500000 6.400001525879 126 126 126
16.828125000000 12.679687500000 6.353004455566 122 122 122
16.828125000000 12.679687500000 6.310997009277 126 126 126
16.828125000000 12.679687500000 6.271003723145 127 127 127
16.828125000000 12.679687500000 6.219001770020 131 131 131
16.812500000000 12.679687500000 6.166999816895 138 138 138
16.828125000000 12.679687500000 6.128997802734 139 139 139
16.812500000000 12.679687500000 6.080001831055 150 150 150
16.828125000000 12.679687500000 6.037002563477 154 154 154
16.812500000000 12.679687500000 5.990997314453 152 152 152
16.812500000000 12.679687500000 5.946998596191 132 132 132
16.812500000000 12.679687500000 5.903999328613 153 153 153
16.812500000000 12.679687500000 5.861000061035 160 160 160
16.828125000000 12.679687500000 5.819000244141 157 157 157
16.812500000000 12.679687500000 5.774002075195 164 164 164
16.812500000000 12.679687500000 5.733001708984 166 166 166
16.812500000000 12.695312500000 5.685997009277 168 168 168
16.812500000000 12.679687500000 5.647003173828 172 172 172
16.812500000000 12.695312500000 5.601997375488 170 170 170
16.812500000000 12.679687500000 5.564002990723 170 170 170
16.812500000000 12.695312500000 5.520004272461 174 174 174
16.812500000000 12.695312500000 5.478004455566 171 171 171
16.812500000000 12.679687500000 5.439002990723 173 173 173
16.812500000000 12.695312500000 5.395004272461 172 172 172
16.812500000000 12.695312500000 5.355003356934 173 173 173
16.812500000000 12.695312500000 5.315002441406 177 177 177
16.812500000000 12.695312500000 5.272003173828 176 176 176
16.812500000000 12.695312500000 5.232002258301 174 174 174
16.812500000000 12.710937500000 5.191001892090 177 177 177
16.812500000000 12.710937500000 5.151000976563 174 174 174
16.812500000000 12.679687500000 5.114997863770 174 174 174
16.812500000000 12.695312500000 5.072998046875 174 174 174
16.812500000000 12.695312500000 5.034004211426 179 179 179
16.812500000000 12.710937500000 4.990997314453 178 178 178
16.812500000000 12.710937500000 4.953002929688 180 180 180
16.812500000000 12.695312500000 4.915000915527 182 182 182
16.812500000000 12.710937500000 4.874000549316 182 182 182
16.796875000000 12.710937500000 4.833999633789 183 183 183
16.812500000000 12.710937500000 4.795997619629 179 179 179
16.812500000000 12.710937500000 4.758003234863 180 180 180
16.796875000000 12.710937500000 4.718002319336 179 179 179
16.812500000000 12.710937500000 4.681999206543 171 171 171
16.812500000000 12.710937500000 4.645004272461 175 175 175
16.796875000000 12.710937500000 4.603004455566 176 176 176
16.796875000000 12.710937500000 4.567001342773 177 177 177
16.796875000000 12.710937500000 4.527000427246 182 182 182
16.796875000000 12.710937500000 4.489997863770 184 184 184
16.796875000000 12.710937500000 4.453002929688 188 188 188
16.796875000000 12.710937500000 4.415000915527 187 187 187
16.796875000000 12.710937500000 4.377998352051 185 185 185
16.781250000000 12.726562500000 4.339004516602 186 186 186
16.796875000000 12.710937500000 4.303001403809 181 181 181
16.796875000000 12.710937500000 4.265998840332 178 178 178
16.796875000000 12.710937500000 4.228004455566 186 186 186
16.796875000000 12.710937500000 4.192001342773 186 186 186
16.796875000000 12.710937500000 4.154998779297 188 188 188
16.796875000000 12.710937500000 4.120002746582 189 189 189
16.796875000000 12.710937500000 4.081001281738 188 188 188
16.781250000000 12.726562500000 4.043998718262 188 188 188
16.796875000000 12.710937500000 4.009002685547 188 188 188
16.781250000000 12.726562500000 3.971000671387 193 193 193
16.781250000000 12.726562500000 3.933998107910 195 195 195
16.796875000000 12.710937500000 3.899002075195 196 196 196
16.796875000000 12.710937500000 3.861999511719 193 193 193
16.781250000000 12.726562500000 3.825004577637 192 192 192
16.781250000000 12.726562500000 3.789001464844 192 192 192
16.781250000000 12.726562500000 3.752998352051 192 192 192
16.781250000000 12.726562500000 3.717002868652 194 194 194
16.796875000000 12.710937500000 3.681999206543 197 197 197
16.781250000000 12.726562500000 3.645004272461 196 196 196
16.796875000000 12.710937500000 3.610000610352 199 199 199
16.796875000000 12.710937500000 3.573997497559 199 199 199
16.796875000000 12.710937500000 3.538002014160 198 198 198
16.781250000000 12.726562500000 3.500999450684 197 197 197
16.781250000000 12.726562500000 3.466003417969 201 201 201
16.781250000000 12.726562500000 3.430000305176 203 203 203
16.781250000000 12.726562500000 3.393997192383 198 198 198
16.781250000000 12.726562500000 3.358001708984 204 204 204
16.781250000000 12.726562500000 3.322998046875 200 200 200
16.781250000000 12.726562500000 3.287002563477 200 200 200
16.781250000000 12.726562500000 3.250999450684 201 201 201
16.781250000000 12.726562500000 3.215003967285 206 206 206
16.781250000000 12.726562500000 3.180000305176 204 204 204
16.781250000000 12.726562500000 3.143997192383 202 202 202
16.781250000000 12.726562500000 3.108001708984 203 203 203
16.781250000000 12.726562500000 3.072998046875 197 197 197
16.796875000000 12.710937500000 3.037002563477 199 199 199
16.781250000000 12.726562500000 3.000999450684 199 199 199
16.781250000000 12.726562500000 2.966003417969 198 198 198
16.796875000000 12.726562500000 2.930000305176 199 199 199
16.781250000000 12.726562500000 2.893997192383 198 198 198
16.796875000000 12.726562500000 2.858001708984 197 197 197
16.781250000000 12.726562500000 2.821998596191 205 205 205
16.781250000000 12.726562500000 2.787002563477 198 198 198
16.781250000000 12.726562500000 2.750999450684 197 197 197
16.781250000000 12.726562500000 2.715003967285 196 196 196
16.781250000000 12.726562500000 2.680000305176 192 192 192
16.796875000000 12.742187500000 2.642997741699 192 192 192
16.781250000000 12.726562500000 2.608001708984 196 196 196
16.781250000000 12.726562500000 2.571998596191 187 187 187
16.796875000000 12.742187500000 2.535003662109 191 191 191
16.781250000000 12.726562500000 2.500000000000 189 189 189
16.781250000000 12.726562500000 2.464004516602 190 190 190
16.796875000000 12.742187500000 2.427001953125 189 189 189
16.796875000000 12.742187500000 2.390998840332 186 186 186
16.796875000000 12.742187500000 2.355003356934 186 186 186
16.796875000000 12.742187500000 2.319000244141 185 185 185
16.796875000000 12.742187500000 2.282997131348 184 184 184
16.796875000000 12.742187500000 2.246002197266 185 185 185
16.796875000000 12.742187500000 2.208999633789 183 183 183
16.796875000000 12.742187500000 2.173004150391 183 183 183
16.796875000000 12.742187500000 2.136001586914 183 183 183
16.796875000000 12.742187500000 2.099998474121 180 180 180
16.796875000000 12.742187500000 2.063003540039 177 177 177
16.796875000000 12.726562500000 2.026000976563 181 181 181
16.796875000000 12.742187500000 1.988998413086 175 175 175
16.796875000000 12.742187500000 1.952003479004 179 179 179
16.796875000000 12.742187500000 1.915000915527 178 178 178
16.796875000000 12.742187500000 1.877998352051 177 177 177
16.796875000000 12.742187500000 1.843002319336 174 174 174
16.796875000000 12.742187500000 1.804000854492 174 174 174
16.796875000000 12.742187500000 1.766998291016 171 171 171
16.796875000000 12.742187500000 1.730003356934 172 172 172
16.796875000000 12.742187500000 1.693000793457 170 170 170
16.796875000000 12.742187500000 1.654998779297 171 171 171
16.796875000000 12.742187500000 1.617004394531 171 171 171
16.796875000000 12.742187500000 1.580001831055 170 170 170
16.796875000000 12.742187500000 1.540000915527 168 168 168
16.796875000000 12.742187500000 1.501998901367 169 169 169
16.796875000000 12.742187500000 1.465003967285 165 165 165
16.796875000000 12.742187500000 1.426002502441 162 162 162
16.796875000000 12.742187500000 1.387001037598 159 159 159
16.859375000000 12.710937500000 1.333999633789 165 165 165
16.859375000000 12.710937500000 1.295997619629 163 163 163
16.843750000000 12.710937500000 1.261001586914 164 164 164
16.843750000000 12.710937500000 1.222000122070 168 168 168
17.531250000000 5.539062500000 6.619003295898 21 21 21
17.546875000000 5.539062500000 6.577003479004 45 45 45
17.546875000000 5.539062500000 6.527000427246 51 51 51
17.531250000000 5.539062500000 6.474998474121 75 75 75
17.546875000000 5.539062500000 6.432998657227 84 84 84
17.546875000000 5.539062500000 6.385002136230 94 94 94
17.546875000000 5.539062500000 6.339004516602 100 100 100
17.546875000000 5.539062500000 6.291999816895 108 108 108
17.546875000000 5.539062500000 6.248001098633 107 107 107
17.531250000000 5.539062500000 6.196998596191 112 112 112
17.531250000000 5.539062500000 6.151000976563 114 114 114
17.546875000000 5.539062500000 6.111999511719 121 121 121
17.531250000000 5.539062500000 6.059997558594 129 129 129
17.531250000000 5.539062500000 6.017997741699 129 129 129
17.531250000000 5.539062500000 5.972999572754 123 123 123
17.531250000000 5.539062500000 5.927001953125 115 115 115
17.531250000000 5.539062500000 5.883003234863 136 136 136
17.531250000000 5.539062500000 5.842002868652 141 141 141
17.531250000000 5.539062500000 5.794998168945 146 146 146
17.546875000000 5.539062500000 5.762001037598 148 148 148
17.531250000000 5.539062500000 5.708999633789 156 156 156
17.546875000000 5.539062500000 5.674003601074 164 164 164
17.531250000000 5.539062500000 5.625000000000 161 161 161
17.515625000000 5.539062500000 5.582000732422 165 165 165
17.515625000000 5.539062500000 5.541000366211 166 166 166
17.515625000000 5.539062500000 5.497001647949 168 168 168
17.515625000000 5.539062500000 5.456001281738 169 169 169
17.515625000000 5.539062500000 5.412002563477 169 169 169
17.515625000000 5.539062500000 5.373001098633 162 162 162
17.515625000000 5.539062500000 5.327003479004 167 167 167
17.515625000000 5.539062500000 5.290000915527 170 170 170
17.515625000000 5.539062500000 5.250999450684 165 165 165
17.515625000000 5.539062500000 5.208000183105 171 171 171
17.515625000000 5.539062500000 5.170997619629 171 171 171
17.515625000000 5.539062500000 5.129997253418 167 167 167
17.500000000000 5.531250000000 5.087997436523 169 169 169
17.515625000000 5.539062500000 5.051002502441 168 168 168
17.515625000000 5.539062500000 5.016998291016 173 173 173
17.500000000000 5.531250000000 4.971000671387 169 169 169
17.500000000000 5.531250000000 4.931999206543 170 170 170
17.500000000000 5.531250000000 4.893997192383 173 173 173
17.500000000000 5.531250000000 4.857002258301 172 172 172
17.515625000000 5.539062500000 4.819000244141 172 172 172
17.500000000000 5.531250000000 4.780998229980 172 172 172
17.515625000000 5.539062500000 4.744003295898 172 172 172
17.500000000000 5.531250000000 4.705001831055 174 174 174
17.515625000000 5.539062500000 4.668998718262 177 177 177
17.515625000000 5.539062500000 4.631004333496 171 171 171
17.500000000000 5.531250000000 4.592002868652 172 172 172
17.515625000000 5.554687500000 4.556999206543 176 176 176
17.500000000000 5.531250000000 4.518997192383 185 185 185
17.515625000000 5.539062500000 4.486000061035 185 185 185
17.500000000000 5.531250000000 4.444999694824 179 179 179
17.515625000000 5.554687500000 4.410003662109 182 182 182
17.500000000000 5.531250000000 4.372001647949 180 180 180
17.500000000000 5.531250000000 4.335998535156 173 173 173
17.515625000000 5.554687500000 4.301002502441 177 177 177
17.500000000000 5.531250000000 4.263000488281 178 178 178
17.500000000000 5.531250000000 4.226997375488 182 182 182
17.515625000000 5.554687500000 4.192001342773 183 183 183
17.500000000000 5.531250000000 4.155998229980 185 185 185
17.515625000000 5.554687500000 4.122001647949 193 193 193
17.500000000000 5.531250000000 4.084999084473 199 199 199
17.500000000000 5.531250000000 4.049003601074 197 197 197
17.515625000000 5.554687500000 4.013999938965 193 193 193
17.515625000000 5.554687500000 3.978004455566 193 193 193
17.515625000000 5.554687500000 3.944000244141 196 196 196
17.515625000000 5.554687500000 3.907997131348 194 194 194
17.484375000000 5.546875000000 3.872001647949 193 193 193
17.515625000000 5.554687500000 3.837997436523 192 192 192
17.484375000000 5.546875000000 3.802001953125 190 190 190
17.515625000000 5.570312500000 3.766998291016 194 194 194
17.515625000000 5.554687500000 3.733001708984 197 197 197
17.515625000000 5.554687500000 3.697998046875 195 195 195
17.484375000000 5.546875000000 3.662002563477 197 197 197
17.484375000000 5.546875000000 3.626998901367 197 197 197
17.484375000000 5.546875000000 3.592002868652 188 188 188
17.515625000000 5.570312500000 3.558998107910 191 191 191
17.484375000000 5.546875000000 3.524002075195 179 179 179
17.515625000000 5.570312500000 3.488998413086 176 176 176
17.515625000000 5.570312500000 3.455001831055 194 194 194
17.515625000000 5.570312500000 3.420997619629 192 192 192
17.515625000000 5.570312500000 3.386001586914 193 193 193
17.515625000000 5.570312500000 3.351997375488 192 192 192
17.515625000000 5.570312500000 3.318000793457 191 191 191
17.484375000000 5.546875000000 3.282997131348 195 195 195
17.515625000000 5.570312500000 3.249000549316 192 192 192
17.484375000000 5.562500000000 3.214004516602 187 187 187
17.515625000000 5.570312500000 3.180000305176 191 191 191
17.484375000000 5.562500000000 3.146003723145 188 188 188
17.484375000000 5.562500000000 3.111999511719 191 191 191
17.515625000000 5.570312500000 3.078002929688 194 194 194
17.484375000000 5.562500000000 3.042999267578 187 187 187
17.484375000000 5.562500000000 3.009002685547 194 194 194
17.500000000000 5.562500000000 2.974998474121 187 187 187
17.500000000000 5.562500000000 2.941001892090 192 192 192
17.515625000000 5.570312500000 2.906997680664 195 195 195
17.515625000000 5.570312500000 2.873001098633 194 194 194
17.484375000000 5.562500000000 2.839004516602 194 194 194
17.500000000000 5.562500000000 2.805000305176 196 196 196
17.484375000000 5.562500000000 2.771003723145 196 196 196
17.484375000000 5.562500000000 2.736999511719 200 200 200
17.484375000000 5.562500000000 2.703002929688 200 200 200
17.484375000000 5.562500000000 2.667999267578 191 191 191
17.500000000000 5.562500000000 2.634002685547 190 190 190
17.484375000000 5.562500000000 2.599998474121 193 193 193
17.484375000000 5.562500000000 2.566001892090 195 195 195
17.500000000000 5.562500000000 2.531997680664 196 196 196
17.484375000000 5.562500000000 2.498001098633 192 192 192
17.484375000000 5.562500000000 2.462997436523 195 195 195
17.484375000000 5.562500000000 2.429000854492 192 192 192
17.484375000000 5.562500000000 2.395004272461 191 191 191
17.500000000000 5.562500000000 2.360000610352 191 191 191
17.484375000000 5.562500000000 2.327003479004 180 180 180
17.500000000000 5.562500000000 2.291000366211 186 186 186
17.500000000000 5.562500000000 2.257003784180 184 184 184
17.484375000000 5.562500000000 2.222999572754 178 178 178
17.500000000000 5.562500000000 2.188003540039 184 184 184
17.484375000000 5.562500000000 2.154998779297 182 182 182
17.484375000000 5.562500000000 2.120002746582 185 185 185
17.484375000000 5.562500000000 2.084999084473 185 185 185
17.484375000000 5.562500000000 2.050003051758 183 183 183
17.500000000000 5.562500000000 2.014999389648 179 179 179
17.484375000000 5.562500000000 1.981002807617 180 180 180
17.484375000000 5.562500000000 1.945999145508 179 179 179
17.484375000000 5.562500000000 1.912002563477 175 175 175
17.484375000000 5.562500000000 1.875999450684 184 184 184
17.500000000000 5.562500000000 1.840003967285 175 175 175
17.484375000000 5.562500000000 1.806999206543 177 177 177
17.484375000000 5.562500000000 1.772003173828 177 177 177
17.484375000000 5.562500000000 1.736000061035 177 177 177
17.484375000000 5.562500000000 1.701004028320 179 179 179
17.453125000000 5.562500000000 1.669998168945 177 177 177
17.484375000000 5.562500000000 1.631004333496 178 178 178
17.484375000000 5.562500000000 1.594001770020 175 175 175
17.500000000000 5.562500000000 1.556999206543 171 171 171
17.500000000000 5.562500000000 1.518997192383 158 158 158
17.500000000000 5.562500000000 1.480003356934 157 157 157
17.484375000000 5.562500000000 1.453002929688 164 164 164
17.500000000000 5.882812500000 6.771003723145 81 81 81
17.531250000000 5.882812500000 6.743003845215 98 98 98
17.531250000000 5.882812500000 5.948997497559 61 61 61
17.531250000000 5.882812500000 5.910003662109 149 149 149
17.500000000000 6.242187500000 6.662002563477 37 37 37
17.515625000000 6.242187500000 6.623001098633 72 72 72
17.500000000000 6.257812500000 5.924003601074 134 134 134
17.515625000000 6.257812500000 5.888000488281 97 97 97
17.500000000000 6.585937500000 6.538002014160 102 102 102
17.500000000000 6.601562500000 5.939002990723 111 111 111
17.515625000000 6.601562500000 5.902999877930 161 161 161
17.531250000000 6.601562500000 5.870002746582 18 18 18
17.531250000000 6.601562500000 5.696998596191 63 63 63
17.531250000000 6.601562500000 5.655998229980 89 89 89
17.531250000000 6.601562500000 5.612998962402 131 131 131
17.484375000000 6.945312500000 6.414001464844 100 100 100
17.468750000000 6.945312500000 5.913002014160 169 169 169
17.500000000000 6.945312500000 5.886001586914 103 103 103
17.484375000000 6.945312500000 5.624000549316 112 112 112
17.484375000000 6.945312500000 5.583000183105 68 68 68
17.468750000000 7.320312500000 6.336997985840 38 38 38
17.484375000000 7.320312500000 6.302001953125 91 91 91
17.453125000000 7.320312500000 5.924003601074 122 122 122
17.468750000000 7.320312500000 5.896003723145 159 159 159
17.484375000000 7.320312500000 5.606002807617 149 149 149
17.453125000000 7.664062500000 6.221000671387 82 82 82
17.468750000000 7.664062500000 6.184997558594 60 60 60
17.453125000000 7.664062500000 5.907997131348 166 166 166
17.484375000000 7.664062500000 5.877998352051 106 106 106
17.515625000000 7.664062500000 5.638000488281 20 20 20
17.515625000000 7.664062500000 5.598999023438 132 132 132
17.453125000000 8.023437500000 6.119003295898 111 111 111
17.437500000000 8.023437500000 5.925003051758 116 116 116
17.437500000000 8.023437500000 5.881004333496 158 158 158
17.500000000000 8.023437500000 5.873001098633 114 114 114
17.500000000000 8.007812500000 5.833999633789 140 140 140
17.531250000000 8.007812500000 5.799003601074 172 172 172
17.531250000000 8.007812500000 5.753997802734 172 172 172
17.546875000000 8.023437500000 5.719001770020 169 169 169
17.531250000000 8.007812500000 5.674003601074 166 166 166
17.531250000000 8.007812500000 5.632003784180 147 147 147
17.546875000000 8.023437500000 5.595001220703 87 87 87
17.437500000000 8.382812500000 6.000999450684 106 106 106
17.421875000000 8.382812500000 5.948997497559 23 23 23
17.406250000000 8.375000000000 5.899002075195 172 172 172
17.453125000000 8.382812500000 5.875000000000 92 92 92
17.531250000000 8.382812500000 5.829002380371 173 173 173
17.531250000000 8.367187500000 5.791000366211 181 181 181
17.531250000000 8.367187500000 5.749000549316 121 121 121
17.578125000000 8.382812500000 5.719001770020 138 138 138
17.546875000000 8.367187500000 5.668998718262 198 198 198
17.546875000000 8.367187500000 5.629997253418 169 169 169
17.578125000000 8.367187500000 5.597999572754 24 24 24
17.390625000000 8.718750000000 5.912002563477 162 162 162
17.390625000000 8.718750000000 5.879997253418 134 134 134
17.531250000000 8.726562500000 5.861000061035 102 102 102
17.531250000000 8.726562500000 5.819999694824 180 180 180
17.562500000000 8.726562500000 5.786003112793 97 97 97
17.562500000000 8.726562500000 5.744003295898 175 175 175
17.531250000000 8.726562500000 5.691001892090 176 176 176
17.562500000000 8.726562500000 5.656997680664 206 206 206
17.546875000000 8.726562500000 5.612998962402 142 142 142
17.375000000000 9.062500000000 5.919998168945 146 146 146
17.375000000000 9.062500000000 5.881004333496 157 157 157
17.453125000000 9.070312500000 5.837997436523 149 149 149
17.484375000000 9.070312500000 5.805000305176 194 194 194
17.484375000000 9.070312500000 5.764999389648 169 169 169
17.484375000000 9.070312500000 5.722000122070 167 167 167
17.484375000000 9.070312500000 5.680000305176 195 195 195
17.484375000000 9.070312500000 5.640998840332 193 193 193
17.500000000000 9.070312500000 5.600997924805 122 122 122
17.328125000000 9.421875000000 5.919998168945 145 145 145
17.328125000000 9.437500000000 5.882003784180 159 159 159
17.359375000000 9.421875000000 5.861000061035 20 20 20
17.390625000000 9.429687500000 5.825004577637 178 178 178
17.390625000000 9.429687500000 5.782997131348 94 94 94
17.406250000000 9.429687500000 5.749000549316 91 91 91
17.406250000000 9.429687500000 5.704002380371 112 112 112
17.421875000000 9.429687500000 5.670997619629 181 181 181
17.406250000000 9.414062500000 5.628997802734 180 180 180
17.421875000000 9.429687500000 5.589004516602 64 64 64
17.265625000000 9.781250000000 5.969001770020 25 25 25
17.250000000000 9.781250000000 5.913002014160 152 152 152
17.265625000000 9.781250000000 5.878997802734 146 146 146
17.312500000000 9.781250000000 5.860000610352 58 58 58
17.328125000000 9.781250000000 5.823997497559 178 178 178
17.328125000000 9.781250000000 5.782997131348 131 131 131
17.343750000000 9.781250000000 5.743003845215 116 116 116
17.343750000000 9.781250000000 5.704002380371 124 124 124
17.343750000000 9.781250000000 5.660003662109 188 188 188
17.343750000000 9.781250000000 5.621002197266 171 171 171
17.343750000000 9.781250000000 5.583000183105 33 33 33
17.250000000000 10.140625000000 6.055000305176 117 117 117
17.218750000000 10.156250000000 5.912002563477 137 137 137
17.218750000000 10.140625000000 5.875000000000 133 133 133
17.281250000000 10.140625000000 5.861999511719 103 103 103
17.281250000000 10.140625000000 5.819999694824 173 173 173
17.281250000000 10.140625000000 5.777000427246 181 181 181
17.296875000000 10.156250000000 5.737998962402 177 177 177
17.296875000000 10.156250000000 5.696998596191 178 178 178
17.296875000000 10.156250000000 5.657997131348 181 181 181
17.296875000000 10.156250000000 5.618003845215 152 152 152
17.312500000000 10.156250000000 5.583000183105 67 67 67
17.203125000000 10.500000000000 6.138999938965 97 97 97
17.171875000000 10.500000000000 5.911003112793 166 166 166
17.187500000000 10.500000000000 5.878997802734 111 111 111
17.234375000000 10.500000000000 5.615997314453 152 152 152
17.125000000000 10.843750000000 6.266998291016 120 120 120
17.093750000000 10.843750000000 5.934997558594 59 59 59
17.125000000000 10.859375000000 5.904998779297 173 173 173
17.125000000000 10.843750000000 5.873001098633 76 76 76
17.187500000000 10.843750000000 5.612998962402 153 153 153
17.093750000000 11.203125000000 6.388999938965 117 117 117
17.046875000000 11.218750000000 5.933998107910 106 106 106
17.062500000000 11.203125000000 5.895004272461 163 163 163
17.109375000000 11.203125000000 5.873001098633 31 31 31
17.156250000000 11.218750000000 5.609001159668 151 151 151
17.031250000000 11.554687500000 6.510002136230 72 72 72
17.062500000000 11.562500000000 6.483001708984 25 25 25
17.015625000000 11.554687500000 5.928001403809 128 128 128
17.031250000000 11.554687500000 5.889999389648 155 155 155
17.109375000000 11.562500000000 5.645004272461 17 17 17
17.093750000000 11.562500000000 5.600997924805 144 144 144
17.000000000000 11.898437500000 6.609001159668 110 110 110
16.968750000000 11.898437500000 5.925003051758 151 151 151
16.968750000000 11.898437500000 5.888999938965 167 167 167
16.921875000000 12.242187500000 6.740997314453 104 104 104
16.921875000000 12.273437500000 5.920997619629 156 156 156
16.921875000000 12.257812500000 5.892997741699 146 146 146
16.796875000000 12.617187500000 6.837997436523 95 95 95
16.828125000000 12.617187500000 6.819000244141 58 58 58
16.890625000000 12.617187500000 6.816001892090 104 104 104
16.968750000000 12.617187500000 6.823997497559 102 102 102
16.796875000000 12.617187500000 5.944000244141 66 66 66
16.796875000000 12.617187500000 5.912002563477 133 133 133
16.875000000000 12.617187500000 5.915000915527 134 134 134
16.906250000000 12.617187500000 5.890998840332 123 123 123
16.968750000000 12.617187500000 5.888000488281 61 61 61
16.875000000000 12.617187500000 5.475997924805 23 23 23
16.875000000000 12.617187500000 5.437004089355 42 42 42
16.875000000000 12.617187500000 5.399002075195 53 53 53
16.859375000000 12.617187500000 5.354003906250 58 58 58
16.859375000000 12.617187500000 5.315002441406 72 72 72
16.859375000000 12.617187500000 5.279998779297 81 81 81
16.859375000000 12.617187500000 5.240997314453 94 94 94
16.859375000000 12.617187500000 5.204002380371 96 96 96
16.859375000000 12.617187500000 5.166999816895 110 110 110
16.859375000000 12.632812500000 5.124000549316 107 107 107
16.859375000000 12.617187500000 5.087997436523 113 113 113
16.859375000000 12.617187500000 5.054000854492 123 123 123
16.859375000000 12.617187500000 5.018997192383 131 131 131
16.859375000000 12.617187500000 4.981002807617 129 129 129
16.859375000000 12.632812500000 4.943000793457 138 138 138
16.859375000000 12.617187500000 4.907997131348 142 142 142
16.859375000000 12.617187500000 4.872001647949 146 146 146
16.859375000000 12.632812500000 4.835998535156 139 139 139
16.828125000000 12.617187500000 4.796997070313 143 143 143
16.828125000000 12.617187500000 4.761001586914 140 140 140
16.859375000000 12.632812500000 4.730003356934 138 138 138
16.828125000000 12.617187500000 4.692001342773 140 140 140
16.859375000000 12.632812500000 4.659004211426 149 149 149
16.828125000000 12.617187500000 4.622001647949 143 143 143
16.828125000000 12.617187500000 4.584999084473 151 151 151
16.828125000000 12.617187500000 4.553001403809 158 158 158
16.828125000000 12.617187500000 4.516998291016 161 161 161
16.828125000000 12.617187500000 4.485000610352 165 165 165
16.828125000000 12.617187500000 4.447998046875 166 166 166
16.828125000000 12.617187500000 4.416000366211 169 169 169
16.828125000000 12.632812500000 4.379997253418 170 170 170
16.828125000000 12.617187500000 4.345001220703 168 168 168
16.828125000000 12.617187500000 4.315002441406 177 177 177
16.828125000000 12.617187500000 4.280998229980 172 172 172
16.828125000000 12.617187500000 4.247001647949 178 178 178
16.828125000000 12.632812500000 4.214004516602 179 179 179
16.828125000000 12.617187500000 4.181999206543 187 187 187
16.828125000000 12.617187500000 4.146003723145 185 185 185
16.828125000000 12.632812500000 4.114997863770 189 189 189
16.828125000000 12.632812500000 4.079002380371 186 186 186
16.828125000000 12.617187500000 4.048004150391 184 184 184
16.828125000000 12.617187500000 4.014999389648 186 186 186
16.828125000000 12.632812500000 3.983001708984 182 182 182
16.828125000000 12.632812500000 3.950004577637 187 187 187
16.828125000000 12.632812500000 3.916000366211 187 187 187
16.828125000000 12.632812500000 3.885002136230 188 188 188
16.828125000000 12.632812500000 3.851997375488 189 189 189
16.828125000000 12.648437500000 3.819000244141 189 189 189
16.828125000000 12.632812500000 3.788002014160 189 189 189
16.828125000000 12.632812500000 3.756004333496 187 187 187
16.828125000000 12.632812500000 3.724998474121 188 188 188
16.828125000000 12.648437500000 3.692001342773 187 187 187
16.828125000000 12.648437500000 3.661003112793 188 188 188
16.828125000000 12.632812500000 3.629997253418 190 190 190
16.828125000000 12.648437500000 3.597000122070 194 194 194
16.828125000000 12.648437500000 3.565002441406 193 193 193
16.828125000000 12.648437500000 3.534004211426 195 195 195
16.828125000000 12.648437500000 3.502998352051 191 191 191
16.828125000000 12.648437500000 3.471000671387 193 193 193
16.796875000000 12.632812500000 3.439002990723 192 192 192
16.828125000000 12.648437500000 3.410003662109 191 191 191
16.828125000000 12.648437500000 3.377998352051 192 192 192
16.828125000000 12.648437500000 3.346000671387 186 186 186
16.828125000000 12.648437500000 3.315002441406 196 196 196
16.828125000000 12.648437500000 3.284004211426 196 196 196
16.828125000000 12.648437500000 3.252998352051 195 195 195
16.828125000000 12.648437500000 3.222000122070 192 192 192
16.812500000000 12.648437500000 3.191001892090 199 199 199
16.796875000000 12.648437500000 3.159004211426 195 195 195
16.796875000000 12.648437500000 3.128997802734 197 197 197
16.796875000000 12.648437500000 3.097999572754 195 195 195
16.812500000000 12.648437500000 3.067001342773 193 193 193
16.796875000000 12.648437500000 3.036003112793 196 196 196
16.796875000000 12.648437500000 3.004997253418 195 195 195
16.812500000000 12.648437500000 2.973999023438 196 196 196
16.796875000000 12.648437500000 2.943000793457 194 194 194
16.796875000000 12.648437500000 2.912002563477 196 196 196
16.796875000000 12.648437500000 2.881004333496 200 200 200
16.796875000000 12.648437500000 2.850997924805 199 199 199
16.796875000000 12.648437500000 2.819999694824 199 199 199
16.796875000000 12.648437500000 2.789001464844 195 195 195
16.796875000000 12.648437500000 2.758003234863 199 199 199
16.796875000000 12.648437500000 2.728004455566 201 201 201
16.796875000000 12.648437500000 2.696998596191 194 194 194
16.796875000000 12.648437500000 2.666000366211 196 196 196
16.796875000000 12.648437500000 2.635002136230 194 194 194
16.796875000000 12.648437500000 2.604003906250 200 200 200
16.796875000000 12.648437500000 2.572998046875 197 197 197
16.796875000000 12.648437500000 2.542999267578 199 199 199
16.796875000000 12.648437500000 2.511001586914 195 195 195
16.796875000000 12.648437500000 2.481002807617 194 194 194
16.796875000000 12.648437500000 2.450004577637 194 194 194
16.796875000000 12.648437500000 2.418998718262 201 201 201
16.796875000000 12.648437500000 2.388000488281 198 198 198
16.796875000000 12.648437500000 2.357002258301 196 196 196
16.796875000000 12.648437500000 2.326004028320 200 200 200
16.796875000000 12.648437500000 2.294998168945 190 190 190
16.796875000000 12.648437500000 2.263999938965 195 195 195
16.812500000000 12.648437500000 2.232002258301 194 194 194
16.796875000000 12.648437500000 2.201004028320 195 195 195
16.796875000000 12.648437500000 2.169998168945 196 196 196
16.796875000000 12.648437500000 2.138999938965 193 193 193
16.796875000000 12.648437500000 2.107002258301 192 192 192
16.796875000000 12.648437500000 2.075004577637 191 191 191
16.812500000000 12.648437500000 2.043998718262 193 193 193
16.796875000000 12.648437500000 2.013000488281 190 190 190
16.812500000000 12.648437500000 1.981002807617 189 189 189
16.812500000000 12.648437500000 1.948997497559 187 187 187
16.796875000000 12.648437500000 1.918998718262 190 190 190
16.796875000000 12.648437500000 1.887001037598 186 186 186
16.796875000000 12.648437500000 1.855003356934 182 182 182
16.796875000000 12.648437500000 1.823997497559 184 184 184
16.796875000000 12.648437500000 1.792999267578 186 186 186
16.796875000000 12.648437500000 1.760002136230 183 183 183
16.796875000000 12.648437500000 1.726997375488 184 184 184
16.796875000000 12.648437500000 1.694999694824 183 183 183
16.796875000000 12.648437500000 1.665000915527 175 175 175
16.796875000000 12.648437500000 1.631004333496 183 183 183
17.515625000000 5.539062500000 1.363998413086 167 167 167
17.484375000000 5.515625000000 1.541999816895 175 175 175
17.500000000000 5.531250000000 1.581001281738 168 168 168
17.515625000000 5.539062500000 1.614997863770 167 167 167
17.500000000000 5.531250000000 1.662002563477 179 179 179
17.500000000000 5.531250000000 1.701004028320 184 184 184
17.484375000000 5.515625000000 1.746002197266 181 181 181
17.515625000000 5.539062500000 1.781997680664 180 180 180
17.500000000000 5.531250000000 1.823997497559 180 180 180
17.484375000000 5.515625000000 1.867004394531 187 187 187
17.500000000000 5.531250000000 1.904998779297 185 185 185
17.500000000000 5.531250000000 1.944999694824 188 188 188
17.500000000000 5.531250000000 1.985000610352 196 196 196
17.500000000000 5.531250000000 2.027000427246 196 196 196
17.500000000000 5.531250000000 2.066001892090 197 197 197
17.484375000000 5.515625000000 2.108001708984 197 197 197
17.515625000000 5.539062500000 2.145004272461 195 195 195
17.500000000000 5.531250000000 2.187004089355 192 192 192
17.500000000000 5.531250000000 2.226997375488 193 193 193
17.500000000000 5.531250000000 2.264999389648 189 189 189
17.500000000000 5.531250000000 2.305000305176 191 191 191
17.500000000000 5.531250000000 2.344001770020 199 199 199
17.500000000000 5.531250000000 2.384002685547 195 195 195
17.500000000000 5.531250000000 2.424003601074 198 198 198
17.500000000000 5.531250000000 2.462997436523 199 199 199
17.500000000000 5.531250000000 2.502998352051 205 205 205
17.500000000000 5.531250000000 2.541999816895 205 205 205
17.500000000000 5.531250000000 2.581001281738 200 200 200
17.500000000000 5.531250000000 2.621002197266 199 199 199
17.500000000000 5.531250000000 2.660003662109 203 203 203
17.500000000000 5.531250000000 2.698997497559 210 210 210
17.500000000000 5.531250000000 2.737998962402 203 203 203
17.500000000000 5.531250000000 2.777000427246 201 201 201
17.500000000000 5.531250000000 2.817001342773 202 202 202
17.500000000000 5.531250000000 2.855003356934 204 204 204
17.500000000000 5.531250000000 2.895004272461 201 201 201
17.500000000000 5.531250000000 2.933998107910 202 202 202
17.500000000000 5.531250000000 2.972999572754 207 207 207
17.500000000000 5.531250000000 3.012001037598 208 208 208
17.500000000000 5.531250000000 3.051002502441 202 202 202
17.500000000000 5.531250000000 3.090003967285 203 203 203
17.515625000000 5.539062500000 3.128997802734 201 201 201
17.515625000000 5.539062500000 3.167999267578 202 202 202
17.500000000000 5.531250000000 3.207000732422 205 205 205
17.500000000000 5.531250000000 3.246002197266 208 208 208
17.515625000000 5.539062500000 3.286003112793 207 207 207
17.500000000000 5.531250000000 3.323997497559 205 205 205
17.500000000000 5.531250000000 3.362998962402 198 198 198
17.500000000000 5.531250000000 3.402999877930 206 206 206
17.515625000000 5.539062500000 3.442001342773 204 204 204
17.515625000000 5.539062500000 3.481002807617 186 186 186
17.515625000000 5.539062500000 3.520004272461 182 182 182
17.515625000000 5.539062500000 3.559997558594 199 199 199
17.515625000000 5.539062500000 3.598999023438 200 200 200
17.515625000000 5.539062500000 3.638000488281 208 208 208
17.515625000000 5.539062500000 3.678001403809 202 202 202
17.515625000000 5.539062500000 3.717002868652 208 208 208
17.515625000000 5.539062500000 3.756004333496 209 209 209
17.515625000000 5.539062500000 3.795997619629 204 204 204
17.515625000000 5.539062500000 3.834999084473 202 202 202
17.500000000000 5.531250000000 3.874000549316 204 204 204
17.515625000000 5.539062500000 3.914001464844 208 208 208
17.515625000000 5.539062500000 3.954002380371 205 205 205
17.515625000000 5.539062500000 3.993003845215 201 201 201
17.515625000000 5.539062500000 4.034004211426 208 208 208
17.515625000000 5.539062500000 4.073997497559 206 206 206
17.515625000000 5.539062500000 4.112998962402 201 201 201
17.500000000000 5.531250000000 4.151000976563 197 197 197
17.515625000000 5.539062500000 4.193000793457 197 197 197
17.515625000000 5.539062500000 4.234001159668 195 195 195
17.515625000000 5.539062500000 4.273002624512 194 194 194
17.500000000000 5.531250000000 4.312004089355 187 187 187
17.500000000000 5.531250000000 4.351997375488 187 187 187
17.500000000000 5.531250000000 4.392997741699 194 194 194
17.515625000000 5.539062500000 4.433998107910 186 186 186
17.515625000000 5.539062500000 4.474998474121 197 197 197
17.500000000000 5.531250000000 4.513999938965 197 197 197
17.515625000000 5.539062500000 4.555999755859 192 192 192
17.500000000000 5.531250000000 4.597000122070 183 183 183
17.515625000000 5.539062500000 4.638999938965 186 186 186
17.500000000000 5.531250000000 4.678001403809 191 191 191
17.500000000000 5.531250000000 4.720001220703 186 186 186
17.515625000000 5.539062500000 4.761001586914 181 181 181
17.515625000000 5.539062500000 4.805000305176 184 184 184
17.515625000000 5.539062500000 4.846000671387 183 183 183
17.515625000000 5.539062500000 4.886001586914 182 182 182
17.515625000000 5.539062500000 4.929000854492 182 182 182
17.515625000000 5.539062500000 4.972999572754 182 182 182
17.515625000000 5.539062500000 5.012001037598 179 179 179
17.515625000000 5.539062500000 5.055000305176 177 177 177
17.515625000000 5.539062500000 5.097999572754 175 175 175
17.515625000000 5.539062500000 5.139999389648 176 176 176
17.515625000000 5.539062500000 5.182998657227 175 175 175
17.515625000000 5.539062500000 5.225997924805 175 175 175
17.515625000000 5.539062500000 5.271003723145 178 178 178
17.515625000000 5.539062500000 5.312004089355 186 186 186
17.515625000000 5.539062500000 5.356002807617 167 167 167
17.515625000000 5.539062500000 5.398002624512 167 167 167
17.515625000000 5.554687500000 5.445999145508 177 177 177
17.515625000000 5.554687500000 5.489997863770 181 181 181
17.515625000000 5.554687500000 5.532997131348 181 181 181
17.515625000000 5.539062500000 5.576004028320 186 186 186
17.515625000000 5.554687500000 5.623001098633 180 180 180
17.515625000000 5.554687500000 5.668998718262 184 184 184
17.515625000000 5.554687500000 5.711997985840 161 161 161
17.515625000000 5.554687500000 5.759002685547 162 162 162
17.515625000000 5.554687500000 5.804000854492 177 177 177
17.515625000000 5.554687500000 5.850997924805 175 175 175
17.515625000000 5.554687500000 5.892997741699 169 169 169
17.515625000000 5.554687500000 5.938003540039 128 128 128
17.515625000000 5.554687500000 5.986999511719 173 173 173
17.515625000000 5.554687500000 6.032997131348 174 174 174
17.515625000000 5.554687500000 6.078002929688 169 169 169
17.531250000000 5.570312500000 6.129997253418 168 168 168
17.515625000000 5.554687500000 6.175003051758 161 161 161
17.515625000000 5.554687500000 6.219001770020 163 163 163
17.515625000000 5.554687500000 6.266998291016 177 177 177
17.515625000000 5.554687500000 6.313003540039 176 176 176
17.515625000000 5.554687500000 6.367004394531 178 178 178
17.531250000000 5.570312500000 6.417999267578 175 175 175
17.531250000000 5.570312500000 6.467002868652 175 175 175
17.515625000000 5.554687500000 6.510002136230 170 170 170
17.515625000000 5.554687500000 6.560997009277 174 174 174
17.531250000000 5.570312500000 6.612998962402 166 166 166
17.515625000000 5.554687500000 6.659004211426 168 168 168
17.531250000000 5.570312500000 6.714004516602 168 168 168
17.515625000000 5.554687500000 6.759002685547 158 158 158
17.515625000000 5.554687500000 6.809997558594 150 150 150
17.531250000000 5.570312500000 6.863998413086 179 179 179
17.515625000000 5.554687500000 6.914001464844 181 181 181
17.531250000000 5.570312500000 6.974998474121 176 176 176
17.531250000000 5.570312500000 7.025001525879 176 176 176
17.531250000000 5.570312500000 7.073997497559 178 178 178
17.515625000000 5.554687500000 7.118003845215 36 36 36
17.531250000000 5.554687500000 1.402999877930 159 159 159
17.515625000000 5.539062500000 1.452003479004 163 163 163
17.546875000000 5.929687500000 5.891998291016 31 31 31
17.531250000000 5.914062500000 5.920997619629 139 139 139
17.546875000000 5.929687500000 6.748001098633 105 105 105
17.515625000000 6.273437500000 5.900001525879 132 132 132
17.515625000000 6.257812500000 5.937004089355 76 76 76
17.515625000000 6.273437500000 6.613998413086 99 99 99
17.546875000000 6.632812500000 5.605003356934 94 94 94
17.546875000000 6.632812500000 5.878997802734 12 12 12
17.515625000000 6.601562500000 5.904998779297 157 157 157
17.515625000000 6.601562500000 5.948997497559 67 67 67
17.531250000000 6.601562500000 6.526000976563 121 121 121
17.500000000000 6.960937500000 5.614997863770 133 133 133
17.515625000000 6.976562500000 5.889999389648 112 112 112
17.484375000000 6.945312500000 5.920997619629 148 148 148
17.500000000000 6.960937500000 6.401000976563 98 98 98
17.484375000000 7.320312500000 5.596000671387 127 127 127
17.484375000000 7.320312500000 5.902999877930 158 158 158
17.468750000000 7.320312500000 5.941001892090 56 56 56
17.500000000000 7.335937500000 6.290000915527 12 12 12
17.484375000000 7.320312500000 6.325004577637 79 79 79
17.515625000000 7.695312500000 5.593002319336 46 46 46
17.515625000000 7.695312500000 5.634002685547 71 71 71
17.468750000000 7.664062500000 5.878997802734 117 117 117
17.453125000000 7.664062500000 5.917999267578 156 156 156
17.468750000000 7.679687500000 6.208999633789 121 121 121
17.546875000000 8.070312500000 5.618003845215 142 142 142
17.546875000000 8.070312500000 5.661003112793 203 203 203
17.546875000000 8.070312500000 5.706001281738 210 210 210
17.531250000000 8.070312500000 5.747001647949 211 211 211
17.515625000000 8.054687500000 5.789001464844 200 200 200
17.500000000000 8.039062500000 5.829002380371 156 156 156
17.468750000000 8.039062500000 5.861999511719 27 27 27
17.437500000000 8.023437500000 5.889999389648 148 148 148
17.437500000000 8.007812500000 5.930999755859 114 114 114
17.468750000000 8.039062500000 6.090003967285 52 52 52
17.437500000000 8.023437500000 6.125000000000 36 36 36
17.578125000000 8.445312500000 5.605003356934 111 111 111
17.578125000000 8.445312500000 5.650001525879 204 204 204
17.578125000000 8.445312500000 5.695999145508 101 101 101
17.562500000000 8.429687500000 5.737998962402 182 182 182
17.546875000000 8.414062500000 5.777000427246 140 140 140
17.546875000000 8.414062500000 5.821998596191 181 181 181
17.562500000000 8.429687500000 5.875000000000 35 35 35
17.453125000000 8.382812500000 5.873001098633 68 68 68
17.421875000000 8.367187500000 5.904998779297 171 171 171
17.453125000000 8.382812500000 6.007003784180 122 122 122
17.593750000000 8.789062500000 5.598999023438 38 38 38
17.578125000000 8.789062500000 5.635002136230 184 184 184
17.562500000000 8.789062500000 5.677001953125 190 190 190
17.562500000000 8.789062500000 5.723999023438 176 176 176
17.562500000000 8.789062500000 5.764999389648 171 171 171
17.562500000000 8.789062500000 5.814002990723 189 189 189
17.531250000000 8.773437500000 5.847999572754 129 129 129
17.406250000000 8.695312500000 5.877998352051 132 132 132
17.390625000000 8.687500000000 5.915000915527 141 141 141
17.484375000000 9.101562500000 5.620002746582 176 176 176
17.484375000000 9.101562500000 5.666999816895 198 198 198
17.500000000000 9.101562500000 5.712997436523 138 138 138
17.484375000000 9.101562500000 5.752998352051 169 169 169
17.484375000000 9.101562500000 5.796997070313 150 150 150
17.453125000000 9.085937500000 5.833000183105 157 157 157
17.390625000000 9.031250000000 5.888999938965 158 158 158
17.359375000000 9.031250000000 5.924003601074 93 93 93
17.421875000000 9.429687500000 5.618003845215 169 169 169
17.421875000000 9.429687500000 5.662002563477 194 194 194
17.406250000000 9.414062500000 5.701004028320 111 111 111
17.406250000000 9.414062500000 5.748001098633 78 78 78
17.406250000000 9.414062500000 5.790000915527 127 127 127
17.390625000000 9.414062500000 5.830001831055 161 161 161
17.328125000000 9.375000000000 5.890998840332 163 163 163
17.328125000000 9.375000000000 5.930999755859 60 60 60
17.359375000000 9.750000000000 5.619003295898 173 173 173
17.343750000000 9.750000000000 5.660003662109 198 198 198
17.359375000000 9.750000000000 5.707000732422 178 178 178
17.343750000000 9.750000000000 5.749000549316 176 176 176
17.343750000000 9.750000000000 5.792999267578 188 188 188
17.328125000000 9.734375000000 5.832000732422 143 143 143
17.312500000000 9.718750000000 5.871002197266 27 27 27
17.281250000000 9.703125000000 5.897003173828 166 166 166
17.296875000000 9.718750000000 5.947998046875 40 40 40
17.312500000000 10.078125000000 5.622001647949 182 182 182
17.312500000000 10.062500000000 5.662002563477 205 205 205
17.312500000000 10.062500000000 5.707000732422 203 203 203
17.312500000000 10.062500000000 5.750999450684 202 202 202
17.312500000000 10.062500000000 5.794998168945 209 209 209
17.281250000000 10.062500000000 5.832000732422 135 135 135
17.265625000000 10.062500000000 5.870002746582 29 29 29
17.250000000000 10.046875000000 5.901000976563 166 166 166
17.234375000000 10.031250000000 5.939002990723 33 33 33
17.265625000000 10.062500000000 6.046997070313 66 66 66
17.234375000000 10.390625000000 5.619003295898 126 126 126
17.234375000000 10.375000000000 5.875999450684 26 26 26
17.187500000000 10.375000000000 5.904998779297 162 162 162
17.187500000000 10.375000000000 5.952003479004 31 31 31
17.203125000000 10.375000000000 6.136001586914 93 93 93
17.218750000000 10.750000000000 5.586997985840 23 23 23
17.203125000000 10.734375000000 5.623001098633 116 116 116
17.203125000000 10.718750000000 5.886001586914 22 22 22
17.125000000000 10.703125000000 5.901000976563 161 161 161
17.125000000000 10.703125000000 5.944999694824 46 46 46
17.156250000000 10.718750000000 6.233001708984 124 124 124
17.171875000000 11.062500000000 5.587997436523 66 66 66
17.171875000000 11.062500000000 5.627998352051 104 104 104
17.156250000000 11.062500000000 5.877998352051 20 20 20
17.093750000000 11.031250000000 5.904998779297 161 161 161
17.093750000000 11.031250000000 5.937004089355 56 56 56
17.156250000000 11.062500000000 6.330001831055 71 71 71
17.140625000000 11.406250000000 5.597000122070 109 109 109
17.109375000000 11.406250000000 5.628997802734 33 33 33
17.078125000000 11.375000000000 5.875999450684 56 56 56
17.046875000000 11.359375000000 5.903999328613 161 161 161
17.046875000000 11.359375000000 5.942001342773 15 15 15
17.078125000000 11.375000000000 6.468002319336 86 86 86
17.015625000000 11.710937500000 5.875000000000 80 80 80
17.015625000000 11.679687500000 5.903999328613 165 165 165
17.015625000000 11.710937500000 6.556999206543 117 117 117
16.984375000000 12.039062500000 5.875000000000 86 86 86
16.953125000000 12.023437500000 5.906997680664 171 171 171
17.000000000000 12.054687500000 6.661003112793 72 72 72
16.953125000000 12.367187500000 5.884002685547 96 96 96
16.890625000000 12.335937500000 5.902000427246 148 148 148
16.906250000000 12.351562500000 5.948997497559 71 71 71
16.937500000000 12.367187500000 6.790000915527 97 97 97
16.796875000000 12.617187500000 1.243003845215 172 172 172
16.796875000000 12.617187500000 1.277999877930 177 177 177
16.796875000000 12.617187500000 1.318000793457 178 178 178
16.796875000000 12.617187500000 1.356002807617 177 177 177
16.796875000000 12.617187500000 1.391998291016 179 179 179
16.812500000000 12.617187500000 1.428001403809 162 162 162
16.828125000000 12.632812500000 1.456001281738 164 164 164
16.781250000000 12.601562500000 1.511001586914 178 178 178
16.796875000000 12.617187500000 1.546997070313 180 180 180
16.812500000000 12.617187500000 1.580001831055 183 183 183
16.812500000000 12.617187500000 1.618003845215 186 186 186
16.812500000000 12.617187500000 1.652999877930 191 191 191
16.812500000000 12.617187500000 1.691001892090 195 195 195
16.812500000000 12.617187500000 1.726997375488 189 189 189
16.812500000000 12.617187500000 1.764999389648 191 191 191
16.812500000000 12.617187500000 1.802001953125 192 192 192
16.812500000000 12.617187500000 1.839004516602 193 193 193
16.828125000000 12.617187500000 1.873001098633 196 196 196
16.812500000000 12.617187500000 1.912002563477 196 196 196
16.812500000000 12.617187500000 1.948997497559 202 202 202
16.812500000000 12.617187500000 1.985000610352 201 201 201
16.812500000000 12.617187500000 2.020004272461 201 201 201
16.812500000000 12.617187500000 2.056999206543 198 198 198
16.812500000000 12.617187500000 2.093002319336 199 199 199
16.812500000000 12.617187500000 2.128997802734 200 200 200
16.828125000000 12.632812500000 2.165000915527 200 200 200
