17.421875000000 14.078125000000 1.777999877930 217 217 217
16.812500000000 13.718750000000 1.669998168945 160 160 160
16.843750000000 13.742187500000 1.714996337891 146 146 146
16.843750000000 13.742187500000 1.753997802734 142 142 142
16.859375000000 13.742187500000 1.795989990234 138 138 138
17.390625000000 14.054687500000 2.196990966797 40 40 40
16.812500000000 13.718750000000 2.223999023438 74 74 74
17.406250000000 14.359375000000 1.679000854492 218 218 218
17.406250000000 14.359375000000 1.714996337891 221 221 221
17.390625000000 14.351562500000 1.750991821289 220 220 220
17.406250000000 14.359375000000 1.787994384766 222 222 222
16.828125000000 14.023437500000 1.686996459961 212 212 212
16.828125000000 14.031250000000 1.731994628906 218 218 218
16.828125000000 14.039062500000 1.770996093750 206 206 206
16.828125000000 14.039062500000 1.809997558594 190 190 190
16.828125000000 14.039062500000 2.207000732422 17 17 17
17.359375000000 14.648437500000 1.688995361328 222 222 222
17.359375000000 14.648437500000 1.727005004883 218 218 218
17.359375000000 14.648437500000 1.763000488281 222 222 222
17.390625000000 14.648437500000 1.800994873047 219 219 219
16.796875000000 14.320312500000 1.701004028320 214 214 214
16.796875000000 14.335937500000 1.746994018555 219 219 219
16.796875000000 14.328125000000 1.785995483398 209 209 209
16.796875000000 14.328125000000 1.826004028320 190 190 190
17.281250000000 14.593750000000 2.179000854492 37 37 37
17.312500000000 14.914062500000 1.658004760742 59 59 59
17.343750000000 14.921875000000 1.699996948242 220 220 220
17.343750000000 14.921875000000 1.737991333008 230 230 230
17.343750000000 14.921875000000 1.774993896484 220 220 220
17.343750000000 14.921875000000 1.811004638672 221 221 221
16.796875000000 14.617187500000 1.723999023438 223 223 223
16.781250000000 14.617187500000 1.763000488281 217 217 217
16.781250000000 14.617187500000 1.804000854492 199 199 199
16.781250000000 14.609375000000 1.843002319336 174 174 174
17.203125000000 14.851562500000 2.149993896484 33 33 33
17.296875000000 15.203125000000 1.677993774414 110 110 110
17.296875000000 15.210937500000 1.714996337891 223 223 223
17.312500000000 15.210937500000 1.755004882813 222 222 222
17.312500000000 15.203125000000 1.789993286133 219 219 219
17.296875000000 15.210937500000 1.826004028320 217 217 217
16.781250000000 14.906250000000 1.748001098633 164 164 164
16.765625000000 14.898437500000 1.785995483398 123 123 123
16.765625000000 14.890625000000 1.824005126953 176 176 176
16.765625000000 14.898437500000 1.863998413086 128 128 128
17.156250000000 15.109375000000 2.126998901367 36 36 36
16.953125000000 15.000000000000 2.134002685547 32 32 32
17.265625000000 15.476562500000 1.692001342773 131 131 131
17.265625000000 15.476562500000 1.729003906250 220 220 220
17.265625000000 15.476562500000 1.765991210938 222 222 222
17.281250000000 15.484375000000 1.804992675781 220 220 220
17.265625000000 15.468750000000 1.839004516602 225 225 225
16.750000000000 15.187500000000 1.764999389648 218 218 218
16.750000000000 15.171875000000 1.802993774414 217 217 217
16.750000000000 15.187500000000 1.845993041992 193 193 193
16.734375000000 15.171875000000 1.880996704102 50 50 50
17.093750000000 15.375000000000 2.100997924805 37 37 37
16.968750000000 15.304687500000 2.121002197266 21 21 21
17.234375000000 15.757812500000 1.703994750977 140 140 140
17.234375000000 15.757812500000 1.742004394531 223 223 223
17.234375000000 15.765625000000 1.779998779297 222 222 222
17.250000000000 15.757812500000 1.817993164063 220 220 220
17.203125000000 15.734375000000 1.847000122070 230 230 230
16.734375000000 15.476562500000 1.785003662109 214 214 214
16.734375000000 15.476562500000 1.824996948242 215 215 215
16.734375000000 15.484375000000 1.867004394531 202 202 202
17.187500000000 16.039062500000 1.710998535156 107 107 107
17.187500000000 16.039062500000 1.748001098633 221 221 221
17.187500000000 16.039062500000 1.785995483398 220 220 220
17.203125000000 16.046875000000 1.824005126953 220 220 220
17.171875000000 16.031250000000 1.856002807617 228 228 228
16.734375000000 15.773437500000 1.798995971680 219 219 219
16.734375000000 15.773437500000 1.841003417969 215 215 215
16.734375000000 15.773437500000 1.882003784180 206 206 206
16.968750000000 15.929687500000 2.084991455078 22 22 22
17.140625000000 16.320312500000 1.716995239258 73 73 73
17.156250000000 16.320312500000 1.757995605469 222 222 222
17.156250000000 16.328125000000 1.794998168945 221 221 221
17.156250000000 16.328125000000 1.833999633789 222 222 222
17.125000000000 16.312500000000 1.863998413086 228 228 228
16.718750000000 16.078125000000 1.819000244141 148 148 148
16.734375000000 16.078125000000 1.860000610352 159 159 159
16.718750000000 16.070312500000 1.897994995117 201 201 201
16.984375000000 16.226562500000 2.063995361328 32 32 32
17.109375000000 16.601562500000 1.731994628906 146 146 146
17.109375000000 16.601562500000 1.770996093750 218 218 218
17.109375000000 16.601562500000 1.809997558594 224 224 224
17.109375000000 16.601562500000 1.847991943359 221 221 221
16.968750000000 16.507812500000 1.852996826172 230 230 230
16.718750000000 16.359375000000 1.837997436523 218 218 218
16.718750000000 16.359375000000 1.878997802734 205 205 205
16.718750000000 16.359375000000 1.917999267578 166 166 166
16.937500000000 16.500000000000 2.039993286133 32 32 32
17.078125000000 16.875000000000 1.750000000000 196 196 196
17.078125000000 16.875000000000 1.787994384766 216 216 216
17.093750000000 16.882812500000 1.828994750977 219 219 219
17.093750000000 16.882812500000 1.865997314453 218 218 218
16.718750000000 16.656250000000 1.826004028320 218 218 218
16.703125000000 16.656250000000 1.863998413086 217 217 217
16.703125000000 16.656250000000 1.903991699219 203 203 203
16.937500000000 16.789062500000 2.026000976563 33 33 33
17.046875000000 17.148437500000 1.768997192383 213 213 213
17.062500000000 17.148437500000 1.808990478516 222 222 222
17.062500000000 17.156250000000 1.848999023438 221 221 221
17.062500000000 17.156250000000 1.884994506836 209 209 209
16.718750000000 16.960937500000 1.854003906250 214 214 214
16.718750000000 16.960937500000 1.893997192383 209 209 209
16.734375000000 16.968750000000 1.934997558594 180 180 180
16.921875000000 17.070312500000 2.009994506836 34 34 34
17.000000000000 17.421875000000 1.774993896484 199 199 199
17.000000000000 17.429687500000 1.813995361328 214 214 214
17.000000000000 17.429687500000 1.854003906250 219 219 219
17.000000000000 17.421875000000 1.889999389648 215 215 215
16.718750000000 17.257812500000 1.871002197266 218 218 218
16.718750000000 17.257812500000 1.912994384766 196 196 196
16.718750000000 17.273437500000 1.955001831055 173 173 173
16.968750000000 17.710937500000 1.781997680664 191 191 191
16.984375000000 17.710937500000 1.821990966797 200 200 200
16.984375000000 17.726562500000 1.862991333008 194 194 194
16.953125000000 17.703125000000 1.895996093750 217 217 217
16.703125000000 17.554687500000 1.882995605469 215 215 215
16.718750000000 17.562500000000 1.927001953125 213 213 213
16.953125000000 18.000000000000 1.793991088867 207 207 207
16.953125000000 18.000000000000 1.832000732422 181 181 181
16.953125000000 18.007812500000 1.873001098633 217 217 217
16.843750000000 17.953125000000 1.891998291016 223 223 223
16.703125000000 17.859375000000 1.901000976563 213 213 213
16.703125000000 17.867187500000 1.942993164063 169 169 169
16.890625000000 18.273437500000 1.772003173828 86 86 86
16.921875000000 18.265625000000 1.813995361328 214 214 214
16.921875000000 18.273437500000 1.854003906250 192 192 192
16.921875000000 18.273437500000 1.891998291016 210 210 210
16.703125000000 18.148437500000 1.888000488281 194 194 194
16.703125000000 18.148437500000 1.927993774414 205 205 205
16.890625000000 18.554687500000 1.796997070313 189 189 189
16.890625000000 18.554687500000 1.836990356445 213 213 213
16.890625000000 18.554687500000 1.876998901367 210 210 210
16.828125000000 18.523437500000 1.903991699219 216 216 216
16.703125000000 18.445312500000 1.916992187500 211 211 211
16.671875000000 18.429687500000 1.953002929688 39 39 39
16.859375000000 18.835937500000 1.811996459961 205 205 205
16.859375000000 18.843750000000 1.852005004883 200 200 200
16.859375000000 18.835937500000 1.891998291016 214 214 214
16.750000000000 18.781250000000 1.908996582031 212 212 212
16.703125000000 18.734375000000 1.938003540039 199 199 199
16.828125000000 19.125000000000 1.817993164063 215 215 215
16.828125000000 19.132812500000 1.858001708984 218 218 218
16.828125000000 19.125000000000 1.897003173828 218 218 218
16.703125000000 19.054687500000 1.914001464844 212 212 212
16.687500000000 19.046875000000 1.949996948242 137 137 137
16.781250000000 19.414062500000 1.828002929688 214 214 214
16.796875000000 19.421875000000 1.867996215820 216 216 216
16.796875000000 19.421875000000 1.908004760742 213 213 213
16.703125000000 19.367187500000 1.927001953125 197 197 197
16.765625000000 19.703125000000 1.805999755859 151 151 151
16.765625000000 19.710937500000 1.847000122070 216 216 216
16.765625000000 19.710937500000 1.886001586914 217 217 217
16.734375000000 19.687500000000 1.919998168945 210 210 210
16.687500000000 19.656250000000 1.947998046875 94 94 94
16.765625000000 19.992187500000 1.832000732422 213 213 213
16.765625000000 19.992187500000 1.871994018555 215 215 215
16.765625000000 20.000000000000 1.912994384766 211 211 211
16.687500000000 19.945312500000 1.936996459961 172 172 172
16.734375000000 20.265625000000 1.811004638672 112 112 112
16.750000000000 20.281250000000 1.852996826172 216 216 216
16.765625000000 20.273437500000 1.893997192383 216 216 216
16.718750000000 20.265625000000 1.927993774414 209 209 209
16.734375000000 20.562500000000 1.828994750977 198 198 198
16.734375000000 20.570312500000 1.869995117188 216 216 216
16.734375000000 20.578125000000 1.912002563477 212 212 212
16.703125000000 20.554687500000 1.942001342773 143 143 143
16.718750000000 20.875000000000 1.845993041992 216 216 216
16.718750000000 20.875000000000 1.886001586914 215 215 215
16.718750000000 20.875000000000 1.925003051758 203 203 203
16.734375000000 21.164062500000 1.824005126953 174 174 174
16.734375000000 21.171875000000 1.864990234375 212 212 212
16.734375000000 21.171875000000 1.905990600586 212 212 212
16.687500000000 21.148437500000 1.936996459961 83 83 83
16.734375000000 21.468750000000 1.845993041992 214 214 214
16.734375000000 21.468750000000 1.886993408203 214 214 214
16.718750000000 21.468750000000 1.923995971680 180 180 180
16.718750000000 21.765625000000 1.828002929688 184 184 184
16.718750000000 21.765625000000 1.867996215820 212 212 212
16.734375000000 21.765625000000 1.908996582031 211 211 211
16.703125000000 22.039062500000 1.808990478516 44 44 44
16.718750000000 22.046875000000 1.852005004883 215 215 215
16.718750000000 22.046875000000 1.892990112305 211 211 211
16.703125000000 22.031250000000 1.927993774414 119 119 119
16.703125000000 22.343750000000 1.836990356445 210 210 210
16.703125000000 22.351562500000 1.877990722656 213 213 213
16.703125000000 22.343750000000 1.916992187500 191 191 191
16.703125000000 22.640625000000 1.815994262695 66 66 66
16.703125000000 22.648437500000 1.856994628906 214 214 214
16.718750000000 22.656250000000 1.899002075195 215 215 215
16.687500000000 22.648437500000 1.936004638672 67 67 67
16.703125000000 22.953125000000 1.834991455078 193 193 193
16.718750000000 22.960937500000 1.875991821289 215 215 215
16.703125000000 22.960937500000 1.916000366211 195 195 195
16.687500000000 23.257812500000 1.856002807617 213 213 213
16.703125000000 23.257812500000 1.895996093750 214 214 214
16.671875000000 23.234375000000 1.929000854492 34 34 34
16.703125000000 23.546875000000 1.841003417969 199 199 199
16.703125000000 23.546875000000 1.880004882813 219 219 219
16.687500000000 23.539062500000 1.917999267578 164 164 164
16.703125000000 23.843750000000 1.826995849609 134 134 134
16.703125000000 23.835937500000 1.865997314453 213 213 213
16.703125000000 23.843750000000 1.906997680664 200 200 200
16.593750000000 23.781250000000 1.968002319336 55 55 55
16.593750000000 23.781250000000 2.007995605469 95 95 95
16.562500000000 23.773437500000 2.041992187500 108 108 108
16.562500000000 23.757812500000 2.080001831055 131 131 131
16.546875000000 23.750000000000 2.117004394531 122 122 122
16.593750000000 12.593750000000 1.759002685547 78 78 78
16.765625000000 12.500000000000 1.752990722656 131 131 131
16.859375000000 12.445312500000 1.729995727539 143 143 143
16.828125000000 12.453125000000 1.688003540039 144 144 144
16.828125000000 12.453125000000 1.647003173828 145 145 145
16.828125000000 12.453125000000 1.606002807617 145 145 145
16.828125000000 12.453125000000 1.565994262695 139 139 139
16.828125000000 12.453125000000 1.524993896484 104 104 104
16.828125000000 12.750000000000 1.755004882813 143 143 143
16.828125000000 12.757812500000 1.712997436523 145 145 145
16.828125000000 12.742187500000 1.675994873047 152 152 152
16.828125000000 12.742187500000 1.636993408203 145 145 145
16.828125000000 12.750000000000 1.593002319336 148 148 148
16.828125000000 12.742187500000 1.552993774414 136 136 136
16.796875000000 13.054687500000 1.774993896484 48 48 48
16.812500000000 13.046875000000 1.737991333008 167 167 167
16.812500000000 13.046875000000 1.695999145508 167 167 167
16.812500000000 13.046875000000 1.653991699219 170 170 170
16.812500000000 13.046875000000 1.614990234375 166 166 166
17.640625000000 12.570312500000 1.776992797852 147 147 147
17.765625000000 12.500000000000 1.772003173828 140 140 140
17.781250000000 12.492187500000 1.744003295898 130 130 130
17.781250000000 12.492187500000 1.707000732422 129 129 129
17.781250000000 12.492187500000 1.671997070313 130 130 130
17.765625000000 12.500000000000 1.636001586914 129 129 129
17.781250000000 12.492187500000 1.602996826172 136 136 136
17.765625000000 12.500000000000 1.565994262695 141 141 141
17.078125000000 13.203125000000 1.848999023438 70 70 70
17.218750000000 13.117187500000 1.841995239258 103 103 103
17.312500000000 13.070312500000 1.822998046875 137 137 137
17.312500000000 13.070312500000 1.785003662109 135 135 135
17.312500000000 13.062500000000 1.751998901367 141 141 141
17.312500000000 13.062500000000 1.712997436523 137 137 137
17.765625000000 12.789062500000 1.791992187500 136 136 136
17.875000000000 12.734375000000 1.783004760742 148 148 148
17.890625000000 12.726562500000 1.750991821289 151 151 151
17.890625000000 12.726562500000 1.718994140625 161 161 161
17.890625000000 12.726562500000 1.684997558594 161 161 161
17.890625000000 12.726562500000 1.651000976563 161 161 161
17.890625000000 12.726562500000 1.615997314453 164 164 164
17.890625000000 12.726562500000 1.583999633789 165 165 165
17.843750000000 12.750000000000 1.535995483398 174 174 174
17.328125000000 13.054687500000 1.339004516602 138 138 138
17.328125000000 13.054687500000 1.300994873047 133 133 133
17.343750000000 13.046875000000 1.265991210938 135 135 135
17.343750000000 13.046875000000 1.225997924805 138 138 138
17.359375000000 13.039062500000 1.190994262695 138 138 138
17.359375000000 13.039062500000 1.154998779297 143 143 143
17.375000000000 13.031250000000 1.119003295898 102 102 102
16.859375000000 13.609375000000 2.261001586914 44 44 44
16.828125000000 13.632812500000 2.218994140625 139 139 139
16.859375000000 13.625000000000 2.180999755859 152 152 152
16.828125000000 13.632812500000 2.139999389648 159 159 159
16.859375000000 13.625000000000 2.102005004883 155 155 155
16.828125000000 13.632812500000 2.059997558594 149 149 149
16.828125000000 13.632812500000 2.018997192383 145 145 145
16.828125000000 13.640625000000 1.977005004883 116 116 116
16.828125000000 13.640625000000 1.938003540039 96 96 96
16.828125000000 13.648437500000 1.893997192383 38 38 38
16.828125000000 13.640625000000 1.815002441406 36 36 36
17.078125000000 13.500000000000 1.826995849609 137 137 137
17.312500000000 13.367187500000 1.841995239258 108 108 108
17.390625000000 13.320312500000 1.820999145508 161 161 161
17.390625000000 13.320312500000 1.783996582031 158 158 158
17.515625000000 13.242187500000 1.778991699219 125 125 125
17.546875000000 13.226562500000 1.748992919922 123 123 123
17.546875000000 13.234375000000 1.710998535156 127 127 127
17.546875000000 13.234375000000 1.673004150391 124 124 124
17.546875000000 13.226562500000 1.640991210938 127 127 127
17.468750000000 13.273437500000 1.580993652344 138 138 138
17.406250000000 13.320312500000 1.526992797852 144 144 144
17.390625000000 13.320312500000 1.485992431641 172 172 172
17.390625000000 13.320312500000 1.449005126953 171 171 171
17.390625000000 13.320312500000 1.412002563477 182 182 182
17.390625000000 13.320312500000 1.373001098633 171 171 171
17.390625000000 13.320312500000 1.332992553711 166 166 166
17.390625000000 13.320312500000 1.296997070313 169 169 169
17.390625000000 13.320312500000 1.259002685547 171 171 171
17.390625000000 13.320312500000 1.220001220703 164 164 164
17.390625000000 13.320312500000 1.180999755859 155 155 155
17.390625000000 13.320312500000 1.140991210938 160 160 160
17.500000000000 13.554687500000 2.255996704102 87 87 87
17.500000000000 13.554687500000 2.222000122070 106 106 106
17.515625000000 13.554687500000 2.188003540039 47 47 47
17.468750000000 13.570312500000 2.074996948242 28 28 28
17.453125000000 13.578125000000 2.037002563477 108 108 108
17.468750000000 13.570312500000 2.001998901367 130 130 130
17.468750000000 13.570312500000 1.966003417969 142 142 142
17.453125000000 13.578125000000 1.927993774414 171 171 171
17.468750000000 13.570312500000 1.895004272461 175 175 175
17.468750000000 13.570312500000 1.858993530273 178 178 178
17.468750000000 13.570312500000 1.821990966797 174 174 174
17.484375000000 13.562500000000 1.791000366211 130 130 130
17.484375000000 13.562500000000 1.753997802734 127 127 127
17.500000000000 13.554687500000 1.722000122070 130 130 130
17.500000000000 13.554687500000 1.684997558594 121 121 121
17.500000000000 13.554687500000 1.649002075195 127 127 127
17.515625000000 13.554687500000 1.614990234375 70 70 70
16.890625000000 14.203125000000 2.192001342773 28 28 28
17.453125000000 13.875000000000 2.236999511719 18 18 18
16.828125000000 14.234375000000 1.824005126953 189 189 189
16.828125000000 14.234375000000 1.783996582031 191 191 191
16.828125000000 14.234375000000 1.742996215820 208 208 208
16.828125000000 14.234375000000 1.703002929688 202 202 202
17.421875000000 13.882812500000 1.800003051758 152 152 152
17.468750000000 13.867187500000 1.772994995117 187 187 187
17.453125000000 13.875000000000 1.735000610352 182 182 182
17.468750000000 13.867187500000 1.699005126953 183 183 183
17.468750000000 13.867187500000 1.662994384766 180 180 180
17.484375000000 13.859375000000 1.628997802734 40 40 40
16.906250000000 14.476562500000 2.179000854492 44 44 44
17.390625000000 14.203125000000 2.210998535156 25 25 25
16.812500000000 14.531250000000 1.843002319336 183 183 183
16.812500000000 14.531250000000 1.802993774414 194 194 194
16.796875000000 14.539062500000 1.761993408203 205 205 205
16.796875000000 14.539062500000 1.720993041992 201 201 201
17.359375000000 14.203125000000 1.808990478516 133 133 133
17.453125000000 14.171875000000 1.787002563477 206 206 206
17.453125000000 14.171875000000 1.750991821289 207 207 207
17.421875000000 14.179687500000 1.712997436523 204 204 204
17.453125000000 14.171875000000 1.677001953125 205 205 205
17.390625000000 14.195312500000 1.632003784180 17 17 17
16.953125000000 14.742187500000 2.166000366211 35 35 35
17.296875000000 14.539062500000 2.181991577148 36 36 36
16.781250000000 14.835937500000 1.858993530273 184 184 184
16.781250000000 14.835937500000 1.817993164063 182 182 182
16.781250000000 14.835937500000 1.778991699219 189 189 189
16.765625000000 14.843750000000 1.735992431641 202 202 202
17.375000000000 14.507812500000 1.828002929688 111 111 111
17.421875000000 14.484375000000 1.800003051758 205 205 205
17.406250000000 14.492187500000 1.761993408203 205 205 205
17.406250000000 14.492187500000 1.724990844727 207 207 207
17.406250000000 14.492187500000 1.686996459961 205 205 205
16.953125000000 15.039062500000 2.147003173828 28 28 28
17.234375000000 14.890625000000 2.149002075195 19 19 19
16.765625000000 15.156250000000 1.873992919922 180 180 180
16.765625000000 15.156250000000 1.833999633789 197 197 197
16.765625000000 15.156250000000 1.792999267578 207 207 207
16.765625000000 15.164062500000 1.751998901367 202 202 202
17.312500000000 14.835937500000 1.833999633789 117 117 117
17.375000000000 14.804687500000 1.809997558594 207 207 207
17.359375000000 14.820312500000 1.770996093750 204 204 204
17.359375000000 14.820312500000 1.733001708984 206 206 206
17.375000000000 14.812500000000 1.696990966797 204 204 204
17.015625000000 15.312500000000 2.136001586914 18 18 18
16.750000000000 15.476562500000 1.893997192383 167 167 167
16.750000000000 15.476562500000 1.852996826172 187 187 187
16.750000000000 15.476562500000 1.811996459961 201 201 201
16.750000000000 15.476562500000 1.770004272461 201 201 201
17.250000000000 15.171875000000 1.841003417969 115 115 115
17.328125000000 15.125000000000 1.819992065430 200 200 200
17.328125000000 15.132812500000 1.781997680664 205 205 205
17.328125000000 15.132812500000 1.744995117188 204 204 204
17.328125000000 15.125000000000 1.707992553711 199 199 199
16.734375000000 15.773437500000 1.916000366211 104 104 104
16.734375000000 15.757812500000 1.877990722656 182 182 182
16.750000000000 15.765625000000 1.834991455078 203 203 203
16.750000000000 15.765625000000 1.793991088867 204 204 204
17.296875000000 15.453125000000 1.834991455078 201 201 201
17.296875000000 15.453125000000 1.795989990234 206 206 206
17.281250000000 15.460937500000 1.757003784180 201 201 201
17.296875000000 15.453125000000 1.722000122070 198 198 198
16.734375000000 16.062500000000 1.899993896484 193 193 193
16.750000000000 16.054687500000 1.860000610352 136 136 136
16.796875000000 16.031250000000 1.826995849609 116 116 116
16.765625000000 16.046875000000 1.780990600586 175 175 175
17.250000000000 15.765625000000 1.848999023438 205 205 205
17.250000000000 15.765625000000 1.811004638672 203 203 203
17.265625000000 15.773437500000 1.772003173828 204 204 204
17.265625000000 15.773437500000 1.733993530273 197 197 197
16.734375000000 16.351562500000 1.923004150391 178 178 178
16.734375000000 16.351562500000 1.882003784180 200 200 200
16.718750000000 16.359375000000 1.839004516602 208 208 208
16.734375000000 16.359375000000 1.800003051758 195 195 195
17.203125000000 16.078125000000 1.860992431641 193 193 193
17.203125000000 16.078125000000 1.824005126953 206 206 206
17.203125000000 16.078125000000 1.785995483398 201 201 201
17.203125000000 16.078125000000 1.746994018555 201 201 201
16.718750000000 16.648437500000 1.944992065430 126 126 126
16.718750000000 16.656250000000 1.902999877930 187 187 187
16.734375000000 16.648437500000 1.863998413086 206 206 206
16.718750000000 16.656250000000 1.820999145508 203 203 203
17.171875000000 16.390625000000 1.875000000000 187 187 187
17.171875000000 16.390625000000 1.837997436523 202 202 202
17.171875000000 16.390625000000 1.798995971680 203 203 203
17.156250000000 16.398437500000 1.759002685547 203 203 203
16.734375000000 16.937500000000 1.929992675781 179 179 179
16.718750000000 16.953125000000 1.888000488281 201 201 201
16.718750000000 16.953125000000 1.845993041992 201 201 201
17.093750000000 16.734375000000 1.882003784180 216 216 216
17.125000000000 16.726562500000 1.847991943359 202 202 202
17.125000000000 16.726562500000 1.811004638672 202 202 202
17.125000000000 16.726562500000 1.772003173828 202 202 202
16.875000000000 17.171875000000 2.013992309570 22 22 22
16.734375000000 17.250000000000 1.945999145508 191 191 191
16.734375000000 17.250000000000 1.905990600586 204 204 204
16.718750000000 17.257812500000 1.863998413086 203 203 203
17.093750000000 17.046875000000 1.895996093750 190 190 190
17.093750000000 17.046875000000 1.860000610352 199 199 199
17.093750000000 17.046875000000 1.821990966797 204 204 204
17.093750000000 17.046875000000 1.780990600586 203 203 203
16.812500000000 17.500000000000 1.979003906250 84 84 84
16.734375000000 17.546875000000 1.923995971680 204 204 204
16.718750000000 17.546875000000 1.882003784180 203 203 203
17.015625000000 17.382812500000 1.899993896484 209 209 209
17.062500000000 17.359375000000 1.871002197266 198 198 198
17.062500000000 17.359375000000 1.830993652344 200 200 200
17.046875000000 17.367187500000 1.791000366211 193 193 193
16.750000000000 17.828125000000 1.949996948242 163 163 163
16.718750000000 17.835937500000 1.903991699219 202 202 202
16.859375000000 17.765625000000 1.889999389648 214 214 214
17.015625000000 17.671875000000 1.882003784180 201 201 201
17.000000000000 17.671875000000 1.841003417969 161 161 161
17.000000000000 17.671875000000 1.800994873047 198 198 198
16.718750000000 18.125000000000 1.933990478516 189 189 189
16.703125000000 18.132812500000 1.889999389648 198 198 198
16.984375000000 17.984375000000 1.899993896484 196 196 196
16.953125000000 17.992187500000 1.860000610352 165 165 165
16.953125000000 17.992187500000 1.821990966797 190 190 190
16.953125000000 17.992187500000 1.779998779297 136 136 136
16.703125000000 18.437500000000 1.957992553711 139 139 139
16.718750000000 18.421875000000 1.919998168945 193 193 193
16.890625000000 18.328125000000 1.912002563477 200 200 200
16.937500000000 18.304687500000 1.880996704102 191 191 191
16.937500000000 18.304687500000 1.841003417969 195 195 195
16.921875000000 18.312500000000 1.798004150391 171 171 171
16.703125000000 18.734375000000 1.932998657227 204 204 204
16.859375000000 18.656250000000 1.920989990234 186 186 186
16.921875000000 18.632812500000 1.890991210938 197 197 197
16.890625000000 18.632812500000 1.849990844727 176 176 176
16.890625000000 18.632812500000 1.808990478516 172 172 172
16.703125000000 19.039062500000 1.945999145508 187 187 187
16.781250000000 18.992187500000 1.919998168945 202 202 202
16.875000000000 18.945312500000 1.895996093750 193 193 193
16.859375000000 18.953125000000 1.854995727539 186 186 186
16.859375000000 18.953125000000 1.815002441406 172 172 172
16.671875000000 19.351562500000 1.959991455078 21 21 21
16.703125000000 19.343750000000 1.925003051758 168 168 168
16.828125000000 19.265625000000 1.906997680664 195 195 195
16.828125000000 19.265625000000 1.867004394531 200 200 200
16.812500000000 19.273437500000 1.824996948242 192 192 192
16.703125000000 19.632812500000 1.955001831055 95 95 95
16.765625000000 19.593750000000 1.925994873047 198 198 198
16.812500000000 19.570312500000 1.895004272461 201 201 201
16.812500000000 19.570312500000 1.854003906250 202 202 202
16.796875000000 19.578125000000 1.811996459961 149 149 149
16.718750000000 19.914062500000 1.944992065430 168 168 168
16.796875000000 19.875000000000 1.918991088867 202 202 202
16.796875000000 19.875000000000 1.878997802734 202 202 202
16.765625000000 19.882812500000 1.836990356445 201 201 201
16.703125000000 20.218750000000 1.964004516602 27 27 27
16.750000000000 20.187500000000 1.932998657227 197 197 197
16.765625000000 20.179687500000 1.897003173828 205 205 205
16.765625000000 20.179687500000 1.856994628906 202 202 202
16.750000000000 20.195312500000 1.811004638672 22 22 22
16.734375000000 20.500000000000 1.942001342773 179 179 179
16.750000000000 20.484375000000 1.904998779297 204 204 204
16.765625000000 20.484375000000 1.864990234375 202 202 202
16.734375000000 20.500000000000 1.820999145508 91 91 91
16.718750000000 20.820312500000 1.947998046875 134 134 134
16.781250000000 20.781250000000 1.918991088867 193 193 193
16.765625000000 20.796875000000 1.875991821289 204 204 204
16.765625000000 20.796875000000 1.835998535156 172 172 172
16.734375000000 21.109375000000 1.934997558594 160 160 160
16.750000000000 21.101562500000 1.897003173828 203 203 203
16.734375000000 21.109375000000 1.854995727539 205 205 205
16.734375000000 21.109375000000 1.813003540039 32 32 32
16.750000000000 21.382812500000 1.929992675781 182 182 182
16.750000000000 21.390625000000 1.888992309570 205 205 205
16.750000000000 21.390625000000 1.847000122070 200 200 200
16.703125000000 21.687500000000 1.945999145508 60 60 60
16.734375000000 21.671875000000 1.912002563477 206 206 206
16.734375000000 21.671875000000 1.871002197266 202 202 202
16.718750000000 21.679687500000 1.828994750977 150 150 150
16.734375000000 21.968750000000 1.925994873047 193 193 193
16.718750000000 21.976562500000 1.884002685547 204 204 204
16.734375000000 21.968750000000 1.845001220703 181 181 181
16.718750000000 22.281250000000 1.934997558594 156 156 156
16.734375000000 22.281250000000 1.897003173828 207 207 207
16.734375000000 22.281250000000 1.856002807617 204 204 204
16.734375000000 22.578125000000 1.916992187500 196 196 196
16.734375000000 22.578125000000 1.877990722656 206 206 206
16.718750000000 22.585937500000 1.835998535156 174 174 174
16.718750000000 22.867187500000 1.906997680664 204 204 204
16.718750000000 22.867187500000 1.867004394531 206 206 206
16.687500000000 22.898437500000 1.815994262695 122 122 122
16.703125000000 23.164062500000 1.929000854492 165 165 165
16.718750000000 23.156250000000 1.891998291016 207 207 207
16.718750000000 23.156250000000 1.850997924805 196 196 196
16.718750000000 23.445312500000 1.912002563477 202 202 202
16.718750000000 23.445312500000 1.871994018555 208 208 208
16.671875000000 23.476562500000 1.822998046875 128 128 128
16.703125000000 23.757812500000 1.966003417969 115 115 115
16.703125000000 23.750000000000 1.927993774414 150 150 150
16.718750000000 23.734375000000 1.891998291016 180 180 180
16.718750000000 23.734375000000 1.850997924805 172 172 172
16.703125000000 23.750000000000 1.807998657227 144 144 144
16.687500000000 23.867187500000 1.869995117188 193 193 193
16.687500000000 23.867187500000 1.910003662109 205 205 205
16.671875000000 23.851562500000 1.944992065430 146 146 146
16.531250000000 23.765625000000 2.119995117188 90 90 90
16.515625000000 23.757812500000 2.156997680664 62 62 62
16.671875000000 23.632812500000 1.852005004883 88 88 88
16.671875000000 23.632812500000 1.892990112305 205 205 205
16.703125000000 23.640625000000 1.933990478516 207 207 207
16.687500000000 23.414062500000 1.869995117188 201 201 201
16.703125000000 23.421875000000 1.912002563477 214 214 214
16.687500000000 23.414062500000 1.949996948242 166 166 166
16.687500000000 23.203125000000 1.886001586914 211 211 211
16.687500000000 23.203125000000 1.925994873047 214 214 214
16.656250000000 23.179687500000 1.957000732422 40 40 40
16.703125000000 22.984375000000 1.861999511719 186 186 186
16.703125000000 22.984375000000 1.902999877930 212 212 212
16.703125000000 22.984375000000 1.940002441406 199 199 199
16.703125000000 22.773437500000 1.882995605469 213 213 213
16.703125000000 22.765625000000 1.923995971680 216 216 216
16.671875000000 22.757812500000 1.957992553711 80 80 80
16.718750000000 22.539062500000 1.865997314453 202 202 202
16.718750000000 22.539062500000 1.904998779297 213 213 213
16.718750000000 22.531250000000 1.944000244141 186 186 186
16.703125000000 22.320312500000 1.848999023438 136 136 136
16.703125000000 22.312500000000 1.886993408203 214 214 214
16.703125000000 22.320312500000 1.929000854492 210 210 210
16.656250000000 22.289062500000 1.958999633789 46 46 46
16.703125000000 22.101562500000 1.867004394531 207 207 207
16.703125000000 22.093750000000 1.905990600586 214 214 214
16.703125000000 22.093750000000 1.945999145508 193 193 193
16.703125000000 21.875000000000 1.837997436523 61 61 61
16.718750000000 21.882812500000 1.882995605469 214 214 214
16.718750000000 21.890625000000 1.925003051758 213 213 213
16.703125000000 21.875000000000 1.959991455078 128 128 128
16.687500000000 21.664062500000 1.858993530273 196 196 196
16.718750000000 21.671875000000 1.901000976563 212 212 212
16.718750000000 21.671875000000 1.942001342773 203 203 203
16.718750000000 21.437500000000 1.841003417969 95 95 95
16.718750000000 21.445312500000 1.882995605469 213 213 213
16.718750000000 21.445312500000 1.923004150391 212 212 212
16.718750000000 21.437500000000 1.961990356445 130 130 130
16.718750000000 21.218750000000 1.864990234375 205 205 205
16.718750000000 21.218750000000 1.904998779297 213 213 213
16.718750000000 21.218750000000 1.944992065430 205 205 205
16.718750000000 21.000000000000 1.845001220703 91 91 91
16.718750000000 21.000000000000 1.884994506836 210 210 210
16.718750000000 21.000000000000 1.923995971680 211 211 211
16.718750000000 20.992187500000 1.962997436523 153 153 153
16.734375000000 20.781250000000 1.864990234375 199 199 199
16.734375000000 20.789062500000 1.905990600586 212 212 212
16.734375000000 20.789062500000 1.945999145508 202 202 202
16.703125000000 20.765625000000 1.977005004883 97 97 97
16.734375000000 20.570312500000 1.880996704102 214 214 214
16.734375000000 20.570312500000 1.920989990234 214 214 214
16.734375000000 20.570312500000 1.959991455078 198 198 198
16.750000000000 20.351562500000 1.858001708984 196 196 196
16.750000000000 20.351562500000 1.897994995117 212 212 212
16.750000000000 20.367187500000 1.940002441406 212 212 212
16.703125000000 20.320312500000 1.968002319336 175 175 175
16.734375000000 20.132812500000 1.839004516602 135 135 135
16.734375000000 20.132812500000 1.878997802734 214 214 214
16.734375000000 20.132812500000 1.919998168945 212 212 212
16.703125000000 20.109375000000 1.951995849609 211 211 211
16.765625000000 19.906250000000 1.862991333008 212 212 212
16.765625000000 19.906250000000 1.903991699219 213 213 213
16.765625000000 19.914062500000 1.944000244141 209 209 209
16.687500000000 19.859375000000 1.968002319336 177 177 177
16.765625000000 19.687500000000 1.841995239258 186 186 186
16.765625000000 19.695312500000 1.884002685547 214 214 214
16.781250000000 19.703125000000 1.927001953125 216 216 216
16.703125000000 19.664062500000 1.953002929688 206 206 206
16.781250000000 19.484375000000 1.863998413086 219 219 219
16.781250000000 19.492187500000 1.903991699219 215 215 215
16.781250000000 19.484375000000 1.942993164063 208 208 208
16.703125000000 19.421875000000 1.962997436523 196 196 196
16.796875000000 19.273437500000 1.841003417969 202 202 202
16.812500000000 19.281250000000 1.884002685547 209 209 209
16.796875000000 19.281250000000 1.921997070313 205 205 205
16.718750000000 19.226562500000 1.944992065430 210 210 210
16.671875000000 19.203125000000 1.977996826172 128 128 128
16.812500000000 19.062500000000 1.824005126953 133 133 133
16.812500000000 19.070312500000 1.864990234375 215 215 215
16.812500000000 19.070312500000 1.903991699219 217 217 217
16.812500000000 19.046875000000 1.938995361328 212 212 212
16.687500000000 18.992187500000 1.955993652344 209 209 209
16.859375000000 18.859375000000 1.852005004883 210 210 210
16.843750000000 18.851562500000 1.890991210938 198 198 198
16.859375000000 18.851562500000 1.930999755859 210 210 210
16.687500000000 18.757812500000 1.938003540039 214 214 214
16.671875000000 18.757812500000 1.977005004883 148 148 148
16.859375000000 18.648437500000 1.836990356445 208 208 208
16.859375000000 18.648437500000 1.875991821289 201 201 201
16.890625000000 18.648437500000 1.916992187500 219 219 219
16.765625000000 18.578125000000 1.931991577148 204 204 204
16.703125000000 18.539062500000 1.957992553711 207 207 207
16.875000000000 18.429687500000 1.817001342773 154 154 154
16.875000000000 18.429687500000 1.856994628906 214 214 214
16.890625000000 18.437500000000 1.897003173828 205 205 205
16.875000000000 18.429687500000 1.933990478516 210 210 210
16.703125000000 18.328125000000 1.936996459961 203 203 203
16.687500000000 18.312500000000 1.974990844727 170 170 170
16.921875000000 18.218750000000 1.833999633789 216 216 216
16.921875000000 18.226562500000 1.873992919922 217 217 217
16.921875000000 18.234375000000 1.914993286133 220 220 220
16.765625000000 18.140625000000 1.923004150391 219 219 219
16.703125000000 18.109375000000 1.949996948242 202 202 202
16.671875000000 18.093750000000 1.983001708984 53 53 53
16.921875000000 18.015625000000 1.811004638672 169 169 169
16.937500000000 18.023437500000 1.852996826172 201 201 201
16.937500000000 18.031250000000 1.893997192383 176 176 176
16.937500000000 18.023437500000 1.929992675781 213 213 213
16.703125000000 17.890625000000 1.921997070313 216 216 216
16.734375000000 17.898437500000 1.966003417969 199 199 199
16.953125000000 17.820312500000 1.835998535156 218 218 218
16.953125000000 17.820312500000 1.873992919922 194 194 194
16.953125000000 17.828125000000 1.914001464844 217 217 217
16.750000000000 17.695312500000 1.908004760742 215 215 215
16.703125000000 17.671875000000 1.938995361328 212 212 212
16.718750000000 17.687500000000 1.983001708984 122 122 122
16.984375000000 17.601562500000 1.819992065430 211 211 211
16.984375000000 17.609375000000 1.860000610352 193 193 193
16.984375000000 17.617187500000 1.899993896484 211 211 211
16.890625000000 17.562500000000 1.918991088867 214 214 214
16.703125000000 17.445312500000 1.919998168945 187 187 187
16.734375000000 17.468750000000 1.966003417969 172 172 172
16.703125000000 17.445312500000 2.000000000000 162 162 162
16.734375000000 17.453125000000 2.042999267578 169 169 169
16.734375000000 17.460937500000 2.082992553711 164 164 164
16.750000000000 17.460937500000 2.125000000000 140 140 140
16.656250000000 17.421875000000 2.152999877930 16 16 16
17.000000000000 17.390625000000 1.804992675781 207 207 207
17.000000000000 17.390625000000 1.845001220703 216 216 216
17.000000000000 17.390625000000 1.882003784180 218 218 218
16.984375000000 17.398437500000 1.918991088867 218 218 218
16.703125000000 17.226562500000 1.899993896484 210 210 210
16.703125000000 17.226562500000 1.938995361328 202 202 202
16.734375000000 17.234375000000 1.985992431641 174 174 174
17.031250000000 17.195312500000 1.789993286133 187 187 187
17.046875000000 17.187500000000 1.830001831055 210 210 210
17.046875000000 17.187500000000 1.867996215820 212 212 212
17.046875000000 17.195312500000 1.908004760742 218 218 218
16.750000000000 17.015625000000 1.882003784180 215 215 215
16.718750000000 16.992187500000 1.916000366211 216 216 216
16.734375000000 17.007812500000 1.957992553711 189 189 189
16.890625000000 17.101562500000 2.027999877930 36 36 36
17.062500000000 16.984375000000 1.767990112305 37 37 37
17.078125000000 16.984375000000 1.808990478516 218 218 218
17.078125000000 16.984375000000 1.847000122070 216 216 216
17.078125000000 16.992187500000 1.886993408203 217 217 217
17.031250000000 16.976562500000 1.916992187500 220 220 220
16.703125000000 16.773437500000 1.884002685547 216 216 216
16.703125000000 16.789062500000 1.927001953125 197 197 197
16.703125000000 16.781250000000 1.966003417969 172 172 172
16.906250000000 16.898437500000 2.044998168945 28 28 28
17.078125000000 16.789062500000 1.789001464844 213 213 213
17.078125000000 16.781250000000 1.826995849609 215 215 215
17.109375000000 16.789062500000 1.867004394531 219 219 219
17.078125000000 16.789062500000 1.902999877930 208 208 208
16.703125000000 16.562500000000 1.860000610352 216 216 216
16.703125000000 16.562500000000 1.899993896484 217 217 217
16.703125000000 16.562500000000 1.942001342773 207 207 207
16.937500000000 16.687500000000 2.063003540039 31 31 31
17.109375000000 16.578125000000 1.776000976563 208 208 208
17.125000000000 16.578125000000 1.817001342773 217 217 217
17.109375000000 16.570312500000 1.852996826172 218 218 218
17.125000000000 16.578125000000 1.890991210938 221 221 221
16.703125000000 16.328125000000 1.841003417969 215 215 215
16.703125000000 16.328125000000 1.882003784180 213 213 213
16.703125000000 16.335937500000 1.923004150391 205 205 205
16.671875000000 16.320312500000 1.957000732422 22 22 22
17.140625000000 16.351562500000 1.764999389648 196 196 196
17.140625000000 16.351562500000 1.804000854492 217 217 217
17.156250000000 16.359375000000 1.843002319336 220 220 220
17.156250000000 16.359375000000 1.880004882813 219 219 219
16.765625000000 16.132812500000 1.835998535156 209 209 209
16.718750000000 16.117187500000 1.865997314453 195 195 195
16.718750000000 16.117187500000 1.906997680664 200 200 200
16.687500000000 16.101562500000 1.944992065430 145 145 145
17.171875000000 16.140625000000 1.752990722656 176 176 176
17.171875000000 16.140625000000 1.791992187500 219 219 219
17.171875000000 16.148437500000 1.830993652344 221 221 221
17.171875000000 16.148437500000 1.867004394531 217 217 217
17.062500000000 16.085937500000 1.882003784180 233 233 233
16.718750000000 15.875000000000 1.847000122070 216 216 216
16.734375000000 15.890625000000 1.888992309570 208 208 208
16.718750000000 15.882812500000 1.927993774414 189 189 189
16.984375000000 16.039062500000 2.093994140625 45 45 45
17.187500000000 15.937500000000 1.733993530273 58 58 58
17.187500000000 15.953125000000 1.774993896484 221 221 221
17.187500000000 15.945312500000 1.811996459961 221 221 221
17.187500000000 15.953125000000 1.849990844727 220 220 220
17.187500000000 15.937500000000 1.884002685547 218 218 218
16.718750000000 15.671875000000 1.821990966797 215 215 215
16.718750000000 15.671875000000 1.862991333008 218 218 218
16.718750000000 15.671875000000 1.902999877930 193 193 193
16.703125000000 15.656250000000 1.940002441406 22 22 22
17.000000000000 15.828125000000 2.110992431641 48 48 48
17.234375000000 15.750000000000 1.755004882813 215 215 215
17.234375000000 15.750000000000 1.792999267578 222 222 222
17.234375000000 15.750000000000 1.828994750977 222 222 222
17.234375000000 15.750000000000 1.865997314453 219 219 219
16.750000000000 15.468750000000 1.796997070313 215 215 215
16.734375000000 15.460937500000 1.835998535156 215 215 215
16.734375000000 15.460937500000 1.875991821289 196 196 196
16.750000000000 15.460937500000 1.916000366211 177 177 177
17.015625000000 15.625000000000 2.123001098633 75 75 75
17.250000000000 15.539062500000 1.739990234375 205 205 205
17.250000000000 15.539062500000 1.776992797852 220 220 220
17.250000000000 15.546875000000 1.815002441406 220 220 220
17.265625000000 15.539062500000 1.852005004883 218 218 218
16.703125000000 15.218750000000 1.765991210938 195 195 195
16.734375000000 15.234375000000 1.813995361328 218 218 218
16.734375000000 15.234375000000 1.854003906250 214 214 214
16.750000000000 15.242187500000 1.895004272461 201 201 201
17.031250000000 15.414062500000 2.141998291016 64 64 64
17.281250000000 15.328125000000 1.731002807617 200 200 200
17.265625000000 15.328125000000 1.766998291016 218 218 218
17.281250000000 15.328125000000 1.804992675781 220 220 220
17.281250000000 15.328125000000 1.841995239258 218 218 218
16.734375000000 15.015625000000 1.759002685547 186 186 186
16.734375000000 15.015625000000 1.798995971680 217 217 217
16.765625000000 15.023437500000 1.839996337891 214 214 214
16.734375000000 15.015625000000 1.878997802734 199 199 199
16.968750000000 15.156250000000 2.152999877930 37 37 37
17.312500000000 15.125000000000 1.720993041992 194 194 194
17.312500000000 15.125000000000 1.757995605469 219 219 219
17.312500000000 15.125000000000 1.794998168945 221 221 221
17.312500000000 15.125000000000 1.830993652344 220 220 220
17.296875000000 15.117187500000 1.863998413086 180 180 180
16.765625000000 14.804687500000 1.783996582031 217 217 217
16.765625000000 14.796875000000 1.822998046875 217 217 217
16.765625000000 14.804687500000 1.864990234375 199 199 199
17.140625000000 15.023437500000 2.166000366211 31 31 31
16.921875000000 14.906250000000 2.167999267578 41 41 41
17.328125000000 14.906250000000 1.708999633789 191 191 191
17.328125000000 14.906250000000 1.744995117188 209 209 209
17.328125000000 14.914062500000 1.783996582031 218 218 218
17.328125000000 14.914062500000 1.819000244141 211 211 211
17.312500000000 14.898437500000 1.850997924805 229 229 229
16.781250000000 14.593750000000 1.767990112305 220 220 220
16.781250000000 14.585937500000 1.806991577148 218 218 218
16.781250000000 14.585937500000 1.847991943359 196 196 196
16.750000000000 14.562500000000 1.882995605469 50 50 50
16.906250000000 14.664062500000 2.184997558594 31 31 31
17.359375000000 14.703125000000 1.694000244141 126 126 126
17.359375000000 14.703125000000 1.731994628906 218 218 218
17.359375000000 14.703125000000 1.766998291016 220 220 220
17.359375000000 14.703125000000 1.804000854492 220 220 220
17.359375000000 14.703125000000 1.839996337891 220 220 220
16.812500000000 14.375000000000 1.750000000000 220 220 220
16.796875000000 14.382812500000 1.789001464844 218 218 218
16.812500000000 14.375000000000 1.830001831055 201 201 201
16.796875000000 14.382812500000 1.867996215820 170 170 170
16.890625000000 14.429687500000 2.199005126953 29 29 29
17.390625000000 14.492187500000 1.714004516602 220 220 220
17.390625000000 14.500000000000 1.750991821289 221 221 221
17.390625000000 14.500000000000 1.787994384766 221 221 221
17.390625000000 14.492187500000 1.822998046875 218 218 218
16.781250000000 14.140625000000 1.720993041992 209 209 209
16.812500000000 14.164062500000 1.767990112305 220 220 220
16.812500000000 14.171875000000 1.807998657227 201 201 201
16.812500000000 14.164062500000 1.847991943359 194 194 194
17.281250000000 14.445312500000 2.201004028320 49 49 49
17.406250000000 14.281250000000 1.699996948242 219 219 219
17.406250000000 14.289062500000 1.736999511719 218 218 218
17.406250000000 14.289062500000 1.772994995117 218 218 218
17.406250000000 14.281250000000 1.807998657227 217 217 217
16.812500000000 13.953125000000 1.707000732422 173 173 173
16.828125000000 13.960937500000 1.752990722656 177 177 177
16.828125000000 13.953125000000 1.789001464844 180 180 180
16.812500000000 13.960937500000 1.828994750977 206 206 206
17.328125000000 14.250000000000 2.224990844727 39 39 39
17.421875000000 14.070312500000 1.688995361328 218 218 218
17.421875000000 14.078125000000 1.727005004883 220 220 220
17.421875000000 14.078125000000 1.763000488281 221 221 221
17.421875000000 14.078125000000 1.798995971680 221 221 221
17.390625000000 14.054687500000 1.828002929688 201 201 201
16.843750000000 13.742187500000 1.735992431641 142 142 142
16.843750000000 13.734375000000 1.774002075195 139 139 139
16.859375000000 13.734375000000 1.815994262695 137 137 137
16.812500000000 13.718750000000 2.242996215820 62 62 62
17.421875000000 13.843750000000 1.638992309570 16 16 16
17.453125000000 13.859375000000 1.681991577148 190 190 190
17.453125000000 13.867187500000 1.720001220703 195 195 195
17.453125000000 13.859375000000 1.753997802734 199 199 199
17.453125000000 13.867187500000 1.791000366211 197 197 197
17.453125000000 13.859375000000 1.824005126953 166 166 166
16.843750000000 13.500000000000 1.722000122070 155 155 155
16.859375000000 13.507812500000 1.761993408203 145 145 145
16.843750000000 13.500000000000 1.800994873047 160 160 160
16.859375000000 13.507812500000 1.841003417969 138 138 138
16.859375000000 13.507812500000 1.880996704102 137 137 137
16.859375000000 13.515625000000 1.923004150391 130 130 130
16.859375000000 13.507812500000 1.960998535156 102 102 102
17.453125000000 13.867187500000 2.250991821289 50 50 50
16.796875000000 13.484375000000 2.227996826172 71 71 71
16.828125000000 13.492187500000 2.267990112305 59 59 59
17.250000000000 13.515625000000 1.151992797852 187 187 187
17.281250000000 13.531250000000 1.199996948242 151 151 151
17.250000000000 13.515625000000 1.231994628906 151 151 151
17.265625000000 13.515625000000 1.272994995117 155 155 155
17.250000000000 13.515625000000 1.308990478516 153 153 153
17.250000000000 13.507812500000 1.343994140625 151 151 151
17.250000000000 13.507812500000 1.382003784180 152 152 152
17.250000000000 13.500000000000 1.417999267578 149 149 149
17.234375000000 13.507812500000 1.455993652344 151 151 151
17.234375000000 13.500000000000 1.492004394531 153 153 153
17.234375000000 13.500000000000 1.529998779297 152 152 152
17.296875000000 13.554687500000 1.587997436523 152 152 152
17.468750000000 13.656250000000 1.673004150391 141 141 141
