6.421875000000 8.921875000000 1.009994506836 50 50 50
6.171875000000 8.781250000000 7.992004394531 25 25 25
6.156250000000 8.789062500000 7.884994506836 66 66 66
6.109375000000 8.804687500000 7.779998779297 41 41 41
6.109375000000 8.804687500000 7.666000366211 46 46 46
6.125000000000 8.796875000000 7.548004150391 39 39 39
6.125000000000 8.796875000000 7.436996459961 52 52 52
6.109375000000 8.804687500000 7.326004028320 52 52 52
6.125000000000 8.796875000000 7.211990356445 51 51 51
6.140625000000 8.796875000000 7.095993041992 52 52 52
6.140625000000 8.796875000000 6.981994628906 56 56 56
6.140625000000 8.796875000000 6.873992919922 54 54 54
6.140625000000 8.796875000000 6.759002685547 52 52 52
6.156250000000 8.789062500000 6.647003173828 51 51 51
6.156250000000 8.789062500000 6.537002563477 42 42 42
6.203125000000 8.765625000000 6.414993286133 75 75 75
6.187500000000 8.773437500000 6.308990478516 55 55 55
6.187500000000 8.773437500000 6.199996948242 31 31 31
6.187500000000 8.773437500000 6.089996337891 29 29 29
6.203125000000 8.765625000000 5.977996826172 24 24 24
6.218750000000 8.757812500000 5.865997314453 24 24 24
6.218750000000 8.757812500000 5.757995605469 19 19 19
6.234375000000 8.750000000000 5.645996093750 23 23 23
6.218750000000 8.757812500000 5.539993286133 23 23 23
6.234375000000 8.750000000000 5.429000854492 21 21 21
6.234375000000 8.750000000000 5.320999145508 26 26 26
6.234375000000 8.750000000000 5.214004516602 21 21 21
6.234375000000 8.750000000000 5.106002807617 61 61 61
6.234375000000 8.750000000000 4.998992919922 71 71 71
6.234375000000 8.750000000000 4.889999389648 24 24 24
6.250000000000 8.750000000000 4.781997680664 23 23 23
6.250000000000 8.750000000000 4.675003051758 23 23 23
6.250000000000 8.750000000000 4.567993164063 18 18 18
6.250000000000 8.742187500000 4.459991455078 21 21 21
6.250000000000 8.742187500000 4.354003906250 21 21 21
6.250000000000 8.742187500000 4.246994018555 18 18 18
6.250000000000 8.734375000000 4.139999389648 21 21 21
6.250000000000 8.734375000000 4.033004760742 21 21 21
6.265625000000 8.726562500000 3.925994873047 22 22 22
6.250000000000 8.734375000000 3.820999145508 76 76 76
6.250000000000 8.734375000000 3.714996337891 34 34 34
6.265625000000 8.726562500000 3.608001708984 24 24 24
6.250000000000 8.734375000000 3.501998901367 21 21 21
6.265625000000 8.726562500000 3.395996093750 22 22 22
6.265625000000 8.726562500000 3.289993286133 26 26 26
6.265625000000 8.726562500000 3.183990478516 24 24 24
6.281250000000 8.718750000000 3.078002929688 26 26 26
6.265625000000 8.726562500000 2.972000122070 18 18 18
6.265625000000 8.726562500000 2.865997314453 18 18 18
6.296875000000 8.710937500000 2.759994506836 22 22 22
6.265625000000 8.726562500000 2.653991699219 69 69 69
6.281250000000 8.718750000000 2.548004150391 53 53 53
6.265625000000 8.726562500000 2.442001342773 21 21 21
6.312500000000 8.703125000000 2.336990356445 22 22 22
6.281250000000 8.718750000000 2.229995727539 22 22 22
6.296875000000 8.710937500000 2.123992919922 21 21 21
6.265625000000 8.726562500000 2.016998291016 21 21 21
6.296875000000 8.710937500000 1.912002563477 24 24 24
6.296875000000 8.710937500000 1.805999755859 21 21 21
6.312500000000 8.703125000000 1.701004028320 21 21 21
6.375000000000 8.679687500000 1.599990844727 32 32 32
6.437500000000 8.648437500000 1.500000000000 42 42 42
6.406250000000 8.656250000000 1.391998291016 34 34 34
6.421875000000 8.656250000000 1.285995483398 26 26 26
6.406250000000 8.656250000000 1.179000854492 26 26 26
6.421875000000 8.656250000000 1.074005126953 22 22 22
6.468750000000 8.632812500000 0.973999023438 18 18 18
6.468750000000 8.609375000000 1.026992797852 18 18 18
6.468750000000 8.593750000000 1.134002685547 18 18 18
6.468750000000 8.601562500000 1.244003295898 15 15 15
6.343750000000 8.937500000000 0.973999023438 13 13 13
6.281250000000 8.882812500000 1.404998779297 93 93 93
6.250000000000 8.875000000000 1.511993408203 41 41 41
6.265625000000 8.882812500000 2.500000000000 21 21 21
6.250000000000 8.875000000000 2.608993530273 85 85 85
6.203125000000 8.843750000000 3.705001831055 56 56 56
6.234375000000 8.859375000000 3.813003540039 85 85 85
6.078125000000 8.781250000000 3.929992675781 10 10 10
6.078125000000 8.789062500000 4.039993286133 15 15 15
6.109375000000 8.789062500000 4.149993896484 16 16 16
6.109375000000 8.789062500000 4.261001586914 18 18 18
6.078125000000 8.781250000000 4.373001098633 20 20 20
6.093750000000 8.781250000000 4.483993530273 16 16 16
6.093750000000 8.781250000000 4.593994140625 21 21 21
6.093750000000 8.781250000000 4.705993652344 31 31 31
6.078125000000 8.781250000000 4.817993164063 30 30 30
6.109375000000 8.789062500000 4.927993774414 51 51 51
6.203125000000 8.843750000000 5.026992797852 85 85 85
6.109375000000 8.789062500000 5.149993896484 51 51 51
6.078125000000 8.789062500000 5.263992309570 51 51 51
6.109375000000 8.789062500000 5.373992919922 51 51 51
6.109375000000 8.789062500000 5.485992431641 51 51 51
6.109375000000 8.789062500000 5.597000122070 58 58 58
6.109375000000 8.789062500000 5.709991455078 63 63 63
6.109375000000 8.789062500000 5.822998046875 68 68 68
6.109375000000 8.789062500000 5.934997558594 63 63 63
6.125000000000 8.796875000000 6.044998168945 63 63 63
6.109375000000 8.789062500000 6.160003662109 63 63 63
6.125000000000 8.796875000000 6.270996093750 78 78 78
6.171875000000 8.820312500000 6.376998901367 84 84 84
6.125000000000 8.796875000000 6.498001098633 65 65 65
6.109375000000 8.789062500000 6.614990234375 71 71 71
6.140625000000 8.804687500000 6.724990844727 70 70 70
6.125000000000 8.789062500000 6.841003417969 71 71 71
6.125000000000 8.796875000000 6.955001831055 68 68 68
6.140625000000 8.804687500000 7.069000244141 55 55 55
6.140625000000 8.812500000000 7.181991577148 48 48 48
6.140625000000 8.804687500000 7.298004150391 38 38 38
6.140625000000 8.804687500000 7.414993286133 35 35 35
6.140625000000 8.804687500000 7.530990600586 30 30 30
6.140625000000 8.812500000000 7.643997192383 25 25 25
6.140625000000 8.804687500000 7.763000488281 27 27 27
6.140625000000 8.812500000000 7.877990722656 45 45 45
6.125000000000 9.195312500000 5.660003662109 25 25 25
6.078125000000 9.570312500000 5.709991455078 45 45 45
6.031250000000 10.265625000000 5.696990966797 40 40 40
6.000000000000 11.023437500000 5.709991455078 48 48 48
5.984375000000 11.406250000000 5.420989990234 12 12 12
5.984375000000 11.414062500000 5.757995605469 12 12 12
5.953125000000 11.765625000000 5.697998046875 41 41 41
5.890625000000 12.093750000000 5.421997070313 17 17 17
5.937500000000 12.117187500000 5.755004882813 18 18 18
5.890625000000 12.468750000000 5.701995849609 37 37 37
5.812500000000 12.796875000000 5.427001953125 18 18 18
5.828125000000 13.203125000000 5.705993652344 37 37 37
5.687500000000 13.500000000000 5.449996948242 13 13 13
5.625000000000 13.843750000000 5.406997680664 20 20 20
5.781250000000 13.945312500000 5.723999023438 27 27 27
5.781250000000 14.312500000000 5.438995361328 192 192 192
5.781250000000 14.304687500000 5.552993774414 197 197 197
5.750000000000 14.296875000000 5.670989990234 67 67 67
5.734375000000 14.656250000000 5.380004882813 83 83 83
5.750000000000 14.656250000000 5.492996215820 132 132 132
5.750000000000 14.656250000000 5.606994628906 177 177 177
5.734375000000 14.656250000000 5.722000122070 30 30 30
5.734375000000 15.015625000000 5.438003540039 164 164 164
5.718750000000 15.015625000000 5.552993774414 207 207 207
5.703125000000 15.007812500000 5.668991088867 32 32 32
5.703125000000 15.398437500000 5.401000976563 150 150 150
5.703125000000 15.398437500000 5.515991210938 159 159 159
5.703125000000 15.406250000000 5.628997802734 114 114 114
5.656250000000 15.765625000000 5.367996215820 92 92 92
5.656250000000 15.765625000000 5.481002807617 155 155 155
5.656250000000 15.765625000000 5.595993041992 174 174 174
5.656250000000 15.750000000000 5.711990356445 13 13 13
5.640625000000 16.125000000000 5.427001953125 169 169 169
5.640625000000 16.117187500000 5.542999267578 183 183 183
5.640625000000 16.117187500000 5.658004760742 67 67 67
5.609375000000 16.453125000000 5.720993041992 40 40 40
5.578125000000 16.804687500000 5.677001953125 39 39 39
5.562500000000 17.195312500000 5.410995483398 8 8 8
5.500000000000 17.562500000000 5.380004882813 7 7 7
5.531250000000 17.570312500000 5.722000122070 12 12 12
5.421875000000 19.007812500000 5.647994995117 3 3 3
5.375000000000 19.367187500000 5.723999023438 25 25 25
5.343750000000 19.734375000000 5.679992675781 36 36 36
5.328125000000 20.101562500000 5.740997314453 12 12 12
5.265625000000 20.437500000000 5.680999755859 36 36 36
5.265625000000 21.203125000000 2.324996948242 57 57 57
5.171875000000 21.140625000000 3.244995117188 39 39 39
5.250000000000 21.187500000000 3.474990844727 66 66 66
5.203125000000 21.164062500000 3.591003417969 46 46 46
5.156250000000 21.125000000000 3.708999633789 42 42 42
5.171875000000 21.140625000000 3.822998046875 49 49 49
5.171875000000 21.140625000000 3.938995361328 59 59 59
5.171875000000 21.148437500000 4.054992675781 64 64 64
5.171875000000 21.148437500000 4.170989990234 71 71 71
5.187500000000 21.148437500000 4.285995483398 73 73 73
5.171875000000 21.140625000000 4.402999877930 73 73 73
5.171875000000 21.148437500000 4.518997192383 76 76 76
5.187500000000 21.148437500000 4.634002685547 81 81 81
5.250000000000 21.187500000000 4.744003295898 61 61 61
5.203125000000 21.156250000000 4.864990234375 73 73 73
5.203125000000 21.140625000000 4.981994628906 75 75 75
5.171875000000 21.140625000000 5.099990844727 76 76 76
5.203125000000 21.140625000000 5.216003417969 66 66 66
5.203125000000 21.140625000000 5.332992553711 71 71 71
5.203125000000 21.140625000000 5.449005126953 75 75 75
5.203125000000 21.140625000000 5.565994262695 75 75 75
5.203125000000 21.148437500000 5.681991577148 63 63 63
5.203125000000 21.148437500000 5.800003051758 73 73 73
5.203125000000 21.140625000000 5.918991088867 70 70 70
5.234375000000 21.171875000000 6.029998779297 63 63 63
5.234375000000 21.164062500000 6.149002075195 65 65 65
5.218750000000 21.148437500000 6.270004272461 60 60 60
5.218750000000 21.156250000000 6.388000488281 60 60 60
5.203125000000 21.140625000000 6.509994506836 53 53 53
5.218750000000 21.148437500000 6.625000000000 44 44 44
5.250000000000 21.164062500000 6.738998413086 41 41 41
5.234375000000 21.156250000000 6.860992431641 41 41 41
5.250000000000 21.164062500000 6.977996826172 32 32 32
5.234375000000 21.156250000000 7.099990844727 32 32 32
5.250000000000 21.164062500000 7.218002319336 27 27 27
5.218750000000 21.156250000000 7.341995239258 27 27 27
5.234375000000 21.156250000000 7.461990356445 29 29 29
5.218750000000 21.140625000000 7.587997436523 41 41 41
5.265625000000 21.203125000000 1.169998168945 22 22 22
5.359375000000 21.257812500000 1.294998168945 49 49 49
5.296875000000 21.218750000000 1.403991699219 101 101 101
5.421875000000 21.289062500000 1.530990600586 108 108 108
5.500000000000 21.351562500000 1.653991699219 77 77 77
5.421875000000 21.281250000000 1.873001098633 57 57 57
6.468750000000 8.718750000000 1.014999389648 69 69 69
6.390625000000 8.718750000000 1.100997924805 35 35 35
6.390625000000 8.718750000000 1.196990966797 44 44 44
6.375000000000 8.726562500000 1.291000366211 50 50 50
6.375000000000 8.726562500000 1.386993408203 85 85 85
6.406250000000 8.718750000000 1.485000610352 85 85 85
6.359375000000 8.726562500000 1.576995849609 63 63 63
6.296875000000 8.718750000000 1.667999267578 76 76 76
6.281250000000 8.718750000000 1.763000488281 71 71 71
6.265625000000 8.718750000000 1.858001708984 73 73 73
6.281250000000 8.718750000000 1.953994750977 71 71 71
6.281250000000 8.718750000000 2.050003051758 70 70 70
6.281250000000 8.718750000000 2.145004272461 68 68 68
6.281250000000 8.718750000000 2.240997314453 73 73 73
6.265625000000 8.718750000000 2.335998535156 68 68 68
6.281250000000 8.718750000000 2.430999755859 70 70 70
6.281250000000 8.710937500000 2.526992797852 85 85 85
6.281250000000 8.718750000000 2.621994018555 76 76 76
6.265625000000 8.718750000000 2.718002319336 73 73 73
6.265625000000 8.718750000000 2.813003540039 74 74 74
6.265625000000 8.718750000000 2.908004760742 67 67 67
6.281250000000 8.718750000000 3.003997802734 61 61 61
6.281250000000 8.718750000000 3.098999023438 56 56 56
6.265625000000 8.718750000000 3.194992065430 48 48 48
6.234375000000 8.726562500000 3.291000366211 47 47 47
6.265625000000 8.718750000000 3.386001586914 38 38 38
6.265625000000 8.718750000000 3.481994628906 53 53 53
6.265625000000 8.718750000000 3.578002929688 44 44 44
6.234375000000 8.726562500000 3.673995971680 47 47 47
6.265625000000 8.718750000000 3.768997192383 55 55 55
6.234375000000 8.726562500000 3.864990234375 49 49 49
6.234375000000 8.726562500000 3.961990356445 47 47 47
6.234375000000 8.726562500000 4.056991577148 35 35 35
6.234375000000 8.718750000000 4.153991699219 39 39 39
6.234375000000 8.718750000000 4.250991821289 39 39 39
6.234375000000 8.718750000000 4.347000122070 33 33 33
6.234375000000 8.726562500000 4.444992065430 29 29 29
6.234375000000 8.726562500000 4.541000366211 26 26 26
6.218750000000 8.718750000000 4.639999389648 24 24 24
6.234375000000 8.726562500000 4.735000610352 23 23 23
6.234375000000 8.726562500000 4.830001831055 15 15 15
6.218750000000 8.718750000000 4.931991577148 6 6 6
6.203125000000 8.718750000000 5.030990600586 9 9 9
6.140625000000 9.117187500000 5.608001708984 38 38 38
6.078125000000 9.117187500000 7.757003784180 14 14 14
6.125000000000 9.492187500000 5.669998168945 72 72 72
6.109375000000 9.851562500000 5.712997436523 21 21 21
6.078125000000 10.195312500000 5.651000976563 61 61 61
6.062500000000 10.570312500000 5.703994750977 14 14 14
6.015625000000 10.968750000000 5.682998657227 51 51 51
5.968750000000 11.375000000000 5.369995117188 31 31 31
5.984375000000 11.367187500000 5.664993286133 68 68 68
5.953125000000 11.757812500000 5.330993652344 18 18 18
5.968750000000 11.757812500000 5.625991821289 8 8 8
5.937500000000 12.117187500000 5.664993286133 72 72 72
5.890625000000 12.843750000000 5.639999389648 57 57 57
5.828125000000 13.242187500000 5.813003540039 23 23 23
5.703125000000 13.656250000000 5.401992797852 14 14 14
5.828125000000 13.648437500000 5.680999755859 45 45 45
5.796875000000 14.039062500000 5.636993408203 56 56 56
5.828125000000 14.390625000000 5.360000610352 145 145 145
5.796875000000 14.390625000000 5.462997436523 142 142 142
5.796875000000 14.398437500000 5.561996459961 188 188 188
5.781250000000 14.398437500000 5.666000366211 70 70 70
5.781250000000 14.757812500000 5.395004272461 187 187 187
5.781250000000 14.757812500000 5.496994018555 148 148 148
5.765625000000 14.757812500000 5.598999023438 122 122 122
5.765625000000 14.757812500000 5.699996948242 15 15 15
5.734375000000 15.140625000000 5.349990844727 164 164 164
5.734375000000 15.132812500000 5.449996948242 206 206 206
5.734375000000 15.140625000000 5.550003051758 193 193 193
5.703125000000 15.140625000000 5.653991699219 57 57 57
5.703125000000 15.539062500000 5.319000244141 66 66 66
5.718750000000 15.531250000000 5.417999267578 162 162 162
5.718750000000 15.531250000000 5.518997192383 189 189 189
5.687500000000 15.539062500000 5.623992919922 51 51 51
5.703125000000 15.929687500000 5.382003784180 164 164 164
5.671875000000 15.929687500000 5.485000610352 145 145 145
5.671875000000 15.929687500000 5.583999633789 122 122 122
5.703125000000 15.929687500000 5.683990478516 9 9 9
5.656250000000 16.312500000000 5.335998535156 125 125 125
5.656250000000 16.312500000000 5.436996459961 158 158 158
5.656250000000 16.320312500000 5.535995483398 181 181 181
5.656250000000 16.312500000000 5.638992309570 70 70 70
5.609375000000 16.687500000000 5.679000854492 29 29 29
5.578125000000 17.039062500000 5.612991333008 22 22 22
5.531250000000 17.421875000000 5.354995727539 31 31 31
5.578125000000 17.414062500000 5.652999877930 68 68 68
5.468750000000 17.804687500000 5.320999145508 44 44 44
5.484375000000 17.812500000000 5.418991088867 47 47 47
5.484375000000 17.812500000000 5.520004272461 50 50 50
5.531250000000 17.812500000000 5.617996215820 56 56 56
5.500000000000 18.210937500000 5.683990478516 8 8 8
5.375000000000 18.585937500000 5.352005004883 33 33 33
5.468750000000 18.593750000000 5.643997192383 70 70 70
5.437500000000 18.953125000000 5.692001342773 33 33 33
5.390625000000 19.320312500000 5.632003784180 55 55 55
5.375000000000 19.695312500000 5.684997558594 23 23 23
5.359375000000 20.085937500000 5.649993896484 72 72 72
5.296875000000 20.476562500000 5.615997314453 48 48 48
5.265625000000 20.851562500000 5.673995971680 31 31 31
5.453125000000 21.250000000000 1.095001220703 105 105 105
5.328125000000 21.242187500000 1.180999755859 106 106 106
5.343750000000 21.250000000000 1.283996582031 65 65 65
5.343750000000 21.250000000000 1.384994506836 123 123 123
5.453125000000 21.242187500000 1.494003295898 118 118 118
5.406250000000 21.234375000000 1.589996337891 110 110 110
5.390625000000 21.234375000000 1.688003540039 132 132 132
5.281250000000 21.234375000000 1.780990600586 75 75 75
5.281250000000 21.242187500000 2.283004760742 123 123 123
5.296875000000 21.234375000000 2.382995605469 70 70 70
5.312500000000 21.226562500000 3.481994628906 113 113 113
5.296875000000 21.226562500000 3.582992553711 28 28 28
5.265625000000 21.218750000000 4.690994262695 98 98 98
5.265625000000 21.218750000000 4.791992187500 62 62 62
5.250000000000 21.210937500000 5.611999511719 11 11 11
5.296875000000 21.210937500000 5.708999633789 17 17 17
5.250000000000 21.210937500000 5.817993164063 20 20 20
5.265625000000 21.210937500000 5.917999267578 27 27 27
5.265625000000 21.210937500000 6.020996093750 83 83 83
5.250000000000 21.210937500000 6.126998901367 71 71 71
5.296875000000 21.210937500000 6.225997924805 27 27 27
5.265625000000 21.210937500000 6.333999633789 31 31 31
5.250000000000 21.210937500000 6.440994262695 28 28 28
5.265625000000 21.203125000000 6.541992187500 30 30 30
5.250000000000 21.210937500000 6.649002075195 28 28 28
5.250000000000 21.210937500000 6.755004882813 35 35 35
5.265625000000 21.203125000000 6.860000610352 33 33 33
5.265625000000 21.203125000000 6.964996337891 38 38 38
5.265625000000 21.203125000000 7.070999145508 43 43 43
5.250000000000 21.203125000000 7.179992675781 38 38 38
5.265625000000 21.203125000000 7.283996582031 44 44 44
5.250000000000 21.203125000000 7.395996093750 38 38 38
5.234375000000 21.203125000000 7.505996704102 78 78 78
5.250000000000 21.203125000000 7.610992431641 63 63 63
6.187500000000 8.679687500000 2.912994384766 3 3 3
6.187500000000 8.687500000000 2.800994873047 8 8 8
6.203125000000 8.679687500000 2.690002441406 10 10 10
6.218750000000 8.679687500000 2.578994750977 15 15 15
6.203125000000 8.679687500000 2.466995239258 12 12 12
6.203125000000 8.679687500000 2.354995727539 18 18 18
6.203125000000 8.679687500000 2.242996215820 15 15 15
6.203125000000 8.687500000000 2.130996704102 25 25 25
6.218750000000 8.687500000000 2.020996093750 25 25 25
6.218750000000 8.687500000000 1.908996582031 28 28 28
6.218750000000 8.679687500000 1.798004150391 25 25 25
6.234375000000 8.671875000000 1.686996459961 22 22 22
6.437500000000 8.554687500000 1.591003417969 54 54 54
6.437500000000 8.562500000000 1.369995117188 48 48 48
6.437500000000 8.562500000000 1.259002685547 51 51 51
6.437500000000 8.562500000000 1.147003173828 56 56 56
6.390625000000 8.593750000000 1.030990600586 54 54 54
6.140625000000 8.976562500000 7.854995727539 25 25 25
6.203125000000 8.945312500000 7.132995605469 18 18 18
6.203125000000 8.945312500000 7.013992309570 20 20 20
6.234375000000 8.937500000000 6.895996093750 25 25 25
6.234375000000 8.945312500000 6.780990600586 30 30 30
6.234375000000 8.945312500000 6.664001464844 28 28 28
6.234375000000 8.945312500000 6.550994873047 30 30 30
6.234375000000 8.945312500000 6.434997558594 35 35 35
6.234375000000 8.945312500000 6.320999145508 38 38 38
6.234375000000 8.945312500000 6.205993652344 38 38 38
6.234375000000 8.953125000000 6.091003417969 35 35 35
6.234375000000 8.953125000000 5.979003906250 35 35 35
6.234375000000 8.953125000000 5.863998413086 43 43 43
6.250000000000 8.945312500000 5.748992919922 48 48 48
6.234375000000 8.960937500000 5.636993408203 45 45 45
6.250000000000 8.953125000000 5.522994995117 40 40 40
6.234375000000 8.960937500000 5.410995483398 43 43 43
6.234375000000 8.960937500000 5.298004150391 50 50 50
6.234375000000 8.960937500000 5.184997558594 43 43 43
6.265625000000 8.945312500000 5.069992065430 51 51 51
6.234375000000 8.968750000000 4.960998535156 51 51 51
6.234375000000 8.968750000000 4.847991943359 45 45 45
6.234375000000 8.968750000000 4.736999511719 45 45 45
6.234375000000 8.984375000000 4.625000000000 53 53 53
6.218750000000 8.984375000000 4.514999389648 53 53 53
6.234375000000 8.984375000000 4.401992797852 58 58 58
6.218750000000 8.992187500000 4.291000366211 65 65 65
6.234375000000 8.984375000000 4.177993774414 61 61 61
6.218750000000 8.992187500000 4.067001342773 69 69 69
6.218750000000 8.992187500000 3.955993652344 71 71 71
6.265625000000 8.976562500000 3.841995239258 84 84 84
6.250000000000 8.984375000000 3.731002807617 79 79 79
6.234375000000 8.992187500000 3.621002197266 74 74 74
6.218750000000 9.000000000000 3.509994506836 74 74 74
6.203125000000 9.007812500000 3.399002075195 83 83 83
6.218750000000 9.000000000000 3.287002563477 78 78 78
6.234375000000 9.000000000000 3.175994873047 78 78 78
6.218750000000 9.007812500000 3.065002441406 86 86 86
6.234375000000 9.007812500000 2.953994750977 81 81 81
6.234375000000 9.007812500000 2.841995239258 86 86 86
6.218750000000 9.007812500000 2.731002807617 84 84 84
6.312500000000 8.960937500000 2.621002197266 89 89 89
6.250000000000 9.000000000000 2.509002685547 81 81 81
6.234375000000 9.015625000000 2.397003173828 83 83 83
6.234375000000 9.015625000000 2.285995483398 81 81 81
6.234375000000 9.015625000000 2.173995971680 83 83 83
6.234375000000 9.015625000000 2.063003540039 88 88 88
6.234375000000 9.015625000000 1.951004028320 86 86 86
6.250000000000 9.015625000000 1.839996337891 81 81 81
6.250000000000 9.015625000000 1.727996826172 84 84 84
6.328125000000 8.968750000000 1.623992919922 69 69 69
6.390625000000 8.929687500000 1.517990112305 72 72 72
6.437500000000 8.914062500000 1.412002563477 69 69 69
6.437500000000 8.914062500000 1.190002441406 76 76 76
6.453125000000 8.921875000000 1.078002929688 79 79 79
6.140625000000 9.367187500000 5.683990478516 45 45 45
6.109375000000 10.179687500000 5.729003906250 27 27 27
6.078125000000 10.601562500000 5.705993652344 42 42 42
6.046875000000 10.976562500000 5.757003784180 25 25 25
6.015625000000 11.343750000000 5.671997070313 15 15 15
5.984375000000 11.718750000000 5.718002319336 42 42 42
5.968750000000 11.734375000000 5.380004882813 18 18 18
5.953125000000 12.148437500000 5.695999145508 50 50 50
5.953125000000 12.562500000000 5.677001953125 32 32 32
5.921875000000 12.960937500000 5.748001098633 18 18 18
5.828125000000 13.023437500000 5.416000366211 12 12 12
5.875000000000 13.335937500000 5.781997680664 17 17 17
5.859375000000 13.687500000000 5.695999145508 39 39 39
5.781250000000 14.468750000000 5.727996826172 22 22 22
5.796875000000 14.460937500000 5.610000610352 126 126 126
5.812500000000 14.468750000000 5.492996215820 133 133 133
5.812500000000 14.468750000000 5.377990722656 129 129 129
5.765625000000 14.898437500000 5.694992065430 35 35 35
5.781250000000 14.890625000000 5.576004028320 174 174 174
5.765625000000 14.898437500000 5.461990356445 138 138 138
5.796875000000 14.882812500000 5.341995239258 10 10 10
5.750000000000 15.304687500000 5.636001586914 86 86 86
5.750000000000 15.312500000000 5.520996093750 143 143 143
5.750000000000 15.312500000000 5.403991699219 138 138 138
5.718750000000 15.679687500000 5.675994873047 35 35 35
5.734375000000 15.671875000000 5.556991577148 172 172 172
5.734375000000 15.679687500000 5.442001342773 150 150 150
5.734375000000 15.992187500000 5.714996337891 20 20 20
5.703125000000 16.015625000000 5.602996826172 164 164 164
5.703125000000 16.015625000000 5.485992431641 169 169 169
5.687500000000 16.023437500000 5.371994018555 110 110 110
5.656250000000 16.398437500000 5.660003662109 69 69 69
5.687500000000 16.382812500000 5.539993286133 155 155 155
5.687500000000 16.382812500000 5.423995971680 145 145 145
5.593750000000 17.257812500000 5.694992065430 27 27 27
5.515625000000 18.335937500000 5.733993530273 10 10 10
5.468750000000 18.734375000000 5.668991088867 32 32 32
5.437500000000 19.164062500000 5.636001586914 17 17 17
5.375000000000 19.953125000000 5.708999633789 27 27 27
5.312500000000 20.695312500000 5.664993286133 39 39 39
5.234375000000 21.085937500000 7.675003051758 24 24 24
5.218750000000 21.093750000000 7.554992675781 48 48 48
5.218750000000 21.093750000000 7.432998657227 52 52 52
5.218750000000 21.101562500000 7.313003540039 62 62 62
5.218750000000 21.101562500000 7.188995361328 62 62 62
5.218750000000 21.101562500000 7.065994262695 57 57 57
5.234375000000 21.093750000000 6.944992065430 52 52 52
5.234375000000 21.093750000000 6.821990966797 62 62 62
5.234375000000 21.101562500000 6.703002929688 64 64 64
5.234375000000 21.101562500000 6.578994750977 69 69 69
5.250000000000 21.093750000000 6.458999633789 69 69 69
5.250000000000 21.093750000000 6.339004516602 67 67 67
5.250000000000 21.093750000000 6.218994140625 69 69 69
5.250000000000 21.093750000000 6.098999023438 63 63 63
5.250000000000 21.101562500000 5.979003906250 62 62 62
5.265625000000 21.101562500000 5.858993530273 67 67 67
5.250000000000 21.101562500000 5.742004394531 67 67 67
5.250000000000 21.101562500000 5.621994018555 48 48 48
5.265625000000 21.101562500000 5.502990722656 58 58 58
5.265625000000 21.101562500000 5.384002685547 63 63 63
5.265625000000 21.101562500000 5.264999389648 68 68 68
5.265625000000 21.101562500000 5.149002075195 67 67 67
5.265625000000 21.101562500000 5.029998779297 67 67 67
5.265625000000 21.101562500000 4.912002563477 65 65 65
5.265625000000 21.101562500000 4.793991088867 70 70 70
5.281250000000 21.109375000000 4.677993774414 66 66 66
5.281250000000 21.109375000000 4.559997558594 66 66 66
5.296875000000 21.101562500000 4.442001342773 77 77 77
5.296875000000 21.101562500000 4.324996948242 65 65 65
5.296875000000 21.101562500000 4.207992553711 65 65 65
5.296875000000 21.109375000000 4.091003417969 63 63 63
5.296875000000 21.109375000000 3.973999023438 60 60 60
5.312500000000 21.101562500000 3.856994628906 61 61 61
5.312500000000 21.101562500000 3.740997314453 54 54 54
5.312500000000 21.101562500000 3.623992919922 49 49 49
5.312500000000 21.101562500000 3.507995605469 73 73 73
5.312500000000 21.109375000000 3.390991210938 54 54 54
5.328125000000 21.101562500000 3.274993896484 44 44 44
5.312500000000 21.109375000000 3.158004760742 36 36 36
5.328125000000 21.101562500000 3.041992187500 44 44 44
5.328125000000 21.101562500000 2.925994873047 39 39 39
5.343750000000 21.093750000000 2.809997558594 42 42 42
5.328125000000 21.109375000000 2.692993164063 36 36 36
5.328125000000 21.109375000000 2.576995849609 37 37 37
5.328125000000 21.109375000000 2.460998535156 34 34 34
5.328125000000 21.109375000000 2.343994140625 61 61 61
5.328125000000 21.125000000000 2.227005004883 43 43 43
5.359375000000 21.109375000000 2.111999511719 27 27 27
5.359375000000 21.109375000000 1.994995117188 31 31 31
5.359375000000 21.109375000000 1.878997802734 24 24 24
5.312500000000 21.140625000000 1.759994506836 65 65 65
5.328125000000 21.132812500000 1.643997192383 54 54 54
5.328125000000 21.132812500000 1.526992797852 87 87 87
5.359375000000 21.117187500000 1.412002563477 122 122 122
5.390625000000 21.085937500000 1.300994873047 126 126 126
5.453125000000 21.476562500000 1.875991821289 80 80 80
5.500000000000 21.429687500000 1.764999389648 96 96 96
5.515625000000 21.312500000000 0.955001831055 183 183 183
5.359375000000 21.312500000000 1.037994384766 123 123 123
5.296875000000 21.312500000000 1.132995605469 90 90 90
5.296875000000 21.304687500000 1.233993530273 86 86 86
5.296875000000 21.304687500000 1.333999633789 103 103 103
5.296875000000 21.304687500000 1.434997558594 96 96 96
5.296875000000 21.304687500000 1.535995483398 107 107 107
5.312500000000 21.296875000000 1.938003540039 110 110 110
5.312500000000 21.296875000000 2.037994384766 95 95 95
5.296875000000 21.296875000000 2.138000488281 93 93 93
5.265625000000 21.296875000000 2.237991333008 99 99 99
5.296875000000 21.296875000000 2.337997436523 73 73 73
5.265625000000 21.296875000000 2.438003540039 96 96 96
5.296875000000 21.296875000000 2.537994384766 89 89 89
5.296875000000 21.296875000000 2.638000488281 87 87 87
5.281250000000 21.289062500000 2.738998413086 78 78 78
5.281250000000 21.289062500000 2.839004516602 84 84 84
5.296875000000 21.281250000000 2.938995361328 82 82 82
5.281250000000 21.289062500000 3.039001464844 73 73 73
5.281250000000 21.281250000000 3.138992309570 70 70 70
5.281250000000 21.289062500000 3.238998413086 75 75 75
5.281250000000 21.281250000000 3.339004516602 67 67 67
5.281250000000 21.281250000000 3.440002441406 62 62 62
5.265625000000 21.289062500000 3.539993286133 48 48 48
5.281250000000 21.281250000000 3.639999389648 62 62 62
5.281250000000 21.281250000000 3.740997314453 59 59 59
5.281250000000 21.281250000000 3.841003417969 56 56 56
5.281250000000 21.281250000000 3.940994262695 58 58 58
5.281250000000 21.273437500000 4.041992187500 47 47 47
5.281250000000 21.281250000000 4.141998291016 42 42 42
5.296875000000 21.273437500000 4.242996215820 40 40 40
5.265625000000 21.281250000000 4.345001220703 50 50 50
5.281250000000 21.273437500000 4.445999145508 50 50 50
5.265625000000 21.281250000000 4.548004150391 45 45 45
5.281250000000 21.273437500000 4.647994995117 31 31 31
5.281250000000 21.273437500000 4.750000000000 31 31 31
5.265625000000 21.281250000000 4.852005004883 28 28 28
5.265625000000 21.281250000000 4.953994750977 27 27 27
5.281250000000 21.273437500000 5.054992675781 23 23 23
5.281250000000 21.273437500000 5.156997680664 20 20 20
5.265625000000 21.273437500000 5.259994506836 16 16 16
5.281250000000 21.273437500000 5.360000610352 6 6 6
5.390625000000 21.109375000000 1.100997924805 110 110 110
5.312500000000 21.109375000000 1.194000244141 106 106 106
5.328125000000 21.109375000000 1.295989990234 48 48 48
5.312500000000 21.101562500000 1.395004272461 128 128 128
5.453125000000 21.093750000000 1.507003784180 124 124 124
5.390625000000 21.109375000000 1.602005004883 130 130 130
5.375000000000 21.109375000000 1.701004028320 127 127 127
5.343750000000 21.093750000000 1.798995971680 78 78 78
5.312500000000 21.093750000000 2.197998046875 54 54 54
5.328125000000 21.093750000000 2.298004150391 121 121 121
5.296875000000 21.085937500000 3.399002075195 81 81 81
5.296875000000 21.085937500000 3.498992919922 112 112 112
5.296875000000 21.085937500000 3.800003051758 11 11 11
5.296875000000 21.085937500000 3.899993896484 19 19 19
5.296875000000 21.085937500000 4.000000000000 25 25 25
5.296875000000 21.085937500000 4.100997924805 30 30 30
5.296875000000 21.085937500000 4.201004028320 31 31 31
5.296875000000 21.078125000000 4.302993774414 37 37 37
5.296875000000 21.078125000000 4.403991699219 33 33 33
5.296875000000 21.078125000000 4.503997802734 51 51 51
5.281250000000 21.078125000000 4.606994628906 69 69 69
5.281250000000 21.078125000000 4.707992553711 108 108 108
5.296875000000 21.070312500000 4.808990478516 53 53 53
5.296875000000 21.070312500000 4.910995483398 50 50 50
5.296875000000 21.070312500000 5.011993408203 56 56 56
5.296875000000 21.070312500000 5.113998413086 58 58 58
5.296875000000 21.070312500000 5.214996337891 67 67 67
5.312500000000 21.062500000000 5.315994262695 50 50 50
5.296875000000 21.062500000000 5.420989990234 63 63 63
5.296875000000 21.070312500000 5.522994995117 63 63 63
5.296875000000 21.070312500000 5.625000000000 61 61 61
5.296875000000 21.062500000000 5.729995727539 61 61 61
5.296875000000 21.062500000000 5.832000732422 60 60 60
5.265625000000 21.062500000000 5.936996459961 74 74 74
5.296875000000 21.062500000000 6.039001464844 86 86 86
5.296875000000 21.062500000000 6.142990112305 61 61 61
5.265625000000 21.054687500000 6.250000000000 50 50 50
5.296875000000 21.054687500000 6.352005004883 57 57 57
5.296875000000 21.054687500000 6.457000732422 58 58 58
5.296875000000 21.054687500000 6.561996459961 63 63 63
5.296875000000 21.054687500000 6.666992187500 57 57 57
5.265625000000 21.054687500000 6.774993896484 55 55 55
5.265625000000 21.046875000000 6.882003784180 55 55 55
5.265625000000 21.046875000000 6.986999511719 60 60 60
5.265625000000 21.054687500000 7.091995239258 52 52 52
5.265625000000 21.054687500000 7.197998046875 49 49 49
5.281250000000 21.046875000000 7.302993774414 46 46 46
5.265625000000 21.046875000000 7.414993286133 43 43 43
5.250000000000 21.046875000000 7.526992797852 63 63 63
5.265625000000 20.851562500000 5.582992553711 11 11 11
5.234375000000 20.835937500000 7.481994628906 10 10 10
5.281250000000 20.640625000000 5.626998901367 77 77 77
5.312500000000 20.414062500000 5.662994384766 52 52 52
5.328125000000 20.187500000000 5.604995727539 44 44 44
5.359375000000 19.976562500000 5.656997680664 55 55 55
5.359375000000 19.773437500000 5.608001708984 39 39 39
5.390625000000 19.554687500000 5.656997680664 59 59 59
5.406250000000 19.343750000000 5.602005004883 20 20 20
5.437500000000 19.125000000000 5.641998291016 81 81 81
5.359375000000 18.710937500000 5.352005004883 27 27 27
5.468750000000 18.703125000000 5.643997192383 78 78 78
5.390625000000 18.500000000000 5.302993774414 19 19 19
5.468750000000 18.492187500000 5.595993041992 19 19 19
5.406250000000 18.289062500000 5.352005004883 28 28 28
5.484375000000 18.289062500000 5.645996093750 68 68 68
5.421875000000 18.078125000000 5.298004150391 11 11 11
5.468750000000 17.843750000000 5.335998535156 45 45 45
5.531250000000 17.843750000000 5.630004882813 61 61 61
5.578125000000 17.632812500000 5.671997070313 11 11 11
5.515625000000 17.429687500000 5.330001831055 40 40 40
5.578125000000 17.421875000000 5.627990722656 70 70 70
5.578125000000 17.218750000000 5.680999755859 9 9 9
5.578125000000 17.000000000000 5.326004028320 39 39 39
5.609375000000 16.992187500000 5.625991821289 61 61 61
5.609375000000 16.781250000000 5.666000366211 26 26 26
5.625000000000 16.562500000000 5.311004638672 26 26 26
5.625000000000 16.562500000000 5.613998413086 54 54 54
5.640625000000 16.351562500000 5.565994262695 20 20 20
5.625000000000 16.351562500000 5.669998168945 62 62 62
5.640625000000 16.148437500000 5.321990966797 128 128 128
5.640625000000 16.148437500000 5.420989990234 164 164 164
5.640625000000 16.148437500000 5.522003173828 211 211 211
5.640625000000 16.148437500000 5.621994018555 59 59 59
5.671875000000 15.937500000000 5.369995117188 183 183 183
5.687500000000 15.937500000000 5.468994140625 201 201 201
5.671875000000 15.929687500000 5.569992065430 127 127 127
5.687500000000 15.937500000000 5.668991088867 22 22 22
5.671875000000 15.718750000000 5.311996459961 99 99 99
5.671875000000 15.718750000000 5.412002563477 169 169 169
5.671875000000 15.718750000000 5.511993408203 186 186 186
5.671875000000 15.718750000000 5.614990234375 40 40 40
5.703125000000 15.500000000000 5.347000122070 172 172 172
5.703125000000 15.500000000000 5.446990966797 133 133 133
5.703125000000 15.492187500000 5.544998168945 182 182 182
5.703125000000 15.492187500000 5.647003173828 59 59 59
5.718750000000 15.273437500000 5.291992187500 15 15 15
5.718750000000 15.281250000000 5.390991210938 185 185 185
5.718750000000 15.281250000000 5.490997314453 198 198 198
5.734375000000 15.273437500000 5.589996337891 85 85 85
5.718750000000 15.070312500000 5.343994140625 181 181 181
5.734375000000 15.070312500000 5.442001342773 215 215 215
5.734375000000 15.070312500000 5.542999267578 185 185 185
5.734375000000 15.070312500000 5.642990112305 62 62 62
5.734375000000 14.875000000000 5.302001953125 37 37 37
5.765625000000 14.859375000000 5.397003173828 168 168 168
5.765625000000 14.867187500000 5.498001098633 184 184 184
5.750000000000 14.867187500000 5.599990844727 56 56 56
5.765625000000 14.664062500000 5.343994140625 160 160 160
5.765625000000 14.656250000000 5.444992065430 145 145 145
5.765625000000 14.656250000000 5.545989990234 199 199 199
5.765625000000 14.656250000000 5.645996093750 68 68 68
5.781250000000 14.429687500000 5.380996704102 173 173 173
5.796875000000 14.437500000000 5.479995727539 125 125 125
5.796875000000 14.437500000000 5.578994750977 137 137 137
5.796875000000 14.437500000000 5.679992675781 28 28 28
5.828125000000 14.203125000000 5.317001342773 100 100 100
5.828125000000 14.210937500000 5.416000366211 194 194 194
5.812500000000 14.210937500000 5.516998291016 214 214 214
5.812500000000 14.210937500000 5.619003295898 57 57 57
5.828125000000 13.992187500000 5.666992187500 46 46 46
5.640625000000 13.796875000000 5.348999023438 22 22 22
5.828125000000 13.789062500000 5.621994018555 56 56 56
5.859375000000 13.585937500000 5.675003051758 39 39 39
5.718750000000 13.367187500000 5.339004516602 29 29 29
5.890625000000 13.148437500000 5.653991699219 86 86 86
5.906250000000 12.703125000000 5.643997192383 74 74 74
5.890625000000 12.289062500000 5.356994628906 45 45 45
5.953125000000 12.289062500000 5.647003173828 40 40 40
5.953125000000 12.070312500000 5.688995361328 60 60 60
5.968750000000 11.843750000000 5.632003784180 51 51 51
5.984375000000 11.625000000000 5.675003051758 66 66 66
5.953125000000 11.421875000000 5.335998535156 46 46 46
6.000000000000 11.421875000000 5.628997802734 40 40 40
5.984375000000 11.210937500000 5.386993408203 26 26 26
6.015625000000 11.210937500000 5.481994628906 21 21 21
6.015625000000 11.210937500000 5.580993652344 23 23 23
6.031250000000 11.210937500000 5.677993774414 54 54 54
6.031250000000 10.992187500000 5.632995605469 64 64 64
6.046875000000 10.765625000000 5.675994873047 81 81 81
6.015625000000 10.554687500000 5.621002197266 2 2 2
6.062500000000 10.328125000000 5.655990600586 75 75 75
6.093750000000 10.117187500000 5.608993530273 31 31 31
6.093750000000 9.914062500000 5.669998168945 72 72 72
6.109375000000 9.710937500000 5.623001098633 57 57 57
6.140625000000 9.492187500000 5.664993286133 69 69 69
6.156250000000 9.265625000000 5.610000610352 60 60 60
6.171875000000 9.054687500000 5.664001464844 28 28 28
6.437500000000 8.890625000000 0.916992187500 118 118 118
6.265625000000 8.890625000000 0.994003295898 44 44 44
6.265625000000 8.890625000000 1.089996337891 42 42 42
6.281250000000 8.882812500000 1.188003540039 45 45 45
6.281250000000 8.890625000000 1.285003662109 29 29 29
6.296875000000 8.882812500000 1.382003784180 105 105 105
6.296875000000 8.882812500000 1.477996826172 108 108 108
6.296875000000 8.882812500000 1.572998046875 44 44 44
6.281250000000 8.882812500000 1.667999267578 51 51 51
6.296875000000 8.875000000000 1.763992309570 54 54 54
6.296875000000 8.875000000000 1.860000610352 45 45 45
6.281250000000 8.882812500000 1.955001831055 50 50 50
6.265625000000 8.875000000000 2.050003051758 65 65 65
6.265625000000 8.875000000000 2.145996093750 58 58 58
6.296875000000 8.867187500000 2.240997314453 53 53 53
6.265625000000 8.875000000000 2.336990356445 51 51 51
6.296875000000 8.867187500000 2.431991577148 54 54 54
6.296875000000 8.867187500000 2.526992797852 115 115 115
6.296875000000 8.867187500000 2.623001098633 106 106 106
6.296875000000 8.867187500000 2.718002319336 56 56 56
6.296875000000 8.867187500000 2.813003540039 53 53 53
6.265625000000 8.867187500000 2.908996582031 59 59 59
6.265625000000 8.867187500000 3.003997802734 53 53 53
6.281250000000 8.859375000000 3.098999023438 59 59 59
6.265625000000 8.867187500000 3.194992065430 50 50 50
6.265625000000 8.867187500000 3.289993286133 58 58 58
6.265625000000 8.859375000000 3.386001586914 65 65 65
6.265625000000 8.859375000000 3.481994628906 61 61 61
6.250000000000 8.867187500000 3.578002929688 53 53 53
6.265625000000 8.859375000000 3.673004150391 89 89 89
6.265625000000 8.859375000000 3.768997192383 105 105 105
6.250000000000 8.859375000000 3.864990234375 70 70 70
6.250000000000 8.859375000000 3.960998535156 62 62 62
6.250000000000 8.851562500000 4.057998657227 59 59 59
6.250000000000 8.859375000000 4.152999877930 64 64 64
6.250000000000 8.851562500000 4.250000000000 68 68 68
6.250000000000 8.851562500000 4.345993041992 70 70 70
6.250000000000 8.851562500000 4.442993164063 73 73 73
6.250000000000 8.851562500000 4.539001464844 65 65 65
6.234375000000 8.843750000000 4.636993408203 58 58 58
6.250000000000 8.851562500000 4.733001708984 65 65 65
6.234375000000 8.843750000000 4.830001831055 62 62 62
6.234375000000 8.851562500000 4.929000854492 93 93 93
6.234375000000 8.843750000000 5.024993896484 99 99 99
6.218750000000 8.843750000000 5.125000000000 64 64 64
6.218750000000 8.843750000000 5.222991943359 70 70 70
6.218750000000 8.843750000000 5.319992065430 66 66 66
6.203125000000 8.843750000000 5.421997070313 60 60 60
6.218750000000 8.843750000000 5.515991210938 66 66 66
6.218750000000 8.835937500000 5.615997314453 53 53 53
6.218750000000 8.835937500000 5.714996337891 66 66 66
6.203125000000 8.843750000000 5.815002441406 66 66 66
6.218750000000 8.835937500000 5.912994384766 72 72 72
6.203125000000 8.843750000000 6.013992309570 67 67 67
6.187500000000 8.843750000000 6.117996215820 77 77 77
6.203125000000 8.835937500000 6.216003417969 87 87 87
6.218750000000 8.835937500000 6.311004638672 95 95 95
6.203125000000 8.843750000000 6.414001464844 80 80 80
6.203125000000 8.835937500000 6.516998291016 80 80 80
6.171875000000 8.835937500000 6.621994018555 69 69 69
6.187500000000 8.843750000000 6.720993041992 68 68 68
6.171875000000 8.835937500000 6.822998046875 76 76 76
6.171875000000 8.835937500000 6.925994873047 69 69 69
6.171875000000 8.835937500000 7.028991699219 69 69 69
6.171875000000 8.835937500000 7.130996704102 71 71 71
6.156250000000 8.828125000000 7.238998413086 70 70 70
6.156250000000 8.835937500000 7.339996337891 64 64 64
6.156250000000 8.828125000000 7.444992065430 56 56 56
6.156250000000 8.835937500000 7.546997070313 70 70 70
6.156250000000 8.828125000000 7.651992797852 62 62 62
6.171875000000 8.828125000000 7.755004882813 76 76 76
6.171875000000 8.828125000000 7.858001708984 75 75 75
6.453125000000 8.671875000000 1.164001464844 17 17 17
6.406250000000 8.664062500000 1.257003784180 24 24 24
6.406250000000 8.664062500000 1.349990844727 54 54 54
6.406250000000 8.664062500000 1.541000366211 57 57 57
6.343750000000 8.671875000000 1.632995605469 47 47 47
6.312500000000 8.671875000000 1.725997924805 44 44 44
6.296875000000 8.671875000000 1.820999145508 39 39 39
6.312500000000 8.671875000000 1.916992187500 44 44 44
6.312500000000 8.664062500000 2.011993408203 50 50 50
6.296875000000 8.664062500000 2.106994628906 47 47 47
6.312500000000 8.664062500000 2.201995849609 60 60 60
6.296875000000 8.664062500000 2.296997070313 53 53 53
6.312500000000 8.664062500000 2.392990112305 62 62 62
6.296875000000 8.656250000000 2.487991333008 97 97 97
6.296875000000 8.656250000000 2.582992553711 115 115 115
6.265625000000 8.656250000000 2.679000854492 82 82 82
6.296875000000 8.656250000000 2.774002075195 77 77 77
6.296875000000 8.656250000000 2.869003295898 79 79 79
6.281250000000 8.648437500000 2.964004516602 85 85 85
6.265625000000 8.656250000000 3.059997558594 76 76 76
6.265625000000 8.656250000000 3.154998779297 67 67 67
6.265625000000 8.648437500000 3.250991821289 62 62 62
6.265625000000 8.648437500000 3.347000122070 58 58 58
6.265625000000 8.648437500000 3.442001342773 61 61 61
6.281250000000 8.640625000000 3.537002563477 70 70 70
6.265625000000 8.648437500000 3.632995605469 70 70 70
6.265625000000 8.640625000000 3.729003906250 79 79 79
6.265625000000 8.640625000000 3.824996948242 74 74 74
6.265625000000 8.640625000000 3.920989990234 68 68 68
6.265625000000 8.640625000000 4.015991210938 59 59 59
6.265625000000 8.648437500000 4.111999511719 53 53 53
6.265625000000 8.640625000000 4.208999633789 56 56 56
6.265625000000 8.640625000000 4.304000854492 45 45 45
6.265625000000 8.640625000000 4.401000976563 47 47 47
6.250000000000 8.640625000000 4.498001098633 39 39 39
6.250000000000 8.640625000000 4.595001220703 43 43 43
6.250000000000 8.640625000000 4.692993164063 43 43 43
6.234375000000 8.640625000000 4.791000366211 47 47 47
6.265625000000 8.632812500000 4.884994506836 40 40 40
6.218750000000 8.640625000000 4.985992431641 41 41 41
6.265625000000 8.632812500000 5.080001831055 38 38 38
6.218750000000 8.640625000000 5.180999755859 32 32 32
6.218750000000 8.640625000000 5.278991699219 23 23 23
6.234375000000 8.632812500000 5.375991821289 18 18 18
6.218750000000 8.640625000000 5.474990844727 6 6 6
5.453125000000 21.585937500000 0.923004150391 244 244 244
5.468750000000 21.359375000000 1.923995971680 29 29 29
5.250000000000 21.218750000000 5.836990356445 9 9 9
5.281250000000 21.203125000000 5.714996337891 15 15 15
5.234375000000 21.226562500000 5.602005004883 15 15 15
5.265625000000 21.210937500000 5.481002807617 17 17 17
5.234375000000 21.234375000000 5.364990234375 17 17 17
5.234375000000 21.234375000000 5.246994018555 19 19 19
5.265625000000 21.226562500000 5.127990722656 22 22 22
5.265625000000 21.226562500000 5.011001586914 20 20 20
5.265625000000 21.226562500000 4.892990112305 29 29 29
5.265625000000 21.226562500000 4.776000976563 26 26 26
5.265625000000 21.234375000000 4.658996582031 29 29 29
5.265625000000 21.234375000000 4.541000366211 29 29 29
5.265625000000 21.234375000000 4.425003051758 31 31 31
5.265625000000 21.234375000000 4.307998657227 32 32 32
5.265625000000 21.234375000000 4.190994262695 32 32 32
5.265625000000 21.234375000000 4.074005126953 32 32 32
5.250000000000 21.250000000000 3.957992553711 26 26 26
5.265625000000 21.242187500000 3.841003417969 29 29 29
5.250000000000 21.250000000000 3.723999023438 32 32 32
5.234375000000 21.257812500000 3.608001708984 39 39 39
5.265625000000 21.242187500000 3.490997314453 31 31 31
5.250000000000 21.257812500000 3.375000000000 41 41 41
5.234375000000 21.265625000000 3.259002685547 37 37 37
5.234375000000 21.265625000000 3.141998291016 37 37 37
5.234375000000 21.273437500000 3.024993896484 39 39 39
5.218750000000 21.281250000000 2.908996582031 37 37 37
5.234375000000 21.281250000000 2.791992187500 39 39 39
5.187500000000 21.296875000000 2.675003051758 49 49 49
5.218750000000 21.281250000000 2.557998657227 41 41 41
5.234375000000 21.289062500000 2.440994262695 53 53 53
5.250000000000 21.265625000000 2.326004028320 41 41 41
5.203125000000 21.296875000000 2.207000732422 53 53 53
5.265625000000 21.273437500000 1.858993530273 106 106 106
5.265625000000 21.265625000000 1.742996215820 128 128 128
5.390625000000 21.195312500000 1.634002685547 129 129 129
5.468750000000 21.156250000000 1.524993896484 144 144 144
5.343750000000 21.226562500000 1.397994995117 107 107 107
5.359375000000 21.218750000000 1.281997680664 117 117 117
5.296875000000 21.265625000000 1.158996582031 61 61 61
5.187500000000 21.007812500000 7.707000732422 14 14 14
5.187500000000 21.007812500000 7.582992553711 57 57 57
5.203125000000 21.000000000000 7.457992553711 80 80 80
5.187500000000 21.007812500000 7.339004516602 73 73 73
5.187500000000 21.007812500000 7.214996337891 67 67 67
5.203125000000 21.000000000000 7.091995239258 57 57 57
5.203125000000 21.007812500000 6.968994140625 64 64 64
5.203125000000 21.015625000000 6.850997924805 65 65 65
5.203125000000 21.007812500000 6.729995727539 65 65 65
5.234375000000 21.007812500000 6.606994628906 69 69 69
5.203125000000 21.007812500000 6.487991333008 67 67 67
5.203125000000 21.007812500000 6.367004394531 69 69 69
5.218750000000 21.015625000000 6.248001098633 65 65 65
5.234375000000 21.015625000000 6.126998901367 60 60 60
5.218750000000 21.015625000000 6.009002685547 70 70 70
5.218750000000 21.015625000000 5.889999389648 63 63 63
5.218750000000 21.015625000000 5.770004272461 65 65 65
5.234375000000 21.015625000000 5.649002075195 51 51 51
5.234375000000 21.023437500000 5.531997680664 51 51 51
5.234375000000 21.023437500000 5.412994384766 62 62 62
