22.578125000000 28.328125000000 6.339996337891 151 151 151
22.578125000000 28.109375000000 7.298995971680 108 108 108
22.593750000000 28.132812500000 7.291992187500 54 54 54
22.562500000000 28.109375000000 6.349990844727 109 109 109
22.578125000000 28.117187500000 6.345993041992 142 142 142
22.578125000000 27.906250000000 7.291992187500 110 110 110
22.578125000000 27.890625000000 6.347991943359 136 136 136
22.593750000000 27.898437500000 6.343994140625 61 61 61
22.578125000000 27.671875000000 7.308990478516 32 32 32
22.593750000000 27.695312500000 7.285995483398 123 123 123
22.578125000000 27.679687500000 6.347991943359 138 138 138
22.578125000000 27.460937500000 7.289993286133 110 110 110
22.578125000000 27.453125000000 6.349990844727 127 127 127
22.609375000000 27.460937500000 6.343002319336 137 137 137
22.609375000000 27.250000000000 7.289001464844 122 122 122
22.593750000000 27.242187500000 6.341003417969 125 125 125
22.593750000000 27.031250000000 7.287994384766 96 96 96
22.609375000000 27.039062500000 7.292999267578 83 83 83
22.609375000000 27.023437500000 6.335998535156 148 148 148
22.609375000000 26.804687500000 7.281997680664 109 109 109
22.593750000000 26.796875000000 6.341995239258 110 110 110
22.609375000000 26.812500000000 6.347000122070 138 138 138
22.609375000000 26.601562500000 7.285995483398 123 123 123
22.609375000000 26.585937500000 6.348999023438 128 128 128
22.640625000000 26.593750000000 6.339996337891 44 44 44
22.609375000000 26.367187500000 7.281997680664 85 85 85
22.640625000000 26.382812500000 7.283004760742 104 104 104
22.609375000000 26.375000000000 6.341995239258 133 133 133
22.640625000000 26.148437500000 7.279998779297 111 111 111
22.609375000000 26.140625000000 6.339004516602 112 112 112
22.640625000000 26.148437500000 6.330993652344 132 132 132
22.609375000000 25.937500000000 7.285003662109 88 88 88
22.640625000000 25.945312500000 7.289001464844 91 91 91
22.625000000000 25.929687500000 6.345993041992 124 124 124
22.640625000000 25.718750000000 7.276000976563 111 111 111
22.640625000000 25.703125000000 6.348999023438 77 77 77
22.640625000000 25.718750000000 6.337997436523 149 149 149
22.640625000000 25.507812500000 7.277999877930 121 121 121
22.640625000000 25.492187500000 6.339996337891 129 129 129
22.656250000000 25.500000000000 6.330001831055 76 76 76
22.640625000000 25.289062500000 7.265991210938 102 102 102
22.656250000000 25.289062500000 7.272003173828 54 54 54
22.640625000000 25.289062500000 6.337997436523 124 124 124
22.671875000000 25.070312500000 7.283004760742 114 114 114
22.640625000000 25.046875000000 6.345001220703 74 74 74
22.656250000000 25.062500000000 6.343002319336 150 150 150
22.640625000000 24.835937500000 7.274002075195 96 96 96
22.671875000000 24.859375000000 7.276992797852 77 77 77
22.656250000000 24.835937500000 6.348999023438 121 121 121
22.671875000000 24.640625000000 7.268997192383 115 115 115
22.671875000000 24.632812500000 6.330993652344 151 151 151
22.656250000000 24.398437500000 7.279998779297 37 37 37
22.687500000000 24.421875000000 7.272003173828 118 118 118
22.656250000000 24.398437500000 6.343994140625 126 126 126
22.687500000000 24.414062500000 6.337997436523 109 109 109
22.671875000000 24.187500000000 7.266998291016 108 108 108
22.671875000000 24.179687500000 6.335998535156 111 111 111
22.687500000000 23.976562500000 7.272994995117 110 110 110
22.687500000000 23.968750000000 6.335998535156 113 113 113
22.671875000000 23.750000000000 7.274002075195 54 54 54
22.687500000000 23.765625000000 7.259002685547 115 115 115
22.671875000000 23.750000000000 6.347991943359 104 104 104
22.687500000000 23.757812500000 6.347991943359 122 122 122
22.703125000000 23.531250000000 7.283004760742 106 106 106
22.687500000000 23.523437500000 6.334991455078 100 100 100
22.687500000000 23.328125000000 7.259002685547 121 121 121
22.687500000000 23.320312500000 6.336990356445 130 130 130
22.703125000000 23.101562500000 7.259002685547 78 78 78
22.718750000000 23.109375000000 7.266998291016 86 86 86
22.703125000000 23.093750000000 6.330993652344 81 81 81
22.703125000000 22.890625000000 7.263992309570 103 103 103
22.703125000000 22.875000000000 6.330993652344 98 98 98
22.703125000000 22.671875000000 7.274993896484 123 123 123
22.703125000000 22.453125000000 7.268997192383 71 71 71
22.734375000000 22.460937500000 7.259002685547 97 97 97
22.718750000000 22.226562500000 7.261001586914 101 101 101
22.734375000000 22.023437500000 7.259002685547 117 117 117
22.718750000000 21.796875000000 7.259002685547 79 79 79
22.750000000000 21.804687500000 7.259994506836 85 85 85
22.734375000000 21.578125000000 7.255996704102 99 99 99
22.750000000000 21.367187500000 7.255004882813 103 103 103
22.750000000000 21.156250000000 7.261001586914 125 125 125
22.750000000000 20.929687500000 7.255004882813 96 96 96
22.750000000000 20.718750000000 7.264999389648 101 101 101
22.765625000000 20.507812500000 7.255004882813 117 117 117
22.781250000000 20.289062500000 7.264999389648 116 116 116
22.765625000000 20.070312500000 7.264999389648 87 87 87
22.781250000000 19.851562500000 7.257003784180 103 103 103
22.765625000000 19.632812500000 7.276992797852 44 44 44
22.796875000000 19.414062500000 7.261001586914 85 85 85
22.359375000000 34.679687500000 7.391998291016 125 125 125
22.390625000000 34.679687500000 6.375000000000 162 162 162
22.390625000000 34.460937500000 7.386001586914 133 133 133
22.359375000000 34.460937500000 7.375000000000 55 55 55
22.390625000000 34.468750000000 6.388992309570 164 164 164
22.375000000000 34.460937500000 6.377990722656 157 157 157
22.390625000000 34.257812500000 7.384994506836 39 39 39
22.375000000000 34.242187500000 7.373001098633 124 124 124
22.406250000000 34.265625000000 6.388000488281 46 46 46
22.375000000000 34.250000000000 6.375991821289 162 162 162
22.390625000000 34.031250000000 7.376998901367 123 123 123
22.390625000000 34.031250000000 6.384994506836 153 153 153
22.406250000000 33.804687500000 7.375000000000 128 128 128
22.406250000000 33.820312500000 6.457000732422 125 125 125
22.406250000000 33.812500000000 6.380004882813 196 196 196
22.390625000000 33.812500000000 6.384002685547 147 147 147
22.390625000000 33.593750000000 7.367004394531 124 124 124
22.421875000000 33.609375000000 6.393997192383 77 77 77
22.421875000000 33.593750000000 6.373992919922 184 184 184
22.406250000000 33.382812500000 7.371994018555 128 128 128
22.406250000000 33.382812500000 6.378997802734 186 186 186
22.390625000000 33.375000000000 6.373001098633 72 72 72
24.937500000000 34.664062500000 7.180999755859 94 94 94
22.406250000000 33.164062500000 7.360000610352 89 89 89
22.406250000000 33.164062500000 7.361999511719 116 116 116
22.406250000000 33.171875000000 6.377990722656 184 184 184
22.406250000000 33.156250000000 6.371994018555 186 186 186
24.921875000000 34.421875000000 7.179000854492 109 109 109
22.421875000000 32.945312500000 7.354003906250 123 123 123
22.421875000000 32.945312500000 6.373992919922 174 174 174
25.890625000000 34.765625000000 7.466003417969 138 138 138
24.921875000000 34.203125000000 7.173004150391 111 111 111
22.421875000000 32.718750000000 7.352996826172 126 126 126
22.406250000000 32.710937500000 7.356994628906 79 79 79
22.421875000000 32.726562500000 6.373001098633 204 204 204
22.406250000000 32.710937500000 6.386993408203 106 106 106
25.906250000000 34.554687500000 7.459991455078 73 73 73
25.875000000000 34.531250000000 7.474990844727 105 105 105
26.140625000000 34.695312500000 9.194992065430 120 120 120
24.906250000000 33.960937500000 7.179992675781 87 87 87
22.421875000000 32.507812500000 7.352996826172 129 129 129
22.437500000000 32.507812500000 6.371994018555 179 179 179
22.421875000000 32.507812500000 6.362991333008 184 184 184
25.890625000000 34.328125000000 7.466995239258 138 138 138
26.562500000000 34.718750000000 8.545989990234 116 116 116
26.171875000000 34.492187500000 9.201995849609 58 58 58
26.140625000000 34.476562500000 9.214004516602 60 60 60
24.906250000000 33.750000000000 7.164001464844 69 69 69
24.890625000000 33.742187500000 7.173004150391 31 31 31
22.437500000000 32.289062500000 7.350997924805 126 126 126
22.437500000000 32.304687500000 6.405990600586 58 58 58
22.437500000000 32.289062500000 6.363998413086 182 182 182
25.906250000000 34.117187500000 7.468002319336 45 45 45
25.875000000000 34.101562500000 7.472000122070 104 104 104
26.562500000000 34.492187500000 8.563003540039 109 109 109
26.171875000000 34.265625000000 9.209991455078 116 116 116
24.906250000000 33.523437500000 7.164001464844 95 95 95
22.453125000000 32.078125000000 7.352996826172 68 68 68
22.437500000000 32.054687500000 7.350997924805 125 125 125
22.453125000000 32.070312500000 6.371994018555 196 196 196
22.437500000000 32.062500000000 6.364990234375 157 157 157
25.890625000000 33.890625000000 7.464004516602 126 126 126
26.578125000000 34.281250000000 8.544998168945 87 87 87
26.546875000000 34.273437500000 8.569992065430 24 24 24
26.156250000000 34.031250000000 9.218002319336 121 121 121
24.875000000000 33.296875000000 7.158996582031 117 117 117
22.437500000000 31.851562500000 7.339996337891 128 128 128
22.453125000000 31.851562500000 6.386993408203 84 84 84
22.437500000000 31.851562500000 6.367996215820 185 185 185
25.906250000000 33.679687500000 7.455993652344 71 71 71
25.890625000000 33.664062500000 7.475997924805 106 106 106
26.562500000000 34.054687500000 8.563003540039 110 110 110
26.171875000000 33.812500000000 9.197998046875 91 91 91
26.140625000000 33.796875000000 9.223999023438 19 19 19
24.890625000000 33.062500000000 7.158996582031 108 108 108
22.453125000000 31.632812500000 7.348999023438 130 130 130
22.453125000000 31.632812500000 6.367004394531 176 176 176
25.906250000000 33.453125000000 7.466995239258 136 136 136
26.593750000000 33.843750000000 8.554000854492 84 84 84
26.578125000000 33.828125000000 8.582000732422 46 46 46
26.156250000000 33.585937500000 9.216995239258 129 129 129
24.859375000000 32.835937500000 7.142990112305 82 82 82
22.468750000000 31.421875000000 7.326995849609 38 38 38
22.453125000000 31.414062500000 7.335998535156 127 127 127
22.468750000000 31.414062500000 6.360992431641 203 203 203
22.453125000000 31.414062500000 6.360992431641 136 136 136
25.921875000000 33.242187500000 7.455001831055 55 55 55
25.906250000000 33.218750000000 7.477996826172 110 110 110
26.578125000000 33.625000000000 8.565002441406 125 125 125
26.171875000000 33.382812500000 9.209991455078 22 22 22
26.140625000000 33.359375000000 9.222991943359 87 87 87
24.859375000000 32.625000000000 7.138992309570 78 78 78
24.859375000000 32.609375000000 7.164001464844 32 32 32
22.453125000000 31.195312500000 7.328002929688 118 118 118
22.453125000000 31.203125000000 6.365997314453 160 160 160
22.453125000000 31.195312500000 6.362991333008 205 205 205
25.906250000000 33.007812500000 7.464996337891 134 134 134
26.593750000000 33.414062500000 8.556991577148 69 69 69
26.578125000000 33.390625000000 8.582000732422 61 61 61
26.156250000000 33.148437500000 9.218002319336 120 120 120
24.859375000000 32.390625000000 7.136993408203 104 104 104
22.468750000000 30.984375000000 7.328994750977 124 124 124
22.484375000000 30.984375000000 6.483001708984 149 149 149
22.468750000000 30.984375000000 6.350997924805 188 188 188
25.937500000000 32.804687500000 7.459991455078 53 53 53
25.921875000000 32.789062500000 7.477996826172 113 113 113
26.593750000000 33.179687500000 8.576004028320 124 124 124
26.140625000000 32.914062500000 9.214996337891 121 121 121
24.843750000000 32.164062500000 7.139999389648 118 118 118
22.453125000000 30.750000000000 7.332000732422 126 126 126
22.484375000000 30.757812500000 6.354995727539 211 211 211
22.453125000000 30.750000000000 6.354003906250 139 139 139
25.906250000000 32.570312500000 7.464996337891 121 121 121
25.890625000000 32.554687500000 7.483993530273 36 36 36
26.562500000000 32.960937500000 8.576995849609 92 92 92
26.171875000000 32.703125000000 9.207000732422 62 62 62
26.125000000000 32.695312500000 9.225997924805 60 60 60
24.828125000000 31.929687500000 7.141998291016 108 108 108
22.484375000000 30.539062500000 7.324005126953 129 129 129
22.484375000000 30.546875000000 6.386993408203 143 143 143
22.468750000000 30.546875000000 6.352996826172 215 215 215
25.906250000000 32.351562500000 7.477996826172 123 123 123
26.609375000000 32.750000000000 8.572998046875 99 99 99
26.156250000000 32.484375000000 9.218002319336 122 122 122
24.859375000000 31.726562500000 7.130004882813 40 40 40
24.828125000000 31.710937500000 7.134994506836 83 83 83
22.484375000000 30.335937500000 7.324005126953 89 89 89
22.468750000000 30.320312500000 7.386993408203 116 116 116
22.484375000000 30.328125000000 6.352005004883 197 197 197
25.937500000000 32.132812500000 7.466003417969 131 131 131
26.593750000000 32.515625000000 8.593002319336 98 98 98
26.171875000000 32.273437500000 9.207000732422 17 17 17
26.125000000000 32.257812500000 9.218002319336 87 87 87
24.843750000000 31.492187500000 7.125991821289 98 98 98
22.468750000000 30.109375000000 7.388000488281 120 120 120
22.484375000000 30.109375000000 6.343002319336 211 211 211
22.453125000000 30.101562500000 6.347000122070 67 67 67
25.937500000000 31.929687500000 7.468002319336 70 70 70
25.906250000000 31.906250000000 7.479003906250 104 104 104
26.609375000000 32.320312500000 8.585998535156 108 108 108
26.140625000000 32.046875000000 9.218002319336 122 122 122
24.828125000000 31.265625000000 7.125000000000 108 108 108
22.500000000000 29.890625000000 7.322998046875 127 127 127
22.500000000000 29.898437500000 6.345993041992 230 230 230
22.484375000000 29.890625000000 6.347000122070 183 183 183
25.937500000000 31.695312500000 7.472000122070 126 126 126
25.921875000000 31.679687500000 7.494995117188 26 26 26
26.593750000000 32.085937500000 8.604995727539 113 113 113
26.140625000000 31.812500000000 9.227996826172 122 122 122
24.828125000000 31.039062500000 7.132003784180 109 109 109
22.500000000000 29.687500000000 7.305999755859 62 62 62
22.468750000000 29.671875000000 7.389999389648 126 126 126
22.484375000000 29.671875000000 6.343994140625 202 202 202
25.921875000000 31.476562500000 7.479995727539 121 121 121
26.609375000000 31.882812500000 8.597991943359 79 79 79
26.609375000000 31.867187500000 8.625000000000 55 55 55
26.140625000000 31.601562500000 9.205001831055 43 43 43
26.109375000000 31.585937500000 9.233993530273 81 81 81
24.828125000000 30.835937500000 7.115997314453 29 29 29
24.796875000000 30.812500000000 7.117996215820 97 97 97
22.500000000000 29.453125000000 7.345993041992 128 128 128
22.515625000000 29.453125000000 6.347991943359 252 252 252
22.500000000000 29.445312500000 6.345001220703 151 151 151
25.953125000000 31.257812500000 7.472000122070 106 106 106
25.921875000000 31.250000000000 7.489990234375 59 59 59
26.609375000000 31.664062500000 8.602005004883 122 122 122
26.156250000000 31.382812500000 9.231994628906 116 116 116
24.796875000000 30.601562500000 7.102996826172 62 62 62
24.796875000000 30.585937500000 7.125991821289 63 63 63
22.515625000000 29.234375000000 7.304000854492 97 97 97
22.515625000000 29.242187500000 6.349990844727 187 187 187
22.500000000000 29.242187500000 6.343002319336 219 219 219
25.937500000000 31.039062500000 7.485000610352 127 127 127
26.625000000000 31.445312500000 8.591995239258 62 62 62
26.593750000000 31.429687500000 8.621002197266 66 66 66
26.125000000000 31.140625000000 9.223999023438 111 111 111
24.812500000000 30.375000000000 7.112991333008 106 106 106
22.515625000000 29.039062500000 6.371994018555 101 101 101
22.515625000000 29.023437500000 6.349990844727 215 215 215
22.500000000000 29.015625000000 7.364990234375 125 125 125
25.937500000000 30.828125000000 7.481994628906 127 127 127
25.921875000000 30.804687500000 7.505996704102 24 24 24
26.609375000000 31.203125000000 8.608001708984 117 117 117
26.140625000000 30.929687500000 9.218002319336 115 115 115
24.796875000000 30.140625000000 7.121994018555 102 102 102
22.515625000000 28.796875000000 7.367996215820 119 119 119
22.515625000000 28.804687500000 6.335998535156 207 207 207
22.500000000000 28.789062500000 6.347000122070 69 69 69
25.937500000000 30.593750000000 7.494995117188 122 122 122
26.640625000000 31.000000000000 8.608993530273 63 63 63
26.593750000000 30.984375000000 8.636001586914 63 63 63
26.125000000000 30.687500000000 9.231994628906 127 127 127
24.765625000000 29.921875000000 7.086990356445 39 39 39
24.765625000000 29.906250000000 7.106002807617 94 94 94
22.515625000000 28.585937500000 7.307998657227 109 109 109
22.531250000000 28.578125000000 6.373992919922 252 252 252
22.515625000000 28.578125000000 6.341003417969 206 206 206
25.953125000000 30.375000000000 7.481994628906 106 106 106
25.921875000000 30.367187500000 7.496002197266 58 58 58
26.625000000000 30.773437500000 8.626998901367 114 114 114
26.156250000000 30.484375000000 9.223999023438 37 37 37
26.109375000000 30.468750000000 9.238998413086 87 87 87
24.781250000000 29.687500000000 7.099990844727 70 70 70
24.765625000000 29.679687500000 7.106994628906 67 67 67
22.515625000000 28.351562500000 7.388992309570 127 127 127
22.531250000000 28.359375000000 6.345001220703 218 218 218
22.515625000000 28.343750000000 6.341995239258 51 51 51
25.953125000000 30.156250000000 7.492996215820 131 131 131
26.625000000000 30.546875000000 8.636001586914 107 107 107
26.125000000000 30.257812500000 9.231002807617 110 110 110
24.765625000000 29.460937500000 7.093994140625 83 83 83
22.531250000000 28.140625000000 7.307998657227 117 117 117
22.546875000000 28.148437500000 6.373001098633 252 252 252
22.515625000000 28.132812500000 6.343002319336 188 188 188
25.968750000000 29.945312500000 7.486999511719 86 86 86
25.937500000000 29.937500000000 7.505004882813 95 95 95
26.640625000000 30.343750000000 8.632003784180 92 92 92
26.625000000000 30.320312500000 8.656997680664 23 23 23
26.109375000000 30.031250000000 9.240997314453 128 128 128
24.765625000000 29.242187500000 7.095993041992 112 112 112
22.546875000000 27.929687500000 6.369003295898 152 152 152
22.546875000000 27.921875000000 6.339996337891 218 218 218
25.968750000000 29.718750000000 7.496994018555 139 139 139
26.625000000000 30.101562500000 8.641998291016 122 122 122
26.140625000000 29.820312500000 9.236999511719 17 17 17
26.109375000000 29.796875000000 9.244995117188 94 94 94
24.750000000000 29.007812500000 7.089004516602 108 108 108
22.546875000000 27.695312500000 7.352996826172 126 126 126
22.546875000000 27.703125000000 6.356994628906 244 244 244
22.546875000000 27.687500000000 6.336990356445 103 103 103
25.984375000000 29.500000000000 7.496002197266 81 81 81
25.953125000000 29.484375000000 7.511993408203 94 94 94
26.640625000000 29.890625000000 8.634994506836 82 82 82
26.609375000000 29.875000000000 8.662994384766 37 37 37
26.125000000000 29.585937500000 9.250000000000 130 130 130
24.765625000000 28.789062500000 7.078002929688 51 51 51
24.734375000000 28.773437500000 7.080993652344 94 94 94
22.546875000000 27.484375000000 7.305999755859 111 111 111
22.546875000000 27.484375000000 6.373992919922 252 252 252
22.531250000000 27.468750000000 6.328994750977 185 185 185
25.953125000000 29.273437500000 7.500991821289 136 136 136
26.640625000000 29.664062500000 8.658996582031 118 118 118
26.156250000000 29.382812500000 9.250000000000 15 15 15
26.109375000000 29.359375000000 9.248992919922 109 109 109
24.750000000000 28.562500000000 7.086990356445 79 79 79
24.718750000000 28.546875000000 7.083999633789 31 31 31
22.578125000000 27.265625000000 6.416000366211 252 252 252
22.546875000000 27.265625000000 6.339996337891 224 224 224
25.953125000000 29.046875000000 7.514999389648 129 129 129
26.625000000000 29.437500000000 8.668991088867 99 99 99
26.125000000000 29.148437500000 9.239990234375 52 52 52
26.093750000000 29.132812500000 9.255004882813 76 76 76
24.734375000000 28.335937500000 7.076004028320 82 82 82
24.718750000000 28.320312500000 7.091003417969 29 29 29
22.562500000000 27.039062500000 7.347991943359 120 120 120
22.562500000000 27.039062500000 6.375991821289 252 252 252
22.546875000000 27.039062500000 6.339996337891 113 113 113
25.984375000000 28.835937500000 7.505004882813 110 110 110
25.937500000000 28.835937500000 7.524002075195 69 69 69
26.656250000000 29.242187500000 8.660995483398 105 105 105
26.656250000000 29.226562500000 8.705001831055 14 14 14
26.125000000000 28.921875000000 9.252990722656 121 121 121
24.734375000000 28.109375000000 7.074996948242 110 110 110
22.578125000000 26.828125000000 6.384002685547 252 252 252
22.562500000000 26.812500000000 6.343002319336 214 214 214
25.968750000000 28.625000000000 7.518997192383 137 137 137
26.640625000000 29.007812500000 8.675994873047 115 115 115
26.109375000000 28.695312500000 9.263992309570 121 121 121
24.718750000000 27.875000000000 7.069992065430 110 110 110
22.593750000000 26.609375000000 6.345993041992 104 104 104
22.562500000000 26.609375000000 6.348999023438 223 223 223
22.562500000000 26.593750000000 6.336990356445 38 38 38
22.562500000000 26.601562500000 7.356002807617 131 131 131
25.984375000000 28.406250000000 7.511001586914 86 86 86
25.953125000000 28.382812500000 7.528991699219 92 92 92
26.671875000000 28.789062500000 8.664001464844 81 81 81
26.640625000000 28.781250000000 8.688003540039 43 43 43
26.140625000000 28.476562500000 9.255004882813 98 98 98
26.109375000000 28.460937500000 9.276992797852 22 22 22
24.734375000000 27.648437500000 7.061996459961 55 55 55
24.703125000000 27.648437500000 7.076995849609 96 96 96
22.578125000000 26.390625000000 7.360000610352 117 117 117
22.578125000000 26.390625000000 6.386993408203 252 252 252
22.578125000000 26.375000000000 6.339004516602 90 90 90
25.984375000000 28.171875000000 7.527999877930 133 133 133
26.640625000000 28.562500000000 8.675994873047 108 108 108
26.109375000000 28.242187500000 9.263992309570 119 119 119
24.718750000000 27.429687500000 7.065994262695 94 94 94
22.593750000000 26.171875000000 6.375991821289 252 252 252
22.578125000000 26.164062500000 6.337997436523 155 155 155
25.984375000000 27.968750000000 7.522994995117 86 86 86
25.968750000000 27.945312500000 7.537002563477 99 99 99
26.671875000000 28.351562500000 8.673004150391 78 78 78
26.640625000000 28.335937500000 8.703002929688 50 50 50
26.125000000000 28.039062500000 9.255004882813 57 57 57
26.109375000000 28.007812500000 9.263000488281 74 74 74
24.703125000000 27.195312500000 7.067001342773 106 106 106
22.593750000000 25.960937500000 6.352996826172 180 180 180
22.578125000000 25.953125000000 6.339996337891 252 252 252
25.984375000000 27.742187500000 7.526992797852 125 125 125
25.968750000000 27.718750000000 7.550994873047 32 32 32
26.671875000000 28.132812500000 8.694992065430 116 116 116
26.125000000000 27.820312500000 9.265991210938 114 114 114
24.687500000000 26.976562500000 7.055999755859 111 111 111
22.609375000000 25.742187500000 6.444992065430 137 137 137
22.593750000000 25.734375000000 6.373001098633 252 252 252
22.578125000000 25.726562500000 6.339004516602 112 112 112
25.984375000000 27.523437500000 7.541000366211 138 138 138
26.656250000000 27.914062500000 8.703002929688 112 112 112
26.109375000000 27.585937500000 9.274993896484 131 131 131
24.687500000000 26.750000000000 7.058990478516 106 106 106
22.609375000000 25.515625000000 6.352996826172 252 252 252
22.593750000000 25.507812500000 6.332992553711 239 239 239
25.984375000000 27.304687500000 7.518997192383 83 83 83
25.984375000000 27.289062500000 7.554992675781 103 103 103
26.687500000000 27.703125000000 8.690994262695 79 79 79
26.671875000000 27.695312500000 8.724990844727 44 44 44
26.140625000000 27.375000000000 9.263992309570 25 25 25
26.109375000000 27.351562500000 9.272994995117 101 101 101
24.687500000000 26.546875000000 7.044998168945 44 44 44
24.671875000000 26.531250000000 7.045989990234 98 98 98
22.625000000000 25.304687500000 6.356002807617 152 152 152
22.609375000000 25.304687500000 6.348999023438 252 252 252
22.593750000000 25.289062500000 6.343994140625 60 60 60
26.000000000000 27.078125000000 7.535995483398 127 127 127
25.968750000000 27.070312500000 7.561004638672 37 37 37
26.671875000000 27.476562500000 8.708999633789 117 117 117
26.109375000000 27.148437500000 9.263992309570 94 94 94
26.109375000000 27.132812500000 9.304992675781 18 18 18
24.687500000000 26.312500000000 7.041992187500 71 71 71
24.671875000000 26.296875000000 7.052001953125 93 93 93
22.609375000000 25.085937500000 6.347000122070 252 252 252
22.593750000000 25.078125000000 6.337997436523 146 146 146
25.984375000000 26.859375000000 7.552993774414 137 137 137
26.687500000000 27.250000000000 8.724990844727 104 104 104
26.109375000000 26.921875000000 9.280990600586 132 132 132
24.671875000000 26.093750000000 7.037002563477 85 85 85
24.656250000000 26.070312500000 7.048004150391 63 63 63
22.609375000000 24.875000000000 6.333999633789 252 252 252
22.609375000000 24.867187500000 6.324996948242 252 252 252
26.015625000000 26.640625000000 7.542999267578 67 67 67
26.000000000000 26.625000000000 7.563003540039 100 100 100
26.703125000000 27.039062500000 8.716995239258 92 92 92
26.656250000000 27.031250000000 8.744003295898 25 25 25
26.078125000000 26.695312500000 9.285995483398 111 111 111
24.671875000000 25.851562500000 7.035995483398 91 91 91
22.640625000000 24.648437500000 6.347991943359 155 155 155
22.625000000000 24.648437500000 6.345001220703 252 252 252
22.593750000000 24.640625000000 6.341995239258 119 119 119
26.015625000000 26.421875000000 7.556991577148 124 124 124
25.968750000000 26.414062500000 7.574005126953 42 42 42
26.671875000000 26.828125000000 8.723999023438 122 122 122
26.125000000000 26.492187500000 9.278991699219 88 88 88
26.093750000000 26.468750000000 9.305999755859 50 50 50
24.640625000000 25.632812500000 7.033996582031 108 108 108
22.625000000000 24.437500000000 6.333999633789 252 252 252
22.609375000000 24.421875000000 6.335998535156 245 245 245
26.015625000000 26.210937500000 7.565994262695 145 145 145
26.718750000000 26.625000000000 8.724990844727 16 16 16
26.687500000000 26.601562500000 8.740997314453 93 93 93
26.109375000000 26.265625000000 9.292999267578 129 129 129
24.640625000000 25.398437500000 7.028991699219 103 103 103
22.656250000000 24.218750000000 6.349990844727 145 145 145
22.625000000000 24.210937500000 6.335998535156 252 252 252
22.625000000000 24.195312500000 6.341003417969 105 105 105
26.015625000000 25.992187500000 7.554992675781 61 61 61
25.984375000000 25.976562500000 7.563003540039 111 111 111
26.703125000000 26.390625000000 8.733993530273 94 94 94
26.671875000000 26.375000000000 8.767990112305 14 14 14
26.109375000000 26.039062500000 9.289993286133 123 123 123
24.640625000000 25.187500000000 7.041992187500 110 110 110
22.640625000000 24.000000000000 6.345001220703 252 252 252
22.625000000000 23.992187500000 6.332992553711 160 160 160
26.015625000000 25.757812500000 7.569992065430 123 123 123
25.984375000000 25.757812500000 7.595993041992 25 25 25
26.687500000000 26.171875000000 8.750991821289 112 112 112
26.140625000000 25.828125000000 9.302001953125 88 88 88
26.093750000000 25.812500000000 9.315002441406 41 41 41
24.640625000000 24.960937500000 7.016998291016 66 66 66
24.625000000000 24.953125000000 7.037994384766 88 88 88
22.656250000000 23.781250000000 6.341003417969 252 252 252
22.640625000000 23.773437500000 6.335998535156 252 252 252
26.000000000000 25.539062500000 7.574996948242 130 130 130
26.703125000000 25.953125000000 8.737991333008 88 88 88
26.671875000000 25.929687500000 8.764999389648 31 31 31
26.109375000000 25.593750000000 9.302001953125 123 123 123
24.625000000000 24.742187500000 7.013000488281 92 92 92
24.609375000000 24.726562500000 7.029998779297 59 59 59
22.656250000000 23.570312500000 6.343002319336 179 179 179
22.640625000000 23.554687500000 6.328002929688 252 252 252
22.625000000000 23.546875000000 6.324005126953 99 99 99
26.015625000000 25.328125000000 7.574996948242 99 99 99
25.984375000000 25.304687500000 7.586990356445 67 67 67
26.703125000000 25.726562500000 8.761001586914 120 120 120
26.109375000000 25.382812500000 9.279998779297 34 34 34
26.093750000000 25.367187500000 9.311004638672 102 102 102
24.625000000000 24.507812500000 7.016998291016 108 108 108
22.671875000000 23.351562500000 6.328994750977 67 67 67
22.640625000000 23.351562500000 6.330001831055 251 251 251
22.640625000000 23.328125000000 6.328002929688 135 135 135
26.015625000000 25.109375000000 7.580993652344 137 137 137
26.734375000000 25.531250000000 8.759994506836 37 37 37
26.687500000000 25.507812500000 8.774993896484 75 75 75
26.109375000000 25.156250000000 9.302993774414 109 109 109
26.093750000000 25.148437500000 9.341995239258 14 14 14
24.609375000000 24.289062500000 7.007995605469 103 103 103
22.671875000000 23.125000000000 6.332000732422 252 252 252
22.656250000000 23.117187500000 6.330001831055 236 236 236
26.000000000000 24.882812500000 7.591003417969 125 125 125
26.718750000000 25.304687500000 8.766998291016 110 110 110
26.109375000000 24.937500000000 9.309997558594 134 134 134
24.609375000000 24.062500000000 7.013992309570 110 110 110
22.671875000000 22.914062500000 6.341995239258 127 127 127
22.640625000000 22.906250000000 6.332000732422 245 245 245
22.640625000000 22.890625000000 6.328994750977 88 88 88
26.031250000000 24.671875000000 7.585998535156 115 115 115
26.015625000000 24.656250000000 7.604995727539 55 55 55
26.718750000000 25.070312500000 8.781997680664 103 103 103
26.125000000000 24.726562500000 9.311996459961 54 54 54
26.078125000000 24.710937500000 9.315994262695 84 84 84
24.609375000000 23.843750000000 7.000991821289 81 81 81
24.609375000000 23.828125000000 7.020004272461 88 88 88
22.687500000000 22.703125000000 6.339996337891 53 53 53
22.671875000000 22.695312500000 6.336990356445 234 234 234
22.656250000000 22.687500000000 6.335998535156 107 107 107
26.015625000000 24.460937500000 7.606002807617 130 130 130
26.734375000000 24.859375000000 8.778991699219 109 109 109
26.109375000000 24.500000000000 9.313003540039 123 123 123
24.609375000000 23.617187500000 7.001998901367 100 100 100
22.671875000000 22.476562500000 6.328002929688 242 242 242
22.656250000000 22.468750000000 6.328002929688 150 150 150
26.015625000000 24.234375000000 7.595993041992 104 104 104
26.000000000000 24.226562500000 7.621994018555 53 53 53
26.718750000000 24.632812500000 8.798004150391 95 95 95
26.125000000000 24.281250000000 9.304992675781 43 43 43
26.093750000000 24.257812500000 9.328994750977 86 86 86
24.578125000000 23.382812500000 6.996994018555 108 108 108
22.687500000000 22.265625000000 6.330993652344 252 252 252
22.687500000000 22.250000000000 6.326995849609 227 227 227
26.031250000000 24.015625000000 7.615997314453 142 142 142
26.734375000000 24.414062500000 8.778991699219 110 110 110
26.109375000000 24.054687500000 9.321990966797 122 122 122
24.593750000000 23.179687500000 6.981002807617 127 127 127
24.578125000000 23.164062500000 6.988998413086 176 176 176
24.578125000000 23.156250000000 7.022994995117 123 123 123
22.703125000000 22.046875000000 6.319000244141 177 177 177
22.671875000000 22.039062500000 6.341995239258 243 243 243
22.656250000000 22.031250000000 6.317993164063 68 68 68
26.031250000000 23.812500000000 7.612991333008 50 50 50
26.015625000000 23.789062500000 7.623992919922 118 118 118
26.734375000000 24.210937500000 8.800994873047 124 124 124
26.109375000000 23.828125000000 9.330001831055 128 128 128
24.578125000000 22.937500000000 6.972991943359 152 152 152
24.562500000000 22.929687500000 6.985992431641 164 164 164
22.703125000000 21.820312500000 6.334991455078 228 228 228
22.671875000000 21.812500000000 6.349990844727 151 151 151
26.046875000000 23.585937500000 7.623001098633 124 124 124
26.015625000000 23.578125000000 7.658004760742 36 36 36
26.750000000000 24.007812500000 8.800003051758 77 77 77
26.718750000000 23.976562500000 8.813995361328 54 54 54
26.109375000000 23.625000000000 9.319992065430 71 71 71
26.093750000000 23.601562500000 9.343002319336 68 68 68
24.609375000000 22.742187500000 6.953994750977 55 55 55
24.578125000000 22.734375000000 6.974990844727 133 133 133
24.578125000000 22.718750000000 6.968994140625 161 161 161
24.546875000000 22.710937500000 6.977005004883 154 154 154
24.546875000000 22.703125000000 7.009994506836 117 117 117
22.703125000000 21.609375000000 6.326995849609 239 239 239
22.687500000000 21.593750000000 6.339996337891 252 252 252
26.015625000000 23.351562500000 7.632003784180 123 123 123
26.718750000000 23.765625000000 8.804992675781 119 119 119
26.109375000000 23.398437500000 9.339004516602 125 125 125
24.578125000000 22.500000000000 6.968994140625 130 130 130
24.562500000000 22.484375000000 6.974990844727 156 156 156
24.546875000000 22.484375000000 7.000991821289 119 119 119
22.703125000000 21.398437500000 6.322998046875 216 216 216
22.703125000000 21.382812500000 6.356002807617 252 252 252
26.046875000000 23.140625000000 7.628997802734 132 132 132
26.015625000000 23.125000000000 7.655990600586 18 18 18
26.765625000000 23.554687500000 8.819992065430 99 99 99
26.125000000000 23.179687500000 9.333999633789 90 90 90
26.078125000000 23.156250000000 9.343994140625 43 43 43
24.578125000000 22.289062500000 6.964996337891 52 52 52
24.562500000000 22.281250000000 6.985992431641 143 143 143
24.531250000000 22.265625000000 6.972000122070 146 146 146
24.531250000000 22.250000000000 6.994995117188 93 93 93
24.531250000000 22.257812500000 7.072998046875 59 59 59
24.531250000000 22.250000000000 7.115997314453 107 107 107
24.531250000000 22.242187500000 7.147994995117 59 59 59
22.734375000000 21.179687500000 6.315002441406 178 178 178
22.718750000000 21.171875000000 6.380004882813 252 252 252
26.031250000000 22.906250000000 7.639999389648 129 129 129
26.734375000000 23.328125000000 8.833999633789 116 116 116
26.109375000000 22.945312500000 9.343002319336 125 125 125
24.578125000000 22.062500000000 6.802001953125 109 109 109
24.562500000000 22.046875000000 6.815002441406 140 140 140
24.546875000000 22.039062500000 6.830993652344 99 99 99
24.546875000000 22.046875000000 7.119995117188 91 91 91
24.515625000000 22.023437500000 7.127990722656 96 96 96
22.734375000000 20.968750000000 6.319000244141 50 50 50
22.703125000000 20.945312500000 6.337997436523 216 216 216
22.687500000000 20.937500000000 6.375991821289 173 173 173
26.031250000000 22.703125000000 7.636993408203 100 100 100
26.031250000000 22.695312500000 7.677001953125 64 64 64
26.781250000000 23.125000000000 8.834991455078 89 89 89
26.734375000000 23.117187500000 8.852996826172 32 32 32
26.109375000000 22.750000000000 9.337997436523 45 45 45
26.078125000000 22.726562500000 9.345993041992 90 90 90
24.562500000000 21.835937500000 6.819992065430 145 145 145
24.546875000000 21.820312500000 6.813995361328 139 139 139
24.515625000000 21.812500000000 6.822998046875 48 48 48
24.546875000000 21.820312500000 7.132003784180 52 52 52
24.515625000000 21.804687500000 7.149993896484 86 86 86
22.718750000000 20.734375000000 6.317993164063 213 213 213
22.718750000000 20.726562500000 6.332000732422 159 159 159
26.046875000000 22.484375000000 7.649993896484 139 139 139
26.765625000000 22.914062500000 8.847000122070 125 125 125
26.109375000000 22.515625000000 9.343002319336 122 122 122
24.546875000000 21.609375000000 6.808990478516 124 124 124
24.546875000000 21.593750000000 7.151000976563 73 73 73
24.500000000000 21.578125000000 7.142990112305 85 85 85
22.734375000000 20.531250000000 6.319992065430 209 209 209
22.718750000000 20.515625000000 6.375000000000 252 252 252
26.062500000000 22.273437500000 7.649002075195 83 83 83
26.015625000000 22.257812500000 7.664993286133 105 105 105
26.765625000000 22.703125000000 8.839996337891 73 73 73
26.734375000000 22.679687500000 8.850997924805 56 56 56
26.125000000000 22.320312500000 9.347991943359 16 16 16
26.093750000000 22.296875000000 9.365997314453 111 111 111
24.562500000000 21.382812500000 6.791000366211 93 93 93
24.546875000000 21.375000000000 6.800994873047 110 110 110
24.515625000000 21.367187500000 7.155990600586 82 82 82
24.500000000000 21.367187500000 7.162002563477 82 82 82
22.734375000000 20.304687500000 6.326995849609 103 103 103
22.734375000000 20.289062500000 6.358993530273 252 252 252
22.703125000000 20.281250000000 7.347000122070 109 109 109
26.046875000000 22.046875000000 7.666000366211 146 146 146
26.765625000000 22.468750000000 8.860000610352 116 116 116
26.109375000000 22.078125000000 9.343002319336 124 124 124
24.546875000000 21.164062500000 6.785003662109 131 131 131
24.531250000000 21.140625000000 7.158996582031 99 99 99
24.500000000000 21.132812500000 7.169998168945 60 60 60
22.750000000000 20.093750000000 6.317001342773 76 76 76
22.734375000000 20.078125000000 6.317993164063 207 207 207
22.718750000000 20.078125000000 7.317993164063 118 118 118
26.078125000000 21.843750000000 7.670989990234 103 103 103
26.046875000000 21.820312500000 7.686004638672 83 83 83
26.765625000000 22.257812500000 8.852996826172 112 112 112
26.125000000000 21.875000000000 9.348999023438 57 57 57
26.093750000000 21.843750000000 9.364990234375 78 78 78
24.546875000000 20.945312500000 6.772003173828 83 83 83
24.515625000000 20.929687500000 6.781997680664 117 117 117
24.500000000000 20.921875000000 7.173004150391 114 114 114
22.765625000000 19.875000000000 6.319000244141 54 54 54
22.734375000000 19.867187500000 6.306991577148 190 190 190
22.718750000000 19.859375000000 7.358001708984 119 119 119
26.046875000000 21.609375000000 7.675003051758 137 137 137
26.765625000000 22.031250000000 8.867004394531 109 109 109
26.093750000000 21.648437500000 9.369995117188 125 125 125
24.531250000000 20.718750000000 6.759994506836 122 122 122
24.515625000000 20.695312500000 7.173995971680 113 113 113
22.750000000000 19.656250000000 6.307998657227 200 200 200
22.750000000000 19.640625000000 6.339004516602 173 173 173
26.046875000000 21.398437500000 7.692001342773 119 119 119
26.796875000000 21.835937500000 8.869995117188 82 82 82
26.765625000000 21.812500000000 8.891998291016 38 38 38
26.093750000000 21.414062500000 9.373992919922 113 113 113
24.531250000000 20.492187500000 6.764999389648 128 128 128
24.484375000000 20.476562500000 7.182998657227 115 115 115
22.765625000000 19.429687500000 6.302001953125 202 202 202
22.734375000000 19.429687500000 6.358993530273 252 252 252
22.718750000000 19.429687500000 7.270996093750 119 119 119
26.062500000000 21.187500000000 7.677993774414 102 102 102
26.046875000000 21.171875000000 7.694992065430 70 70 70
26.781250000000 21.617187500000 8.875000000000 123 123 123
26.109375000000 21.210937500000 9.358001708984 78 78 78
26.078125000000 21.203125000000 9.382995605469 61 61 61
24.546875000000 20.281250000000 6.751998901367 74 74 74
24.515625000000 20.273437500000 6.750991821289 118 118 118
24.484375000000 20.250000000000 7.188995361328 113 113 113
22.765625000000 19.226562500000 6.319000244141 59 59 59
22.765625000000 19.218750000000 6.306991577148 186 186 186
22.750000000000 19.210937500000 7.333999633789 116 116 116
26.046875000000 20.960937500000 7.688995361328 133 133 133
26.796875000000 21.414062500000 8.875991821289 82 82 82
26.765625000000 21.382812500000 8.897994995117 43 43 43
26.109375000000 20.992187500000 9.380996704102 119 119 119
24.515625000000 20.054687500000 6.744995117188 120 120 120
24.484375000000 20.031250000000 6.742996215820 38 38 38
24.453125000000 20.015625000000 7.186004638672 111 111 111
22.765625000000 19.000000000000 6.311004638672 172 172 172
22.750000000000 19.000000000000 7.343994140625 114 114 114
26.062500000000 20.750000000000 7.692993164063 112 112 112
26.046875000000 20.742187500000 7.716003417969 61 61 61
26.781250000000 21.171875000000 8.891998291016 121 121 121
26.109375000000 20.781250000000 9.373992919922 107 107 107
26.078125000000 20.757812500000 9.395996093750 25 25 25
24.515625000000 19.820312500000 6.742004394531 127 127 127
24.500000000000 19.812500000000 7.203994750977 33 33 33
24.468750000000 19.796875000000 7.201995849609 104 104 104
22.765625000000 18.781250000000 6.296997070313 175 175 175
22.750000000000 18.781250000000 6.307998657227 86 86 86
22.734375000000 18.773437500000 7.263992309570 61 61 61
22.750000000000 18.781250000000 7.328994750977 128 128 128
26.062500000000 20.531250000000 7.711990356445 142 142 142
26.796875000000 20.968750000000 8.886001586914 82 82 82
26.765625000000 20.945312500000 8.916992187500 38 38 38
26.093750000000 20.554687500000 9.380004882813 126 126 126
24.515625000000 19.609375000000 6.720001220703 91 91 91
24.484375000000 19.593750000000 6.736999511719 113 113 113
24.468750000000 19.585937500000 7.203994750977 51 51 51
24.453125000000 19.570312500000 7.220001220703 96 96 96
22.781250000000 18.578125000000 6.302001953125 198 198 198
22.765625000000 18.562500000000 6.302993774414 172 172 172
22.750000000000 18.562500000000 7.265991210938 122 122 122
26.062500000000 20.320312500000 7.699996948242 36 36 36
26.062500000000 20.304687500000 7.731002807617 109 109 109
26.796875000000 20.742187500000 8.899002075195 122 122 122
26.109375000000 20.343750000000 9.375991821289 50 50 50
26.078125000000 20.320312500000 9.395996093750 93 93 93
24.484375000000 19.375000000000 6.716995239258 123 123 123
24.484375000000 19.367187500000 6.729003906250 40 40 40
24.484375000000 19.367187500000 7.218002319336 46 46 46
24.453125000000 19.351562500000 7.229003906250 97 97 97
22.796875000000 18.351562500000 6.313995361328 126 126 126
22.765625000000 18.343750000000 6.304000854492 195 195 195
22.750000000000 18.351562500000 7.283004760742 115 115 115
26.078125000000 20.109375000000 7.731002807617 114 114 114
26.046875000000 20.078125000000 7.731994628906 41 41 41
26.812500000000 20.531250000000 8.886001586914 15 15 15
26.796875000000 20.523437500000 8.925994873047 94 94 94
26.109375000000 20.125000000000 9.392990112305 115 115 115
24.500000000000 19.156250000000 6.720993041992 125 125 125
24.453125000000 19.140625000000 7.212997436523 34 34 34
24.453125000000 19.125000000000 7.235000610352 103 103 103
22.781250000000 18.132812500000 6.302001953125 173 173 173
22.781250000000 18.125000000000 6.304000854492 94 94 94
22.765625000000 18.125000000000 7.263000488281 105 105 105
22.781250000000 18.132812500000 7.332000732422 127 127 127
26.062500000000 19.867187500000 7.731994628906 133 133 133
26.796875000000 20.312500000000 8.912994384766 113 113 113
26.093750000000 19.898437500000 9.399993896484 121 121 121
24.484375000000 18.929687500000 6.694992065430 86 86 86
24.468750000000 18.921875000000 6.707992553711 120 120 120
24.453125000000 18.914062500000 7.227005004883 49 49 49
24.437500000000 18.906250000000 7.231994628906 100 100 100
22.796875000000 17.921875000000 6.298004150391 197 197 197
22.781250000000 17.914062500000 6.300994873047 179 179 179
22.765625000000 17.906250000000 7.263992309570 124 124 124
26.078125000000 19.656250000000 7.716995239258 83 83 83
26.062500000000 19.648437500000 7.742996215820 93 93 93
26.796875000000 20.093750000000 8.934997558594 110 110 110
26.109375000000 19.687500000000 9.382003784180 84 84 84
26.078125000000 19.656250000000 9.406997680664 47 47 47
24.484375000000 18.710937500000 6.690994262695 110 110 110
24.453125000000 18.695312500000 6.692001342773 82 82 82
24.453125000000 18.695312500000 7.236999511719 39 39 39
24.421875000000 18.679687500000 7.244995117188 104 104 104
22.796875000000 17.703125000000 6.304000854492 151 151 151
22.796875000000 17.695312500000 6.298004150391 198 198 198
22.796875000000 17.695312500000 7.272003173828 117 117 117
26.078125000000 19.437500000000 7.744003295898 135 135 135
26.812500000000 19.875000000000 8.929992675781 104 104 104
26.093750000000 19.453125000000 9.403991699219 120 120 120
24.453125000000 18.484375000000 6.682998657227 129 129 129
24.437500000000 18.468750000000 7.251998901367 74 74 74
24.421875000000 18.445312500000 7.246002197266 90 90 90
22.812500000000 17.492187500000 6.311996459961 66 66 66
22.796875000000 17.476562500000 6.302001953125 188 188 188
22.796875000000 17.476562500000 7.308990478516 127 127 127
22.781250000000 17.468750000000 7.253997802734 78 78 78
26.078125000000 19.218750000000 7.742004394531 50 50 50
26.062500000000 19.210937500000 7.757995605469 112 112 112
26.812500000000 19.648437500000 8.951004028320 108 108 108
26.109375000000 19.242187500000 9.401000976563 74 74 74
26.078125000000 19.218750000000 9.417999267578 65 65 65
24.484375000000 18.257812500000 6.671997070313 91 91 91
24.453125000000 18.257812500000 6.688995361328 117 117 117
24.421875000000 18.234375000000 7.246002197266 88 88 88
24.406250000000 18.218750000000 7.259002685547 82 82 82
22.796875000000 17.265625000000 6.302001953125 166 166 166
22.796875000000 17.265625000000 7.321990966797 96 96 96
22.765625000000 17.250000000000 7.266998291016 124 124 124
26.078125000000 19.000000000000 7.752990722656 128 128 128
26.812500000000 19.445312500000 8.936996459961 104 104 104
26.109375000000 19.007812500000 9.418991088867 126 126 126
24.453125000000 18.039062500000 6.677001953125 122 122 122
24.421875000000 18.015625000000 6.675003051758 52 52 52
24.406250000000 18.007812500000 7.255004882813 105 105 105
24.390625000000 18.000000000000 7.251998901367 70 70 70
22.812500000000 17.054687500000 6.294998168945 189 189 189
22.812500000000 17.039062500000 6.291992187500 150 150 150
22.796875000000 17.039062500000 7.261001586914 117 117 117
26.078125000000 18.789062500000 7.781997680664 139 139 139
26.828125000000 19.226562500000 8.957992553711 122 122 122
26.125000000000 18.812500000000 9.418991088867 17 17 17
26.078125000000 18.796875000000 9.423995971680 108 108 108
24.437500000000 17.804687500000 6.662994384766 134 134 134
24.406250000000 17.789062500000 7.268997192383 98 98 98
24.390625000000 17.773437500000 7.272994995117 78 78 78
22.828125000000 16.835937500000 6.302001953125 164 164 164
22.796875000000 16.828125000000 6.289993286133 194 194 194
22.796875000000 16.828125000000 7.281997680664 127 127 127
22.781250000000 16.820312500000 7.257003784180 84 84 84
26.093750000000 18.585937500000 7.768997192383 91 91 91
26.062500000000 18.570312500000 7.785995483398 86 86 86
26.828125000000 19.031250000000 8.953002929688 70 70 70
26.796875000000 19.015625000000 8.981994628906 58 58 58
26.109375000000 18.593750000000 9.425003051758 97 97 97
26.078125000000 18.578125000000 9.444000244141 20 20 20
24.437500000000 17.601562500000 6.654998779297 88 88 88
24.437500000000 17.585937500000 6.662002563477 124 124 124
24.390625000000 17.562500000000 7.266998291016 108 108 108
24.375000000000 17.554687500000 7.292999267578 59 59 59
22.843750000000 16.617187500000 6.311004638672 63 63 63
22.812500000000 16.617187500000 6.294998168945 180 180 180
22.828125000000 16.625000000000 7.319992065430 83 83 83
22.812500000000 16.601562500000 7.267990112305 125 125 125
26.078125000000 18.359375000000 7.789001464844 138 138 138
26.812500000000 18.812500000000 8.972991943359 115 115 115
26.109375000000 18.390625000000 9.423995971680 16 16 16
26.078125000000 18.359375000000 9.431991577148 112 112 112
24.453125000000 17.367187500000 6.647994995117 132 132 132
24.390625000000 17.343750000000 7.274993896484 123 123 123
22.843750000000 16.414062500000 6.306991577148 68 68 68
22.828125000000 16.398437500000 6.296997070313 177 177 177
22.812500000000 16.390625000000 7.263992309570 124 124 124
26.093750000000 18.148437500000 7.781997680664 107 107 107
26.078125000000 18.140625000000 7.813995361328 64 64 64
26.843750000000 18.601562500000 8.974990844727 100 100 100
26.109375000000 18.148437500000 9.425003051758 114 114 114
24.421875000000 17.156250000000 6.630004882813 91 91 91
24.421875000000 17.140625000000 6.638000488281 124 124 124
24.359375000000 17.117187500000 7.289001464844 114 114 114
22.828125000000 16.179687500000 6.302993774414 167 167 167
22.828125000000 16.171875000000 7.276992797852 121 121 121
26.078125000000 17.929687500000 7.798995971680 130 130 130
26.812500000000 18.367187500000 8.985992431641 102 102 102
26.125000000000 17.953125000000 9.431991577148 25 25 25
