15.296875000000 10.031250000000 2.553001403809 207 207 207
15.296875000000 10.031250000000 2.520996093750 219 219 219
15.296875000000 10.031250000000 2.491996765137 219 219 219
15.296875000000 10.031250000000 2.462997436523 132 132 132
14.640625000000 10.125000000000 2.622001647949 93 93 93
14.671875000000 10.109375000000 2.596000671387 217 217 217
14.703125000000 10.109375000000 2.563003540039 224 224 224
14.703125000000 10.093750000000 2.531997680664 193 193 193
14.671875000000 10.109375000000 2.494003295898 221 221 221
15.296875000000 9.750000000000 2.629997253418 133 133 133
15.312500000000 9.750000000000 2.601997375488 155 155 155
15.312500000000 9.750000000000 2.571998596191 156 156 156
15.312500000000 9.750000000000 2.542999267578 158 158 158
15.312500000000 9.750000000000 2.512001037598 157 157 157
15.328125000000 9.750000000000 2.484001159668 160 160 160
15.328125000000 9.734375000000 2.457000732422 129 129 129
14.671875000000 10.125000000000 2.457000732422 166 166 166
14.671875000000 9.828125000000 2.612998962402 135 135 135
14.671875000000 9.828125000000 2.580001831055 149 149 149
15.140625000000 9.562500000000 2.666000366211 147 147 147
15.171875000000 9.531250000000 2.644996643066 181 181 181
15.203125000000 9.531250000000 2.619003295898 179 179 179
15.296875000000 9.468750000000 2.619003295898 152 152 152
15.328125000000 9.453125000000 2.595001220703 159 159 159
15.328125000000 9.437500000000 2.569000244141 163 163 163
15.328125000000 9.437500000000 2.537002563477 163 163 163
15.328125000000 9.437500000000 2.505996704102 160 160 160
15.328125000000 9.453125000000 2.473999023438 158 158 158
15.265625000000 9.468750000000 2.430999755859 166 166 166
15.187500000000 9.531250000000 2.371002197266 171 171 171
15.187500000000 9.531250000000 2.341003417969 172 172 172
15.203125000000 9.531250000000 2.314002990723 172 172 172
15.187500000000 9.531250000000 2.277999877930 173 173 173
15.203125000000 9.515625000000 2.249000549316 174 174 174
15.203125000000 9.515625000000 2.217002868652 175 175 175
15.203125000000 9.515625000000 2.184997558594 173 173 173
15.203125000000 9.515625000000 2.155998229980 174 174 174
15.234375000000 9.500000000000 2.097999572754 173 173 173
15.171875000000 9.531250000000 2.049003601074 162 162 162
15.187500000000 9.531250000000 2.019996643066 159 159 159
15.218750000000 9.515625000000 1.998001098633 168 168 168
14.859375000000 9.437500000000 2.672996520996 87 87 87
14.953125000000 9.375000000000 2.667999267578 117 117 117
15.078125000000 9.312500000000 2.669998168945 119 119 119
15.171875000000 9.265625000000 2.658996582031 165 165 165
15.203125000000 9.250000000000 2.635002136230 179 179 179
15.203125000000 9.250000000000 2.606002807617 179 179 179
15.203125000000 9.250000000000 2.577003479004 179 179 179
15.421875000000 9.109375000000 2.613998413086 145 145 145
15.421875000000 9.109375000000 2.582000732422 149 149 149
15.421875000000 9.109375000000 2.554000854492 156 156 156
15.421875000000 9.109375000000 2.524002075195 159 159 159
15.421875000000 9.109375000000 2.496002197266 155 155 155
15.421875000000 9.109375000000 2.467002868652 153 153 153
15.421875000000 9.125000000000 2.432998657227 155 155 155
15.203125000000 9.234375000000 2.332000732422 177 177 177
15.203125000000 9.250000000000 2.297996520996 176 176 176
15.203125000000 9.250000000000 2.267997741699 175 175 175
15.203125000000 9.250000000000 2.236000061035 178 178 178
15.203125000000 9.234375000000 2.206001281738 176 176 176
15.203125000000 9.234375000000 2.172996520996 176 176 176
15.203125000000 9.234375000000 2.142997741699 178 178 178
15.203125000000 9.234375000000 2.111000061035 175 175 175
15.203125000000 9.234375000000 2.077003479004 178 178 178
15.203125000000 9.218750000000 2.049003601074 177 177 177
15.203125000000 9.250000000000 1.945999145508 166 166 166
14.703125000000 9.250000000000 2.625999450684 157 157 157
14.796875000000 9.171875000000 2.620002746582 152 152 152
14.828125000000 9.171875000000 2.592002868652 146 146 146
14.828125000000 9.156250000000 2.561996459961 144 144 144
14.828125000000 9.156250000000 2.527999877930 148 148 148
14.828125000000 9.156250000000 2.494003295898 145 145 145
15.468750000000 8.796875000000 2.641998291016 154 154 154
15.546875000000 8.750000000000 2.630996704102 160 160 160
15.546875000000 8.750000000000 2.605003356934 169 169 169
15.546875000000 8.750000000000 2.575996398926 165 165 165
15.546875000000 8.750000000000 2.546997070313 165 165 165
15.546875000000 8.750000000000 2.515998840332 158 158 158
15.546875000000 8.750000000000 2.490997314453 159 159 159
15.546875000000 8.750000000000 2.461997985840 159 159 159
15.546875000000 8.750000000000 2.432998657227 160 160 160
15.484375000000 8.781250000000 2.385002136230 186 186 186
14.843750000000 9.156250000000 2.129997253418 171 171 171
14.828125000000 9.156250000000 2.053001403809 180 180 180
14.984375000000 9.078125000000 1.974998474121 202 202 202
14.546875000000 9.046875000000 2.605003356934 145 145 145
14.546875000000 9.046875000000 2.570999145508 136 136 136
14.546875000000 9.046875000000 2.535003662109 128 128 128
14.546875000000 9.046875000000 2.500999450684 126 126 126
14.546875000000 9.031250000000 2.468002319336 128 128 128
14.500000000000 8.781250000000 2.645996093750 118 118 118
14.515625000000 8.781250000000 2.617996215820 146 146 146
14.562500000000 8.750000000000 2.588996887207 150 150 150
14.546875000000 8.750000000000 2.554000854492 147 147 147
14.546875000000 8.750000000000 2.518997192383 123 123 123
14.578125000000 8.750000000000 2.486000061035 132 132 132
14.546875000000 8.750000000000 2.448997497559 140 140 140
14.515625000000 8.781250000000 2.406997680664 96 96 96
15.390625000000 8.812500000000 2.335998535156 1 1 1
15.546875000000 8.906250000000 2.418998718262 159 159 159
15.546875000000 8.906250000000 2.445999145508 167 167 167
15.531250000000 8.906250000000 2.472999572754 168 168 168
15.531250000000 8.906250000000 2.500999450684 166 166 166
15.546875000000 8.906250000000 2.530998229980 165 165 165
15.531250000000 8.906250000000 2.556999206543 165 165 165
15.531250000000 8.906250000000 2.585998535156 160 160 160
15.531250000000 8.906250000000 2.611000061035 149 149 149
15.484375000000 8.875000000000 2.629997253418 108 108 108
15.421875000000 9.171875000000 2.416000366211 151 151 151
15.421875000000 9.156250000000 2.443000793457 171 171 171
15.421875000000 9.156250000000 2.471000671387 168 168 168
15.421875000000 9.156250000000 2.500000000000 171 171 171
15.421875000000 9.156250000000 2.528999328613 170 170 170
15.390625000000 9.156250000000 2.555999755859 168 168 168
15.421875000000 9.156250000000 2.588996887207 160 160 160
14.515625000000 8.656250000000 2.367996215820 24 24 24
14.546875000000 8.671875000000 2.412002563477 135 135 135
14.546875000000 8.687500000000 2.450996398926 138 138 138
14.546875000000 8.687500000000 2.486000061035 124 124 124
14.546875000000 8.687500000000 2.519996643066 139 139 139
14.546875000000 8.687500000000 2.555000305176 157 157 157
14.546875000000 8.671875000000 2.585998535156 145 145 145
14.500000000000 8.656250000000 2.611000061035 152 152 152
15.203125000000 9.390625000000 1.919998168945 218 218 218
15.203125000000 9.390625000000 2.045997619629 167 167 167
15.171875000000 9.375000000000 2.077003479004 170 170 170
15.203125000000 9.390625000000 2.111000061035 169 169 169
15.171875000000 9.375000000000 2.138999938965 168 168 168
15.171875000000 9.375000000000 2.169998168945 167 167 167
15.171875000000 9.375000000000 2.198997497559 169 169 169
15.171875000000 9.375000000000 2.228996276855 167 167 167
15.171875000000 9.375000000000 2.263999938965 164 164 164
15.203125000000 9.390625000000 2.295997619629 163 163 163
15.171875000000 9.375000000000 2.324996948242 163 163 163
15.171875000000 9.375000000000 2.356002807617 164 164 164
15.296875000000 9.453125000000 2.425003051758 154 154 154
15.328125000000 9.468750000000 2.460998535156 161 161 161
15.328125000000 9.468750000000 2.488998413086 162 162 162
15.328125000000 9.468750000000 2.518997192383 165 165 165
15.328125000000 9.468750000000 2.546997070313 168 168 168
15.328125000000 9.468750000000 2.578002929688 164 164 164
15.328125000000 9.468750000000 2.602996826172 155 155 155
15.203125000000 9.390625000000 2.600997924805 180 180 180
15.171875000000 9.375000000000 2.626998901367 182 182 182
15.140625000000 9.375000000000 2.648002624512 135 135 135
15.000000000000 9.281250000000 2.641998291016 104 104 104
14.546875000000 9.031250000000 2.569999694824 145 145 145
14.546875000000 9.000000000000 2.599998474121 66 66 66
15.046875000000 9.656250000000 2.137001037598 156 156 156
15.046875000000 9.640625000000 2.167999267578 155 155 155
15.046875000000 9.640625000000 2.195999145508 158 158 158
15.046875000000 9.640625000000 2.228996276855 155 155 155
15.015625000000 9.625000000000 2.256996154785 156 156 156
15.015625000000 9.625000000000 2.289001464844 152 152 152
15.015625000000 9.625000000000 2.320999145508 153 153 153
15.296875000000 9.781250000000 2.435997009277 156 156 156
15.296875000000 9.781250000000 2.468002319336 166 166 166
15.296875000000 9.796875000000 2.498001098633 162 162 162
15.296875000000 9.781250000000 2.527000427246 162 162 162
15.296875000000 9.796875000000 2.557998657227 163 163 163
15.296875000000 9.781250000000 2.584999084473 167 167 167
15.234375000000 9.750000000000 2.597000122070 152 152 152
15.015625000000 9.625000000000 2.564002990723 156 156 156
14.984375000000 9.625000000000 2.591003417969 158 158 158
14.953125000000 9.593750000000 2.617996215820 164 164 164
14.921875000000 9.562500000000 2.640998840332 148 148 148
14.843750000000 9.531250000000 2.655998229980 72 72 72
15.281250000000 10.125000000000 2.446998596191 193 193 193
15.281250000000 10.125000000000 2.476997375488 224 224 224
15.281250000000 10.125000000000 2.506996154785 223 223 223
15.281250000000 10.125000000000 2.536003112793 214 214 214
15.281250000000 10.125000000000 2.564002990723 227 227 227
15.281250000000 10.125000000000 2.594001770020 222 222 222
14.687500000000 9.781250000000 2.464996337891 136 136 136
14.687500000000 9.781250000000 2.500999450684 126 126 126
14.687500000000 9.781250000000 2.533996582031 107 107 107
14.671875000000 9.765625000000 2.565002441406 135 135 135
14.671875000000 9.765625000000 2.596000671387 128 128 128
15.265625000000 10.437500000000 2.456001281738 203 203 203
15.265625000000 10.437500000000 2.485000610352 223 223 223
15.265625000000 10.437500000000 2.513999938965 224 224 224
15.265625000000 10.437500000000 2.543998718262 222 222 222
15.265625000000 10.437500000000 2.573997497559 224 224 224
15.265625000000 10.437500000000 2.597999572754 223 223 223
14.703125000000 10.125000000000 2.484001159668 215 215 215
14.703125000000 10.125000000000 2.518997192383 200 200 200
14.703125000000 10.125000000000 2.550003051758 222 222 222
14.703125000000 10.125000000000 2.583000183105 213 213 213
15.234375000000 10.781250000000 2.461997985840 216 216 216
15.234375000000 10.781250000000 2.492996215820 221 221 221
15.234375000000 10.765625000000 2.519996643066 223 223 223
15.234375000000 10.765625000000 2.550003051758 224 224 224
15.234375000000 10.765625000000 2.579002380371 224 224 224
15.171875000000 10.718750000000 2.589996337891 11 11 11
14.703125000000 10.453125000000 2.502998352051 221 221 221
14.703125000000 10.453125000000 2.537002563477 221 221 221
14.703125000000 10.453125000000 2.569999694824 218 218 218
14.703125000000 10.453125000000 2.602996826172 140 140 140
15.203125000000 11.093750000000 2.469001770020 219 219 219
15.203125000000 11.093750000000 2.498001098633 218 218 218
15.203125000000 11.093750000000 2.526000976563 219 219 219
15.203125000000 11.093750000000 2.556999206543 227 227 227
15.203125000000 11.093750000000 2.584999084473 227 227 227
15.078125000000 11.015625000000 2.581001281738 4 4 4
14.734375000000 10.812500000000 2.525001525879 221 221 221
14.734375000000 10.812500000000 2.557998657227 222 222 222
14.703125000000 10.812500000000 2.587997436523 192 192 192
15.171875000000 11.406250000000 2.475997924805 222 222 222
15.171875000000 11.406250000000 2.504997253418 225 225 225
15.171875000000 11.406250000000 2.535003662109 223 223 223
15.171875000000 11.406250000000 2.565002441406 224 224 224
15.171875000000 11.406250000000 2.595001220703 221 221 221
14.765625000000 11.171875000000 2.516998291016 218 218 218
14.734375000000 11.156250000000 2.546997070313 223 223 223
14.734375000000 11.156250000000 2.581001281738 200 200 200
14.703125000000 11.125000000000 2.601997375488 193 193 193
15.125000000000 11.734375000000 2.452003479004 116 116 116
15.140625000000 11.750000000000 2.485000610352 223 223 223
15.140625000000 11.750000000000 2.513999938965 220 220 220
15.140625000000 11.750000000000 2.545997619629 219 219 219
15.140625000000 11.750000000000 2.573997497559 223 223 223
15.125000000000 11.734375000000 2.602996826172 218 218 218
14.765625000000 11.531250000000 2.541000366211 223 223 223
14.765625000000 11.531250000000 2.573997497559 215 215 215
14.765625000000 11.531250000000 2.608001708984 172 172 172
15.109375000000 12.046875000000 2.459999084473 167 167 167
15.109375000000 12.046875000000 2.489997863770 226 226 226
15.109375000000 12.046875000000 2.520996093750 219 219 219
15.109375000000 12.046875000000 2.552001953125 218 218 218
15.109375000000 12.046875000000 2.582000732422 223 223 223
15.046875000000 12.015625000000 2.596000671387 228 228 228
14.765625000000 11.875000000000 2.564002990723 224 224 224
14.765625000000 11.875000000000 2.597000122070 194 194 194
15.046875000000 12.375000000000 2.467002868652 174 174 174
15.046875000000 12.375000000000 2.496002197266 222 222 222
15.046875000000 12.375000000000 2.527000427246 225 225 225
15.046875000000 12.375000000000 2.557998657227 224 224 224
15.046875000000 12.375000000000 2.587997436523 225 225 225
14.953125000000 12.312500000000 2.593002319336 217 217 217
14.828125000000 12.234375000000 2.592002868652 198 198 198
14.796875000000 12.218750000000 2.621002197266 54 54 54
15.015625000000 12.687500000000 2.471000671387 165 165 165
15.015625000000 12.687500000000 2.500999450684 225 225 225
15.015625000000 12.687500000000 2.531997680664 223 223 223
15.015625000000 12.687500000000 2.563003540039 224 224 224
15.015625000000 12.687500000000 2.595001220703 222 222 222
14.890625000000 12.609375000000 2.593002319336 213 213 213
14.828125000000 12.562500000000 2.610000610352 177 177 177
15.015625000000 13.015625000000 2.476997375488 188 188 188
15.015625000000 13.015625000000 2.508003234863 219 219 219
15.015625000000 13.015625000000 2.540000915527 222 222 222
15.015625000000 13.015625000000 2.569999694824 223 223 223
15.015625000000 13.015625000000 2.601997375488 221 221 221
14.859375000000 12.937500000000 2.598999023438 200 200 200
14.984375000000 13.343750000000 2.490997314453 217 217 217
14.984375000000 13.343750000000 2.522003173828 208 208 208
14.984375000000 13.343750000000 2.554000854492 219 219 219
14.984375000000 13.343750000000 2.584999084473 218 218 218
14.953125000000 13.328125000000 2.613998413086 189 189 189
14.921875000000 13.656250000000 2.498001098633 217 217 217
14.921875000000 13.656250000000 2.527999877930 218 218 218
14.921875000000 13.656250000000 2.559997558594 213 213 213
14.921875000000 13.656250000000 2.593002319336 196 196 196
14.890625000000 13.640625000000 2.619003295898 93 93 93
14.921875000000 13.984375000000 2.476997375488 121 121 121
14.921875000000 14.000000000000 2.511001586914 221 221 221
14.921875000000 14.000000000000 2.542999267578 224 224 224
14.921875000000 13.984375000000 2.573997497559 220 220 220
14.921875000000 13.984375000000 2.605003356934 201 201 201
14.921875000000 14.328125000000 2.491996765137 106 106 106
14.921875000000 14.312500000000 2.523002624512 149 149 149
14.921875000000 14.312500000000 2.555000305176 150 150 150
14.921875000000 14.312500000000 2.585998535156 164 164 164
14.890625000000 14.312500000000 2.613998413086 113 113 113
14.828125000000 14.281250000000 2.627998352051 32 32 32
14.828125000000 14.281250000000 2.660003662109 81 81 81
14.828125000000 14.281250000000 2.691001892090 67 67 67
14.484375000000 8.718750000000 2.634002685547 114 114 114
14.515625000000 8.703125000000 2.603996276855 156 156 156
14.546875000000 8.687500000000 2.577003479004 166 166 166
14.546875000000 8.687500000000 2.542999267578 163 163 163
14.546875000000 8.687500000000 2.511001586914 135 135 135
14.546875000000 8.687500000000 2.472999572754 147 147 147
14.546875000000 8.687500000000 2.440002441406 138 138 138
14.515625000000 8.718750000000 2.393997192383 126 126 126
14.546875000000 9.031250000000 2.593002319336 153 153 153
14.546875000000 9.015625000000 2.560997009277 161 161 161
14.546875000000 9.031250000000 2.524002075195 141 141 141
14.546875000000 9.015625000000 2.490997314453 133 133 133
14.546875000000 9.031250000000 2.457000732422 137 137 137
14.546875000000 9.031250000000 2.419998168945 79 79 79
14.765625000000 9.218750000000 2.626998901367 156 156 156
14.859375000000 9.187500000000 2.616996765137 170 170 170
14.859375000000 9.171875000000 2.587997436523 168 168 168
14.859375000000 9.171875000000 2.555999755859 167 167 167
14.859375000000 9.171875000000 2.524002075195 170 170 170
14.875000000000 9.156250000000 2.491996765137 170 170 170
15.421875000000 8.843750000000 2.617996215820 173 173 173
15.546875000000 8.781250000000 2.619003295898 166 166 166
15.546875000000 8.781250000000 2.591003417969 181 181 181
15.546875000000 8.781250000000 2.563003540039 179 179 179
15.546875000000 8.781250000000 2.532997131348 178 178 178
15.546875000000 8.781250000000 2.503997802734 173 173 173
15.546875000000 8.781250000000 2.475997924805 177 177 177
15.546875000000 8.781250000000 2.448997497559 174 174 174
15.546875000000 8.781250000000 2.419998168945 167 167 167
15.515625000000 8.796875000000 2.383003234863 181 181 181
14.875000000000 9.156250000000 2.128997802734 170 170 170
14.890625000000 9.156250000000 2.095001220703 166 166 166
14.953125000000 9.125000000000 2.082000732422 175 175 175
14.984375000000 9.125000000000 2.059997558594 177 177 177
14.890625000000 9.156250000000 1.994003295898 167 167 167
14.890625000000 9.156250000000 1.960998535156 168 168 168
14.859375000000 9.171875000000 1.920997619629 183 183 183
14.859375000000 9.515625000000 2.662002563477 77 77 77
14.953125000000 9.437500000000 2.656997680664 119 119 119
15.078125000000 9.390625000000 2.654998779297 124 124 124
15.171875000000 9.328125000000 2.648002624512 177 177 177
15.187500000000 9.328125000000 2.622001647949 193 193 193
15.203125000000 9.312500000000 2.594001770020 190 190 190
15.234375000000 9.296875000000 2.570999145508 185 185 185
15.421875000000 9.187500000000 2.595001220703 142 142 142
15.390625000000 9.218750000000 2.555000305176 142 142 142
15.359375000000 9.203125000000 2.524002075195 148 148 148
15.359375000000 9.203125000000 2.495002746582 143 143 143
15.359375000000 9.203125000000 2.464996337891 142 142 142
15.390625000000 9.218750000000 2.435997009277 143 143 143
15.328125000000 9.234375000000 2.392997741699 186 186 186
15.203125000000 9.312500000000 2.320999145508 193 193 193
15.203125000000 9.328125000000 2.285003662109 187 187 187
15.203125000000 9.312500000000 2.251998901367 188 188 188
15.203125000000 9.312500000000 2.221000671387 193 193 193
15.203125000000 9.328125000000 2.190002441406 191 191 191
15.203125000000 9.328125000000 2.158996582031 187 187 187
15.203125000000 9.312500000000 2.128997802734 190 190 190
15.218750000000 9.312500000000 2.039001464844 187 187 187
15.171875000000 9.343750000000 1.986999511719 162 162 162
15.171875000000 9.343750000000 1.954002380371 166 166 166
14.687500000000 9.937500000000 2.602996826172 154 154 154
14.703125000000 9.937500000000 2.572998046875 170 170 170
14.703125000000 9.937500000000 2.539001464844 124 124 124
14.687500000000 9.937500000000 2.501998901367 134 134 134
14.703125000000 9.937500000000 2.471000671387 151 151 151
15.312500000000 9.593750000000 2.610000610352 153 153 153
15.312500000000 9.593750000000 2.580001831055 163 163 163
15.312500000000 9.593750000000 2.551002502441 163 163 163
15.328125000000 9.578125000000 2.523002624512 166 166 166
15.312500000000 9.593750000000 2.490997314453 158 158 158
15.312500000000 9.593750000000 2.461997985840 160 160 160
15.328125000000 9.562500000000 2.435997009277 118 118 118
14.656250000000 10.281250000000 2.614997863770 50 50 50
14.703125000000 10.265625000000 2.587997436523 213 213 213
14.671875000000 10.281250000000 2.551002502441 236 236 236
14.671875000000 10.281250000000 2.516998291016 234 234 234
14.687500000000 10.281250000000 2.485000610352 230 230 230
15.296875000000 9.937500000000 2.614997863770 164 164 164
15.296875000000 9.921875000000 2.586997985840 167 167 167
15.296875000000 9.921875000000 2.556999206543 166 166 166
15.312500000000 9.921875000000 2.529998779297 165 165 165
15.296875000000 9.937500000000 2.499000549316 164 164 164
15.312500000000 9.921875000000 2.470001220703 165 165 165
15.328125000000 9.906250000000 2.444000244141 113 113 113
14.703125000000 10.609375000000 2.603996276855 192 192 192
14.703125000000 10.625000000000 2.568000793457 240 240 240
14.703125000000 10.609375000000 2.537002563477 235 235 235
14.703125000000 10.609375000000 2.501998901367 238 238 238
14.671875000000 10.625000000000 2.462997436523 216 216 216
15.265625000000 10.281250000000 2.591003417969 232 232 232
15.265625000000 10.281250000000 2.561996459961 231 231 231
15.265625000000 10.281250000000 2.533996582031 224 224 224
15.265625000000 10.281250000000 2.500000000000 237 237 237
15.265625000000 10.281250000000 2.472000122070 229 229 229
15.265625000000 10.281250000000 2.444000244141 51 51 51
14.703125000000 10.953125000000 2.616996765137 57 57 57
14.703125000000 10.937500000000 2.593002319336 213 213 213
14.703125000000 10.937500000000 2.557998657227 242 242 242
14.703125000000 10.937500000000 2.524002075195 237 237 237
14.703125000000 10.937500000000 2.485000610352 229 229 229
15.234375000000 10.625000000000 2.598999023438 227 227 227
15.234375000000 10.625000000000 2.569000244141 232 232 232
15.234375000000 10.625000000000 2.538002014160 230 230 230
15.234375000000 10.625000000000 2.510002136230 224 224 224
15.234375000000 10.625000000000 2.478996276855 227 227 227
15.265625000000 10.625000000000 2.454002380371 96 96 96
14.734375000000 11.250000000000 2.613998413086 193 193 193
14.734375000000 11.265625000000 2.578002929688 231 231 231
14.734375000000 11.265625000000 2.544998168945 238 238 238
14.750000000000 11.250000000000 2.516998291016 241 241 241
15.203125000000 10.984375000000 2.606002807617 224 224 224
15.203125000000 11.000000000000 2.574996948242 228 228 228
15.218750000000 11.000000000000 2.544998168945 232 232 232
15.218750000000 11.000000000000 2.514999389648 225 225 225
15.218750000000 11.000000000000 2.484001159668 225 225 225
15.234375000000 10.984375000000 2.457000732422 130 130 130
14.765625000000 11.562500000000 2.599998474121 211 211 211
14.765625000000 11.578125000000 2.566001892090 235 235 235
14.796875000000 11.593750000000 2.535003662109 245 245 245
15.187500000000 11.343750000000 2.609001159668 221 221 221
15.187500000000 11.343750000000 2.579002380371 228 228 228
15.171875000000 11.343750000000 2.546997070313 226 226 226
15.203125000000 11.343750000000 2.518997192383 223 223 223
15.203125000000 11.343750000000 2.489997863770 224 224 224
15.203125000000 11.343750000000 2.458999633789 86 86 86
14.781250000000 11.906250000000 2.615997314453 195 195 195
14.781250000000 11.906250000000 2.583000183105 228 228 228
14.796875000000 11.906250000000 2.553001403809 241 241 241
15.125000000000 11.703125000000 2.608001708984 223 223 223
15.140625000000 11.703125000000 2.580001831055 227 227 227
15.140625000000 11.703125000000 2.550003051758 221 221 221
15.125000000000 11.703125000000 2.516998291016 222 222 222
15.140625000000 11.703125000000 2.487998962402 222 222 222
14.765625000000 12.234375000000 2.628997802734 27 27 27
14.828125000000 12.218750000000 2.602996826172 212 212 212
14.828125000000 12.218750000000 2.570999145508 227 227 227
15.093750000000 12.062500000000 2.609001159668 224 224 224
15.109375000000 12.046875000000 2.580001831055 222 222 222
15.109375000000 12.046875000000 2.550003051758 221 221 221
15.093750000000 12.062500000000 2.515998840332 221 221 221
15.109375000000 12.062500000000 2.487998962402 223 223 223
14.828125000000 12.546875000000 2.620002746582 174 174 174
14.828125000000 12.546875000000 2.589996337891 218 218 218
15.046875000000 12.421875000000 2.611999511719 222 222 222
15.046875000000 12.421875000000 2.581001281738 225 225 225
15.046875000000 12.421875000000 2.551002502441 225 225 225
15.046875000000 12.421875000000 2.518997192383 225 225 225
15.046875000000 12.421875000000 2.487998962402 219 219 219
14.859375000000 12.875000000000 2.611000061035 218 218 218
15.015625000000 12.781250000000 2.615997314453 219 219 219
15.015625000000 12.781250000000 2.585998535156 226 226 226
15.015625000000 12.781250000000 2.554000854492 224 224 224
15.015625000000 12.781250000000 2.522003173828 227 227 227
15.015625000000 12.781250000000 2.491996765137 219 219 219
14.890625000000 13.218750000000 2.631996154785 62 62 62
14.984375000000 13.140625000000 2.625000000000 196 196 196
14.984375000000 13.140625000000 2.597000122070 227 227 227
14.984375000000 13.140625000000 2.563003540039 230 230 230
14.968750000000 13.156250000000 2.528999328613 227 227 227
14.984375000000 13.140625000000 2.500000000000 224 224 224
14.968750000000 13.484375000000 2.633003234863 176 176 176
14.968750000000 13.484375000000 2.601997375488 217 217 217
14.984375000000 13.468750000000 2.571998596191 213 213 213
14.984375000000 13.468750000000 2.540000915527 220 220 220
14.984375000000 13.468750000000 2.509002685547 216 216 216
14.890625000000 13.859375000000 2.629997253418 120 120 120
14.921875000000 13.843750000000 2.603996276855 208 208 208
14.921875000000 13.843750000000 2.569999694824 233 233 233
14.921875000000 13.843750000000 2.539001464844 229 229 229
14.921875000000 13.843750000000 2.506996154785 226 226 226
14.921875000000 14.187500000000 2.804000854492 90 90 90
14.921875000000 14.171875000000 2.774002075195 172 172 172
14.921875000000 14.156250000000 2.745002746582 173 173 173
14.921875000000 14.171875000000 2.711997985840 178 178 178
14.921875000000 14.156250000000 2.680999755859 168 168 168
14.921875000000 14.156250000000 2.650001525879 147 147 147
14.937500000000 14.171875000000 2.621002197266 171 171 171
14.921875000000 14.156250000000 2.585998535156 185 185 185
14.921875000000 14.171875000000 2.553001403809 180 180 180
14.921875000000 14.187500000000 2.517997741699 226 226 226
14.890625000000 14.187500000000 2.483001708984 36 36 36
15.328125000000 8.875000000000 2.329002380371 5 5 5
15.546875000000 8.875000000000 2.411003112793 176 176 176
15.546875000000 8.875000000000 2.436996459961 176 176 176
15.546875000000 8.875000000000 2.459999084473 177 177 177
15.546875000000 8.875000000000 2.486000061035 179 179 179
15.546875000000 8.875000000000 2.509002685547 167 167 167
15.546875000000 8.875000000000 2.536003112793 171 171 171
15.546875000000 8.875000000000 2.557998657227 177 177 177
15.531250000000 8.875000000000 2.581001281738 177 177 177
15.546875000000 8.875000000000 2.606002807617 175 175 175
15.515625000000 8.875000000000 2.627998352051 155 155 155
14.515625000000 8.859375000000 2.432998657227 144 144 144
14.546875000000 8.875000000000 2.470001220703 153 153 153
14.562500000000 8.875000000000 2.501998901367 159 159 159
14.546875000000 8.875000000000 2.528999328613 161 161 161
14.546875000000 8.875000000000 2.557998657227 173 173 173
14.546875000000 8.875000000000 2.588996887207 170 170 170
14.515625000000 8.875000000000 2.611000061035 168 168 168
14.484375000000 8.875000000000 2.634002685547 65 65 65
15.171875000000 9.187500000000 1.942001342773 179 179 179
15.203125000000 9.187500000000 1.972999572754 181 181 181
15.234375000000 9.187500000000 2.010002136230 182 182 182
15.203125000000 9.187500000000 2.030998229980 181 181 181
15.203125000000 9.187500000000 2.059997558594 182 182 182
15.234375000000 9.187500000000 2.098999023438 182 182 182
15.234375000000 9.187500000000 2.123001098633 180 180 180
15.203125000000 9.187500000000 2.140998840332 183 183 183
15.218750000000 9.203125000000 2.170997619629 181 181 181
15.171875000000 9.203125000000 2.188003540039 182 182 182
15.171875000000 9.203125000000 2.216003417969 181 181 181
15.171875000000 9.203125000000 2.240997314453 181 181 181
15.171875000000 9.203125000000 2.267997741699 179 179 179
15.171875000000 9.203125000000 2.297996520996 179 179 179
15.171875000000 9.203125000000 2.322998046875 179 179 179
15.171875000000 9.203125000000 2.349998474121 180 180 180
15.390625000000 9.203125000000 2.428001403809 157 157 157
15.390625000000 9.203125000000 2.454002380371 160 160 160
15.390625000000 9.203125000000 2.478996276855 157 157 157
15.390625000000 9.203125000000 2.504997253418 162 162 162
15.359375000000 9.203125000000 2.527000427246 168 168 168
15.390625000000 9.203125000000 2.554000854492 161 161 161
15.359375000000 9.203125000000 2.577003479004 159 159 159
15.312500000000 9.187500000000 2.589996337891 170 170 170
15.171875000000 9.218750000000 2.585998535156 184 184 184
15.171875000000 9.218750000000 2.611999511719 183 183 183
15.140625000000 9.218750000000 2.634002685547 162 162 162
15.078125000000 9.203125000000 2.640998840332 93 93 93
14.890625000000 9.203125000000 2.635002136230 97 97 97
14.640625000000 9.218750000000 2.612998962402 83 83 83
15.203125000000 9.531250000000 1.958000183105 172 172 172
15.203125000000 9.531250000000 1.980003356934 177 177 177
15.203125000000 9.531250000000 2.011001586914 174 174 174
15.171875000000 9.531250000000 2.035003662109 176 176 176
15.203125000000 9.531250000000 2.065002441406 178 178 178
15.203125000000 9.531250000000 2.091003417969 178 178 178
15.203125000000 9.531250000000 2.120002746582 178 178 178
15.203125000000 9.531250000000 2.144996643066 181 181 181
15.203125000000 9.531250000000 2.172996520996 182 182 182
15.171875000000 9.531250000000 2.199996948242 183 183 183
15.203125000000 9.531250000000 2.227996826172 183 183 183
15.171875000000 9.531250000000 2.253997802734 184 184 184
15.203125000000 9.531250000000 2.281997680664 182 182 182
15.171875000000 9.531250000000 2.306999206543 183 183 183
15.203125000000 9.531250000000 2.335998535156 180 180 180
15.203125000000 9.531250000000 2.362998962402 181 181 181
15.203125000000 9.531250000000 2.392997741699 181 181 181
15.328125000000 9.546875000000 2.447998046875 162 162 162
15.328125000000 9.546875000000 2.473999023438 169 169 169
15.328125000000 9.546875000000 2.500999450684 174 174 174
15.328125000000 9.546875000000 2.526000976563 175 175 175
15.328125000000 9.546875000000 2.551002502441 172 172 172
15.328125000000 9.546875000000 2.575996398926 176 176 176
15.328125000000 9.546875000000 2.599998474121 165 165 165
15.203125000000 9.531250000000 2.598999023438 185 185 185
15.203125000000 9.531250000000 2.625000000000 193 193 193
15.171875000000 9.531250000000 2.647003173828 179 179 179
15.093750000000 9.546875000000 2.657997131348 103 103 103
14.953125000000 9.531250000000 2.655998229980 99 99 99
15.296875000000 9.875000000000 2.455001831055 168 168 168
15.296875000000 9.875000000000 2.481002807617 173 173 173
15.296875000000 9.875000000000 2.506996154785 174 174 174
15.328125000000 9.875000000000 2.533996582031 172 172 172
15.296875000000 9.875000000000 2.557998657227 171 171 171
15.328125000000 9.875000000000 2.583999633789 182 182 182
15.328125000000 9.875000000000 2.609001159668 170 170 170
14.703125000000 9.875000000000 2.508003234863 140 140 140
14.703125000000 9.875000000000 2.536003112793 110 110 110
14.687500000000 9.875000000000 2.561996459961 156 156 156
14.703125000000 9.875000000000 2.592002868652 159 159 159
15.281250000000 10.218750000000 2.461997985840 211 211 211
15.265625000000 10.218750000000 2.485000610352 232 232 232
15.281250000000 10.218750000000 2.511001586914 224 224 224
15.281250000000 10.218750000000 2.537002563477 222 222 222
15.281250000000 10.218750000000 2.564002990723 226 226 226
15.281250000000 10.218750000000 2.588996887207 226 226 226
15.156250000000 10.218750000000 2.589996337891 5 5 5
14.703125000000 10.218750000000 2.519996643066 224 224 224
14.671875000000 10.218750000000 2.545997619629 222 222 222
14.671875000000 10.218750000000 2.577003479004 220 220 220
14.703125000000 10.218750000000 2.607002258301 172 172 172
15.265625000000 10.562500000000 2.466003417969 207 207 207
15.234375000000 10.562500000000 2.488998413086 233 233 233
15.250000000000 10.546875000000 2.515998840332 229 229 229
15.234375000000 10.562500000000 2.539001464844 229 229 229
15.234375000000 10.562500000000 2.566001892090 230 230 230
15.250000000000 10.546875000000 2.593002319336 226 226 226
15.109375000000 10.562500000000 2.591003417969 6 6 6
14.703125000000 10.562500000000 2.535003662109 228 228 228
14.703125000000 10.562500000000 2.559997558594 232 232 232
14.703125000000 10.562500000000 2.594001770020 198 198 198
14.671875000000 10.546875000000 2.611999511719 32 32 32
15.234375000000 10.890625000000 2.468002319336 210 210 210
15.234375000000 10.890625000000 2.494003295898 224 224 224
15.234375000000 10.906250000000 2.516998291016 227 227 227
15.234375000000 10.906250000000 2.542999267578 233 233 233
15.234375000000 10.906250000000 2.569000244141 229 229 229
15.234375000000 10.906250000000 2.594001770020 230 230 230
15.078125000000 10.890625000000 2.592002868652 6 6 6
14.734375000000 10.906250000000 2.547996520996 231 231 231
14.734375000000 10.906250000000 2.577003479004 224 224 224
14.734375000000 10.890625000000 2.606002807617 198 198 198
15.203125000000 11.218750000000 2.470001220703 212 212 212
15.203125000000 11.234375000000 2.495002746582 224 224 224
15.171875000000 11.218750000000 2.518997192383 229 229 229
15.171875000000 11.234375000000 2.544998168945 229 229 229
15.203125000000 11.218750000000 2.573997497559 225 225 225
15.203125000000 11.234375000000 2.598999023438 226 226 226
14.921875000000 11.218750000000 2.569999694824 247 247 247
14.765625000000 11.234375000000 2.564002990723 226 226 226
14.765625000000 11.218750000000 2.593002319336 194 194 194
14.718750000000 11.234375000000 2.614997863770 97 97 97
15.171875000000 11.562500000000 2.472999572754 211 211 211
15.171875000000 11.562500000000 2.500000000000 223 223 223
15.171875000000 11.562500000000 2.526000976563 222 222 222
15.171875000000 11.562500000000 2.551002502441 223 223 223
15.171875000000 11.562500000000 2.578002929688 225 225 225
15.171875000000 11.562500000000 2.603996276855 224 224 224
14.828125000000 11.578125000000 2.563003540039 234 234 234
14.765625000000 11.562500000000 2.580001831055 219 219 219
14.765625000000 11.562500000000 2.609001159668 184 184 184
15.125000000000 11.906250000000 2.477996826172 211 211 211
15.109375000000 11.906250000000 2.501998901367 231 231 231
15.109375000000 11.906250000000 2.529998779297 222 222 222
15.125000000000 11.906250000000 2.557998657227 220 220 220
15.109375000000 11.906250000000 2.583000183105 226 226 226
15.109375000000 11.906250000000 2.608001708984 226 226 226
14.796875000000 11.906250000000 2.572998046875 230 230 230
14.781250000000 11.906250000000 2.598999023438 199 199 199
15.078125000000 12.234375000000 2.480003356934 214 214 214
15.078125000000 12.234375000000 2.506996154785 218 218 218
15.078125000000 12.250000000000 2.531997680664 221 221 221
15.078125000000 12.234375000000 2.559997558594 218 218 218
15.078125000000 12.250000000000 2.584999084473 224 224 224
15.062500000000 12.250000000000 2.610000610352 219 219 219
14.796875000000 12.250000000000 2.589996337891 210 210 210
14.796875000000 12.250000000000 2.615997314453 180 180 180
15.031250000000 12.578125000000 2.482002258301 210 210 210
15.031250000000 12.578125000000 2.509002685547 225 225 225
15.031250000000 12.578125000000 2.533996582031 226 226 226
15.031250000000 12.578125000000 2.563003540039 228 228 228
15.031250000000 12.578125000000 2.589996337891 225 225 225
15.015625000000 12.593750000000 2.613998413086 218 218 218
14.828125000000 12.578125000000 2.603996276855 204 204 204
14.984375000000 12.906250000000 2.486000061035 208 208 208
14.984375000000 12.906250000000 2.512001037598 223 223 223
14.984375000000 12.906250000000 2.541000366211 225 225 225
15.000000000000 12.906250000000 2.569000244141 222 222 222
14.984375000000 12.906250000000 2.595001220703 224 224 224
14.953125000000 12.906250000000 2.614997863770 209 209 209
14.859375000000 12.921875000000 2.620002746582 146 146 146
14.984375000000 13.250000000000 2.495002746582 224 224 224
14.984375000000 13.250000000000 2.523002624512 227 227 227
14.984375000000 13.250000000000 2.551002502441 227 227 227
14.984375000000 13.250000000000 2.575996398926 229 229 229
14.984375000000 13.250000000000 2.605003356934 228 228 228
14.937500000000 13.250000000000 2.624000549316 177 177 177
14.921875000000 13.593750000000 2.500000000000 219 219 219
14.921875000000 13.593750000000 2.527000427246 216 216 216
14.921875000000 13.593750000000 2.553001403809 227 227 227
14.921875000000 13.593750000000 2.583000183105 215 215 215
14.921875000000 13.593750000000 2.611000061035 198 198 198
14.921875000000 13.937500000000 2.488998413086 175 175 175
14.906250000000 13.937500000000 2.513999938965 228 228 228
14.921875000000 13.937500000000 2.542999267578 228 228 228
14.906250000000 13.937500000000 2.569000244141 230 230 230
14.921875000000 13.937500000000 2.597999572754 207 207 207
14.906250000000 13.937500000000 2.623001098633 141 141 141
14.921875000000 14.281250000000 2.501998901367 203 203 203
14.921875000000 14.281250000000 2.527000427246 224 224 224
14.921875000000 14.281250000000 2.555999755859 226 226 226
14.921875000000 14.281250000000 2.582000732422 231 231 231
14.921875000000 14.281250000000 2.610000610352 211 211 211
14.921875000000 14.281250000000 2.639999389648 50 50 50
14.921875000000 14.281250000000 2.666000366211 57 57 57
14.921875000000 14.281250000000 2.692001342773 26 26 26
25.046875000000 15.312500000000 2.426002502441 126 126 126
25.046875000000 15.312500000000 2.466003417969 220 220 220
25.046875000000 15.312500000000 2.503997802734 218 218 218
25.046875000000 15.312500000000 2.541000366211 210 210 210
25.078125000000 15.328125000000 2.571998596191 25 25 25
24.984375000000 15.609375000000 2.420997619629 176 176 176
24.968750000000 15.609375000000 2.460998535156 220 220 220
24.984375000000 15.625000000000 2.496002197266 220 220 220
24.984375000000 15.625000000000 2.533996582031 210 210 210
24.921875000000 15.906250000000 2.416999816895 195 195 195
24.921875000000 15.906250000000 2.455001831055 220 220 220
24.890625000000 15.890625000000 2.491996765137 219 219 219
24.890625000000 15.890625000000 2.528999328613 206 206 206
24.828125000000 16.187500000000 2.418998718262 219 219 219
24.828125000000 16.187500000000 2.456001281738 220 220 220
24.859375000000 16.187500000000 2.489997863770 218 218 218
24.859375000000 16.187500000000 2.526000976563 203 203 203
24.734375000000 16.453125000000 2.392997741699 207 207 207
24.734375000000 16.437500000000 2.430999755859 222 222 222
24.734375000000 16.453125000000 2.466003417969 222 222 222
24.734375000000 16.453125000000 2.500999450684 223 223 223
24.796875000000 16.500000000000 2.525001525879 183 183 183
24.640625000000 16.750000000000 2.398002624512 210 210 210
24.640625000000 16.750000000000 2.431999206543 218 218 218
24.640625000000 16.750000000000 2.467002868652 218 218 218
24.640625000000 16.750000000000 2.502998352051 209 209 209
24.734375000000 16.796875000000 2.518997192383 179 179 179
24.546875000000 17.031250000000 2.364997863770 135 135 135
24.562500000000 17.031250000000 2.397003173828 223 223 223
24.562500000000 17.031250000000 2.431999206543 222 222 222
24.562500000000 17.031250000000 2.466003417969 222 222 222
24.578125000000 17.031250000000 2.498001098633 215 215 215
24.703125000000 17.125000000000 2.497001647949 201 201 201
24.453125000000 17.312500000000 2.366996765137 205 205 205
24.453125000000 17.312500000000 2.401000976563 223 223 223
24.453125000000 17.312500000000 2.435997009277 219 219 219
24.453125000000 17.312500000000 2.469001770020 223 223 223
24.515625000000 17.343750000000 2.490997314453 218 218 218
24.671875000000 17.437500000000 2.487998962402 205 205 205
24.359375000000 17.593750000000 2.344001770020 142 142 142
24.359375000000 17.593750000000 2.377998352051 216 216 216
24.359375000000 17.593750000000 2.408996582031 219 219 219
24.359375000000 17.593750000000 2.444999694824 219 219 219
24.359375000000 17.593750000000 2.475997924805 218 218 218
24.609375000000 17.734375000000 2.449996948242 204 204 204
24.609375000000 17.750000000000 2.481002807617 203 203 203
24.265625000000 17.859375000000 2.359001159668 221 221 221
24.265625000000 17.859375000000 2.391998291016 218 218 218
24.265625000000 17.859375000000 2.425003051758 220 220 220
24.281250000000 17.875000000000 2.455001831055 222 222 222
24.343750000000 17.906250000000 2.467002868652 224 224 224
24.578125000000 18.031250000000 2.444000244141 214 214 214
24.578125000000 18.046875000000 2.477996826172 192 192 192
24.171875000000 18.156250000000 2.335998535156 196 196 196
24.171875000000 18.156250000000 2.367996215820 222 222 222
24.171875000000 18.156250000000 2.400001525879 219 219 219
24.171875000000 18.156250000000 2.430999755859 221 221 221
24.171875000000 18.156250000000 2.462997436523 221 221 221
24.515625000000 18.343750000000 2.406997680664 220 220 220
24.531250000000 18.343750000000 2.436996459961 211 211 211
24.531250000000 18.343750000000 2.471000671387 196 196 196
24.078125000000 18.437500000000 2.341003417969 219 219 219
24.078125000000 18.437500000000 2.374000549316 219 219 219
24.078125000000 18.437500000000 2.406997680664 221 221 221
24.078125000000 18.437500000000 2.436996459961 223 223 223
24.109375000000 18.437500000000 2.461997985840 226 226 226
24.484375000000 18.656250000000 2.390998840332 223 223 223
24.484375000000 18.656250000000 2.426002502441 217 217 217
24.484375000000 18.656250000000 2.458999633789 203 203 203
23.984375000000 18.718750000000 2.319000244141 200 200 200
23.984375000000 18.718750000000 2.349998474121 214 214 214
24.000000000000 18.718750000000 2.379997253418 216 216 216
23.984375000000 18.718750000000 2.415000915527 201 201 201
23.984375000000 18.718750000000 2.444000244141 218 218 218
24.453125000000 18.968750000000 2.344001770020 216 216 216
24.421875000000 18.968750000000 2.380996704102 224 224 224
24.421875000000 18.968750000000 2.416000366211 217 217 217
24.421875000000 18.968750000000 2.448997497559 200 200 200
23.890625000000 18.984375000000 2.328002929688 220 220 220
23.890625000000 19.000000000000 2.360000610352 218 218 218
23.890625000000 19.000000000000 2.389999389648 218 218 218
23.890625000000 19.000000000000 2.420997619629 219 219 219
23.921875000000 19.000000000000 2.446998596191 222 222 222
24.359375000000 19.265625000000 2.344001770020 223 223 223
24.359375000000 19.265625000000 2.378997802734 223 223 223
24.390625000000 19.281250000000 2.411003112793 208 208 208
24.390625000000 19.281250000000 2.444000244141 187 187 187
23.828125000000 19.281250000000 2.311996459961 218 218 218
23.828125000000 19.281250000000 2.342002868652 218 218 218
23.828125000000 19.281250000000 2.373001098633 218 218 218
23.828125000000 19.281250000000 2.402999877930 214 214 214
23.828125000000 19.281250000000 2.431999206543 215 215 215
24.359375000000 19.593750000000 2.303001403809 215 215 215
24.328125000000 19.578125000000 2.344001770020 215 215 215
24.328125000000 19.578125000000 2.375999450684 222 222 222
24.328125000000 19.578125000000 2.410003662109 204 204 204
24.359375000000 19.593750000000 2.434997558594 175 175 175
23.734375000000 19.562500000000 2.292999267578 205 205 205
23.734375000000 19.562500000000 2.320999145508 220 220 220
23.734375000000 19.562500000000 2.352996826172 219 219 219
23.734375000000 19.562500000000 2.380996704102 220 220 220
23.734375000000 19.562500000000 2.410003662109 221 221 221
23.750000000000 19.562500000000 2.438003540039 209 209 209
24.265625000000 19.875000000000 2.307998657227 144 144 144
24.265625000000 19.875000000000 2.338996887207 131 131 131
24.265625000000 19.875000000000 2.374000549316 147 147 147
24.265625000000 19.875000000000 2.405998229980 152 152 152
24.296875000000 19.890625000000 2.430999755859 187 187 187
24.109375000000 20.109375000000 2.040000915527 216 216 216
23.640625000000 19.843750000000 2.272003173828 162 162 162
23.640625000000 19.843750000000 2.301002502441 168 168 168
23.640625000000 19.843750000000 2.331001281738 166 166 166
23.640625000000 19.843750000000 2.361999511719 161 161 161
23.640625000000 19.843750000000 2.389999389648 165 165 165
23.640625000000 19.843750000000 2.417999267578 162 162 162
23.671875000000 19.843750000000 2.442001342773 153 153 153
24.203125000000 20.156250000000 2.304000854492 136 136 136
24.218750000000 20.171875000000 2.335998535156 130 130 130
24.218750000000 20.171875000000 2.365997314453 139 139 139
24.218750000000 20.171875000000 2.401000976563 145 145 145
24.375000000000 20.281250000000 2.388000488281 16 16 16
23.671875000000 20.187500000000 1.750999450684 174 174 174
23.671875000000 20.187500000000 1.786003112793 174 174 174
23.671875000000 20.187500000000 1.820999145508 174 174 174
23.640625000000 20.156250000000 1.861000061035 174 174 174
23.671875000000 20.171875000000 1.886001586914 187 187 187
23.671875000000 20.187500000000 1.915000915527 183 183 183
23.671875000000 20.187500000000 2.000000000000 168 168 168
23.703125000000 20.187500000000 2.027000427246 183 183 183
23.671875000000 20.187500000000 2.059997558594 181 181 181
23.703125000000 20.187500000000 2.086997985840 177 177 177
23.671875000000 20.187500000000 2.120002746582 176 176 176
23.703125000000 20.187500000000 2.149002075195 175 175 175
23.703125000000 20.187500000000 2.178001403809 175 175 175
23.609375000000 20.156250000000 2.236999511719 174 174 174
23.562500000000 20.125000000000 2.282997131348 170 170 170
23.562500000000 20.125000000000 2.314002990723 171 171 171
23.562500000000 20.125000000000 2.341003417969 171 171 171
23.562500000000 20.125000000000 2.370002746582 174 174 174
23.562500000000 20.125000000000 2.398002624512 170 170 170
23.562500000000 20.125000000000 2.426002502441 158 158 158
23.687500000000 20.203125000000 2.416999816895 182 182 182
23.687500000000 20.203125000000 2.444999694824 183 183 183
23.687500000000 20.203125000000 2.471000671387 181 181 181
23.734375000000 20.218750000000 2.490997314453 141 141 141
23.843750000000 20.296875000000 2.485000610352 129 129 129
23.984375000000 20.375000000000 2.478996276855 133 133 133
23.609375000000 20.484375000000 1.763999938965 190 190 190
23.609375000000 20.484375000000 1.796997070313 189 189 189
23.609375000000 20.484375000000 1.824996948242 189 189 189
23.609375000000 20.484375000000 1.860000610352 187 187 187
23.609375000000 20.484375000000 1.887001037598 187 187 187
23.609375000000 20.484375000000 1.917999267578 187 187 187
23.609375000000 20.484375000000 1.946998596191 185 185 185
23.609375000000 20.484375000000 1.977996826172 184 184 184
23.609375000000 20.500000000000 2.008003234863 182 182 182
23.609375000000 20.500000000000 2.038002014160 183 183 183
23.609375000000 20.468750000000 2.074996948242 184 184 184
23.609375000000 20.484375000000 2.101997375488 185 185 185
23.609375000000 20.484375000000 2.136001586914 178 178 178
23.578125000000 20.468750000000 2.170997619629 177 177 177
23.484375000000 20.421875000000 2.238998413086 162 162 162
23.484375000000 20.406250000000 2.268997192383 169 169 169
23.484375000000 20.406250000000 2.297996520996 176 176 176
23.484375000000 20.406250000000 2.325996398926 174 174 174
23.484375000000 20.406250000000 2.355003356934 173 173 173
23.484375000000 20.406250000000 2.383003234863 167 167 167
