13.640625000000 18.218750000000 4.860000610352 190 190 190
13.625000000000 18.218750000000 4.901000976563 194 194 194
13.625000000000 18.218750000000 4.940002441406 189 189 189
13.625000000000 18.218750000000 4.980003356934 199 199 199
13.625000000000 18.218750000000 5.019996643066 201 201 201
13.640625000000 18.218750000000 5.056999206543 180 180 180
13.531250000000 19.093750000000 5.002998352051 209 209 209
13.531250000000 19.093750000000 4.967002868652 213 213 213
13.515625000000 19.093750000000 4.932998657227 222 222 222
13.531250000000 19.093750000000 4.894996643066 213 213 213
13.515625000000 19.093750000000 4.859001159668 219 219 219
13.515625000000 19.093750000000 4.822998046875 219 219 219
13.515625000000 19.093750000000 4.787002563477 178 178 178
13.546875000000 19.093750000000 4.533996582031 173 173 173
13.546875000000 19.093750000000 4.500000000000 234 234 234
13.546875000000 19.093750000000 4.464996337891 245 245 245
13.515625000000 19.093750000000 4.430999755859 250 250 250
13.546875000000 19.093750000000 4.394996643066 243 243 243
13.546875000000 19.093750000000 4.360000610352 252 252 252
13.546875000000 19.093750000000 4.323997497559 243 243 243
13.546875000000 19.093750000000 4.289001464844 200 200 200
13.546875000000 18.812500000000 4.873001098633 134 134 134
13.546875000000 18.812500000000 4.835998535156 214 214 214
13.546875000000 18.812500000000 4.801002502441 223 223 223
13.546875000000 18.812500000000 4.764999389648 217 217 217
13.546875000000 18.812500000000 4.728996276855 216 216 216
13.546875000000 18.812500000000 4.694000244141 236 236 236
13.546875000000 18.812500000000 4.658996582031 233 233 233
13.546875000000 18.796875000000 4.622001647949 238 238 238
13.546875000000 18.796875000000 4.586997985840 234 234 234
13.546875000000 18.812500000000 4.552001953125 238 238 238
13.546875000000 18.812500000000 4.517997741699 237 237 237
13.546875000000 18.796875000000 4.481002807617 218 218 218
13.390625000000 18.812500000000 3.975997924805 26 26 26
13.375000000000 18.796875000000 3.941001892090 151 151 151
13.375000000000 18.796875000000 3.905998229980 131 131 131
13.390625000000 18.796875000000 3.870002746582 170 170 170
13.421875000000 18.796875000000 3.833000183105 165 165 165
13.421875000000 18.781250000000 3.796997070313 188 188 188
13.421875000000 18.781250000000 3.762001037598 190 190 190
13.421875000000 18.781250000000 3.726997375488 185 185 185
13.421875000000 18.781250000000 3.693000793457 141 141 141
13.421875000000 18.796875000000 3.657997131348 159 159 159
13.421875000000 18.781250000000 3.623001098633 181 181 181
13.390625000000 18.781250000000 3.588996887207 104 104 104
13.359375000000 18.781250000000 3.554000854492 125 125 125
13.375000000000 18.796875000000 3.518997192383 137 137 137
13.390625000000 18.781250000000 3.484001159668 141 141 141
13.390625000000 18.781250000000 3.447998046875 138 138 138
13.390625000000 18.781250000000 3.413002014160 125 125 125
13.390625000000 18.781250000000 3.377998352051 74 74 74
13.578125000000 18.515625000000 4.885002136230 207 207 207
13.578125000000 18.515625000000 4.851997375488 236 236 236
13.578125000000 18.531250000000 4.818000793457 248 248 248
13.578125000000 18.515625000000 4.778999328613 236 236 236
13.578125000000 18.515625000000 4.746002197266 245 245 245
13.578125000000 18.515625000000 4.709999084473 246 246 246
13.578125000000 18.515625000000 4.674003601074 223 223 223
13.578125000000 18.515625000000 4.641998291016 232 232 232
13.578125000000 18.515625000000 4.606002807617 232 232 232
13.546875000000 18.515625000000 4.573997497559 239 239 239
13.546875000000 18.515625000000 4.539001464844 247 247 247
13.578125000000 18.515625000000 4.502998352051 230 230 230
13.546875000000 18.500000000000 4.468002319336 173 173 173
13.421875000000 18.515625000000 3.959999084473 116 116 116
13.421875000000 18.515625000000 3.925003051758 134 134 134
13.421875000000 18.500000000000 3.889999389648 133 133 133
13.453125000000 18.500000000000 3.853996276855 173 173 173
13.453125000000 18.500000000000 3.818000793457 156 156 156
13.468750000000 18.500000000000 3.782997131348 176 176 176
13.468750000000 18.500000000000 3.748001098633 185 185 185
13.421875000000 18.500000000000 3.713996887207 161 161 161
13.421875000000 18.500000000000 3.680000305176 167 167 167
13.421875000000 18.500000000000 3.644996643066 120 120 120
13.453125000000 18.500000000000 3.610000610352 140 140 140
13.484375000000 18.500000000000 3.574996948242 173 173 173
13.421875000000 18.500000000000 3.541000366211 96 96 96
13.421875000000 18.500000000000 3.505996704102 95 95 95
13.421875000000 18.500000000000 3.471000671387 92 92 92
13.390625000000 18.500000000000 3.435997009277 93 93 93
13.421875000000 18.500000000000 3.401000976563 94 94 94
13.421875000000 18.500000000000 3.365997314453 105 105 105
13.421875000000 18.500000000000 3.331001281738 111 111 111
13.421875000000 18.500000000000 3.296997070313 82 82 82
13.453125000000 18.484375000000 2.348999023438 185 185 185
13.515625000000 18.468750000000 2.323997497559 170 170 170
13.515625000000 18.468750000000 2.254997253418 154 154 154
13.546875000000 18.468750000000 2.225997924805 172 172 172
13.421875000000 18.468750000000 2.164001464844 189 189 189
13.453125000000 18.484375000000 2.127998352051 185 185 185
13.515625000000 18.468750000000 2.106002807617 175 175 175
13.515625000000 18.468750000000 2.072998046875 167 167 167
13.453125000000 18.468750000000 2.022003173828 194 194 194
13.421875000000 18.468750000000 1.976997375488 220 220 220
13.484375000000 18.468750000000 1.957000732422 181 181 181
13.531250000000 18.468750000000 1.931999206543 176 176 176
13.515625000000 18.468750000000 1.813003540039 169 169 169
13.515625000000 18.468750000000 1.776000976563 157 157 157
13.640625000000 18.234375000000 5.075996398926 115 115 115
13.640625000000 18.234375000000 5.045997619629 234 234 234
13.640625000000 18.234375000000 5.010002136230 239 239 239
13.640625000000 18.218750000000 4.972000122070 234 234 234
13.609375000000 18.218750000000 4.939002990723 240 240 240
13.609375000000 18.218750000000 4.906997680664 249 249 249
13.609375000000 18.218750000000 4.869003295898 236 236 236
13.640625000000 18.218750000000 4.830001831055 189 189 189
13.578125000000 18.218750000000 4.557998657227 189 189 189
13.546875000000 18.218750000000 4.525001525879 254 254 254
13.546875000000 18.218750000000 4.490997314453 6 6 6
13.546875000000 18.218750000000 4.457000732422 7 7 7
13.546875000000 18.218750000000 4.420997619629 1 1 1
13.546875000000 18.218750000000 4.386001586914 255 255 255
13.546875000000 18.218750000000 4.351997375488 240 240 240
13.546875000000 18.218750000000 4.316001892090 180 180 180
13.515625000000 19.125000000000 5.027999877930 145 145 145
13.515625000000 19.140625000000 4.988998413086 154 154 154
13.515625000000 19.140625000000 4.945999145508 156 156 156
13.515625000000 19.140625000000 4.905998229980 152 152 152
13.515625000000 19.140625000000 4.866996765137 156 156 156
13.515625000000 19.156250000000 4.827003479004 143 143 143
13.546875000000 19.125000000000 4.497001647949 137 137 137
13.515625000000 19.125000000000 4.458000183105 164 164 164
13.515625000000 19.125000000000 4.417999267578 161 161 161
13.515625000000 19.125000000000 4.377998352051 164 164 164
13.515625000000 19.125000000000 4.338996887207 159 159 159
13.515625000000 19.125000000000 4.297996520996 161 161 161
13.515625000000 19.125000000000 4.259002685547 59 59 59
13.515625000000 18.843750000000 4.884002685547 116 116 116
13.546875000000 18.843750000000 4.842002868652 159 159 159
13.546875000000 18.843750000000 4.801002502441 164 164 164
13.546875000000 18.843750000000 4.761001586914 154 154 154
13.515625000000 18.843750000000 4.721000671387 158 158 158
13.546875000000 18.843750000000 4.679000854492 146 146 146
13.546875000000 18.843750000000 4.638999938965 164 164 164
13.546875000000 18.843750000000 4.597999572754 163 163 163
13.546875000000 18.843750000000 4.558998107910 164 164 164
13.515625000000 18.843750000000 4.519996643066 165 165 165
13.546875000000 18.828125000000 4.476997375488 159 159 159
13.515625000000 18.828125000000 4.439002990723 70 70 70
13.359375000000 18.937500000000 3.887001037598 91 91 91
13.359375000000 18.937500000000 3.846000671387 124 124 124
13.328125000000 18.937500000000 3.805999755859 120 120 120
13.328125000000 18.937500000000 3.764999389648 130 130 130
13.359375000000 18.937500000000 3.723999023438 116 116 116
13.328125000000 18.921875000000 3.682998657227 123 123 123
13.328125000000 18.953125000000 3.641998291016 197 197 197
13.328125000000 18.921875000000 3.601997375488 38 38 38
13.578125000000 18.531250000000 4.860000610352 153 153 153
13.578125000000 18.531250000000 4.819000244141 161 161 161
13.578125000000 18.531250000000 4.777999877930 161 161 161
13.578125000000 18.531250000000 4.737998962402 161 161 161
13.578125000000 18.531250000000 4.699996948242 161 161 161
13.578125000000 18.531250000000 4.658996582031 162 162 162
13.578125000000 18.531250000000 4.619003295898 164 164 164
13.546875000000 18.531250000000 4.581001281738 168 168 168
13.546875000000 18.546875000000 4.541999816895 168 168 168
13.578125000000 18.546875000000 4.500000000000 145 145 145
13.421875000000 18.625000000000 3.950996398926 143 143 143
13.390625000000 18.625000000000 3.910003662109 68 68 68
13.421875000000 18.609375000000 3.869003295898 153 153 153
13.390625000000 18.625000000000 3.829002380371 61 61 61
13.421875000000 18.593750000000 3.788002014160 88 88 88
13.546875000000 18.531250000000 3.748001098633 146 146 146
13.515625000000 18.546875000000 3.708000183105 121 121 121
13.515625000000 18.546875000000 3.667999267578 112 112 112
13.531250000000 18.531250000000 3.628997802734 136 136 136
13.546875000000 18.531250000000 3.589996337891 120 120 120
13.421875000000 18.609375000000 3.545997619629 96 96 96
13.390625000000 18.625000000000 3.504997253418 60 60 60
13.390625000000 18.625000000000 3.463996887207 60 60 60
13.453125000000 18.593750000000 3.426002502441 88 88 88
13.468750000000 18.578125000000 3.387001037598 98 98 98
13.484375000000 18.562500000000 3.348999023438 113 113 113
13.515625000000 18.562500000000 3.308998107910 123 123 123
13.531250000000 18.531250000000 3.270996093750 109 109 109
13.546875000000 18.531250000000 3.233001708984 106 106 106
13.546875000000 18.531250000000 3.192001342773 112 112 112
13.546875000000 18.531250000000 3.152000427246 111 111 111
13.546875000000 18.531250000000 3.111999511719 107 107 107
13.546875000000 18.531250000000 3.071998596191 112 112 112
13.546875000000 18.531250000000 3.031997680664 109 109 109
13.515625000000 18.531250000000 2.990997314453 116 116 116
13.515625000000 18.531250000000 2.950996398926 116 116 116
13.546875000000 18.531250000000 2.911003112793 110 110 110
13.546875000000 18.531250000000 2.872001647949 123 123 123
13.390625000000 18.625000000000 2.809997558594 29 29 29
13.390625000000 18.625000000000 2.767997741699 29 29 29
13.421875000000 18.593750000000 2.730003356934 28 28 28
13.453125000000 18.578125000000 2.695999145508 10 10 10
13.484375000000 18.562500000000 2.661003112793 223 223 223
13.515625000000 18.531250000000 2.625000000000 196 196 196
13.515625000000 18.531250000000 2.586997985840 171 171 171
13.515625000000 18.531250000000 2.544998168945 167 167 167
13.515625000000 18.531250000000 2.502998352051 161 161 161
13.515625000000 18.531250000000 2.461997985840 161 161 161
13.515625000000 18.531250000000 2.419998168945 155 155 155
13.515625000000 18.531250000000 2.378997802734 156 156 156
13.546875000000 18.500000000000 2.350997924805 164 164 164
13.578125000000 18.500000000000 2.313003540039 165 165 165
13.515625000000 18.281250000000 5.097999572754 28 28 28
13.640625000000 18.218750000000 5.036003112793 165 165 165
13.640625000000 18.218750000000 4.995002746582 169 169 169
13.609375000000 18.218750000000 4.956001281738 162 162 162
13.609375000000 18.218750000000 4.916000366211 160 160 160
13.609375000000 18.218750000000 4.875999450684 158 158 158
13.562500000000 18.250000000000 4.845001220703 221 221 221
13.515625000000 18.281250000000 4.569999694824 221 221 221
13.562500000000 18.250000000000 4.524002075195 166 166 166
13.562500000000 18.250000000000 4.485000610352 171 171 171
13.546875000000 18.250000000000 4.444999694824 170 170 170
13.546875000000 18.250000000000 4.404998779297 174 174 174
13.562500000000 18.250000000000 4.364997863770 168 168 168
13.562500000000 18.250000000000 4.324996948242 40 40 40
13.390625000000 18.343750000000 3.934997558594 189 189 189
13.421875000000 18.312500000000 3.892997741699 115 115 115
13.421875000000 18.328125000000 3.852996826172 120 120 120
13.421875000000 18.312500000000 3.813003540039 121 121 121
13.421875000000 18.312500000000 3.772003173828 119 119 119
13.421875000000 18.312500000000 3.732002258301 121 121 121
13.421875000000 18.312500000000 3.692001342773 130 130 130
13.421875000000 18.312500000000 3.651000976563 122 122 122
13.421875000000 18.312500000000 3.611000061035 132 132 132
13.421875000000 18.312500000000 3.570999145508 56 56 56
13.421875000000 18.250000000000 3.708000183105 72 72 72
13.421875000000 18.250000000000 3.748001098633 72 72 72
13.453125000000 18.250000000000 3.787002563477 67 67 67
13.546875000000 18.312500000000 4.333000183105 60 60 60
13.546875000000 18.328125000000 4.371002197266 174 174 174
13.546875000000 18.328125000000 4.411003112793 182 182 182
13.546875000000 18.328125000000 4.448997497559 181 181 181
13.578125000000 18.343750000000 4.487998962402 180 180 180
13.546875000000 18.328125000000 4.527999877930 180 180 180
13.578125000000 18.343750000000 4.566001892090 169 169 169
13.609375000000 18.359375000000 4.758003234863 176 176 176
13.578125000000 18.343750000000 4.799003601074 186 186 186
13.609375000000 18.359375000000 4.836997985840 183 183 183
13.609375000000 18.359375000000 4.875999450684 187 187 187
13.609375000000 18.359375000000 4.916999816895 189 189 189
13.609375000000 18.359375000000 4.957000732422 178 178 178
13.484375000000 18.609375000000 1.916999816895 187 187 187
13.484375000000 18.609375000000 1.959999084473 178 178 178
13.484375000000 18.593750000000 1.996002197266 171 171 171
13.453125000000 18.593750000000 2.037002563477 153 153 153
13.515625000000 18.625000000000 2.087997436523 148 148 148
13.484375000000 18.609375000000 2.127998352051 142 142 142
13.484375000000 18.609375000000 2.168998718262 145 145 145
13.515625000000 18.625000000000 2.210998535156 145 145 145
13.484375000000 18.609375000000 2.250000000000 150 150 150
13.515625000000 18.625000000000 2.293998718262 146 146 146
13.515625000000 18.625000000000 2.334999084473 147 147 147
13.515625000000 18.625000000000 2.375999450684 148 148 148
13.515625000000 18.625000000000 2.416999816895 143 143 143
13.515625000000 18.625000000000 2.458000183105 147 147 147
13.515625000000 18.625000000000 2.499000549316 151 151 151
13.515625000000 18.625000000000 2.538002014160 151 151 151
13.515625000000 18.625000000000 2.580001831055 150 150 150
13.515625000000 18.625000000000 2.620002746582 157 157 157
13.515625000000 18.625000000000 2.660003662109 151 151 151
13.515625000000 18.625000000000 2.700996398926 149 149 149
13.515625000000 18.625000000000 2.741996765137 152 152 152
13.515625000000 18.625000000000 2.779998779297 152 152 152
13.515625000000 18.625000000000 2.820999145508 152 152 152
13.515625000000 18.640625000000 2.861000061035 156 156 156
13.515625000000 18.625000000000 2.900001525879 151 151 151
13.515625000000 18.640625000000 2.941001892090 149 149 149
13.515625000000 18.640625000000 2.980003356934 152 152 152
13.515625000000 18.640625000000 3.018997192383 149 149 149
13.515625000000 18.640625000000 3.058998107910 148 148 148
13.515625000000 18.640625000000 3.098999023438 150 150 150
13.515625000000 18.640625000000 3.138000488281 150 150 150
13.515625000000 18.640625000000 3.177001953125 151 151 151
13.515625000000 18.640625000000 3.216003417969 153 153 153
13.515625000000 18.640625000000 3.255996704102 150 150 150
13.515625000000 18.640625000000 3.294998168945 148 148 148
13.546875000000 18.656250000000 3.334999084473 149 149 149
13.546875000000 18.656250000000 3.374000549316 152 152 152
13.546875000000 18.656250000000 3.413002014160 147 147 147
13.546875000000 18.656250000000 3.452003479004 151 151 151
13.546875000000 18.656250000000 3.490997314453 150 150 150
13.546875000000 18.656250000000 3.529998779297 150 150 150
13.546875000000 18.656250000000 3.569000244141 147 147 147
13.546875000000 18.656250000000 3.608001708984 150 150 150
13.546875000000 18.656250000000 3.647003173828 147 147 147
13.546875000000 18.656250000000 3.685997009277 151 151 151
13.546875000000 18.656250000000 3.724998474121 148 148 148
13.546875000000 18.656250000000 3.763999938965 147 147 147
13.578125000000 18.656250000000 3.802001953125 151 151 151
13.546875000000 18.671875000000 3.841003417969 148 148 148
13.546875000000 18.671875000000 3.879997253418 151 151 151
13.546875000000 18.671875000000 3.918998718262 148 148 148
13.546875000000 18.671875000000 3.958000183105 147 147 147
13.546875000000 18.671875000000 3.997001647949 142 142 142
13.578125000000 18.687500000000 4.035003662109 137 137 137
13.578125000000 18.687500000000 4.072998046875 137 137 137
13.578125000000 18.687500000000 4.111999511719 133 133 133
13.578125000000 18.687500000000 4.151000976563 135 135 135
13.578125000000 18.687500000000 4.190002441406 130 130 130
13.578125000000 18.687500000000 4.227996826172 127 127 127
13.578125000000 18.687500000000 4.266998291016 130 130 130
13.578125000000 18.687500000000 4.305000305176 131 131 131
13.578125000000 18.687500000000 4.345001220703 125 125 125
13.578125000000 18.687500000000 4.383003234863 123 123 123
13.609375000000 18.687500000000 4.420997619629 124 124 124
13.609375000000 18.703125000000 4.458999633789 127 127 127
13.609375000000 18.703125000000 4.498001098633 131 131 131
13.609375000000 18.703125000000 4.536003112793 128 128 128
13.609375000000 18.703125000000 4.574996948242 128 128 128
13.609375000000 18.703125000000 4.613998413086 127 127 127
13.609375000000 18.718750000000 4.652999877930 131 131 131
13.609375000000 18.703125000000 4.692001342773 132 132 132
13.609375000000 18.718750000000 4.731002807617 130 130 130
13.609375000000 18.718750000000 4.769996643066 122 122 122
13.609375000000 18.718750000000 4.809997558594 129 129 129
13.640625000000 18.718750000000 4.847000122070 126 126 126
13.609375000000 18.718750000000 4.888999938965 131 131 131
13.640625000000 18.718750000000 4.924003601074 125 125 125
13.640625000000 18.734375000000 4.962997436523 136 136 136
13.640625000000 18.734375000000 5.000999450684 121 121 121
13.359375000000 18.875000000000 3.501998901367 76 76 76
13.359375000000 18.875000000000 3.542999267578 131 131 131
13.359375000000 18.890625000000 3.583000183105 120 120 120
13.359375000000 18.890625000000 3.623001098633 126 126 126
13.359375000000 18.890625000000 3.663002014160 113 113 113
13.359375000000 18.906250000000 3.703002929688 98 98 98
13.359375000000 18.906250000000 3.742996215820 105 105 105
13.359375000000 18.890625000000 3.783996582031 127 127 127
13.359375000000 18.890625000000 3.823997497559 120 120 120
13.359375000000 18.890625000000 3.863998413086 131 131 131
13.359375000000 18.890625000000 3.903999328613 99 99 99
13.531250000000 19.000000000000 4.328002929688 120 120 120
13.546875000000 19.000000000000 4.366996765137 175 175 175
13.546875000000 19.000000000000 4.405998229980 179 179 179
13.531250000000 19.000000000000 4.446998596191 179 179 179
13.546875000000 19.000000000000 4.485000610352 179 179 179
13.546875000000 19.000000000000 4.524002075195 178 178 178
13.546875000000 19.000000000000 4.565002441406 147 147 147
13.515625000000 19.000000000000 4.688003540039 52 52 52
13.515625000000 19.000000000000 4.726997375488 178 178 178
13.531250000000 19.000000000000 4.765998840332 185 185 185
13.531250000000 19.000000000000 4.805999755859 183 183 183
13.531250000000 19.000000000000 4.846000671387 189 189 189
13.546875000000 19.000000000000 4.884002685547 181 181 181
13.531250000000 19.000000000000 4.926002502441 162 162 162
13.484375000000 19.312500000000 4.866996765137 81 81 81
13.500000000000 19.328125000000 4.904998779297 124 124 124
13.578125000000 18.312500000000 5.029998779297 227 227 227
13.625000000000 18.281250000000 4.980003356934 175 175 175
13.640625000000 18.281250000000 4.939002990723 174 174 174
13.609375000000 18.281250000000 4.901000976563 176 176 176
13.609375000000 18.281250000000 4.862998962402 171 171 171
13.625000000000 18.281250000000 4.819999694824 171 171 171
13.609375000000 18.296875000000 4.782997131348 126 126 126
13.546875000000 18.312500000000 4.588996887207 78 78 78
13.578125000000 18.312500000000 4.546997070313 178 178 178
13.562500000000 18.312500000000 4.508003234863 181 181 181
13.546875000000 18.312500000000 4.468002319336 184 184 184
13.546875000000 18.312500000000 4.429000854492 185 185 185
13.546875000000 18.328125000000 4.388999938965 180 180 180
13.546875000000 18.312500000000 4.348999023438 121 121 121
13.421875000000 18.406250000000 3.917999267578 126 126 126
13.421875000000 18.406250000000 3.877998352051 125 125 125
13.421875000000 18.406250000000 3.837997436523 111 111 111
13.437500000000 18.375000000000 3.796997070313 162 162 162
13.453125000000 18.375000000000 3.755996704102 196 196 196
13.437500000000 18.375000000000 3.716003417969 183 183 183
13.421875000000 18.406250000000 3.676002502441 164 164 164
13.421875000000 18.406250000000 3.636001586914 101 101 101
13.453125000000 18.375000000000 3.596000671387 166 166 166
13.453125000000 18.375000000000 3.555999755859 196 196 196
13.453125000000 18.375000000000 3.515998840332 191 191 191
13.453125000000 18.390625000000 3.475997924805 174 174 174
13.421875000000 18.406250000000 3.433998107910 103 103 103
13.421875000000 18.406250000000 3.392997741699 50 50 50
13.406250000000 18.437500000000 1.680999755859 192 192 192
13.578125000000 18.625000000000 5.006996154785 135 135 135
13.578125000000 18.625000000000 4.963996887207 133 133 133
13.578125000000 18.625000000000 4.922996520996 136 136 136
13.578125000000 18.625000000000 4.883003234863 150 150 150
13.578125000000 18.625000000000 4.843002319336 160 160 160
13.578125000000 18.640625000000 4.804000854492 178 178 178
13.578125000000 18.625000000000 4.762001037598 174 174 174
13.578125000000 18.625000000000 4.722999572754 162 162 162
13.578125000000 18.625000000000 4.682998657227 160 160 160
13.578125000000 18.625000000000 4.642997741699 163 163 163
13.578125000000 18.625000000000 4.602996826172 169 169 169
13.562500000000 18.625000000000 4.564002990723 165 165 165
13.578125000000 18.625000000000 4.523002624512 160 160 160
13.578125000000 18.640625000000 4.484001159668 162 162 162
13.578125000000 18.640625000000 4.444000244141 164 164 164
13.578125000000 18.640625000000 4.404998779297 169 169 169
13.578125000000 18.640625000000 4.363998413086 164 164 164
13.578125000000 18.640625000000 4.324996948242 164 164 164
13.578125000000 18.640625000000 4.286003112793 162 162 162
13.578125000000 18.625000000000 4.245002746582 161 161 161
13.578125000000 18.625000000000 4.205001831055 158 158 158
13.578125000000 18.640625000000 4.166999816895 159 159 159
13.578125000000 18.625000000000 4.125999450684 153 153 153
13.609375000000 18.625000000000 4.086997985840 155 155 155
13.609375000000 18.625000000000 4.047996520996 153 153 153
13.609375000000 18.625000000000 4.008003234863 151 151 151
13.609375000000 18.625000000000 3.969001770020 155 155 155
13.609375000000 18.625000000000 3.930000305176 155 155 155
13.609375000000 18.625000000000 3.889999389648 163 163 163
13.609375000000 18.625000000000 3.850997924805 162 162 162
13.609375000000 18.625000000000 3.811996459961 160 160 160
13.640625000000 18.625000000000 3.773002624512 163 163 163
13.640625000000 18.625000000000 3.734001159668 171 171 171
13.609375000000 18.625000000000 3.694999694824 164 164 164
13.640625000000 18.625000000000 3.655998229980 162 162 162
13.609375000000 18.625000000000 3.616996765137 159 159 159
13.640625000000 18.625000000000 3.578002929688 160 160 160
13.640625000000 18.625000000000 3.539001464844 162 162 162
13.640625000000 18.625000000000 3.500000000000 157 157 157
13.640625000000 18.625000000000 3.460998535156 160 160 160
13.640625000000 18.625000000000 3.421997070313 168 168 168
13.640625000000 18.625000000000 3.383003234863 173 173 173
13.640625000000 18.625000000000 3.344001770020 174 174 174
13.640625000000 18.625000000000 3.305000305176 165 165 165
13.640625000000 18.625000000000 3.265998840332 149 149 149
13.625000000000 18.625000000000 3.225997924805 140 140 140
13.625000000000 18.625000000000 3.186996459961 136 136 136
13.625000000000 18.625000000000 3.148002624512 121 121 121
13.609375000000 18.640625000000 3.108001708984 126 126 126
13.625000000000 18.625000000000 3.069000244141 129 129 129
13.609375000000 18.640625000000 3.029998779297 141 141 141
13.625000000000 18.625000000000 2.990997314453 135 135 135
13.625000000000 18.625000000000 2.952003479004 120 120 120
13.625000000000 18.625000000000 2.912002563477 81 81 81
13.609375000000 18.640625000000 2.871002197266 22 22 22
13.515625000000 19.015625000000 4.958999633789 75 75 75
13.531250000000 19.000000000000 4.915000915527 166 166 166
13.515625000000 19.000000000000 4.875000000000 171 171 171
13.515625000000 19.015625000000 4.835998535156 167 167 167
13.515625000000 19.015625000000 4.794998168945 167 167 167
13.515625000000 19.015625000000 4.754997253418 166 166 166
13.515625000000 19.015625000000 4.713996887207 86 86 86
13.546875000000 19.000000000000 4.550003051758 160 160 160
13.546875000000 19.000000000000 4.510002136230 177 177 177
13.546875000000 19.000000000000 4.470001220703 174 174 174
13.546875000000 19.000000000000 4.430000305176 179 179 179
13.546875000000 19.000000000000 4.389999389648 176 176 176
13.546875000000 19.000000000000 4.348999023438 177 177 177
13.515625000000 19.031250000000 4.313003540039 61 61 61
13.421875000000 18.343750000000 3.504997253418 74 74 74
13.453125000000 18.343750000000 3.539001464844 156 156 156
13.453125000000 18.343750000000 3.573997497559 173 173 173
13.421875000000 18.343750000000 3.609001159668 149 149 149
13.421875000000 18.343750000000 3.643997192383 153 153 153
13.421875000000 18.343750000000 3.679000854492 135 135 135
13.421875000000 18.343750000000 3.713996887207 131 131 131
13.421875000000 18.343750000000 3.748001098633 133 133 133
13.421875000000 18.343750000000 3.782997131348 138 138 138
13.421875000000 18.343750000000 3.818000793457 152 152 152
13.421875000000 18.343750000000 3.852996826172 154 154 154
13.421875000000 18.343750000000 3.887001037598 148 148 148
13.421875000000 18.343750000000 3.921997070313 108 108 108
13.546875000000 18.375000000000 4.361000061035 232 232 232
13.546875000000 18.375000000000 4.394996643066 245 245 245
13.546875000000 18.375000000000 4.429000854492 252 252 252
13.578125000000 18.375000000000 4.462997436523 245 245 245
13.578125000000 18.375000000000 4.498001098633 253 253 253
13.546875000000 18.375000000000 4.533996582031 254 254 254
13.578125000000 18.375000000000 4.568000793457 238 238 238
13.546875000000 18.375000000000 4.607002258301 24 24 24
13.578125000000 18.375000000000 4.707000732422 78 78 78
13.609375000000 18.375000000000 4.736999511719 227 227 227
13.609375000000 18.375000000000 4.772003173828 241 241 241
13.593750000000 18.375000000000 4.807998657227 242 242 242
13.593750000000 18.375000000000 4.844001770020 243 243 243
13.609375000000 18.375000000000 4.877998352051 240 240 240
13.609375000000 18.375000000000 4.912002563477 233 233 233
13.609375000000 18.375000000000 4.945999145508 215 215 215
13.515625000000 18.687500000000 3.071998596191 36 36 36
13.515625000000 18.687500000000 3.106002807617 73 73 73
13.515625000000 18.687500000000 3.139999389648 94 94 94
13.515625000000 18.687500000000 3.175003051758 103 103 103
13.515625000000 18.687500000000 3.208999633789 112 112 112
13.515625000000 18.687500000000 3.242996215820 120 120 120
13.484375000000 18.687500000000 3.277000427246 145 145 145
13.484375000000 18.687500000000 3.310997009277 145 145 145
13.484375000000 18.687500000000 3.345001220703 138 138 138
13.515625000000 18.687500000000 3.378997802734 141 141 141
13.515625000000 18.687500000000 3.414001464844 136 136 136
13.515625000000 18.687500000000 3.447998046875 138 138 138
13.515625000000 18.687500000000 3.482002258301 136 136 136
13.484375000000 18.687500000000 3.515998840332 149 149 149
13.546875000000 18.687500000000 3.550003051758 141 141 141
13.515625000000 18.687500000000 3.583999633789 162 162 162
13.515625000000 18.687500000000 3.617996215820 142 142 142
13.515625000000 18.687500000000 3.652000427246 141 141 141
13.515625000000 18.687500000000 3.685997009277 148 148 148
13.546875000000 18.687500000000 3.720001220703 151 151 151
13.546875000000 18.687500000000 3.753997802734 155 155 155
13.546875000000 18.687500000000 3.788002014160 155 155 155
13.546875000000 18.687500000000 3.822998046875 165 165 165
13.546875000000 18.687500000000 3.856002807617 164 164 164
13.546875000000 18.687500000000 3.889999389648 159 159 159
13.562500000000 18.687500000000 3.924003601074 161 161 161
13.562500000000 18.687500000000 3.958000183105 162 162 162
13.578125000000 18.687500000000 3.990997314453 162 162 162
13.578125000000 18.687500000000 4.024002075195 158 158 158
13.609375000000 18.687500000000 4.056999206543 162 162 162
13.609375000000 18.687500000000 4.091003417969 159 159 159
13.609375000000 18.687500000000 4.124000549316 156 156 156
13.609375000000 18.687500000000 4.158996582031 157 157 157
13.609375000000 18.687500000000 4.193000793457 156 156 156
13.609375000000 18.687500000000 4.226997375488 149 149 149
13.609375000000 18.687500000000 4.261001586914 147 147 147
13.609375000000 18.687500000000 4.294998168945 138 138 138
13.578125000000 18.687500000000 4.332000732422 163 163 163
13.578125000000 18.687500000000 4.366996765137 175 175 175
13.609375000000 18.687500000000 4.398002624512 147 147 147
13.609375000000 18.687500000000 4.430999755859 142 142 142
13.609375000000 18.703125000000 4.466003417969 136 136 136
13.609375000000 18.687500000000 4.503997802734 155 155 155
13.671875000000 18.703125000000 4.526000976563 232 232 232
13.671875000000 18.703125000000 4.558998107910 234 234 234
13.578125000000 18.687500000000 4.611999511719 210 210 210
13.578125000000 18.687500000000 4.644996643066 200 200 200
13.578125000000 18.687500000000 4.681999206543 205 205 205
13.671875000000 18.703125000000 4.697998046875 225 225 225
13.671875000000 18.703125000000 4.733001708984 235 235 235
13.546875000000 18.703125000000 4.792999267578 252 252 252
13.578125000000 18.703125000000 4.824996948242 246 246 246
13.578125000000 18.703125000000 4.860000610352 3 3 3
13.687500000000 18.718750000000 4.871002197266 138 138 138
13.640625000000 18.718750000000 4.913002014160 132 132 132
13.671875000000 18.718750000000 4.944999694824 144 144 144
13.671875000000 18.718750000000 4.981002807617 118 118 118
13.687500000000 18.718750000000 5.011001586914 22 22 22
13.515625000000 19.031250000000 4.283996582031 164 164 164
13.515625000000 19.031250000000 4.318000793457 236 236 236
13.515625000000 19.031250000000 4.353996276855 253 253 253
13.515625000000 19.031250000000 4.388000488281 243 243 243
13.515625000000 19.031250000000 4.421997070313 242 242 242
13.515625000000 19.031250000000 4.458999633789 247 247 247
13.515625000000 19.031250000000 4.491996765137 234 234 234
13.515625000000 19.031250000000 4.527000427246 214 214 214
13.515625000000 19.031250000000 4.707000732422 174 174 174
13.515625000000 19.031250000000 4.742996215820 219 219 219
13.515625000000 19.046875000000 4.780998229980 221 221 221
13.515625000000 19.031250000000 4.815002441406 219 219 219
13.515625000000 19.031250000000 4.849998474121 226 226 226
13.515625000000 19.046875000000 4.886001586914 220 220 220
13.515625000000 19.046875000000 4.920997619629 216 216 216
13.578125000000 9.312500000000 5.041999816895 169 169 169
13.578125000000 9.312500000000 5.005996704102 221 221 221
13.578125000000 9.312500000000 4.969001770020 222 222 222
13.578125000000 9.312500000000 4.933998107910 227 227 227
13.578125000000 9.312500000000 4.895996093750 223 223 223
13.578125000000 9.312500000000 4.861999511719 223 223 223
13.578125000000 9.312500000000 4.825996398926 222 222 222
13.546875000000 9.312500000000 4.469001770020 224 224 224
13.546875000000 9.312500000000 4.433998107910 0 0 0
13.546875000000 9.312500000000 4.400001525879 6 6 6
13.546875000000 9.312500000000 4.364997863770 15 15 15
13.546875000000 9.312500000000 4.330001831055 19 19 19
13.546875000000 9.312500000000 4.294998168945 19 19 19
13.546875000000 9.312500000000 4.258003234863 17 17 17
13.546875000000 9.312500000000 4.222000122070 190 190 190
13.578125000000 9.640625000000 4.833999633789 221 221 221
13.578125000000 9.656250000000 4.800003051758 226 226 226
13.578125000000 9.640625000000 4.763000488281 228 228 228
13.578125000000 9.640625000000 4.727996826172 227 227 227
13.578125000000 9.656250000000 4.692001342773 228 228 228
13.578125000000 9.640625000000 4.655998229980 229 229 229
13.578125000000 9.656250000000 4.621002197266 235 235 235
13.562500000000 9.656250000000 4.587997436523 241 241 241
13.578125000000 9.640625000000 4.552001953125 247 247 247
13.546875000000 9.640625000000 4.517997741699 253 253 253
13.562500000000 9.656250000000 4.482002258301 252 252 252
13.578125000000 9.640625000000 4.444999694824 232 232 232
13.421875000000 9.640625000000 3.967002868652 92 92 92
13.421875000000 9.656250000000 3.931999206543 115 115 115
13.421875000000 9.640625000000 3.895996093750 115 115 115
13.421875000000 9.640625000000 3.860000610352 147 147 147
13.453125000000 9.640625000000 3.821998596191 184 184 184
13.484375000000 9.656250000000 3.787002563477 105 105 105
13.453125000000 9.656250000000 3.751998901367 158 158 158
13.484375000000 9.656250000000 3.717002868652 108 108 108
13.421875000000 9.656250000000 3.682998657227 115 115 115
13.421875000000 9.656250000000 3.647003173828 178 178 178
13.437500000000 9.656250000000 3.611999511719 166 166 166
13.453125000000 9.656250000000 3.575996398926 169 169 169
13.484375000000 9.656250000000 3.541000366211 189 189 189
13.484375000000 9.656250000000 3.505996704102 188 188 188
13.453125000000 9.656250000000 3.471000671387 164 164 164
13.437500000000 9.656250000000 3.435997009277 145 145 145
13.421875000000 9.656250000000 3.400001525879 64 64 64
13.609375000000 9.984375000000 4.880996704102 194 194 194
13.609375000000 9.984375000000 4.845001220703 228 228 228
13.578125000000 9.968750000000 4.814002990723 232 232 232
13.578125000000 9.968750000000 4.776000976563 237 237 237
13.609375000000 9.984375000000 4.737998962402 208 208 208
13.578125000000 9.968750000000 4.705001831055 227 227 227
13.578125000000 9.968750000000 4.668998718262 242 242 242
13.609375000000 9.984375000000 4.631996154785 231 231 231
13.609375000000 9.984375000000 4.593002319336 216 216 216
13.609375000000 9.968750000000 4.557998657227 224 224 224
13.609375000000 9.984375000000 4.525001525879 229 229 229
13.609375000000 9.984375000000 4.487998962402 197 197 197
13.578125000000 9.968750000000 4.457000732422 249 249 249
13.609375000000 9.984375000000 4.418998718262 146 146 146
13.453125000000 9.984375000000 3.977996826172 89 89 89
13.453125000000 9.984375000000 3.942001342773 101 101 101
13.453125000000 9.968750000000 3.906997680664 108 108 108
13.453125000000 9.984375000000 3.872001647949 119 119 119
13.515625000000 9.968750000000 3.833999633789 137 137 137
13.484375000000 9.968750000000 3.799003601074 184 184 184
13.484375000000 9.968750000000 3.763999938965 185 185 185
13.484375000000 9.968750000000 3.728996276855 142 142 142
13.453125000000 9.984375000000 3.694999694824 95 95 95
13.453125000000 9.984375000000 3.660003662109 116 116 116
13.453125000000 9.984375000000 3.625000000000 150 150 150
13.468750000000 9.968750000000 3.588996887207 165 165 165
13.453125000000 9.984375000000 3.555000305176 113 113 113
13.453125000000 9.984375000000 3.518997192383 107 107 107
13.453125000000 9.968750000000 3.484001159668 117 117 117
13.453125000000 9.968750000000 3.448997497559 115 115 115
13.453125000000 9.984375000000 3.414001464844 111 111 111
13.453125000000 9.984375000000 3.378997802734 120 120 120
13.453125000000 9.984375000000 3.344001770020 69 69 69
13.625000000000 10.312500000000 5.075996398926 191 191 191
13.625000000000 10.312500000000 5.039001464844 219 219 219
13.625000000000 10.312500000000 5.000000000000 218 218 218
13.625000000000 10.312500000000 4.966003417969 224 224 224
13.625000000000 10.312500000000 4.930000305176 225 225 225
13.609375000000 10.312500000000 4.895996093750 230 230 230
13.609375000000 10.312500000000 4.859001159668 218 218 218
13.609375000000 10.312500000000 4.469001770020 244 244 244
13.625000000000 10.312500000000 4.431999206543 225 225 225
13.625000000000 10.312500000000 4.397003173828 197 197 197
13.609375000000 10.312500000000 4.362998962402 252 252 252
13.609375000000 10.312500000000 4.328002929688 14 14 14
13.609375000000 10.312500000000 4.293998718262 12 12 12
13.609375000000 10.312500000000 4.258003234863 252 252 252
13.578125000000 10.312500000000 4.226997375488 31 31 31
13.546875000000 9.437500000000 4.987998962402 48 48 48
13.546875000000 9.406250000000 4.944000244141 165 165 165
13.546875000000 9.406250000000 4.903999328613 153 153 153
13.546875000000 9.437500000000 4.864997863770 164 164 164
13.546875000000 9.421875000000 4.822998046875 201 201 201
13.546875000000 9.421875000000 4.781997680664 193 193 193
13.546875000000 9.437500000000 4.742996215820 125 125 125
13.546875000000 9.437500000000 4.540000915527 132 132 132
13.546875000000 9.437500000000 4.500000000000 146 146 146
13.546875000000 9.421875000000 4.458999633789 150 150 150
13.546875000000 9.437500000000 4.418998718262 147 147 147
13.546875000000 9.437500000000 4.378997802734 154 154 154
13.546875000000 9.437500000000 4.336997985840 151 151 151
13.546875000000 9.437500000000 4.297996520996 13 13 13
13.390625000000 9.531250000000 3.940002441406 37 37 37
13.390625000000 9.531250000000 3.899002075195 76 76 76
13.375000000000 9.531250000000 3.857002258301 80 80 80
13.390625000000 9.515625000000 3.816001892090 80 80 80
13.390625000000 9.531250000000 3.775001525879 85 85 85
13.390625000000 9.515625000000 3.734001159668 80 80 80
13.390625000000 9.531250000000 3.693000793457 77 77 77
13.390625000000 9.515625000000 3.652000427246 78 78 78
13.390625000000 9.515625000000 3.611000061035 44 44 44
13.562500000000 9.750000000000 5.296997070313 55 55 55
13.578125000000 9.750000000000 5.253997802734 63 63 63
13.578125000000 9.750000000000 5.207000732422 58 58 58
13.578125000000 9.750000000000 5.167999267578 172 172 172
13.578125000000 9.750000000000 5.126998901367 64 64 64
13.578125000000 9.750000000000 5.083000183105 61 61 61
13.578125000000 9.750000000000 5.043998718262 86 86 86
13.593750000000 9.734375000000 4.999000549316 143 143 143
13.593750000000 9.734375000000 4.957000732422 140 140 140
13.593750000000 9.734375000000 4.916999816895 155 155 155
13.593750000000 9.734375000000 4.875999450684 153 153 153
13.578125000000 9.750000000000 4.836997985840 156 156 156
13.578125000000 9.750000000000 4.795997619629 151 151 151
13.578125000000 9.750000000000 4.754997253418 155 155 155
13.578125000000 9.750000000000 4.716003417969 150 150 150
13.578125000000 9.750000000000 4.675003051758 158 158 158
13.578125000000 9.750000000000 4.635002136230 151 151 151
13.578125000000 9.750000000000 4.594001770020 153 153 153
13.578125000000 9.750000000000 4.554000854492 151 151 151
13.578125000000 9.750000000000 4.513999938965 152 152 152
13.578125000000 9.750000000000 4.472999572754 123 123 123
13.578125000000 9.750000000000 4.433998107910 117 117 117
13.578125000000 9.750000000000 4.392997741699 115 115 115
13.578125000000 9.750000000000 4.352996826172 115 115 115
13.578125000000 9.750000000000 4.313003540039 118 118 118
13.593750000000 9.734375000000 4.272003173828 110 110 110
13.578125000000 9.750000000000 4.232002258301 110 110 110
13.578125000000 9.750000000000 4.193000793457 109 109 109
13.578125000000 9.750000000000 4.152000427246 112 112 112
13.578125000000 9.750000000000 4.112998962402 111 111 111
13.578125000000 9.750000000000 4.072998046875 109 109 109
13.578125000000 9.750000000000 4.032997131348 108 108 108
13.578125000000 9.750000000000 3.992996215820 108 108 108
13.546875000000 9.750000000000 3.954002380371 116 116 116
13.546875000000 9.765625000000 3.914001464844 123 123 123
13.546875000000 9.750000000000 3.874000549316 122 122 122
13.546875000000 9.750000000000 3.833999633789 114 114 114
13.546875000000 9.765625000000 3.793998718262 113 113 113
13.578125000000 9.750000000000 3.753997802734 112 112 112
13.546875000000 9.750000000000 3.713996887207 107 107 107
13.546875000000 9.765625000000 3.672996520996 100 100 100
13.562500000000 9.750000000000 3.634002685547 113 113 113
13.578125000000 9.750000000000 3.595001220703 105 105 105
13.468750000000 9.812500000000 3.551002502441 58 58 58
13.453125000000 9.812500000000 3.510002136230 63 63 63
13.484375000000 9.796875000000 3.470001220703 79 79 79
13.484375000000 9.796875000000 3.429000854492 67 67 67
13.437500000000 9.812500000000 3.387001037598 86 86 86
13.437500000000 9.812500000000 3.346000671387 159 159 159
13.484375000000 9.781250000000 3.308998107910 174 174 174
13.578125000000 10.062500000000 4.938003540039 122 122 122
13.578125000000 10.062500000000 4.894996643066 146 146 146
13.578125000000 10.062500000000 4.855003356934 146 146 146
13.578125000000 10.062500000000 4.815002441406 175 175 175
13.578125000000 10.078125000000 4.775001525879 181 181 181
13.578125000000 10.078125000000 4.735000610352 171 171 171
13.578125000000 10.062500000000 4.693000793457 67 67 67
13.578125000000 10.062500000000 4.611999511719 106 106 106
13.578125000000 10.062500000000 4.571998596191 176 176 176
13.578125000000 10.062500000000 4.529998779297 188 188 188
13.578125000000 10.062500000000 4.489997863770 181 181 181
13.578125000000 10.062500000000 4.450996398926 195 195 195
13.578125000000 10.062500000000 4.411003112793 168 168 168
13.578125000000 10.062500000000 4.371002197266 75 75 75
13.453125000000 10.156250000000 3.894996643066 76 76 76
13.453125000000 10.156250000000 3.853996276855 85 85 85
13.453125000000 10.140625000000 3.813003540039 82 82 82
13.453125000000 10.140625000000 3.773002624512 81 81 81
13.453125000000 10.140625000000 3.732002258301 77 77 77
13.453125000000 10.156250000000 3.691001892090 82 82 82
13.484375000000 10.125000000000 3.651000976563 57 57 57
13.593750000000 10.406250000000 4.954002380371 125 125 125
13.609375000000 10.390625000000 4.913002014160 118 118 118
13.578125000000 10.390625000000 4.429000854492 129 129 129
13.609375000000 10.390625000000 4.388000488281 187 187 187
13.609375000000 10.390625000000 4.347999572754 119 119 119
13.546875000000 9.312500000000 4.220001220703 20 20 20
13.546875000000 9.312500000000 4.259002685547 151 151 151
13.546875000000 9.312500000000 4.299003601074 144 144 144
13.578125000000 9.312500000000 4.337997436523 154 154 154
13.578125000000 9.312500000000 4.377998352051 140 140 140
13.546875000000 9.312500000000 4.417999267578 148 148 148
13.546875000000 9.312500000000 4.458999633789 151 151 151
13.609375000000 9.343750000000 4.816001892090 162 162 162
13.578125000000 9.328125000000 4.857002258301 213 213 213
13.578125000000 9.328125000000 4.898002624512 152 152 152
13.609375000000 9.343750000000 4.936996459961 130 130 130
13.609375000000 9.343750000000 4.977996826172 132 132 132
13.578125000000 9.328125000000 5.018997192383 75 75 75
13.484375000000 9.593750000000 3.520996093750 138 138 138
13.484375000000 9.593750000000 3.559997558594 182 182 182
13.484375000000 9.593750000000 3.599998474121 161 161 161
13.421875000000 9.546875000000 3.639999389648 75 75 75
13.421875000000 9.546875000000 3.680000305176 77 77 77
13.453125000000 9.562500000000 3.721000671387 77 77 77
13.453125000000 9.562500000000 3.761001586914 82 82 82
13.453125000000 9.578125000000 3.801002502441 109 109 109
13.421875000000 9.562500000000 3.843002319336 79 79 79
13.421875000000 9.562500000000 3.883003234863 78 78 78
13.406250000000 9.546875000000 3.924003601074 70 70 70
13.578125000000 9.656250000000 4.433998107910 16 16 16
13.578125000000 9.671875000000 4.472000122070 153 153 153
13.578125000000 9.671875000000 4.512001037598 142 142 142
13.578125000000 9.656250000000 4.553001403809 151 151 151
13.578125000000 9.671875000000 4.592002868652 142 142 142
13.578125000000 9.671875000000 4.630996704102 141 141 141
13.578125000000 9.671875000000 4.670997619629 130 130 130
13.609375000000 9.687500000000 4.709999084473 134 134 134
13.609375000000 9.687500000000 4.750000000000 130 130 130
13.609375000000 9.687500000000 4.790000915527 136 136 136
13.609375000000 9.687500000000 4.829002380371 61 61 61
13.703125000000 9.750000000000 4.927001953125 62 62 62
13.703125000000 9.750000000000 4.966003417969 85 85 85
13.703125000000 9.750000000000 5.005996704102 27 27 27
13.609375000000 9.687500000000 5.151000976563 36 36 36
13.609375000000 9.687500000000 5.195999145508 26 26 26
13.609375000000 9.687500000000 5.237998962402 19 19 19
13.578125000000 9.687500000000 5.281997680664 19 19 19
13.468750000000 9.906250000000 3.293998718262 46 46 46
13.484375000000 9.906250000000 3.334999084473 73 73 73
13.468750000000 9.906250000000 3.375000000000 74 74 74
13.468750000000 9.906250000000 3.416000366211 75 75 75
13.453125000000 9.906250000000 3.456001281738 73 73 73
13.453125000000 9.906250000000 3.496002197266 75 75 75
13.453125000000 9.906250000000 3.536003112793 79 79 79
13.484375000000 9.921875000000 3.577003479004 125 125 125
13.484375000000 9.921875000000 3.616996765137 78 78 78
13.484375000000 9.921875000000 3.656997680664 81 81 81
13.453125000000 9.906250000000 3.696998596191 78 78 78
13.484375000000 9.921875000000 3.737998962402 95 95 95
13.515625000000 9.953125000000 3.777000427246 90 90 90
13.484375000000 9.937500000000 3.818000793457 70 70 70
13.453125000000 9.921875000000 3.859001159668 71 71 71
13.453125000000 9.906250000000 3.899002075195 67 67 67
13.453125000000 9.921875000000 3.939002990723 67 67 67
13.453125000000 9.906250000000 3.980003356934 48 48 48
13.609375000000 10.015625000000 4.406997680664 67 67 67
13.609375000000 10.031250000000 4.445999145508 183 183 183
13.609375000000 10.031250000000 4.485000610352 206 206 206
13.609375000000 10.031250000000 4.525001525879 172 172 172
13.609375000000 10.031250000000 4.564002990723 207 207 207
13.609375000000 10.031250000000 4.603996276855 175 175 175
13.609375000000 10.031250000000 4.642997741699 64 64 64
13.593750000000 10.015625000000 4.686996459961 155 155 155
13.609375000000 10.031250000000 4.724998474121 197 197 197
13.609375000000 10.031250000000 4.765998840332 208 208 208
13.609375000000 10.031250000000 4.805000305176 146 146 146
13.609375000000 10.031250000000 4.844001770020 145 145 145
13.609375000000 10.031250000000 4.884002685547 152 152 152
13.609375000000 10.359375000000 4.262001037598 93 93 93
13.609375000000 10.343750000000 4.302001953125 124 124 124
13.609375000000 10.359375000000 4.339996337891 164 164 164
13.640625000000 10.375000000000 4.378997802734 211 211 211
13.609375000000 10.359375000000 4.418998718262 160 160 160
13.609375000000 10.343750000000 4.459999084473 40 40 40
13.609375000000 10.375000000000 4.897003173828 147 147 147
13.625000000000 10.375000000000 4.935997009277 146 146 146
13.625000000000 10.375000000000 4.976997375488 134 134 134
13.593750000000 10.375000000000 5.023002624512 68 68 68
13.578125000000 10.406250000000 4.334999084473 102 102 102
13.578125000000 10.406250000000 4.374000549316 184 184 184
13.609375000000 10.406250000000 4.412002563477 183 183 183
13.578125000000 10.406250000000 4.453002929688 69 69 69
13.578125000000 10.406250000000 4.930000305176 159 159 159
