26.796875000000 18.781250000000 6.518997192383 123 123 123
26.828125000000 18.781250000000 7.410003662109 17 17 17
26.765625000000 19.125000000000 6.490997314453 164 164 164
26.796875000000 19.125000000000 7.533996582031 20 20 20
26.796875000000 19.437500000000 6.462997436523 99 99 99
26.765625000000 19.437500000000 6.501998901367 116 116 116
26.796875000000 19.453125000000 7.672996520996 18 18 18
26.750000000000 19.781250000000 6.473999023438 156 156 156
26.765625000000 19.812500000000 7.797996520996 19 19 19
26.765625000000 20.109375000000 6.446998596191 66 66 66
26.703125000000 20.125000000000 6.478996276855 133 133 133
26.734375000000 20.125000000000 7.913002014160 14 14 14
26.703125000000 20.453125000000 6.452003479004 153 153 153
26.687500000000 20.437500000000 6.492996215820 45 45 45
26.703125000000 20.781250000000 6.422996520996 27 27 27
26.703125000000 20.781250000000 6.461997985840 161 161 161
26.703125000000 20.812500000000 8.133003234863 72 72 72
26.671875000000 20.812500000000 8.160003662109 15 15 15
26.609375000000 21.062500000000 3.025001525879 147 147 147
26.609375000000 21.062500000000 3.066001892090 155 155 155
26.609375000000 21.062500000000 3.107002258301 173 173 173
26.609375000000 21.062500000000 3.148002624512 130 130 130
26.609375000000 21.062500000000 3.228996276855 25 25 25
26.609375000000 21.062500000000 3.269996643066 66 66 66
26.609375000000 21.062500000000 3.310997009277 87 87 87
26.609375000000 21.062500000000 3.351997375488 94 94 94
26.609375000000 21.062500000000 3.391998291016 97 97 97
26.609375000000 21.062500000000 3.432998657227 101 101 101
26.609375000000 21.062500000000 3.473999023438 109 109 109
26.609375000000 21.062500000000 3.514999389648 118 118 118
26.609375000000 21.062500000000 3.555000305176 114 114 114
26.609375000000 21.062500000000 3.596000671387 115 115 115
26.609375000000 21.062500000000 3.637001037598 124 124 124
26.609375000000 21.062500000000 3.678001403809 130 130 130
26.609375000000 21.062500000000 3.719001770020 130 130 130
26.609375000000 21.078125000000 3.759002685547 128 128 128
26.609375000000 21.062500000000 3.800003051758 129 129 129
26.609375000000 21.078125000000 3.841003417969 129 129 129
26.609375000000 21.062500000000 3.881996154785 137 137 137
26.609375000000 21.078125000000 3.922996520996 135 135 135
26.609375000000 21.062500000000 3.964996337891 136 136 136
26.609375000000 21.078125000000 4.004997253418 141 141 141
26.609375000000 21.078125000000 4.046997070313 146 146 146
26.609375000000 21.078125000000 4.087997436523 147 147 147
26.609375000000 21.078125000000 4.127998352051 156 156 156
26.609375000000 21.093750000000 4.168998718262 164 164 164
26.609375000000 21.093750000000 4.210998535156 164 164 164
26.609375000000 21.078125000000 4.251998901367 164 164 164
26.609375000000 21.093750000000 4.292999267578 166 166 166
26.609375000000 21.078125000000 4.334999084473 164 164 164
26.609375000000 21.078125000000 4.376998901367 165 165 165
26.609375000000 21.093750000000 4.417999267578 163 163 163
26.609375000000 21.078125000000 4.460998535156 156 156 156
26.609375000000 21.093750000000 4.500999450684 163 163 163
26.609375000000 21.093750000000 4.542999267578 165 165 165
26.609375000000 21.093750000000 4.585998535156 164 164 164
26.609375000000 21.093750000000 4.627998352051 162 162 162
26.640625000000 21.093750000000 4.670997619629 157 157 157
26.640625000000 21.093750000000 4.711997985840 155 155 155
26.609375000000 21.093750000000 4.752998352051 160 160 160
26.640625000000 21.093750000000 4.796997070313 155 155 155
26.609375000000 21.093750000000 4.837997436523 152 152 152
26.609375000000 21.093750000000 4.879997253418 147 147 147
26.640625000000 21.093750000000 4.922996520996 146 146 146
26.640625000000 21.093750000000 4.968002319336 141 141 141
26.640625000000 21.093750000000 5.010002136230 136 136 136
26.609375000000 21.093750000000 5.051002502441 133 133 133
26.640625000000 21.093750000000 5.096000671387 145 145 145
26.640625000000 21.093750000000 5.138999938965 126 126 126
26.625000000000 21.093750000000 5.180999755859 124 124 124
26.625000000000 21.093750000000 5.223999023438 117 117 117
26.640625000000 21.093750000000 5.268997192383 122 122 122
26.609375000000 21.093750000000 5.309997558594 109 109 109
26.625000000000 21.093750000000 5.355003356934 111 111 111
26.640625000000 21.093750000000 5.402999877930 104 104 104
26.625000000000 21.093750000000 5.445999145508 102 102 102
26.625000000000 21.093750000000 5.486999511719 104 104 104
26.625000000000 21.093750000000 5.533996582031 103 103 103
26.625000000000 21.093750000000 5.579002380371 89 89 89
26.640625000000 21.109375000000 5.624000549316 80 80 80
26.640625000000 21.109375000000 5.669998168945 74 74 74
26.640625000000 21.109375000000 5.716003417969 65 65 65
26.640625000000 21.109375000000 5.759002685547 46 46 46
26.640625000000 21.109375000000 5.805999755859 20 20 20
26.734375000000 21.062500000000 8.508003234863 33 33 33
26.734375000000 21.078125000000 8.436996459961 72 72 72
26.734375000000 21.078125000000 8.372001647949 75 75 75
26.734375000000 21.078125000000 8.305000305176 82 82 82
26.734375000000 21.078125000000 8.240997314453 88 88 88
26.734375000000 21.078125000000 8.183998107910 88 88 88
26.734375000000 21.078125000000 8.117996215820 89 89 89
26.734375000000 21.078125000000 8.059997558594 93 93 93
26.703125000000 21.062500000000 7.992996215820 98 98 98
26.703125000000 21.062500000000 7.930999755859 98 98 98
26.703125000000 21.062500000000 7.872001647949 96 96 96
26.703125000000 21.062500000000 7.809997558594 99 99 99
26.703125000000 21.078125000000 7.747001647949 100 100 100
26.703125000000 21.062500000000 7.689002990723 106 106 106
26.703125000000 21.078125000000 7.628997802734 100 100 100
26.703125000000 21.078125000000 7.569000244141 104 104 104
26.703125000000 21.062500000000 7.506996154785 107 107 107
26.703125000000 21.078125000000 7.452003479004 102 102 102
26.703125000000 21.062500000000 7.391998291016 112 112 112
26.703125000000 21.062500000000 7.336997985840 118 118 118
26.703125000000 21.062500000000 7.276000976563 110 110 110
26.687500000000 21.078125000000 7.214996337891 106 106 106
26.687500000000 21.078125000000 7.158996582031 117 117 117
26.671875000000 21.093750000000 7.098999023438 111 111 111
26.671875000000 21.093750000000 7.043998718262 106 106 106
26.671875000000 21.078125000000 6.986000061035 107 107 107
26.671875000000 21.093750000000 6.930000305176 108 108 108
26.671875000000 21.093750000000 6.872001647949 103 103 103
26.671875000000 21.078125000000 6.820999145508 114 114 114
26.671875000000 21.093750000000 6.764999389648 105 105 105
26.671875000000 21.093750000000 6.708999633789 110 110 110
26.671875000000 21.093750000000 6.652999877930 109 109 109
26.671875000000 21.093750000000 6.598999023438 111 111 111
26.656250000000 21.093750000000 6.539001464844 104 104 104
26.671875000000 21.078125000000 6.487998962402 110 110 110
26.671875000000 21.078125000000 6.436996459961 116 116 116
26.656250000000 21.093750000000 6.379997253418 120 120 120
26.656250000000 21.093750000000 6.327003479004 113 113 113
26.671875000000 21.078125000000 6.275001525879 108 108 108
26.640625000000 21.093750000000 6.219001770020 112 112 112
26.640625000000 21.093750000000 6.166999816895 120 120 120
26.640625000000 21.093750000000 6.115997314453 115 115 115
26.640625000000 21.093750000000 6.060997009277 119 119 119
26.656250000000 21.093750000000 6.013000488281 122 122 122
26.640625000000 21.078125000000 5.959999084473 119 119 119
26.640625000000 21.078125000000 5.908996582031 119 119 119
26.640625000000 21.093750000000 5.855003356934 124 124 124
26.640625000000 21.093750000000 5.804000854492 115 115 115
26.640625000000 21.093750000000 5.751998901367 124 124 124
26.640625000000 21.078125000000 5.704002380371 118 118 118
26.640625000000 21.093750000000 5.652999877930 118 118 118
26.640625000000 21.093750000000 5.601997375488 123 123 123
26.609375000000 21.078125000000 5.551002502441 123 123 123
26.640625000000 21.078125000000 5.501998901367 126 126 126
26.640625000000 21.093750000000 5.452003479004 131 131 131
26.640625000000 21.078125000000 5.402999877930 123 123 123
26.609375000000 21.093750000000 5.350997924805 130 130 130
26.609375000000 21.062500000000 5.303001403809 132 132 132
26.609375000000 21.093750000000 5.251998901367 127 127 127
26.609375000000 21.093750000000 5.202003479004 133 133 133
26.609375000000 21.093750000000 5.152000427246 129 129 129
26.609375000000 21.078125000000 5.105003356934 136 136 136
26.609375000000 21.078125000000 5.056999206543 135 135 135
26.609375000000 21.078125000000 5.006996154785 133 133 133
26.609375000000 21.078125000000 4.958999633789 135 135 135
26.609375000000 21.078125000000 4.910003662109 144 144 144
26.609375000000 21.078125000000 4.861000061035 139 139 139
26.609375000000 21.062500000000 4.813003540039 142 142 142
26.609375000000 21.078125000000 4.763999938965 135 135 135
26.609375000000 21.078125000000 4.716003417969 132 132 132
26.609375000000 21.062500000000 4.668998718262 137 137 137
26.609375000000 21.062500000000 4.619003295898 133 133 133
26.609375000000 21.062500000000 4.570999145508 138 138 138
26.609375000000 21.062500000000 4.523002624512 137 137 137
26.609375000000 21.062500000000 4.474998474121 130 130 130
26.609375000000 21.062500000000 4.428001403809 149 149 149
26.609375000000 21.062500000000 4.379997253418 138 138 138
26.609375000000 21.062500000000 4.333000183105 141 141 141
26.609375000000 21.062500000000 4.283996582031 136 136 136
26.609375000000 21.062500000000 4.236999511719 145 145 145
26.609375000000 21.062500000000 4.189002990723 145 145 145
26.609375000000 21.062500000000 4.140998840332 137 137 137
26.609375000000 21.062500000000 4.093002319336 134 134 134
26.609375000000 21.062500000000 4.044998168945 130 130 130
26.609375000000 21.062500000000 3.998001098633 131 131 131
26.609375000000 21.078125000000 3.949996948242 120 120 120
26.578125000000 21.062500000000 3.902999877930 128 128 128
26.609375000000 21.062500000000 3.855003356934 118 118 118
26.609375000000 21.062500000000 3.807998657227 118 118 118
26.609375000000 21.062500000000 3.761001586914 123 123 123
26.609375000000 21.062500000000 3.712997436523 116 116 116
26.578125000000 21.062500000000 3.666000366211 117 117 117
26.609375000000 21.062500000000 3.617996215820 116 116 116
26.578125000000 21.062500000000 3.570999145508 114 114 114
26.578125000000 21.062500000000 3.523002624512 107 107 107
26.609375000000 21.062500000000 3.475997924805 107 107 107
26.578125000000 21.062500000000 3.428001403809 106 106 106
26.578125000000 21.062500000000 3.380996704102 110 110 110
26.578125000000 21.062500000000 3.333999633789 113 113 113
26.578125000000 21.062500000000 3.285003662109 110 110 110
26.578125000000 21.062500000000 3.237998962402 100 100 100
26.609375000000 21.062500000000 3.189002990723 127 127 127
26.578125000000 21.062500000000 3.142997741699 145 145 145
26.578125000000 21.062500000000 3.095001220703 134 134 134
26.578125000000 21.062500000000 3.047996520996 127 127 127
26.578125000000 21.062500000000 3.000000000000 100 100 100
26.578125000000 21.062500000000 2.952003479004 96 96 96
26.593750000000 21.062500000000 2.902999877930 90 90 90
26.578125000000 21.062500000000 2.856002807617 95 95 95
26.578125000000 21.062500000000 2.807998657227 84 84 84
26.593750000000 21.062500000000 2.759002685547 80 80 80
26.593750000000 21.062500000000 2.710998535156 68 68 68
26.593750000000 21.062500000000 2.663002014160 55 55 55
26.578125000000 21.046875000000 2.615997314453 44 44 44
26.593750000000 21.062500000000 2.566001892090 27 27 27
26.578125000000 21.046875000000 2.519996643066 15 15 15
26.703125000000 20.812500000000 8.239997863770 13 13 13
26.734375000000 20.796875000000 8.197998046875 69 69 69
26.578125000000 20.859375000000 6.527999877930 72 72 72
26.609375000000 20.812500000000 6.491996765137 131 131 131
26.703125000000 20.781250000000 6.466003417969 17 17 17
26.578125000000 20.781250000000 3.068000793457 12 12 12
26.609375000000 20.781250000000 3.018997192383 17 17 17
26.578125000000 20.781250000000 2.972000122070 19 19 19
26.578125000000 20.781250000000 2.924003601074 28 28 28
26.609375000000 20.765625000000 2.874000549316 37 37 37
26.609375000000 20.765625000000 2.825996398926 41 41 41
26.609375000000 20.750000000000 2.776000976563 50 50 50
26.609375000000 20.781250000000 2.730003356934 57 57 57
26.609375000000 20.765625000000 2.681999206543 62 62 62
26.609375000000 20.765625000000 2.634002685547 70 70 70
26.609375000000 20.765625000000 2.584999084473 75 75 75
26.609375000000 20.750000000000 2.535003662109 77 77 77
26.609375000000 20.765625000000 2.486999511719 80 80 80
26.609375000000 20.765625000000 2.439002990723 84 84 84
26.593750000000 20.765625000000 2.391998291016 85 85 85
26.640625000000 20.750000000000 2.338996887207 114 114 114
26.640625000000 20.734375000000 2.285003662109 147 147 147
26.609375000000 20.750000000000 2.142997741699 202 202 202
26.703125000000 20.515625000000 8.094001770020 18 18 18
26.703125000000 20.500000000000 6.543998718262 27 27 27
26.703125000000 20.500000000000 6.494003295898 104 104 104
26.734375000000 20.218750000000 8.013000488281 2 2 2
26.734375000000 20.203125000000 6.523002624512 119 119 119
26.765625000000 19.906250000000 7.880996704102 19 19 19
26.734375000000 19.906250000000 6.558998107910 11 11 11
26.734375000000 19.906250000000 6.509002685547 117 117 117
26.765625000000 19.625000000000 7.791999816895 11 11 11
26.750000000000 19.609375000000 6.542999267578 114 114 114
26.765625000000 19.593750000000 6.496002197266 24 24 24
26.781250000000 19.312500000000 7.657997131348 25 25 25
26.781250000000 19.312500000000 6.524002075195 114 114 114
26.796875000000 19.031250000000 7.566001892090 25 25 25
26.796875000000 19.015625000000 6.549003601074 123 123 123
26.796875000000 18.750000000000 7.472000122070 20 20 20
26.796875000000 18.734375000000 6.575996398926 78 78 78
26.796875000000 18.718750000000 6.526000976563 72 72 72
26.828125000000 18.437500000000 7.339996337891 18 18 18
26.828125000000 18.437500000000 6.553001403809 127 127 127
26.828125000000 18.156250000000 7.254997253418 11 11 11
26.828125000000 18.125000000000 6.591003417969 58 58 58
26.859375000000 18.125000000000 6.542999267578 77 77 77
26.859375000000 17.843750000000 7.138000488281 23 23 23
26.828125000000 17.828125000000 6.573997497559 122 122 122
26.890625000000 17.796875000000 6.539001464844 64 64 64
26.890625000000 17.796875000000 6.486999511719 33 33 33
26.890625000000 17.812500000000 6.427001953125 38 38 38
26.859375000000 17.812500000000 6.369003295898 24 24 24
26.859375000000 17.562500000000 7.041000366211 21 21 21
26.859375000000 17.531250000000 6.606002807617 67 67 67
26.890625000000 17.531250000000 6.554000854492 38 38 38
26.890625000000 17.531250000000 6.287002563477 79 79 79
26.859375000000 17.281250000000 6.625000000000 8 8 8
26.859375000000 17.250000000000 6.578002929688 98 98 98
26.890625000000 17.250000000000 6.315002441406 26 26 26
26.890625000000 16.968750000000 6.832000732422 21 21 21
26.859375000000 16.968750000000 6.599998474121 106 106 106
26.890625000000 16.953125000000 6.286003112793 25 25 25
26.921875000000 16.671875000000 6.753997802734 42 42 42
26.921875000000 16.656250000000 6.704002380371 6 6 6
26.890625000000 16.687500000000 6.630996704102 24 24 24
26.921875000000 16.687500000000 6.585998535156 81 81 81
26.921875000000 16.656250000000 6.316001892090 67 67 67
26.921875000000 16.375000000000 6.617996215820 86 86 86
26.984375000000 16.343750000000 6.589996337891 67 67 67
26.984375000000 16.328125000000 6.537002563477 48 48 48
26.953125000000 16.343750000000 6.474998474121 33 33 33
26.953125000000 16.343750000000 6.419998168945 24 24 24
26.953125000000 16.343750000000 6.365997314453 39 39 39
26.953125000000 16.343750000000 6.306999206543 101 101 101
26.921875000000 16.078125000000 6.605003356934 93 93 93
26.984375000000 16.031250000000 6.517997741699 192 192 192
26.968750000000 16.046875000000 6.459999084473 132 132 132
26.984375000000 16.031250000000 6.407997131348 157 157 157
26.953125000000 16.062500000000 6.347999572754 201 201 201
26.953125000000 16.062500000000 6.294998168945 43 43 43
26.921875000000 15.781250000000 6.638999938965 68 68 68
26.921875000000 15.781250000000 6.585998535156 11 11 11
26.984375000000 15.750000000000 6.547996520996 131 131 131
26.984375000000 15.750000000000 6.495002746582 180 180 180
26.984375000000 15.750000000000 6.436996459961 186 186 186
26.984375000000 15.750000000000 6.381996154785 204 204 204
26.984375000000 15.750000000000 6.329002380371 144 144 144
26.921875000000 15.500000000000 6.660003662109 7 7 7
26.953125000000 15.500000000000 6.611999511719 93 93 93
26.984375000000 15.468750000000 6.574996948242 31 31 31
27.015625000000 15.468750000000 6.524002075195 195 195 195
27.000000000000 15.468750000000 6.467002868652 172 172 172
26.984375000000 15.468750000000 6.408996582031 131 131 131
26.984375000000 15.468750000000 6.352996826172 194 194 194
27.000000000000 15.468750000000 6.301002502441 10 10 10
26.953125000000 15.218750000000 6.636001586914 86 86 86
27.015625000000 15.171875000000 6.551002502441 162 162 162
27.015625000000 15.156250000000 6.498001098633 169 169 169
27.015625000000 15.171875000000 6.440002441406 169 169 169
27.015625000000 15.171875000000 6.384002685547 198 198 198
26.984375000000 15.187500000000 6.324996948242 100 100 100
26.984375000000 14.906250000000 6.622001647949 87 87 87
27.015625000000 14.890625000000 6.584999084473 22 22 22
27.031250000000 14.875000000000 6.532997131348 201 201 201
27.046875000000 14.875000000000 6.478996276855 187 187 187
27.031250000000 14.875000000000 6.421997070313 161 161 161
27.015625000000 14.875000000000 6.363998413086 197 197 197
27.015625000000 14.890625000000 6.306999206543 14 14 14
26.984375000000 14.609375000000 6.668998718262 48 48 48
27.000000000000 14.593750000000 6.620002746582 31 31 31
27.031250000000 14.562500000000 6.575996398926 114 114 114
27.046875000000 14.578125000000 6.525001525879 166 166 166
27.015625000000 14.578125000000 6.463996887207 138 138 138
27.015625000000 14.593750000000 6.405998229980 148 148 148
27.015625000000 14.578125000000 6.353996276855 167 167 167
26.984375000000 14.312500000000 6.649002075195 102 102 102
27.046875000000 14.281250000000 6.558998107910 189 189 189
27.046875000000 14.281250000000 6.501998901367 182 182 182
27.046875000000 14.281250000000 6.445999145508 173 173 173
27.046875000000 14.281250000000 6.391998291016 202 202 202
27.046875000000 14.281250000000 6.333000183105 87 87 87
27.015625000000 14.015625000000 6.681999206543 80 80 80
27.015625000000 14.015625000000 6.628997802734 20 20 20
27.046875000000 14.000000000000 6.359001159668 63 63 63
27.046875000000 13.718750000000 6.710998535156 13 13 13
27.031250000000 13.734375000000 6.651000976563 79 79 79
27.078125000000 13.703125000000 6.617996215820 75 75 75
27.078125000000 13.687500000000 6.564002990723 65 65 65
27.078125000000 13.703125000000 6.505996704102 54 54 54
27.078125000000 13.687500000000 6.454002380371 27 27 27
27.046875000000 13.703125000000 6.391998291016 56 56 56
27.031250000000 13.453125000000 6.680000305176 84 84 84
27.078125000000 13.406250000000 6.367996215820 72 72 72
27.046875000000 13.156250000000 6.668998718262 84 84 84
27.078125000000 13.125000000000 6.405998229980 8 8 8
27.078125000000 12.843750000000 6.767997741699 98 98 98
27.046875000000 12.875000000000 6.700996398926 126 126 126
27.078125000000 12.859375000000 6.652999877930 140 140 140
27.078125000000 12.843750000000 6.606002807617 18 18 18
27.109375000000 12.828125000000 6.389999389648 82 82 82
27.046875000000 12.562500000000 6.677001953125 112 112 112
27.109375000000 12.265625000000 7.236000061035 10 10 10
27.078125000000 12.281250000000 6.708999633789 95 95 95
27.078125000000 12.250000000000 6.661003112793 40 40 40
27.109375000000 12.000000000000 7.436996459961 16 16 16
27.093750000000 11.984375000000 6.684997558594 123 123 123
27.078125000000 11.687500000000 6.714996337891 90 90 90
27.109375000000 11.687500000000 6.669998168945 55 55 55
27.140625000000 11.406250000000 7.944000244141 12 12 12
27.109375000000 11.406250000000 6.697998046875 127 127 127
27.109375000000 11.125000000000 8.160003662109 13 13 13
27.109375000000 11.093750000000 6.731002807617 14 14 14
27.140625000000 11.093750000000 6.681999206543 110 110 110
27.109375000000 10.812500000000 6.706001281738 120 120 120
27.140625000000 10.531250000000 6.678001403809 114 114 114
27.140625000000 10.250000000000 6.708000183105 88 88 88
27.140625000000 10.234375000000 6.654998779297 55 55 55
27.140625000000 9.953125000000 6.680000305176 129 129 129
27.140625000000 9.656250000000 6.657997131348 122 122 122
27.140625000000 9.421875000000 9.664001464844 79 79 79
27.109375000000 9.437500000000 9.569999694824 57 57 57
27.234375000000 9.328125000000 7.664001464844 4 4 4
27.203125000000 9.343750000000 7.583999633789 13 13 13
27.203125000000 9.343750000000 7.529998779297 18 18 18
27.203125000000 9.343750000000 7.473999023438 25 25 25
27.203125000000 9.343750000000 7.403999328613 21 21 21
27.203125000000 9.343750000000 7.344001770020 25 25 25
27.203125000000 9.343750000000 7.287002563477 29 29 29
27.203125000000 9.343750000000 7.227996826172 28 28 28
27.203125000000 9.343750000000 7.174003601074 29 29 29
27.203125000000 9.343750000000 7.110000610352 31 31 31
27.171875000000 9.343750000000 7.052001953125 33 33 33
27.171875000000 9.343750000000 6.991996765137 40 40 40
27.203125000000 9.343750000000 6.941001892090 37 37 37
27.171875000000 9.343750000000 6.876998901367 47 47 47
27.171875000000 9.343750000000 6.818000793457 56 56 56
27.171875000000 9.343750000000 6.763999938965 66 66 66
27.140625000000 9.375000000000 6.681999206543 127 127 127
27.140625000000 9.359375000000 6.636001586914 125 125 125
27.171875000000 9.343750000000 6.597000122070 71 71 71
27.171875000000 9.343750000000 6.537002563477 71 71 71
27.171875000000 9.343750000000 6.482002258301 78 78 78
27.171875000000 9.343750000000 6.426002502441 77 77 77
27.156250000000 9.343750000000 6.365997314453 73 73 73
27.171875000000 9.343750000000 6.314002990723 73 73 73
27.140625000000 9.343750000000 6.253997802734 75 75 75
27.156250000000 9.343750000000 6.200996398926 86 86 86
27.140625000000 9.343750000000 6.144996643066 79 79 79
27.156250000000 9.343750000000 6.093002319336 78 78 78
27.171875000000 9.343750000000 6.041000366211 75 75 75
27.140625000000 9.343750000000 5.983001708984 81 81 81
27.140625000000 9.343750000000 5.924003601074 81 81 81
27.140625000000 9.343750000000 5.873001098633 76 76 76
27.140625000000 9.343750000000 5.818000793457 77 77 77
27.140625000000 9.343750000000 5.763000488281 77 77 77
27.125000000000 9.343750000000 5.708000183105 81 81 81
27.140625000000 9.343750000000 5.656997680664 77 77 77
27.140625000000 9.343750000000 5.603996276855 83 83 83
27.125000000000 9.343750000000 5.550003051758 91 91 91
27.109375000000 9.359375000000 5.495002746582 96 96 96
27.109375000000 9.359375000000 5.442001342773 98 98 98
27.109375000000 9.359375000000 5.390998840332 109 109 109
27.109375000000 9.359375000000 5.336997985840 111 111 111
27.109375000000 9.359375000000 5.283996582031 107 107 107
27.109375000000 9.359375000000 5.234001159668 116 116 116
27.109375000000 9.343750000000 5.181999206543 110 110 110
27.109375000000 9.343750000000 5.129997253418 109 109 109
27.109375000000 9.359375000000 5.077003479004 111 111 111
27.109375000000 9.343750000000 5.027999877930 115 115 115
27.109375000000 9.343750000000 4.975997924805 111 111 111
27.109375000000 9.359375000000 4.924003601074 109 109 109
27.109375000000 9.359375000000 4.873001098633 112 112 112
27.109375000000 9.359375000000 4.821998596191 113 113 113
27.109375000000 9.343750000000 4.773002624512 112 112 112
27.078125000000 9.343750000000 4.719001770020 117 117 117
27.109375000000 9.343750000000 4.670997619629 124 124 124
27.109375000000 9.359375000000 4.619003295898 131 131 131
27.078125000000 9.343750000000 4.568000793457 129 129 129
27.078125000000 9.343750000000 4.516998291016 131 131 131
27.109375000000 9.343750000000 4.468002319336 140 140 140
27.109375000000 9.343750000000 4.416999816895 142 142 142
27.109375000000 9.343750000000 4.366996765137 139 139 139
27.078125000000 9.343750000000 4.315002441406 136 136 136
27.093750000000 9.343750000000 4.265998840332 144 144 144
27.078125000000 9.343750000000 4.214996337891 138 138 138
27.109375000000 9.343750000000 4.166000366211 134 134 134
27.078125000000 9.343750000000 4.114997863770 130 130 130
27.093750000000 9.343750000000 4.065002441406 131 131 131
27.093750000000 9.343750000000 4.013999938965 118 118 118
27.093750000000 9.343750000000 3.963996887207 121 121 121
27.093750000000 9.343750000000 3.914001464844 118 118 118
27.093750000000 9.343750000000 3.863998413086 119 119 119
27.078125000000 9.343750000000 3.814002990723 116 116 116
27.093750000000 9.343750000000 3.763999938965 117 117 117
27.093750000000 9.343750000000 3.712997436523 107 107 107
27.093750000000 9.343750000000 3.663002014160 116 116 116
27.093750000000 9.343750000000 3.612998962402 112 112 112
27.109375000000 9.312500000000 3.563003540039 112 112 112
27.109375000000 9.312500000000 3.512001037598 107 107 107
27.109375000000 9.312500000000 3.461997985840 105 105 105
27.109375000000 9.312500000000 3.412002563477 96 96 96
27.109375000000 9.328125000000 3.361999511719 139 139 139
27.109375000000 9.312500000000 3.310997009277 148 148 148
27.109375000000 9.312500000000 3.261001586914 137 137 137
27.109375000000 9.312500000000 3.208999633789 27 27 27
27.078125000000 9.328125000000 3.161003112793 13 13 13
27.234375000000 9.218750000000 2.372001647949 27 27 27
27.109375000000 9.296875000000 2.342002868652 133 133 133
27.109375000000 9.296875000000 2.289001464844 128 128 128
27.109375000000 9.296875000000 2.237998962402 127 127 127
27.078125000000 9.187500000000 9.803001403809 55 55 55
27.078125000000 9.156250000000 9.741996765137 109 109 109
27.078125000000 9.156250000000 9.666999816895 107 107 107
27.078125000000 9.156250000000 9.595001220703 109 109 109
27.078125000000 9.156250000000 9.525001525879 108 108 108
27.078125000000 9.156250000000 9.447998046875 107 107 107
27.078125000000 9.156250000000 9.379997253418 111 111 111
27.078125000000 9.156250000000 9.306999206543 109 109 109
27.093750000000 9.156250000000 9.240997314453 109 109 109
27.078125000000 9.156250000000 9.165000915527 110 110 110
27.078125000000 9.156250000000 9.095001220703 108 108 108
27.093750000000 9.156250000000 9.029998779297 107 107 107
27.093750000000 9.156250000000 8.961997985840 107 107 107
27.093750000000 9.156250000000 8.894996643066 117 117 117
27.078125000000 9.156250000000 8.822998046875 110 110 110
27.093750000000 9.156250000000 8.760002136230 113 113 113
27.093750000000 9.156250000000 8.693000793457 114 114 114
27.109375000000 9.140625000000 8.631996154785 114 114 114
27.078125000000 9.140625000000 8.561996459961 109 109 109
27.109375000000 9.140625000000 8.500999450684 109 109 109
27.109375000000 9.140625000000 8.433998107910 117 117 117
27.109375000000 9.140625000000 8.370002746582 121 121 121
27.078125000000 9.125000000000 8.305999755859 121 121 121
27.078125000000 9.125000000000 8.241996765137 118 118 118
27.078125000000 9.125000000000 8.177001953125 117 117 117
27.078125000000 9.125000000000 8.117996215820 122 122 122
27.078125000000 9.125000000000 8.051002502441 123 123 123
27.078125000000 9.125000000000 7.990997314453 112 112 112
27.078125000000 9.125000000000 7.930999755859 123 123 123
27.078125000000 9.125000000000 7.867996215820 123 123 123
27.078125000000 9.125000000000 7.805000305176 122 122 122
27.078125000000 9.125000000000 7.748001098633 124 124 124
27.078125000000 9.125000000000 7.686996459961 122 122 122
27.093750000000 9.125000000000 7.628997802734 123 123 123
27.093750000000 9.125000000000 7.569999694824 121 121 121
27.109375000000 9.109375000000 7.512001037598 126 126 126
27.093750000000 9.125000000000 7.447998046875 127 127 127
27.109375000000 9.109375000000 7.390998840332 122 122 122
27.093750000000 9.125000000000 7.330001831055 122 122 122
27.109375000000 9.109375000000 7.273002624512 124 124 124
27.093750000000 9.125000000000 7.212997436523 128 128 128
27.109375000000 9.109375000000 7.156997680664 119 119 119
27.109375000000 9.109375000000 7.101997375488 119 119 119
27.109375000000 9.093750000000 7.047996520996 125 125 125
27.109375000000 9.109375000000 6.987998962402 120 120 120
27.109375000000 9.109375000000 6.930999755859 119 119 119
27.109375000000 9.109375000000 6.872001647949 121 121 121
27.109375000000 9.109375000000 6.815002441406 119 119 119
27.109375000000 9.109375000000 6.758003234863 120 120 120
27.109375000000 9.109375000000 6.705001831055 123 123 123
27.109375000000 9.093750000000 6.652000427246 123 123 123
27.109375000000 9.093750000000 6.597000122070 124 124 124
27.078125000000 9.093750000000 6.536003112793 127 127 127
27.078125000000 9.093750000000 6.480003356934 122 122 122
27.078125000000 9.093750000000 6.427001953125 123 123 123
27.078125000000 9.093750000000 6.372001647949 129 129 129
27.078125000000 9.093750000000 6.319000244141 126 126 126
27.078125000000 9.093750000000 6.263000488281 125 125 125
27.109375000000 9.093750000000 6.211997985840 129 129 129
27.109375000000 9.093750000000 6.158996582031 130 130 130
27.093750000000 9.093750000000 6.102996826172 123 123 123
27.093750000000 9.093750000000 6.050003051758 129 129 129
27.109375000000 9.078125000000 5.997001647949 125 125 125
27.078125000000 9.093750000000 5.940002441406 125 125 125
27.109375000000 9.078125000000 5.889999389648 126 126 126
27.109375000000 9.062500000000 5.838996887207 122 122 122
27.093750000000 9.093750000000 5.781997680664 125 125 125
27.093750000000 9.093750000000 5.730003356934 125 125 125
27.109375000000 9.062500000000 5.680999755859 150 150 150
27.109375000000 9.078125000000 5.625999450684 141 141 141
27.109375000000 9.078125000000 5.572998046875 134 134 134
27.109375000000 9.078125000000 5.519996643066 133 133 133
27.140625000000 9.062500000000 5.473999023438 128 128 128
27.109375000000 9.062500000000 5.418998718262 128 128 128
27.109375000000 9.062500000000 5.365997314453 135 135 135
27.109375000000 9.078125000000 5.313003540039 129 129 129
27.109375000000 9.062500000000 5.261001586914 129 129 129
27.109375000000 9.062500000000 5.210998535156 136 136 136
27.109375000000 9.062500000000 5.158996582031 131 131 131
27.109375000000 9.062500000000 5.108001708984 133 133 133
27.109375000000 9.062500000000 5.055000305176 122 122 122
27.109375000000 9.062500000000 5.004997253418 129 129 129
27.109375000000 9.062500000000 4.956001281738 122 122 122
27.109375000000 9.062500000000 4.902999877930 121 121 121
27.109375000000 9.062500000000 4.850997924805 123 123 123
27.109375000000 9.062500000000 4.802001953125 121 121 121
27.109375000000 9.062500000000 4.750000000000 118 118 118
27.109375000000 9.062500000000 4.698997497559 120 120 120
27.109375000000 9.062500000000 4.649002075195 119 119 119
27.109375000000 9.046875000000 4.599998474121 126 126 126
27.109375000000 9.062500000000 4.546997070313 120 120 120
27.109375000000 9.062500000000 4.497001647949 123 123 123
27.109375000000 9.062500000000 4.445999145508 124 124 124
27.109375000000 9.062500000000 4.395996093750 126 126 126
27.109375000000 9.062500000000 4.346000671387 116 116 116
27.109375000000 9.046875000000 4.294998168945 116 116 116
27.109375000000 9.062500000000 4.244003295898 117 117 117
27.109375000000 9.046875000000 4.194999694824 123 123 123
27.109375000000 9.062500000000 4.142997741699 114 114 114
27.109375000000 9.062500000000 4.093002319336 114 114 114
27.125000000000 9.031250000000 4.043998718262 117 117 117
27.125000000000 9.031250000000 3.992996215820 119 119 119
27.109375000000 9.031250000000 3.943000793457 114 114 114
27.109375000000 9.031250000000 3.892997741699 116 116 116
27.109375000000 9.031250000000 3.842002868652 114 114 114
27.109375000000 9.031250000000 3.791999816895 116 116 116
27.109375000000 9.031250000000 3.741996765137 114 114 114
27.109375000000 9.031250000000 3.691001892090 114 114 114
27.109375000000 9.031250000000 3.640998840332 117 117 117
27.109375000000 9.031250000000 3.591003417969 117 117 117
27.109375000000 9.031250000000 3.541000366211 112 112 112
27.109375000000 9.031250000000 3.489997863770 111 111 111
27.109375000000 9.031250000000 3.440002441406 111 111 111
27.109375000000 9.031250000000 3.388999938965 110 110 110
27.109375000000 9.031250000000 3.338996887207 113 113 113
27.109375000000 9.031250000000 3.289001464844 114 114 114
27.109375000000 9.031250000000 3.237998962402 116 116 116
27.109375000000 9.031250000000 3.188003540039 117 117 117
27.109375000000 9.015625000000 3.137001037598 113 113 113
27.109375000000 9.015625000000 3.085998535156 111 111 111
27.109375000000 9.015625000000 3.035003662109 115 115 115
27.109375000000 9.031250000000 2.985000610352 113 113 113
27.109375000000 9.015625000000 2.933998107910 113 113 113
27.109375000000 9.015625000000 2.884002685547 112 112 112
27.109375000000 9.015625000000 2.833000183105 113 113 113
27.109375000000 9.000000000000 2.779998779297 115 115 115
27.109375000000 9.000000000000 2.730003356934 109 109 109
27.125000000000 9.000000000000 2.677001953125 109 109 109
27.109375000000 9.000000000000 2.626998901367 110 110 110
27.109375000000 9.000000000000 2.575996398926 110 110 110
27.109375000000 9.000000000000 2.525001525879 110 110 110
27.109375000000 9.000000000000 2.474998474121 105 105 105
27.109375000000 9.000000000000 2.422996520996 112 112 112
27.125000000000 9.000000000000 2.369003295898 104 104 104
27.109375000000 9.000000000000 2.318000793457 110 110 110
27.109375000000 9.000000000000 2.266998291016 104 104 104
27.109375000000 9.000000000000 2.216003417969 102 102 102
27.140625000000 9.000000000000 2.160003662109 113 113 113
27.140625000000 9.000000000000 2.108001708984 123 123 123
26.609375000000 21.125000000000 2.011001586914 165 165 165
26.609375000000 21.125000000000 2.106002807617 199 199 199
26.640625000000 21.156250000000 2.151000976563 224 224 224
26.640625000000 21.156250000000 2.194999694824 234 234 234
26.640625000000 21.156250000000 2.242996215820 246 246 246
26.703125000000 21.187500000000 2.279998779297 40 40 40
26.703125000000 21.203125000000 2.324996948242 40 40 40
26.750000000000 21.218750000000 2.370002746582 41 41 41
26.734375000000 21.218750000000 2.418998718262 41 41 41
26.765625000000 21.218750000000 2.466003417969 41 41 41
26.578125000000 21.125000000000 2.544998168945 101 101 101
26.578125000000 21.125000000000 2.593002319336 111 111 111
26.578125000000 21.125000000000 2.640998840332 109 109 109
26.578125000000 21.125000000000 2.688003540039 100 100 100
26.578125000000 21.125000000000 2.736000061035 96 96 96
26.578125000000 21.109375000000 2.782997131348 96 96 96
26.578125000000 21.125000000000 2.830001831055 90 90 90
26.578125000000 21.125000000000 2.876998901367 86 86 86
26.578125000000 21.125000000000 2.924003601074 87 87 87
26.578125000000 21.125000000000 2.972000122070 75 75 75
26.578125000000 21.125000000000 3.017997741699 66 66 66
26.578125000000 21.125000000000 3.067001342773 34 34 34
26.609375000000 21.125000000000 3.111000061035 12 12 12
26.765625000000 20.906250000000 2.155998229980 41 41 41
26.734375000000 20.906250000000 2.208000183105 41 41 41
26.765625000000 20.937500000000 2.250999450684 41 41 41
26.765625000000 20.937500000000 2.299003601074 41 41 41
26.765625000000 20.937500000000 2.350997924805 41 41 41
26.765625000000 20.937500000000 2.397003173828 41 41 41
26.609375000000 20.843750000000 2.527000427246 100 100 100
26.609375000000 20.843750000000 2.571998596191 118 118 118
26.609375000000 20.843750000000 2.621002197266 107 107 107
26.578125000000 20.828125000000 2.670997619629 99 99 99
26.578125000000 20.828125000000 2.719001770020 100 100 100
26.609375000000 20.843750000000 2.764999389648 96 96 96
26.609375000000 20.843750000000 2.813003540039 101 101 101
26.609375000000 20.843750000000 2.860000610352 101 101 101
26.609375000000 20.843750000000 2.906997680664 104 104 104
26.609375000000 20.843750000000 2.955001831055 105 105 105
26.578125000000 20.828125000000 3.002998352051 101 101 101
26.609375000000 20.843750000000 3.049003601074 131 131 131
26.609375000000 20.843750000000 3.095001220703 132 132 132
26.609375000000 20.843750000000 3.142997741699 141 141 141
26.609375000000 20.843750000000 3.189002990723 123 123 123
26.609375000000 20.843750000000 3.236000061035 103 103 103
26.609375000000 20.843750000000 3.282997131348 103 103 103
26.609375000000 20.843750000000 3.330001831055 105 105 105
26.593750000000 20.843750000000 3.376998901367 104 104 104
26.593750000000 20.843750000000 3.424003601074 104 104 104
26.593750000000 20.843750000000 3.471000671387 104 104 104
26.593750000000 20.843750000000 3.517997741699 109 109 109
26.593750000000 20.843750000000 3.565002441406 105 105 105
26.593750000000 20.843750000000 3.611999511719 113 113 113
26.593750000000 20.843750000000 3.658996582031 109 109 109
26.593750000000 20.843750000000 3.705001831055 104 104 104
26.593750000000 20.843750000000 3.751998901367 106 106 106
26.609375000000 20.843750000000 3.799003601074 118 118 118
26.593750000000 20.843750000000 3.846000671387 105 105 105
26.609375000000 20.843750000000 3.892997741699 107 107 107
26.609375000000 20.843750000000 3.940002441406 108 108 108
26.593750000000 20.843750000000 3.986000061035 104 104 104
26.609375000000 20.843750000000 4.033996582031 113 113 113
26.609375000000 20.843750000000 4.081001281738 111 111 111
26.656250000000 20.875000000000 4.129997253418 109 109 109
26.625000000000 20.859375000000 4.269996643066 138 138 138
26.625000000000 20.859375000000 4.317001342773 143 143 143
26.625000000000 20.859375000000 4.363998413086 126 126 126
26.593750000000 20.843750000000 4.410003662109 111 111 111
26.609375000000 20.843750000000 4.458000183105 125 125 125
26.609375000000 20.843750000000 4.504997253418 116 116 116
26.625000000000 20.859375000000 4.554000854492 124 124 124
26.609375000000 20.843750000000 4.600997924805 115 115 115
26.609375000000 20.843750000000 4.649002075195 121 121 121
26.609375000000 20.843750000000 4.695999145508 122 122 122
26.625000000000 20.859375000000 4.745002746582 124 124 124
26.671875000000 20.890625000000 4.897003173828 127 127 127
26.625000000000 20.859375000000 4.935997009277 127 127 127
26.625000000000 20.859375000000 4.984001159668 123 123 123
26.609375000000 20.843750000000 5.031997680664 124 124 124
26.625000000000 20.859375000000 5.081001281738 127 127 127
26.625000000000 20.859375000000 5.129997253418 136 136 136
26.625000000000 20.859375000000 5.178001403809 128 128 128
26.609375000000 20.843750000000 5.224998474121 123 123 123
26.625000000000 20.859375000000 5.276000976563 129 129 129
26.609375000000 20.875000000000 5.323997497559 128 128 128
26.609375000000 20.875000000000 5.374000549316 122 122 122
26.609375000000 20.875000000000 5.421997070313 126 126 126
26.609375000000 20.875000000000 5.471000671387 142 142 142
26.609375000000 20.859375000000 5.518997192383 139 139 139
26.609375000000 20.875000000000 5.569999694824 142 142 142
26.609375000000 20.875000000000 5.621002197266 131 131 131
26.609375000000 20.875000000000 5.669998168945 133 133 133
26.609375000000 20.875000000000 5.720001220703 132 132 132
26.640625000000 20.875000000000 5.773002624512 126 126 126
26.609375000000 20.875000000000 5.819999694824 131 131 131
26.609375000000 20.875000000000 5.870002746582 137 137 137
26.609375000000 20.875000000000 5.920997619629 136 136 136
26.609375000000 20.875000000000 5.971000671387 133 133 133
26.609375000000 20.875000000000 6.023002624512 133 133 133
26.609375000000 20.875000000000 6.074996948242 134 134 134
26.640625000000 20.875000000000 6.127998352051 138 138 138
26.640625000000 20.875000000000 6.178001403809 133 133 133
26.640625000000 20.875000000000 6.231002807617 137 137 137
26.609375000000 20.875000000000 6.279998779297 129 129 129
26.640625000000 20.875000000000 6.333999633789 137 137 137
26.640625000000 20.875000000000 6.387001037598 137 137 137
26.640625000000 20.875000000000 6.441001892090 135 135 135
26.578125000000 20.843750000000 6.478996276855 129 129 129
26.578125000000 20.843750000000 6.531997680664 130 130 130
26.640625000000 20.875000000000 6.599998474121 133 133 133
26.609375000000 20.875000000000 6.648002624512 133 133 133
26.640625000000 20.875000000000 6.703002929688 134 134 134
26.609375000000 20.875000000000 6.755996704102 131 131 131
26.640625000000 20.875000000000 6.811996459961 131 131 131
26.640625000000 20.875000000000 6.867996215820 139 139 139
26.640625000000 20.875000000000 6.918998718262 137 137 137
26.609375000000 20.875000000000 6.972999572754 134 134 134
26.640625000000 20.875000000000 7.029998779297 133 133 133
26.640625000000 20.875000000000 7.088996887207 132 132 132
26.640625000000 20.875000000000 7.142997741699 126 126 126
26.640625000000 20.875000000000 7.198997497559 126 126 126
26.609375000000 20.875000000000 7.248001098633 134 134 134
26.640625000000 20.875000000000 7.311996459961 128 128 128
26.640625000000 20.875000000000 7.366996765137 127 127 127
26.640625000000 20.875000000000 7.426002502441 130 130 130
26.640625000000 20.890625000000 7.486000061035 131 131 131
26.640625000000 20.875000000000 7.540000915527 131 131 131
26.640625000000 20.875000000000 7.597999572754 130 130 130
26.640625000000 20.875000000000 7.657997131348 129 129 129
26.640625000000 20.875000000000 7.717002868652 124 124 124
26.640625000000 20.875000000000 7.774002075195 124 124 124
26.640625000000 20.875000000000 7.832000732422 135 135 135
26.640625000000 20.875000000000 7.891998291016 127 127 127
26.640625000000 20.890625000000 7.957000732422 128 128 128
26.640625000000 20.890625000000 8.014999389648 127 127 127
26.640625000000 20.890625000000 8.075996398926 123 123 123
26.640625000000 20.875000000000 8.134002685547 131 131 131
26.640625000000 20.890625000000 8.202003479004 128 128 128
26.640625000000 20.875000000000 8.259002685547 125 125 125
26.640625000000 20.890625000000 8.321998596191 125 125 125
26.640625000000 20.890625000000 8.384002685547 128 128 128
26.640625000000 20.890625000000 8.444999694824 123 123 123
26.640625000000 20.890625000000 8.509002685547 62 62 62
26.687500000000 20.625000000000 6.488998413086 106 106 106
26.687500000000 20.625000000000 6.542999267578 52 52 52
26.671875000000 20.625000000000 8.137001037598 110 110 110
26.703125000000 20.625000000000 8.204002380371 59 59 59
26.703125000000 20.328125000000 6.516998291016 121 121 121
26.718750000000 20.343750000000 8.065002441406 22 22 22
26.734375000000 20.078125000000 6.502998352051 87 87 87
26.703125000000 20.062500000000 6.547996520996 73 73 73
26.734375000000 20.093750000000 7.973999023438 10 10 10
26.734375000000 19.781250000000 6.529998779297 133 133 133
26.765625000000 19.500000000000 6.517997741699 118 118 118
26.765625000000 19.500000000000 6.572998046875 19 19 19
26.781250000000 19.515625000000 7.763999938965 18 18 18
26.765625000000 19.218750000000 6.505996704102 21 21 21
26.765625000000 19.218750000000 6.555999755859 112 112 112
26.796875000000 18.937500000000 6.535003662109 108 108 108
26.765625000000 18.937500000000 6.587997436523 20 20 20
26.796875000000 18.937500000000 7.541000366211 10 10 10
26.812500000000 18.656250000000 6.558998107910 124 124 124
26.796875000000 18.671875000000 7.455001831055 23 23 23
26.828125000000 18.390625000000 6.541999816895 98 98 98
26.796875000000 18.375000000000 6.585998535156 63 63 63
26.828125000000 18.093750000000 6.572998046875 121 121 121
26.828125000000 18.093750000000 7.238998413086 14 14 14
26.828125000000 17.812500000000 6.558998107910 99 99 99
26.828125000000 17.812500000000 6.617996215820 32 32 32
26.828125000000 17.812500000000 7.160003662109 7 7 7
26.890625000000 17.531250000000 6.276000976563 40 40 40
26.859375000000 17.531250000000 6.591003417969 106 106 106
26.890625000000 17.265625000000 6.299003601074 53 53 53
26.890625000000 17.281250000000 6.568000793457 50 50 50
26.859375000000 17.265625000000 6.616996765137 78 78 78
26.890625000000 17.281250000000 6.952003479004 14 14 14
26.890625000000 17.000000000000 6.281997680664 12 12 12
26.859375000000 16.968750000000 6.593002319336 108 108 108
26.859375000000 16.968750000000 6.865997314453 8 8 8
26.890625000000 16.718750000000 6.315002441406 49 49 49
26.953125000000 16.734375000000 6.546997070313 12 12 12
26.890625000000 16.718750000000 6.582000732422 68 68 68
26.890625000000 16.687500000000 6.628997802734 53 53 53
26.890625000000 16.703125000000 6.744003295898 10 10 10
26.937500000000 16.437500000000 6.299003601074 15 15 15
26.906250000000 16.406250000000 6.561996459961 119 119 119
26.890625000000 16.406250000000 6.609001159668 127 127 127
26.890625000000 16.406250000000 6.664001464844 124 124 124
26.953125000000 16.156250000000 6.337997436523 178 178 178
26.953125000000 16.156250000000 6.390998840332 145 145 145
26.953125000000 16.156250000000 6.445999145508 183 183 183
26.984375000000 16.156250000000 6.503997802734 178 178 178
26.953125000000 16.156250000000 6.555000305176 78 78 78
26.921875000000 16.156250000000 6.595001220703 49 49 49
26.890625000000 16.125000000000 6.641998291016 43 43 43
26.953125000000 15.875000000000 6.310997009277 72 72 72
26.953125000000 15.875000000000 6.362998962402 201 201 201
26.953125000000 15.875000000000 6.419998168945 178 178 178
26.984375000000 15.875000000000 6.477996826172 177 177 177
26.984375000000 15.875000000000 6.531997680664 188 188 188
26.921875000000 15.843750000000 6.620002746582 97 97 97
26.984375000000 15.593750000000 6.346000671387 183 183 183
26.984375000000 15.593750000000 6.399002075195 168 168 168
26.984375000000 15.593750000000 6.457000732422 189 189 189
26.984375000000 15.609375000000 6.513999938965 180 180 180
26.984375000000 15.609375000000 6.568000793457 76 76 76
26.953125000000 15.578125000000 6.603996276855 56 56 56
26.921875000000 15.562500000000 6.650001525879 31 31 31
27.000000000000 15.328125000000 6.327003479004 109 109 109
27.000000000000 15.328125000000 6.377998352051 192 192 192
27.000000000000 15.328125000000 6.433998107910 188 188 188
27.000000000000 15.328125000000 6.487998962402 181 181 181
27.015625000000 15.343750000000 6.545997619629 157 157 157
27.015625000000 15.343750000000 6.601997375488 76 76 76
26.921875000000 15.296875000000 6.634002685547 96 96 96
27.000000000000 15.031250000000 6.357002258301 183 183 183
26.984375000000 15.031250000000 6.408996582031 136 136 136
27.000000000000 15.031250000000 6.468002319336 146 146 146
27.015625000000 15.046875000000 6.527000427246 182 182 182
27.015625000000 15.046875000000 6.581001281738 70 70 70
26.968750000000 15.031250000000 6.619003295898 74 74 74
26.953125000000 15.000000000000 6.666000366211 32 32 32
27.015625000000 14.750000000000 6.332000732422 101 101 101
27.015625000000 14.765625000000 6.390998840332 195 195 195
27.015625000000 14.781250000000 6.450996398926 173 173 173
27.015625000000 14.781250000000 6.501998901367 185 185 185
27.015625000000 14.781250000000 6.559997558594 178 178 178
26.984375000000 14.750000000000 6.645996093750 98 98 98
27.046875000000 14.484375000000 6.321998596191 12 12 12
27.015625000000 14.468750000000 6.370002746582 188 188 188
27.046875000000 14.484375000000 6.428001403809 192 192 192
27.015625000000 14.468750000000 6.481002807617 154 154 154
27.046875000000 14.500000000000 6.541999816895 187 187 187
27.015625000000 14.468750000000 6.591003417969 72 72 72
26.984375000000 14.468750000000 6.633003234863 71 71 71
26.984375000000 14.453125000000 6.680999755859 17 17 17
27.031250000000 14.187500000000 6.348999023438 128 128 128
27.046875000000 14.187500000000 6.408996582031 198 198 198
27.046875000000 14.187500000000 6.463996887207 193 193 193
27.046875000000 14.187500000000 6.520996093750 193 193 193
27.046875000000 14.187500000000 6.577003479004 160 160 160
26.984375000000 14.171875000000 6.663002014160 96 96 96
