13.493408203125 16.683593750000 62.286010742188 218 218 218
12.901855468750 16.909179687500 62.450012207031 176 176 176
12.901123046875 16.910156250000 62.380004882813 226 226 226
12.901123046875 16.910156250000 62.308990478516 225 225 225
13.508544921875 16.572753906250 62.415985107422 139 139 139
13.504150390625 16.575195312500 62.351989746094 147 147 147
13.506591796875 16.573242187500 62.290008544922 146 146 146
12.895507812500 16.810058593750 62.449005126953 168 168 168
12.909912109375 16.801757812500 62.381988525391 215 215 215
12.891845703125 16.812011718750 62.307006835938 221 221 221
13.522705078125 16.461914062500 62.420989990234 137 137 137
13.519287109375 16.463867187500 62.358001708984 139 139 139
13.517333984375 16.464355468750 62.294006347656 133 133 133
12.901123046875 16.704589843750 62.450012207031 170 170 170
12.919677734375 16.693847656250 62.385009765625 165 165 165
12.897949218750 16.705566406250 62.308990478516 211 211 211
13.533447265625 16.353027343750 62.424011230469 137 137 137
13.530761718750 16.354980468750 62.360992431641 141 141 141
13.520019531250 16.361328125000 62.294982910156 138 138 138
12.906494140625 16.600097656250 62.451995849609 169 169 169
12.896240234375 16.604980468750 62.378997802734 222 222 222
12.899169921875 16.604492187500 62.309997558594 224 224 224
13.542480468750 16.245605468750 62.427001953125 136 136 136
13.538818359375 16.248046875000 62.363983154297 140 140 140
13.535156250000 16.250000000000 62.299987792969 143 143 143
12.904541015625 16.499023437500 62.451995849609 128 128 128
12.894531250000 16.503906250000 62.378997802734 145 145 145
13.537109375000 16.146972656250 62.425994873047 132 132 132
13.551513671875 16.138671875000 62.368011474609 135 135 135
13.542236328125 16.143554687500 62.303009033203 139 139 139
13.411865234375 16.216308593750 62.195983886719 178 178 178
13.384033203125 16.231445312500 62.121002197266 189 189 189
13.402587890625 16.221191406250 62.062011718750 170 170 170
13.408935546875 16.217285156250 61.997985839844 157 157 157
13.402587890625 16.221191406250 61.928009033203 166 166 166
13.402587890625 16.221191406250 61.860992431641 166 166 166
13.401611328125 16.221191406250 61.791992187500 159 159 159
12.896240234375 16.400390625000 62.450012207031 128 128 128
13.193115234375 16.235839843750 62.458984375000 136 136 136
13.418945312500 16.109375000000 62.454986572266 172 172 172
13.547607421875 16.038574218750 62.428985595703 132 132 132
13.549560546875 16.038085937500 62.368011474609 144 144 144
13.546142578125 16.040039062500 62.303985595703 143 143 143
13.441650390625 16.098632812500 62.205993652344 170 170 170
13.404785156250 16.118164062500 62.127990722656 169 169 169
13.406494140625 16.117675781250 62.062988281250 168 168 168
13.405517578125 16.117675781250 61.996002197266 162 162 162
13.401123046875 16.120117187500 61.927001953125 166 166 166
13.414794921875 16.113281250000 61.864990234375 145 145 145
13.401123046875 16.120117187500 61.791992187500 142 142 142
12.899169921875 16.297363281250 62.450988769531 121 121 121
13.304931640625 16.071289062500 62.488006591797 110 110 110
13.410888671875 16.012695312500 62.453002929688 172 172 172
13.466552734375 15.980468750000 62.406005859375 149 149 149
13.551269531250 15.934570312500 62.368011474609 111 111 111
13.552001953125 15.933593750000 62.305999755859 109 109 109
13.557373046875 15.930664062500 62.244995117188 110 110 110
13.411621093750 16.011230468750 62.130004882813 170 170 170
13.413818359375 16.010742187500 62.065002441406 179 179 179
13.407958984375 16.013183593750 61.997009277344 171 171 171
13.412841796875 16.010742187500 61.930999755859 172 172 172
13.412841796875 16.010742187500 61.863983154297 145 145 145
13.414550781250 16.010253906250 61.796997070313 139 139 139
13.275634765625 16.087402343750 61.666992187500 120 120 120
13.272216796875 16.089355468750 61.593994140625 98 98 98
13.269531250000 16.090820312500 61.520996093750 94 94 94
13.074462890625 16.097656250000 62.494995117188 91 91 91
13.298583984375 15.973144531250 62.486999511719 119 119 119
13.414306640625 15.908203125000 62.454010009766 171 171 171
13.427001953125 15.901367187500 62.394012451172 178 178 178
13.658935546875 15.770996093750 62.401000976563 129 129 129
13.659912109375 15.770996093750 62.339996337891 129 129 129
13.655517578125 15.773437500000 62.277984619141 125 125 125
13.422607421875 15.903808593750 62.134002685547 167 167 167
13.408935546875 15.910156250000 62.063995361328 165 165 165
13.417236328125 15.906250000000 62.000000000000 167 167 167
13.415039062500 15.906738281250 61.932006835938 166 166 166
13.417968750000 15.906250000000 61.865997314453 167 167 167
13.418945312500 15.905761718750 61.798004150391 170 170 170
13.295654296875 15.973632812500 61.675994873047 157 157 157
13.302001953125 15.970703125000 61.608001708984 156 156 156
13.292968750000 15.975585937500 61.531982421875 151 151 151
13.037109375000 16.014160156250 62.484985351563 84 84 84
13.286376953125 15.875488281250 62.483001708984 96 96 96
13.406005859375 15.809570312500 62.450988769531 159 159 159
13.422363281250 15.800781250000 62.391998291016 160 160 160
13.674072265625 15.660644531250 62.404998779297 152 152 152
13.663330078125 15.666503906250 62.341003417969 164 164 164
13.657958984375 15.668945312500 62.277984619141 161 161 161
13.438720703125 15.792480468750 62.139007568359 165 165 165
13.414306640625 15.805175781250 62.065002441406 158 158 158
13.419433593750 15.801757812500 62.000000000000 161 161 161
13.418457031250 15.801757812500 61.932983398438 166 166 166
13.414794921875 15.804199218750 61.863983154297 164 164 164
13.414794921875 15.804199218750 61.795989990234 165 165 165
13.230712890625 15.907714843750 61.647003173828 91 91 91
13.220458984375 15.912597656250 61.570007324219 87 87 87
13.227050781250 15.909667968750 61.500000000000 95 95 95
12.984619140625 15.940917968750 62.472991943359 71 71 71
13.225830078125 15.807128906250 62.467010498047 123 123 123
13.276611328125 15.779296875000 62.415008544922 131 131 131
13.264892578125 15.786132812500 62.346008300781 175 175 175
13.761474609375 15.509765625000 62.432006835938 158 158 158
13.761474609375 15.509765625000 62.372985839844 154 154 154
13.765869140625 15.506835937500 62.313995361328 148 148 148
13.765869140625 15.506835937500 62.253997802734 151 151 151
13.288085937500 15.772460937500 62.019012451172 138 138 138
13.281005859375 15.776367187500 61.947998046875 147 147 147
13.281005859375 15.776367187500 61.878997802734 133 133 133
13.282470703125 15.774902343750 61.809997558594 132 132 132
12.900390625000 15.886230468750 62.450988769531 141 141 141
13.102539062500 15.772460937500 62.433990478516 133 133 133
13.097900390625 15.774902343750 62.364990234375 130 130 130
13.109619140625 15.768554687500 62.299987792969 152 152 152
13.772705078125 15.399902343750 62.434997558594 154 154 154
13.767333984375 15.403320312500 62.373992919922 156 156 156
13.766601562500 15.403808593750 62.313995361328 158 158 158
13.767333984375 15.403320312500 62.253997802734 156 156 156
13.118896484375 15.764160156250 61.955993652344 145 145 145
13.116210937500 15.765625000000 61.884002685547 136 136 136
13.114257812500 15.766113281250 61.812011718750 129 129 129
12.855712890625 15.806640625000 62.440002441406 186 186 186
12.851318359375 15.809082031250 62.368011474609 179 179 179
12.846679687500 15.811523437500 62.294982910156 185 185 185
13.778076171875 15.294921875000 62.437011718750 156 156 156
13.772705078125 15.297363281250 62.376007080078 159 159 159
13.783447265625 15.291503906250 62.320007324219 147 147 147
13.776123046875 15.295410156250 62.256988525391 145 145 145
12.805419921875 15.732910156250 62.427001953125 179 179 179
12.801757812500 15.734863281250 62.355010986328 181 181 181
12.810791015625 15.730468750000 62.285003662109 180 180 180
13.741943359375 15.211425781250 62.425994873047 89 89 89
13.746337890625 15.208984375000 62.368011474609 89 89 89
13.733642578125 15.215820312500 62.303009033203 84 84 84
13.746337890625 15.208984375000 62.247009277344 83 83 83
12.798095703125 15.634765625000 62.427001953125 131 131 131
12.800537109375 15.632812500000 62.355010986328 130 130 130
12.795410156250 15.636230468750 62.281982421875 135 135 135
12.800781250000 15.530761718750 62.428009033203 129 129 129
12.796875000000 15.531738281250 62.355010986328 133 133 133
12.804443359375 15.528808593750 62.285003662109 135 135 135
12.712646484375 15.478027343750 62.479003906250 52 52 52
12.795654296875 15.432617187500 62.427001953125 142 142 142
12.808349609375 15.425781250000 62.358001708984 139 139 139
12.802001953125 15.428710937500 62.285003662109 126 126 126
12.698974609375 15.383300781250 62.476989746094 18 18 18
12.801025390625 15.327148437500 62.428985595703 138 138 138
12.805419921875 15.324707031250 62.359008789063 141 141 141
12.811035156250 15.322265625000 62.287994384766 133 133 133
12.785888671875 15.234375000000 62.425994873047 143 143 143
12.779541015625 15.237792968750 62.351989746094 142 142 142
12.773925781250 15.240722656250 62.277984619141 140 140 140
12.719482421875 15.169433593750 62.410003662109 84 84 84
12.720947265625 15.167968750000 62.337982177734 74 74 74
12.715576171875 15.171386718750 62.263000488281 72 72 72
13.045166015625 20.346679687500 62.312011718750 170 170 170
13.042724609375 20.345703125000 62.377990722656 198 198 198
13.043457031250 20.348144531250 62.445983886719 195 195 195
13.050537109375 20.241699218750 62.312011718750 178 178 178
13.042480468750 20.238281250000 62.377990722656 194 194 194
13.044189453125 20.240234375000 62.445007324219 194 194 194
13.067871093750 20.145507812500 62.316986083984 162 162 162
13.064697265625 20.145507812500 62.382995605469 194 194 194
13.058837890625 20.143066406250 62.449005126953 193 193 193
13.105224609375 20.062011718750 62.328002929688 195 195 195
13.105712890625 20.064453125000 62.394989013672 206 206 206
13.073242187500 20.044433593750 62.453002929688 190 190 190
13.115478515625 19.963378906250 62.329986572266 201 201 201
13.114501953125 19.963378906250 62.397003173828 197 197 197
13.059814453125 19.930664062500 62.449005126953 189 189 189
13.125732421875 19.864257812500 62.333984375000 213 213 213
13.126220703125 19.866210937500 62.401000976563 204 204 204
13.064697265625 19.828125000000 62.450988769531 184 184 184
13.135986328125 19.766113281250 62.337982177734 217 217 217
13.139892578125 19.768554687500 62.406005859375 208 208 208
13.043945312500 19.710937500000 62.446990966797 187 187 187
13.147705078125 19.668457031250 62.342010498047 214 214 214
13.141601562500 19.666015625000 62.406982421875 197 197 197
13.016845703125 19.588867187500 62.441009521484 195 195 195
13.153564453125 19.565917968750 62.345001220703 218 218 218
13.159912109375 19.570312500000 62.412994384766 191 191 191
13.164306640625 19.574707031250 62.480010986328 171 171 171
13.170898437500 19.580078125000 62.546997070313 168 168 168
13.165283203125 19.578613281250 62.610992431641 112 112 112
13.161865234375 19.463867187500 62.347991943359 220 220 220
13.163818359375 19.467285156250 62.415008544922 216 216 216
13.135009765625 19.449707031250 62.472991943359 165 165 165
13.179199218750 19.478027343750 62.549011230469 150 150 150
13.175048828125 19.477050781250 62.613006591797 48 48 48
13.179199218750 19.368164062500 62.352996826172 221 221 221
13.179443359375 19.369140625000 62.419006347656 218 218 218
13.006103515625 19.263183593750 62.440002441406 196 196 196
13.167968750000 19.251464843750 62.283996582031 64 64 64
13.186279296875 19.265136718750 62.355987548828 219 219 219
13.185302734375 19.266113281250 62.420989990234 215 215 215
12.992187500000 19.147949218750 62.437988281250 193 193 193
13.188720703125 19.157226562500 62.289001464844 94 94 94
13.198974609375 19.165039062500 62.358001708984 211 211 211
13.194580078125 19.163085937500 62.423004150391 215 215 215
12.998779296875 19.043457031250 62.438995361328 191 191 191
13.223144531250 19.071289062500 62.299011230469 117 117 117
13.207275390625 19.062988281250 62.359985351563 217 217 217
13.206298828125 19.062988281250 62.425994873047 206 206 206
12.991943359375 18.931640625000 62.437011718750 192 192 192
13.221435546875 18.962402343750 62.299011230469 183 183 183
13.219238281250 18.961914062500 62.363983154297 218 218 218
13.223632812500 18.967285156250 62.430999755859 193 193 193
12.991455078125 18.823730468750 62.437011718750 191 191 191
13.232666015625 18.863281250000 62.303009033203 194 194 194
13.241943359375 18.870605468750 62.371002197266 208 208 208
13.227050781250 18.862304687500 62.432006835938 198 198 198
12.990478515625 18.717285156250 62.437011718750 192 192 192
13.246337890625 18.766113281250 62.307006835938 206 206 206
13.248291015625 18.769042968750 62.372985839844 203 203 203
13.199951171875 18.740234375000 62.425994873047 198 198 198
12.976806640625 18.603515625000 62.433990478516 191 191 191
13.258300781250 18.669433593750 62.312011718750 221 221 221
13.258789062500 18.671386718750 62.376983642578 220 220 220
13.134521484375 18.595703125000 62.408996582031 204 204 204
12.972167968750 18.496093750000 62.433990478516 192 192 192
13.273681640625 18.574218750000 62.319000244141 219 219 219
13.276611328125 18.577148437500 62.385009765625 213 213 213
13.058349609375 18.443359375000 62.390991210938 213 213 213
12.969726562500 18.388671875000 62.436004638672 194 194 194
13.279052734375 18.473144531250 62.321990966797 221 221 221
13.288330078125 18.480957031250 62.389984130859 208 208 208
12.980224609375 18.290527343750 62.372009277344 213 213 213
12.961914062500 18.280761718750 62.436004638672 194 194 194
13.291748046875 18.375976562500 62.328002929688 217 217 217
13.300048828125 18.383300781250 62.394989013672 219 219 219
12.961425781250 18.173339843750 62.368988037109 215 215 215
12.959472656250 18.173828125000 62.437988281250 188 188 188
13.314208984375 18.283691406250 62.334991455078 214 214 214
13.317382812500 18.288085937500 62.401000976563 210 210 210
12.956787109375 18.065917968750 62.368988037109 216 216 216
12.953125000000 18.063964843750 62.437011718750 188 188 188
13.322998046875 18.183105468750 62.337982177734 211 211 211
13.320556640625 18.182617187500 62.402008056641 220 220 220
12.950439453125 17.955078125000 62.367004394531 206 206 206
12.949462890625 17.955566406250 62.436004638672 193 193 193
13.326904296875 18.077148437500 62.273986816406 60 60 60
13.337402343750 18.084960937500 62.342010498047 209 209 209
13.333984375000 18.083496093750 62.404998779297 216 216 216
12.947021484375 17.844238281250 62.365997314453 207 207 207
12.951171875000 17.848632812500 62.437011718750 192 192 192
13.351806640625 17.985351562500 62.281005859375 99 99 99
13.344238281250 17.980957031250 62.343994140625 210 210 210
13.343505859375 17.982421875000 62.407989501953 221 221 221
12.945068359375 17.736328125000 62.365997314453 153 153 153
12.938232421875 17.733886718750 62.432983398438 192 192 192
13.363037109375 17.884277343750 62.283996582031 175 175 175
13.355224609375 17.880859375000 62.346008300781 217 217 217
13.359130859375 17.884277343750 62.411987304688 201 201 201
12.944580078125 17.628906250000 62.363983154297 184 184 184
12.946533203125 17.630859375000 62.433990478516 193 193 193
13.358154296875 17.775390625000 62.281982421875 187 187 187
13.370849609375 17.782714843750 62.350006103516 206 206 206
13.367431640625 17.783203125000 62.414001464844 211 211 211
12.935546875000 17.515625000000 62.361999511719 210 210 210
12.938720703125 17.519042968750 62.432006835938 191 191 191
13.381591796875 17.682617187500 62.290008544922 191 191 191
13.383300781250 17.685546875000 62.355010986328 216 216 216
13.380126953125 17.684082031250 62.417999267578 199 199 199
12.930419921875 17.406250000000 62.360992431641 212 212 212
12.924560546875 17.403808593750 62.428985595703 194 194 194
13.395263671875 17.585449218750 62.294982910156 198 198 198
13.393310546875 17.585937500000 62.358001708984 203 203 203
13.391357421875 17.585449218750 62.421997070313 200 200 200
12.924072265625 17.295898437500 62.359985351563 208 208 208
12.929687500000 17.301757812500 62.430999755859 194 194 194
13.402099609375 17.484375000000 62.298004150391 221 221 221
13.408447265625 17.489257812500 62.363983154297 208 208 208
13.384033203125 17.475585937500 62.420989990234 216 216 216
12.922119140625 17.190917968750 62.360992431641 210 210 210
12.922363281250 17.191894531250 62.430999755859 193 193 193
13.417236328125 17.389160156250 62.304992675781 216 216 216
13.419921875000 17.391113281250 62.368988037109 202 202 202
13.376708984375 17.365722656250 62.420989990234 223 223 223
12.912109375000 17.078613281250 62.359985351563 218 218 218
12.915283203125 17.083007812500 62.430999755859 189 189 189
13.426025390625 17.289062500000 62.309997558594 223 223 223
13.433593750000 17.293945312500 62.376007080078 216 216 216
12.887207031250 16.958007812500 62.285003662109 197 197 197
12.913574218750 16.974121093750 62.363006591797 203 203 203
12.916748046875 16.977539062500 62.433990478516 192 192 192
13.443847656250 17.194824218750 62.316986083984 216 216 216
13.441894531250 17.195312500000 62.380004882813 213 213 213
12.893798828125 16.856445312500 62.289001464844 201 201 201
12.911621093750 16.869140625000 62.363983154297 207 207 207
12.900878906250 16.863769531250 62.432006835938 191 191 191
13.449707031250 17.091796875000 62.320007324219 216 216 216
13.456787109375 17.098144531250 62.385009765625 199 199 199
12.908447265625 16.758789062500 62.294006347656 197 197 197
12.941406250000 16.780761718750 62.373992919922 167 167 167
12.903076171875 16.758789062500 62.433990478516 182 182 182
13.468017578125 16.996582031250 62.261993408203 69 69 69
13.466064453125 16.996093750000 62.325988769531 202 202 202
13.471435546875 17.000976562500 62.389984130859 196 196 196
12.902099609375 16.648925781250 62.292999267578 206 206 206
12.897460937500 16.647460937500 62.363006591797 194 194 194
12.897949218750 16.648925781250 62.433990478516 191 191 191
13.489990234375 16.902343750000 62.269989013672 112 112 112
13.477294921875 16.896972656250 62.329986572266 205 205 205
13.482666015625 16.901367187500 62.394012451172 207 207 207
12.917236328125 16.552734375000 62.298004150391 129 129 129
12.917724609375 16.554687500000 62.368988037109 130 130 130
12.908935546875 16.549316406250 62.437011718750 126 126 126
13.488525390625 16.794921875000 62.269012451172 179 179 179
13.490478515625 16.797851562500 62.333984375000 214 214 214
13.491943359375 16.798828125000 62.397003173828 216 216 216
12.916503906250 16.443847656250 62.298004150391 127 127 127
12.912841796875 16.442382812500 62.368011474609 138 138 138
12.906005859375 16.439453125000 62.436004638672 127 127 127
13.498779296875 16.695800781250 62.273986816406 190 190 190
13.507324218750 16.700683593750 62.338989257813 210 210 210
13.499267578125 16.697753906250 62.399993896484 204 204 204
12.903808593750 16.330078125000 62.294982910156 130 130 130
12.907958984375 16.332519531250 62.367004394531 119 119 119
12.907958984375 16.333496093750 62.437988281250 118 118 118
13.512939453125 16.596191406250 62.278991699219 180 180 180
13.513183593750 16.597167968750 62.342010498047 188 188 188
13.514892578125 16.599609375000 62.406005859375 189 189 189
12.906982421875 16.224121093750 62.296997070313 128 128 128
12.910888671875 16.227539062500 62.368988037109 125 125 125
12.904541015625 16.226074218750 62.437988281250 106 106 106
13.176025390625 16.274902343750 61.822998046875 153 153 153
13.166503906250 16.270507812500 61.889984130859 154 154 154
13.149169921875 16.260742187500 61.954010009766 159 159 159
13.141113281250 16.257812500000 62.020996093750 160 160 160
13.126220703125 16.249023437500 62.084991455078 146 146 146
13.530029296875 16.500488281250 62.286010742188 142 142 142
13.520751953125 16.495605468750 62.346008300781 148 148 148
13.531005859375 16.502929687500 62.411987304688 139 139 139
13.086914062500 16.229980468750 62.348999023438 147 147 147
13.057373046875 16.212402343750 62.408996582031 140 140 140
12.945068359375 16.144531250000 62.450012207031 91 91 91
13.241455078125 16.204101562500 61.492004394531 136 136 136
13.379150390625 16.293457031250 61.768005371094 93 93 93
13.358154296875 16.281250000000 61.828002929688 157 157 157
13.348388671875 16.276367187500 61.893005371094 163 163 163
13.334228515625 16.269042968750 61.954986572266 160 160 160
13.333251953125 16.269531250000 62.022003173828 156 156 156
13.326416015625 16.267089843750 62.087005615234 156 156 156
13.307861328125 16.256347656250 62.148010253906 156 156 156
13.538085937500 16.400878906250 62.290008544922 144 144 144
13.533447265625 16.398925781250 62.350982666016 149 149 149
13.533447265625 16.398925781250 62.412994384766 144 144 144
13.266845703125 16.235351562500 62.401000976563 131 131 131
13.227539062500 16.213378906250 62.455993652344 136 136 136
13.092285156250 16.128906250000 62.488006591797 71 71 71
13.286865234375 16.127929687500 61.515991210938 137 137 137
13.279541015625 16.124023437500 61.583984375000 135 135 135
13.273925781250 16.121582031250 61.652984619141 136 136 136
13.416748046875 16.210937500000 61.786010742188 178 178 178
13.410888671875 16.208496093750 61.850982666016 180 180 180
13.421142578125 16.215820312500 61.923004150391 179 179 179
13.408935546875 16.209960937500 61.985992431641 181 181 181
13.412109375000 16.213378906250 62.053009033203 180 180 180
13.413818359375 16.215820312500 62.119995117188 183 183 183
13.416259765625 16.217285156250 62.186004638672 182 182 182
13.543212890625 16.298828125000 62.292999267578 145 145 145
13.539794921875 16.297851562500 62.355010986328 145 145 145
13.548583984375 16.303222656250 62.419982910156 136 136 136
13.398193359375 16.211914062500 62.440002441406 180 180 180
13.308349609375 16.156738281250 62.480010986328 112 112 112
12.996826171875 15.965332031250 62.466003417969 73 73 73
13.312988281250 16.037109375000 61.528991699219 108 108 108
13.322021484375 16.043945312500 61.605010986328 118 118 118
13.321533203125 16.045410156250 61.675994873047 124 124 124
13.415283203125 16.104492187500 61.786987304688 95 95 95
13.428466796875 16.114746093750 61.859985351563 142 142 142
13.418945312500 16.109375000000 61.924011230469 163 163 163
13.420654296875 16.112792968750 61.992004394531 119 119 119
13.408447265625 16.105468750000 62.053985595703 177 177 177
13.422607421875 16.115234375000 62.125000000000 160 160 160
13.430664062500 16.122070312500 62.192993164063 165 165 165
13.552001953125 16.198242187500 62.298004150391 145 145 145
13.554931640625 16.200683593750 62.360992431641 141 141 141
13.548583984375 16.197753906250 62.421997070313 132 132 132
13.416992187500 16.117675781250 62.446990966797 177 177 177
13.298583984375 16.045410156250 62.479003906250 98 98 98
12.845947265625 15.767089843750 62.429992675781 99 99 99
13.424316406250 16.004882812500 61.791992187500 173 173 173
13.424560546875 16.005371093750 61.859985351563 165 165 165
13.419189453125 16.004394531250 61.925994873047 181 181 181
13.423095703125 16.007324218750 61.994995117188 180 180 180
13.426025390625 16.010253906250 62.062011718750 180 180 180
13.428955078125 16.013671875000 62.128997802734 179 179 179
13.455322265625 16.031250000000 62.204010009766 170 170 170
13.568115234375 16.102050781250 62.303985595703 136 136 136
13.559814453125 16.098144531250 62.363983154297 146 146 146
13.555419921875 16.097167968750 62.424987792969 131 131 131
13.420898437500 16.015136718750 62.450012207031 166 166 166
13.276367187500 15.926269531250 62.475006103516 91 91 91
12.803710937500 15.635742187500 62.421997070313 116 116 116
13.424560546875 15.899902343750 61.792999267578 178 178 178
13.428466796875 15.903320312500 61.863006591797 178 178 178
13.428955078125 15.904296875000 61.929992675781 176 176 176
13.426757812500 15.903808593750 61.996002197266 172 172 172
13.429931640625 15.907714843750 62.063995361328 177 177 177
13.433837890625 15.910644531250 62.131988525391 163 163 163
13.481689453125 15.941894531250 62.212982177734 162 162 162
13.545654296875 15.981933593750 62.298004150391 163 163 163
13.547607421875 15.985351562500 62.360992431641 165 165 165
13.503173828125 15.959472656250 62.411010742188 153 153 153
13.430908203125 15.916015625000 62.453002929688 167 167 167
12.822998046875 15.540527343750 62.355987548828 124 124 124
12.807373046875 15.532226562500 62.423004150391 120 120 120
13.423095703125 15.791992187500 61.792999267578 30 30 30
13.419677734375 15.791503906250 61.859985351563 45 45 45
13.433837890625 15.801757812500 61.932983398438 44 44 44
13.431884765625 15.801269531250 61.998992919922 54 54 54
13.442138671875 15.809082031250 62.069000244141 55 55 55
13.442626953125 15.810058593750 62.135009765625 59 59 59
13.594482421875 15.905761718750 62.251983642578 154 154 154
13.585693359375 15.901367187500 62.311004638672 179 179 179
13.586181640625 15.902343750000 62.373992919922 180 180 180
13.448974609375 15.818359375000 62.394989013672 85 85 85
12.808593750000 15.422851562500 62.279998779297 121 121 121
12.817871093750 15.430664062500 62.355010986328 134 134 134
12.799804687500 15.421386718750 62.423004150391 123 123 123
13.632812500000 15.823242187500 62.264984130859 178 178 178
13.630615234375 15.823730468750 62.326995849609 182 182 182
13.633544921875 15.826171875000 62.389007568359 181 181 181
12.810791015625 15.318847656250 62.281982421875 130 130 130
12.820312500000 15.325683593750 62.355987548828 143 143 143
12.812255859375 15.323242187500 62.425994873047 133 133 133
13.671630859375 15.742187500000 62.277984619141 163 163 163
13.670654296875 15.742187500000 62.338989257813 169 169 169
13.679443359375 15.748046875000 62.402984619141 162 162 162
12.789794921875 15.199707031250 62.276000976563 91 91 91
12.782714843750 15.196777343750 62.346008300781 95 95 95
12.781005859375 15.197265625000 62.419006347656 98 98 98
13.674072265625 15.636718750000 62.278991699219 162 162 162
13.673095703125 15.638183593750 62.339996337891 160 160 160
13.689697265625 15.648925781250 62.406005859375 130 130 130
13.749755859375 15.576171875000 62.243988037109 155 155 155
13.767333984375 15.588378906250 62.309997558594 150 150 150
13.759033203125 15.583984375000 62.368011474609 156 156 156
13.754394531250 15.582519531250 62.425994873047 154 154 154
13.770751953125 15.483886718750 62.251007080078 155 155 155
13.778564453125 15.489746093750 62.313995361328 148 148 148
13.776123046875 15.488281250000 62.373992919922 147 147 147
13.779296875000 15.491699218750 62.433990478516 138 138 138
13.773193359375 15.379394531250 62.252990722656 156 156 156
13.777099609375 15.382324218750 62.315002441406 160 160 160
13.777587890625 15.383789062500 62.375000000000 167 167 167
13.777587890625 15.383789062500 62.434997558594 140 140 140
13.783691406250 15.281250000000 62.256988525391 139 139 139
13.786376953125 15.283203125000 62.317993164063 140 140 140
13.789062500000 15.285644531250 62.378997802734 158 158 158
13.783447265625 15.283203125000 62.437011718750 122 122 122
22.659912109375 20.783203125000 62.376007080078 195 195 195
22.664794921875 20.781738281250 62.307983398438 118 118 118
22.655029296875 20.930664062500 62.377990722656 160 160 160
22.655029296875 20.931640625000 62.311004638672 141 141 141
22.621337890625 21.092285156250 62.451995849609 103 103 103
22.614990234375 21.096191406250 62.388000488281 189 189 189
22.633789062500 21.087890625000 62.317993164063 162 162 162
22.629638671875 21.228027343750 62.449005126953 152 152 152
22.595703125000 21.248046875000 62.391998291016 180 180 180
22.599853515625 21.248046875000 62.325988769531 206 206 206
22.636962890625 21.364257812500 62.445007324219 155 155 155
22.583251953125 21.395019531250 62.393005371094 180 180 180
22.591308593750 21.390625000000 62.325988769531 206 206 206
22.633789062500 21.503906250000 62.442993164063 159 159 159
22.575439453125 21.536621093750 62.391998291016 183 183 183
22.564697265625 21.543457031250 62.329986572266 162 162 162
22.705078125000 21.601562500000 62.421997070313 225 225 225
22.564941406250 21.680175781250 62.391998291016 212 212 212
22.555419921875 21.687500000000 62.329986572266 214 214 214
22.533935546875 21.832031250000 62.588989257813 164 164 164
22.540283203125 21.829101562500 62.523986816406 142 142 142
22.539062500000 21.831542968750 62.459991455078 161 161 161
22.534667968750 21.834960937500 62.397003173828 201 201 201
22.545654296875 21.829589843750 62.329010009766 219 219 219
22.721435546875 21.869628906250 62.411987304688 223 223 223
22.515625000000 21.984375000000 62.399993896484 213 213 213
22.526611328125 21.979492187500 62.332000732422 219 219 219
22.730712890625 22.005371093750 62.408996582031 210 210 210
22.514892578125 22.126464843750 62.398010253906 219 219 219
22.502685546875 22.133789062500 62.337005615234 214 214 214
22.734130859375 22.145996093750 62.406982421875 199 199 199
22.494140625000 22.280273437500 62.402984619141 214 214 214
22.487792968750 22.283691406250 62.339996337891 208 208 208
22.741455078125 22.286132812500 62.406005859375 207 207 207
22.472412109375 22.435546875000 62.408996582031 213 213 213
22.464599609375 22.440917968750 62.346984863281 194 194 194
22.453369140625 22.449218750000 62.286010742188 113 113 113
22.761474609375 22.419433593750 62.402008056641 213 213 213
22.459228515625 22.587402343750 62.414001464844 211 211 211
22.442382812500 22.598144531250 62.354003906250 191 191 191
22.445312500000 22.597656250000 62.289001464844 154 154 154
22.765380859375 22.561523437500 62.402008056641 195 195 195
22.443847656250 22.740234375000 62.419006347656 212 212 212
22.436279296875 22.746582031250 62.356994628906 209 209 209
22.429443359375 22.750976562500 62.294982910156 185 185 185
22.778564453125 22.697753906250 62.398986816406 213 213 213
22.442871093750 22.883789062500 62.419006347656 213 213 213
22.417724609375 22.898437500000 62.361999511719 212 212 212
22.425537109375 22.895507812500 62.295989990234 207 207 207
22.791259765625 22.830566406250 62.394989013672 211 211 211
22.436767578125 23.028320312500 62.419006347656 213 213 213
22.404785156250 23.047363281250 62.363983154297 213 213 213
22.405029296875 23.048339843750 62.300994873047 213 213 213
22.793701171875 22.968750000000 62.391998291016 208 208 208
22.450927734375 23.158691406250 62.412994384766 224 224 224
22.397216796875 23.189453125000 62.363983154297 215 215 215
22.388183593750 23.194824218750 62.303009033203 214 214 214
22.811523437500 23.097656250000 62.384002685547 220 220 220
22.446044921875 23.300292968750 62.411010742188 216 216 216
22.380126953125 23.338378906250 62.364990234375 212 212 212
22.381835937500 23.337890625000 62.300994873047 216 216 216
22.836669921875 23.220214843750 62.442993164063 16 16 16
22.817871093750 23.230468750000 62.377990722656 219 219 219
22.443603515625 23.438964843750 62.406982421875 225 225 225
22.362792968750 23.483886718750 62.365997314453 191 191 191
22.364013671875 23.484375000000 62.302001953125 209 209 209
22.827392578125 23.363281250000 62.441009521484 58 58 58
22.825927734375 23.365722656250 62.372985839844 221 221 221
22.801025390625 23.380371093750 62.309997558594 207 207 207
22.350341796875 23.630371093750 62.365997314453 203 203 203
22.355712890625 23.627929687500 62.300994873047 215 215 215
22.831054687500 23.501953125000 62.438995361328 69 69 69
22.821533203125 23.508789062500 62.372009277344 147 147 147
22.839843750000 23.499511718750 62.299011230469 199 199 199
22.349365234375 23.771972656250 62.363983154297 218 218 218
22.341552734375 23.777343750000 62.303009033203 217 217 217
22.885986328125 23.614257812500 62.424987792969 22 22 22
22.831298828125 23.645996093750 62.368988037109 217 217 217
22.845947265625 23.638671875000 62.295989990234 219 219 219
22.330078125000 23.924316406250 62.368011474609 221 221 221
22.338623046875 23.920898437500 62.303009033203 221 221 221
22.862548828125 23.771972656250 62.430999755859 67 67 67
22.834228515625 23.789062500000 62.368011474609 219 219 219
22.833740234375 23.790527343750 62.299011230469 220 220 220
22.319335937500 24.074218750000 62.371002197266 218 218 218
22.310791015625 24.080566406250 62.311004638672 219 219 219
22.849853515625 23.925292968750 62.365997314453 219 219 219
22.844970703125 23.930175781250 62.298004150391 219 219 219
22.312744140625 24.223632812500 62.375000000000 224 224 224
22.299560546875 24.232421875000 62.316009521484 215 215 215
22.292236328125 24.236328125000 62.255004882813 121 121 121
22.852294921875 24.070312500000 62.367004394531 223 223 223
22.865966796875 24.063964843750 62.294006347656 225 225 225
22.290283203125 24.380859375000 62.381988525391 218 218 218
22.288818359375 24.382324218750 62.320007324219 216 216 216
22.290283203125 24.384277343750 62.256988525391 149 149 149
22.863037109375 24.208007812500 62.364990234375 203 203 203
22.868896484375 24.206542968750 62.294006347656 214 214 214
22.280761718750 24.531250000000 62.385009765625 217 217 217
22.287353515625 24.528320312500 62.320983886719 221 221 221
22.277099609375 24.536132812500 62.261993408203 180 180 180
22.880371093750 24.342773437500 62.360992431641 223 223 223
22.866210937500 24.351562500000 62.294006347656 218 218 218
22.267089843750 24.681152343750 62.388000488281 141 141 141
22.269775390625 24.680664062500 62.325012207031 137 137 137
22.270263671875 24.682617187500 62.263000488281 136 136 136
22.889892578125 24.475585937500 62.424987792969 35 35 35
22.867919921875 24.490234375000 62.360992431641 196 196 196
22.882568359375 24.482910156250 62.286987304688 217 217 217
22.268798828125 24.820312500000 62.384002685547 150 150 150
22.260986328125 24.825683593750 62.325012207031 139 139 139
22.263183593750 24.826171875000 62.261993408203 136 136 136
22.884277343750 24.618164062500 62.423004150391 84 84 84
22.887451171875 24.617187500000 62.351989746094 195 195 195
22.883056640625 24.621093750000 62.282989501953 201 201 201
22.260009765625 24.965332031250 62.382995605469 144 144 144
22.258056640625 24.966796875000 62.320983886719 136 136 136
22.254882812500 24.969726562500 62.260009765625 137 137 137
22.882568359375 24.755859375000 62.417999267578 117 117 117
22.863037109375 24.767089843750 62.352996826172 142 142 142
22.385009765625 25.032226562500 62.407989501953 157 157 157
22.246337890625 25.108398437500 62.381988525391 151 151 151
22.245849609375 25.110839843750 62.320007324219 143 143 143
22.248779296875 25.109863281250 62.256988525391 136 136 136
22.380615234375 25.038574218750 62.152984619141 158 158 158
22.378906250000 25.040039062500 62.087982177734 160 160 160
22.375976562500 25.043945312500 62.023986816406 156 156 156
22.373535156250 25.046875000000 61.958984375000 155 155 155
22.377441406250 25.045898437500 61.890991210938 155 155 155
22.376708984375 25.046875000000 61.825012207031 154 154 154
22.378906250000 25.047363281250 61.756988525391 157 157 157
22.586425781250 24.934570312500 61.601989746094 215 215 215
22.484130859375 24.992675781250 61.575012207031 202 202 202
22.879150390625 24.894531250000 62.414001464844 128 128 128
22.425537109375 25.145507812500 62.455993652344 131 131 131
22.378662109375 25.171875000000 62.403991699219 151 151 151
22.263916015625 25.236328125000 62.372009277344 153 153 153
22.257568359375 25.240234375000 62.312011718750 146 146 146
22.258544921875 25.241210937500 62.248992919922 149 149 149
22.373779296875 25.180664062500 62.149993896484 150 150 150
22.372314453125 25.181640625000 62.084991455078 168 168 168
22.366943359375 25.185058593750 62.020996093750 188 188 188
22.377197265625 25.181152343750 61.951995849609 173 173 173
22.385742187500 25.177734375000 61.882995605469 169 169 169
22.362060546875 25.190917968750 61.825012207031 148 148 148
22.366943359375 25.189453125000 61.756011962891 142 142 142
22.485839843750 25.126953125000 61.638000488281 108 108 108
22.486083984375 25.127929687500 61.567993164063 100 100 100
22.666015625000 25.148925781250 62.458007812500 90 90 90
22.422363281250 25.285156250000 62.450988769531 123 123 123
22.383544921875 25.306640625000 62.397003173828 150 150 150
22.150634765625 25.436523437500 62.398010253906 110 110 110
22.166259765625 25.429199218750 62.333007812500 114 114 114
22.152832031250 25.437011718750 62.274993896484 112 112 112
22.215576171875 25.404296875000 62.194000244141 144 144 144
22.371337890625 25.318847656250 62.079010009766 148 148 148
22.381835937500 25.314941406250 62.010986328125 152 152 152
22.380126953125 25.317382812500 61.945007324219 151 151 151
22.375244140625 25.321289062500 61.880004882813 152 152 152
22.376220703125 25.321289062500 61.812988281250 155 155 155
22.367919921875 25.328125000000 61.748992919922 151 151 151
22.500732421875 25.256835937500 61.625000000000 152 152 152
22.505371093750 25.255371093750 61.553009033203 141 141 141
22.687255859375 25.275878906250 62.450988769531 90 90 90
22.477783203125 25.392578125000 62.434997558594 131 131 131
22.414794921875 25.428222656250 62.386993408203 132 132 132
22.167236328125 25.565429687500 62.390991210938 124 124 124
22.140869140625 25.582519531250 62.337005615234 151 151 151
22.141357421875 25.583496093750 62.276000976563 146 146 146
22.156005859375 25.576660156250 62.209991455078 132 132 132
22.422607421875 25.430175781250 62.059997558594 125 125 125
22.436767578125 25.424316406250 61.988983154297 124 124 124
22.431396484375 25.427734375000 61.924011230469 124 124 124
22.432373046875 25.428710937500 61.855987548828 122 122 122
22.423828125000 25.434082031250 61.790985107422 119 119 119
22.422607421875 25.437011718750 61.723999023438 88 88 88
22.775146484375 25.369140625000 62.428009033203 114 114 114
22.670898437500 25.427246093750 62.385009765625 115 115 115
22.666503906250 25.430664062500 62.319000244141 131 131 131
22.052001953125 25.771484375000 62.419982910156 154 154 154
22.052001953125 25.772460937500 62.360992431641 165 165 165
22.050292968750 25.773925781250 62.300994873047 165 165 165
22.046142578125 25.777343750000 62.243011474609 168 168 168
22.733154296875 25.401367187500 61.954010009766 106 106 106
22.676513671875 25.433593750000 61.902984619141 111 111 111
22.679931640625 25.433593750000 61.830993652344 114 114 114
22.691650390625 25.428222656250 61.756011962891 118 118 118
22.963134765625 25.408691406250 62.384002685547 200 200 200
22.958496093750 25.414062500000 62.313995361328 181 181 181
22.970214843750 25.407714843750 62.238983154297 181 181 181
22.056884765625 25.911132812500 62.417999267578 137 137 137
22.048095703125 25.917968750000 62.360992431641 163 163 163
22.021484375000 25.933105468750 62.308990478516 138 138 138
22.043212890625 25.922363281250 62.243011474609 165 165 165
22.054443359375 25.916992187500 62.178009033203 102 102 102
23.018554687500 25.522949218750 62.372009277344 140 140 140
23.011962890625 25.529296875000 62.300994873047 135 135 135
23.010986328125 25.530273437500 62.229003906250 124 124 124
23.015869140625 25.672363281250 62.372985839844 149 149 149
23.004394531250 25.679199218750 62.303985595703 145 145 145
23.013427734375 25.674804687500 62.230010986328 142 142 142
23.006103515625 25.822265625000 62.376007080078 138 138 138
23.003662109375 25.824707031250 62.304992675781 147 147 147
23.001220703125 25.826660156250 62.234008789063 137 137 137
23.026611328125 25.953613281250 62.371002197266 148 148 148
23.037841796875 25.949218750000 62.295989990234 145 145 145
23.020996093750 25.959960937500 62.227996826172 142 142 142
22.675048828125 20.799804687500 62.343994140625 200 200 200
22.666992187500 20.796875000000 62.412994384766 193 193 193
22.676025390625 20.947753906250 62.342987060547 189 189 189
22.666748046875 20.943359375000 62.411987304688 194 194 194
22.646728515625 21.074707031250 62.350982666016 184 184 184
22.651611328125 21.081542968750 62.415985107422 184 184 184
22.706787109375 21.116699218750 62.467010498047 95 95 95
22.616943359375 21.201660156250 62.358001708984 198 198 198
22.607177734375 21.198242187500 62.425994873047 197 197 197
22.705810546875 21.260253906250 62.466003417969 94 94 94
22.598388671875 21.334472656250 62.360992431641 200 200 200
22.594482421875 21.334472656250 62.427001953125 199 199 199
22.712158203125 21.407714843750 62.462005615234 113 113 113
22.593017578125 21.472167968750 62.359985351563 206 206 206
22.588623046875 21.471191406250 62.427001953125 199 199 199
22.726318359375 21.558593750000 62.455993652344 171 171 171
22.583740234375 21.609863281250 62.359008789063 224 224 224
22.580810546875 21.609375000000 62.424987792969 212 212 212
22.738281250000 21.707519531250 62.450012207031 184 184 184
22.580566406250 21.748535156250 62.290985107422 36 36 36
22.569580078125 21.742187500000 62.359008789063 224 224 224
22.556396484375 21.735351562500 62.428009033203 198 198 198
22.559326171875 21.739746093750 62.492004394531 164 164 164
22.556396484375 21.739746093750 62.557006835938 163 163 163
22.581787109375 21.756347656250 62.614990234375 100 100 100
22.554687500000 21.874023437500 62.294006347656 82 82 82
22.550537109375 21.874023437500 62.360992431641 228 228 228
22.546875000000 21.872070312500 62.427001953125 217 217 217
22.692626953125 21.963867187500 62.453002929688 194 194 194
22.540771484375 21.872558593750 62.557006835938 81 81 81
22.528320312500 22.000488281250 62.299011230469 130 130 130
22.542724609375 22.011718750000 62.359985351563 227 227 227
22.535644531250 22.008789062500 62.427001953125 212 212 212
22.753906250000 22.142578125000 62.434997558594 202 202 202
22.516357421875 22.138671875000 62.300994873047 168 168 168
22.530517578125 22.148437500000 62.361999511719 229 229 229
22.518066406250 22.141113281250 62.429992675781 219 219 219
22.761718750000 22.291992187500 62.430999755859 194 194 194
22.496582031250 22.270507812500 62.304992675781 198 198 198
22.508056640625 22.278320312500 62.365997314453 225 225 225
22.522705078125 22.289062500000 62.427001953125 214 214 214
22.763671875000 22.438964843750 62.428009033203 191 191 191
22.487548828125 22.410644531250 62.307006835938 220 220 220
22.488037109375 22.412597656250 62.371002197266 208 208 208
22.531005859375 22.440917968750 62.424011230469 215 215 215
22.780517578125 22.594726562500 62.424011230469 194 194 194
22.469970703125 22.547363281250 62.311004638672 218 218 218
22.469238281250 22.548339843750 62.376007080078 201 201 201
22.585205078125 22.620605468750 62.407989501953 219 219 219
22.789306640625 22.747070312500 62.420989990234 193 193 193
22.452880859375 22.682617187500 62.316009521484 218 218 218
22.459716796875 22.687988281250 62.378997802734 209 209 209
22.719482421875 22.848632812500 62.372009277344 212 212 212
22.797607421875 22.899414062500 62.419006347656 196 196 196
22.444580078125 22.821777343750 62.317993164063 219 219 219
22.446777343750 22.826660156250 62.381988525391 211 211 211
22.772705078125 23.027832031250 62.356994628906 215 215 215
22.810791015625 23.053222656250 62.415008544922 192 192 192
22.427490234375 22.956054687500 62.320983886719 215 215 215
22.428466796875 22.958984375000 62.384002685547 214 214 214
22.795166015625 23.185058593750 62.347991943359 217 217 217
22.823242187500 23.204101562500 62.408996582031 195 195 195
22.416748046875 23.091796875000 62.320983886719 220 220 220
22.415039062500 23.092285156250 62.385009765625 219 219 219
22.819580078125 23.342285156250 62.338989257813 212 212 212
22.832519531250 23.351562500000 62.403991699219 199 199 199
22.408935546875 23.228515625000 62.320007324219 218 218 218
22.403320312500 23.227050781250 62.385009765625 215 215 215
22.758056640625 23.446289062500 62.351989746094 139 139 139
22.844238281250 23.500488281250 62.398010253906 187 187 187
22.389404296875 23.358398437500 62.320983886719 218 218 218
22.389892578125 23.360351562500 62.384002685547 215 215 215
22.823486328125 23.628417968750 62.329986572266 207 207 207
22.845947265625 23.643066406250 62.393005371094 207 207 207
22.376464843750 23.492675781250 62.321990966797 206 206 206
22.373779296875 23.493164062500 62.385986328125 205 205 205
22.856201171875 23.790527343750 62.317993164063 214 214 214
22.860595703125 23.793457031250 62.385986328125 213 213 213
22.362548828125 23.626953125000 62.322998046875 206 206 206
22.363037109375 23.628906250000 62.385986328125 204 204 204
22.862548828125 23.937500000000 62.312988281250 212 212 212
22.862548828125 23.938476562500 62.382995605469 210 210 210
22.353759765625 23.765136718750 62.261993408203 77 77 77
22.358398437500 23.770507812500 62.324005126953 218 218 218
22.357666015625 23.771972656250 62.386993408203 218 218 218
22.877685546875 24.091308593750 62.307983398438 214 214 214
22.873291015625 24.089843750000 62.378997802734 215 215 215
22.342285156250 23.904785156250 62.264007568359 144 144 144
22.351562500000 23.912109375000 62.324005126953 224 224 224
22.351806640625 23.913085937500 62.386993408203 228 228 228
22.878662109375 24.238281250000 62.307006835938 205 205 205
22.879150390625 24.240234375000 62.376983642578 194 194 194
22.325927734375 24.041992187500 62.268005371094 175 175 175
22.335205078125 24.049316406250 62.329010009766 218 218 218
22.337158203125 24.051757812500 62.390991210938 219 219 219
22.892089843750 24.393066406250 62.303009033203 219 219 219
22.883056640625 24.389648437500 62.375000000000 198 198 198
22.308105468750 24.177246093750 62.273986816406 193 193 193
22.321533203125 24.187500000000 62.333007812500 219 219 219
22.320556640625 24.187988281250 62.395996093750 216 216 216
22.901123046875 24.547363281250 62.300994873047 215 215 215
22.886474609375 24.539062500000 62.375000000000 202 202 202
22.305419921875 24.321777343750 62.273986816406 205 205 205
22.314697265625 24.330078125000 62.333984375000 220 220 220
22.310546875000 24.329101562500 62.398010253906 209 209 209
22.897705078125 24.690429687500 62.302001953125 138 138 138
22.896240234375 24.691894531250 62.372009277344 142 142 142
22.294677734375 24.460937500000 62.277008056641 192 192 192
22.305419921875 24.469238281250 62.335998535156 219 219 219
22.294677734375 24.463867187500 62.402008056641 210 210 210
22.901611328125 24.839843750000 62.299987792969 134 134 134
22.903076171875 24.841308593750 62.369995117188 144 144 144
22.275146484375 24.593750000000 62.281005859375 189 189 189
22.275634765625 24.594726562500 62.342987060547 189 189 189
22.281005859375 24.600097656250 62.403991699219 187 187 187
22.906738281250 24.986816406250 62.295989990234 123 123 123
22.903564453125 24.987792968750 62.368011474609 132 132 132
22.605224609375 24.922851562500 61.546997070313 197 197 197
22.617919921875 24.932128906250 61.613983154297 190 190 190
22.683349609375 24.974121093750 61.657989501953 102 102 102
22.642822265625 24.951171875000 61.746002197266 181 181 181
22.614501953125 24.935058593750 61.826995849609 125 125 125
22.621826171875 24.942382812500 61.894012451172 125 125 125
22.639892578125 24.955078125000 61.957000732422 130 130 130
22.632080078125 24.953613281250 62.028991699219 129 129 129
22.643310546875 24.961425781250 62.093994140625 127 127 127
22.284912109375 24.742675781250 62.274993896484 152 152 152
22.289306640625 24.747558593750 62.335998535156 155 155 155
22.279785156250 24.742675781250 62.401000976563 142 142 142
22.677001953125 24.989257812500 62.355987548828 129 129 129
22.692382812500 25.000000000000 62.419006347656 154 154 154
22.626708984375 25.081542968750 61.605010986328 164 164 164
22.407958984375 24.949218750000 61.768005371094 163 163 163
22.414306640625 24.953613281250 61.833007812500 159 159 159
22.412353515625 24.954101562500 61.901000976563 156 156 156
22.424316406250 24.963867187500 61.963989257813 156 156 156
22.421386718750 24.964355468750 62.031005859375 147 147 147
22.426513671875 24.967773437500 62.095001220703 144 144 144
22.428466796875 24.971191406250 62.160003662109 144 144 144
22.270751953125 24.875976562500 62.274993896484 149 149 149
22.280273437500 24.884277343750 62.334991455078 150 150 150
22.281982421875 24.886230468750 62.397003173828 151 151 151
22.444580078125 24.989257812500 62.414001464844 126 126 126
