10.025634765625 25.381835937500 64.641998291016 196 196 196
9.971435546875 25.468261718750 63.919006347656 197 197 197
9.977294921875 25.474609375000 64.022003173828 212 212 212
9.987792968750 25.494140625000 64.540008544922 213 213 213
9.998779296875 25.504394531250 64.643005371094 212 212 212
10.814941406250 16.085449218750 64.014007568359 189 189 189
10.817138671875 16.085937500000 64.096984863281 195 195 195
10.818115234375 16.086914062500 64.178985595703 202 202 202
10.841064453125 16.089843750000 64.593994140625 202 202 202
10.838134765625 16.090820312500 64.678985595703 190 190 190
10.843017578125 16.090332031250 64.763000488281 183 183 183
10.669189453125 16.215820312500 63.432983398438 178 178 178
10.668212890625 16.216308593750 63.516998291016 160 160 160
10.819580078125 16.223144531250 64.092987060547 191 191 191
10.808349609375 16.225097656250 64.177001953125 186 186 186
10.822021484375 16.224609375000 64.259002685547 195 195 195
10.830810546875 16.226562500000 64.507995605469 185 185 185
10.842529296875 16.227539062500 64.589996337891 183 183 183
10.844726562500 16.229003906250 64.674011230469 182 182 182
10.694580078125 16.354003906250 63.179992675781 117 117 117
10.709228515625 16.354980468750 63.264984130859 133 133 133
10.660400390625 16.354003906250 63.346984863281 106 106 106
10.690673828125 16.355468750000 63.432006835938 157 157 157
10.674072265625 16.355468750000 63.514984130859 116 116 116
10.671142578125 16.356445312500 63.598999023438 106 106 106
10.823974609375 16.363769531250 64.174011230469 187 187 187
10.822021484375 16.364257812500 64.256988525391 188 188 188
10.827392578125 16.365234375000 64.339996337891 191 191 191
10.824462890625 16.365722656250 64.424011230469 181 181 181
10.825439453125 16.366699218750 64.506988525391 181 181 181
10.828613281250 16.366699218750 64.591003417969 180 180 180
10.774658203125 16.487792968750 62.006988525391 94 94 94
10.809326171875 16.488769531250 62.100006103516 131 131 131
10.819091796875 16.490234375000 62.186004638672 125 125 125
10.816162109375 16.491210937500 62.270996093750 125 125 125
10.821289062500 16.491699218750 62.355987548828 125 125 125
10.820312500000 16.491699218750 62.440002441406 116 116 116
10.816650390625 16.493164062500 62.523010253906 118 118 118
10.816650390625 16.493164062500 62.605987548828 121 121 121
10.815673828125 16.493164062500 62.688995361328 112 112 112
10.825439453125 16.495117187500 62.773010253906 117 117 117
10.838134765625 16.495605468750 62.856994628906 117 117 117
10.823730468750 16.495605468750 62.938995361328 112 112 112
10.756103515625 16.495117187500 63.016998291016 175 175 175
10.728271484375 16.495117187500 63.098999023438 189 189 189
10.737548828125 16.495605468750 63.182983398438 180 180 180
10.848388671875 16.498535156250 63.269012451172 235 235 235
10.801513671875 16.498535156250 63.350006103516 159 159 159
10.840576171875 16.500488281250 63.432006835938 213 213 213
10.744873046875 16.499023437500 63.514984130859 144 144 144
10.768798828125 16.500000000000 63.597991943359 122 122 122
10.837890625000 16.502441406250 63.678009033203 67 67 67
10.828369140625 16.502441406250 63.760986328125 45 45 45
10.833984375000 16.503417968750 63.842987060547 35 35 35
10.819580078125 16.503906250000 63.925994873047 12 12 12
10.820068359375 16.505859375000 64.256988525391 182 182 182
10.820556640625 16.507324218750 64.341003417969 180 180 180
10.826904296875 16.507324218750 64.423004150391 180 180 180
10.825927734375 16.507812500000 64.506988525391 179 179 179
10.948486328125 16.513183593750 64.820983886719 82 82 82
10.779785156250 16.509765625000 64.941009521484 99 99 99
11.042724609375 16.516113281250 64.968994140625 106 106 106
10.827636718750 16.639160156250 62.858001708984 24 24 24
10.819091796875 16.638183593750 62.940002441406 67 67 67
10.759033203125 16.638183593750 63.018005371094 131 131 131
10.760986328125 16.638183593750 63.101989746094 153 153 153
10.796142578125 16.641113281250 63.186004638672 145 145 145
10.840576171875 16.641601562500 63.269012451172 204 204 204
10.811767578125 16.641113281250 63.350982666016 170 170 170
10.847656250000 16.644042968750 63.432983398438 231 231 231
10.815673828125 16.644531250000 63.514984130859 173 173 173
10.819580078125 16.644531250000 63.596984863281 176 176 176
10.824951171875 16.645019531250 63.678985595703 159 159 159
10.831298828125 16.645507812500 63.760986328125 164 164 164
10.832763671875 16.646484375000 63.842987060547 167 167 167
10.829833984375 16.647460937500 63.925994873047 168 168 168
10.835205078125 16.647460937500 64.007995605469 159 159 159
10.830322265625 16.648925781250 64.091003417969 159 159 159
10.834716796875 16.648925781250 64.173004150391 164 164 164
10.828369140625 16.649414062500 64.256988525391 181 181 181
10.833740234375 16.649902343750 64.338989257813 178 178 178
10.839111328125 16.650390625000 64.421997070313 172 172 172
10.836181640625 16.651367187500 64.506011962891 170 170 170
10.892333984375 16.652343750000 64.580993652344 163 163 163
10.921142578125 16.654785156250 64.660003662109 159 159 159
10.853515625000 16.653320312500 64.756011962891 160 160 160
11.007568359375 16.656738281250 64.809997558594 111 111 111
10.967529296875 16.656738281250 64.902008056641 129 129 129
11.065673828125 16.659667968750 64.963989257813 111 111 111
10.648193359375 16.782226562500 63.097991943359 81 81 81
10.660888671875 16.783691406250 63.182983398438 113 113 113
10.663085937500 16.783691406250 63.266998291016 115 115 115
10.675537109375 16.784667968750 63.350982666016 107 107 107
10.710205078125 16.785156250000 63.434997558594 116 116 116
10.677001953125 16.786132812500 63.518005371094 109 109 109
10.674072265625 16.786132812500 63.601989746094 104 104 104
10.811767578125 16.792968750000 64.177001953125 181 181 181
10.812988281250 16.793457031250 64.260009765625 203 203 203
10.820556640625 16.794433593750 64.342987060547 193 193 193
10.826904296875 16.795898437500 64.424987792969 188 188 188
10.816650390625 16.795410156250 64.510986328125 180 180 180
10.829101562500 16.795898437500 64.592987060547 136 136 136
10.822509765625 16.798828125000 64.932983398438 71 71 71
10.657958984375 16.928222656250 63.354003906250 96 96 96
10.674072265625 16.930175781250 63.437988281250 111 111 111
10.679443359375 16.930664062500 63.520996093750 99 99 99
10.807861328125 16.937011718750 64.096984863281 186 186 186
10.810058593750 16.937500000000 64.179992675781 200 200 200
10.813232421875 16.938476562500 64.261993408203 203 203 203
10.815673828125 16.938964843750 64.428985595703 82 82 82
10.822998046875 16.939941406250 64.511993408203 201 201 201
10.826416015625 16.941406250000 64.595001220703 176 176 176
10.827392578125 16.940917968750 64.679992675781 106 106 106
10.805175781250 17.078613281250 64.014984130859 191 191 191
10.805419921875 17.079101562500 64.097991943359 192 192 192
10.810791015625 17.081054687500 64.179992675781 193 193 193
10.802001953125 17.082519531250 64.515991210938 110 110 110
10.812500000000 17.082519531250 64.597991943359 184 184 184
10.818115234375 17.083984375000 64.682006835938 186 186 186
10.813232421875 17.084960937500 64.766998291016 64 64 64
10.803710937500 17.221679687500 64.097991943359 174 174 174
10.808837890625 17.224609375000 64.597991943359 117 117 117
10.348388671875 24.407714843750 63.942993164063 126 126 126
10.344482421875 24.408691406250 64.028991699219 188 188 188
10.349365234375 24.408691406250 64.114990234375 189 189 189
10.313720703125 24.410644531250 64.557006835938 171 171 171
10.316162109375 24.410644531250 64.644989013672 202 202 202
10.317138671875 24.410644531250 64.733001708984 195 195 195
10.139160156250 24.537597656250 63.335998535156 32 32 32
10.144287109375 24.538085937500 63.424011230469 73 73 73
10.144287109375 24.538085937500 63.511993408203 72 72 72
10.140869140625 24.539062500000 63.600006103516 57 57 57
10.309326171875 24.545410156250 64.027008056641 175 175 175
10.305419921875 24.545410156250 64.113983154297 183 183 183
10.303222656250 24.546386718750 64.200988769531 183 183 183
10.276611328125 24.547363281250 64.467987060547 180 180 180
10.278808593750 24.547363281250 64.555999755859 201 201 201
10.284179687500 24.548339843750 64.644012451172 201 201 201
10.104736328125 24.673339843750 63.066009521484 46 46 46
10.141357421875 24.674316406250 63.156005859375 82 82 82
10.133544921875 24.675781250000 63.243988037109 73 73 73
10.125000000000 24.674804687500 63.332000732422 115 115 115
10.150146484375 24.676757812500 63.419982910156 99 99 99
10.153808593750 24.677734375000 63.507995605469 96 96 96
10.091064453125 24.676269531250 63.596984863281 70 70 70
10.115478515625 24.677246093750 63.684997558594 13 13 13
10.261962890625 24.683105468750 64.113983154297 183 183 183
10.255126953125 24.683593750000 64.203002929688 181 181 181
10.253173828125 24.684570312500 64.290985107422 184 184 184
10.240966796875 24.684570312500 64.381011962891 198 198 198
10.242919921875 24.685058593750 64.468994140625 199 199 199
10.238037109375 24.686523437500 64.558990478516 203 203 203
10.357421875000 24.811035156250 61.587982177734 175 175 175
10.361572265625 24.812011718750 61.678985595703 174 174 174
10.365234375000 24.813476562500 61.769989013672 173 173 173
10.362060546875 24.813476562500 61.858001708984 172 172 172
10.351562500000 24.812500000000 61.945007324219 164 164 164
10.342529296875 24.812988281250 62.031982421875 165 165 165
10.339599609375 24.813964843750 62.118988037109 156 156 156
10.340576171875 24.814453125000 62.208007812500 154 154 154
10.331298828125 24.815429687500 62.294006347656 144 144 144
10.326416015625 24.815917968750 62.381011962891 136 136 136
10.316162109375 24.815429687500 62.467010498047 146 146 146
10.274658203125 24.815917968750 62.549011230469 170 170 170
10.260986328125 24.814941406250 62.635009765625 178 178 178
10.251953125000 24.816406250000 62.721984863281 184 184 184
10.248779296875 24.816406250000 62.808990478516 189 189 189
10.242431640625 24.815917968750 62.895996093750 185 185 185
10.234619140625 24.816894531250 62.981994628906 180 180 180
10.246093750000 24.817871093750 63.070007324219 165 165 165
10.233886718750 24.818359375000 63.156005859375 160 160 160
10.224365234375 24.818847656250 63.243011474609 207 207 207
10.228759765625 24.818359375000 63.329986572266 197 197 197
10.222656250000 24.819335937500 63.416992187500 186 186 186
10.211425781250 24.820312500000 63.503997802734 161 161 161
10.203125000000 24.819824218750 63.592010498047 142 142 142
10.220947265625 24.820800781250 63.678985595703 110 110 110
10.225341796875 24.821777343750 63.765991210938 98 98 98
10.222167968750 24.821289062500 63.852996826172 50 50 50
10.205322265625 24.823730468750 64.205993652344 188 188 188
10.206542968750 24.824707031250 64.294006347656 189 189 189
10.211914062500 24.825195312500 64.381988525391 197 197 197
10.203857421875 24.825683593750 64.471984863281 204 204 204
10.047607421875 24.956542968750 63.061004638672 66 66 66
10.119873046875 24.958984375000 63.152008056641 70 70 70
10.233642578125 24.961425781250 63.242004394531 90 90 90
10.225830078125 24.962890625000 63.329010009766 134 134 134
10.249755859375 24.963378906250 63.415985107422 127 127 127
10.295898437500 24.965332031250 63.501983642578 119 119 119
10.303222656250 24.965820312500 63.587982177734 119 119 119
10.325195312500 24.966308593750 63.673004150391 117 117 117
10.310791015625 24.967285156250 63.760009765625 137 137 137
10.319335937500 24.967773437500 63.846008300781 144 144 144
10.316406250000 24.968750000000 63.932006835938 152 152 152
10.326416015625 24.970214843750 64.018005371094 159 159 159
10.322998046875 24.969238281250 64.104003906250 162 162 162
10.313720703125 24.969726562500 64.191986083984 171 171 171
10.313964843750 24.970703125000 64.278991699219 177 177 177
10.322021484375 24.970214843750 64.365997314453 180 180 180
10.317138671875 24.971679687500 64.454010009766 181 181 181
10.314453125000 24.972656250000 64.541992187500 181 181 181
10.305419921875 24.973144531250 64.631988525391 185 185 185
10.322998046875 24.974121093750 64.717987060547 144 144 144
9.981445312500 25.100097656250 63.238006591797 35 35 35
9.996337890625 25.101074218750 63.328002929688 61 61 61
9.981689453125 25.101074218750 63.417999267578 188 188 188
9.980712890625 25.101562500000 63.506988525391 210 210 210
9.977783203125 25.102050781250 63.596984863281 62 62 62
10.099853515625 25.107910156250 64.036987304688 67 67 67
10.109130859375 25.108398437500 64.125000000000 190 190 190
10.113525390625 25.109375000000 64.213989257813 188 188 188
10.117919921875 25.110351562500 64.303009033203 180 180 180
10.122070312500 25.110351562500 64.391998291016 180 180 180
10.122314453125 25.111328125000 64.481994628906 181 181 181
10.056396484375 25.252929687500 63.951995849609 120 120 120
10.064697265625 25.252441406250 64.040985107422 191 191 191
10.062744140625 25.252929687500 64.131011962891 190 190 190
10.057861328125 25.254394531250 64.221008300781 89 89 89
10.076904296875 25.254882812500 64.398986816406 182 182 182
10.076904296875 25.255859375000 64.488983154297 176 176 176
10.074218750000 25.256835937500 64.579986572266 181 181 181
9.998779296875 25.395019531250 63.867004394531 130 130 130
10.012939453125 25.396484375000 63.955993652344 205 205 205
10.011962890625 25.396972656250 64.045989990234 190 190 190
10.021240234375 25.399902343750 64.497009277344 182 182 182
10.026123046875 25.399414062500 64.587982177734 181 181 181
10.034912109375 25.400878906250 64.678009033203 130 130 130
9.995605468750 25.469238281250 64.540008544922 173 173 173
9.993408203125 25.469238281250 64.631988525391 75 75 75
10.011474609375 25.364746093750 63.906005859375 179 179 179
10.016357421875 25.364257812500 63.994995117188 190 190 190
10.016845703125 25.365234375000 64.084991455078 190 190 190
10.032470703125 25.366210937500 64.536010742188 193 193 193
10.030273437500 25.365722656250 64.627990722656 181 181 181
10.019042968750 25.365722656250 64.721008300781 54 54 54
10.057128906250 25.258789062500 63.993011474609 193 193 193
10.045654296875 25.258789062500 64.083984375000 192 192 192
10.050048828125 25.259765625000 64.173004150391 185 185 185
10.068603515625 25.259277343750 64.441009521484 181 181 181
10.070068359375 25.260742187500 64.531982421875 176 176 176
10.067626953125 25.259765625000 64.622985839844 183 183 183
9.961669921875 25.148925781250 63.458984375000 65 65 65
9.958496093750 25.148925781250 63.549987792969 25 25 25
10.088623046875 25.153808593750 64.079986572266 191 191 191
10.082031250000 25.153808593750 64.169982910156 192 192 192
10.085205078125 25.153320312500 64.259002685547 182 182 182
10.091552734375 25.153808593750 64.347991943359 23 23 23
10.091552734375 25.153808593750 64.437988281250 183 183 183
10.101806640625 25.154296875000 64.527008056641 182 182 182
9.987548828125 25.043457031250 63.278991699219 60 60 60
9.987548828125 25.043457031250 63.368988037109 61 61 61
10.002197265625 25.043945312500 63.458984375000 189 189 189
9.992919921875 25.044433593750 63.548004150391 127 127 127
9.993896484375 25.043945312500 63.638000488281 61 61 61
10.110107421875 25.047851562500 64.078002929688 88 88 88
10.122314453125 25.047851562500 64.165985107422 196 196 196
10.121337890625 25.047851562500 64.255004882813 193 193 193
10.127685546875 25.048339843750 64.342987060547 183 183 183
10.133300781250 25.049316406250 64.432006835938 178 178 178
10.131103515625 25.048828125000 64.523010253906 186 186 186
10.019042968750 24.938476562500 63.100982666016 56 56 56
10.014892578125 24.938476562500 63.190002441406 61 61 61
10.143554687500 24.942871093750 63.281982421875 98 98 98
10.034423828125 24.938476562500 63.368988037109 112 112 112
10.159423828125 24.943847656250 63.457000732422 120 120 120
10.039794921875 24.938476562500 63.548004150391 93 93 93
10.028564453125 24.938964843750 63.636993408203 66 66 66
10.293945312500 24.947265625000 63.888000488281 57 57 57
10.299072265625 24.946777343750 63.973999023438 79 79 79
10.306640625000 24.947753906250 64.059997558594 96 96 96
10.252197265625 24.945800781250 64.152984619141 149 149 149
10.249023437500 24.945800781250 64.240997314453 171 171 171
10.273193359375 24.946777343750 64.325988769531 155 155 155
10.279785156250 24.947753906250 64.412994384766 159 159 159
10.313720703125 24.947753906250 64.496002197266 143 143 143
10.316162109375 24.947753906250 64.583007812500 152 152 152
10.314208984375 24.948242187500 64.671997070313 158 158 158
10.327148437500 24.841308593750 61.622009277344 52 52 52
10.321044921875 24.840820312500 61.800994873047 110 110 110
10.344970703125 24.841796875000 61.895996093750 102 102 102
10.347167968750 24.842285156250 61.984985351563 107 107 107
10.353515625000 24.842773437500 62.075012207031 120 120 120
10.342041015625 24.842773437500 62.161010742188 134 134 134
10.346191406250 24.842773437500 62.248992919922 136 136 136
10.345214843750 24.842773437500 62.337005615234 153 153 153
10.348388671875 24.842773437500 62.424011230469 168 168 168
10.347167968750 24.842285156250 62.510986328125 172 172 172
10.348388671875 24.842773437500 62.597991943359 185 185 185
10.343505859375 24.843261718750 62.683990478516 195 195 195
10.345214843750 24.842773437500 62.769989013672 204 204 204
10.349365234375 24.842773437500 62.856994628906 216 216 216
10.343505859375 24.843261718750 62.941986083984 219 219 219
10.345214843750 24.842773437500 63.027984619141 214 214 214
10.339111328125 24.843261718750 63.113983154297 223 223 223
10.342529296875 24.843750000000 63.200012207031 228 228 228
10.338134765625 24.843750000000 63.285003662109 255 255 255
10.330322265625 24.842773437500 63.371002197266 223 223 223
10.335205078125 24.843261718750 63.457000732422 209 209 209
10.335205078125 24.843261718750 63.542999267578 200 200 200
10.325439453125 24.842773437500 63.628997802734 187 187 187
10.322509765625 24.842773437500 63.714996337891 176 176 176
10.322509765625 24.842773437500 63.800994873047 159 159 159
10.322509765625 24.842773437500 63.886993408203 150 150 150
10.299316406250 24.841796875000 63.975006103516 152 152 152
10.271240234375 24.841796875000 64.065002441406 170 170 170
10.246337890625 24.840820312500 64.153991699219 181 181 181
10.244384765625 24.841308593750 64.242004394531 183 183 183
10.234619140625 24.840820312500 64.332000732422 184 184 184
10.227294921875 24.839843750000 64.420989990234 181 181 181
10.230224609375 24.840332031250 64.509002685547 155 155 155
10.230224609375 24.840332031250 64.598999023438 128 128 128
10.218017578125 24.840332031250 64.690002441406 120 120 120
10.348388671875 24.737304687500 61.536987304688 153 153 153
10.346435546875 24.737792968750 61.626983642578 140 140 140
10.334960937500 24.736816406250 61.714996337891 137 137 137
10.313964843750 24.735839843750 61.799987792969 147 147 147
10.285888671875 24.735839843750 61.884002685547 165 165 165
10.276367187500 24.735351562500 61.971984863281 171 171 171
10.272216796875 24.735351562500 62.061004638672 170 170 170
10.259521484375 24.734863281250 62.148010253906 164 164 164
10.254638671875 24.735351562500 62.235992431641 147 147 147
10.258544921875 24.735351562500 62.325012207031 125 125 125
10.260009765625 24.735839843750 62.412994384766 121 121 121
10.253662109375 24.735839843750 62.501007080078 118 118 118
10.246337890625 24.734863281250 62.587982177734 119 119 119
10.247314453125 24.735839843750 62.674987792969 113 113 113
10.240966796875 24.735351562500 62.761993408203 107 107 107
10.249267578125 24.735351562500 62.850006103516 97 97 97
10.240966796875 24.735351562500 62.937011718750 67 67 67
10.126953125000 24.731445312500 63.019012451172 71 71 71
10.172119140625 24.733398437500 63.109008789063 67 67 67
10.081298828125 24.730468750000 63.194000244141 66 66 66
10.242431640625 24.736328125000 63.285003662109 120 120 120
10.204589843750 24.734375000000 63.372009277344 117 117 117
10.228515625000 24.734863281250 63.458984375000 128 128 128
10.076904296875 24.730468750000 63.549011230469 61 61 61
10.064453125000 24.730468750000 63.638000488281 66 66 66
10.229736328125 24.735351562500 64.156982421875 159 159 159
10.228759765625 24.735839843750 64.246002197266 186 186 186
10.221435546875 24.735351562500 64.334991455078 187 187 187
10.221435546875 24.735351562500 64.423004150391 202 202 202
10.208740234375 24.735351562500 64.514007568359 204 204 204
10.112060546875 24.627929687500 63.108001708984 56 56 56
10.164306640625 24.628906250000 63.197998046875 47 47 47
10.137939453125 24.627441406250 63.285003662109 98 98 98
10.118408203125 24.628417968750 63.372985839844 127 127 127
10.161132812500 24.628906250000 63.460998535156 98 98 98
10.150878906250 24.629394531250 63.549011230469 93 93 93
10.093505859375 24.627929687500 63.639007568359 71 71 71
10.258544921875 24.632324218750 64.156005859375 186 186 186
10.256591796875 24.632812500000 64.243988037109 183 183 183
10.275146484375 24.632812500000 64.329986572266 114 114 114
10.249267578125 24.632812500000 64.421997070313 205 205 205
10.253417968750 24.632812500000 64.510009765625 204 204 204
10.258789062500 24.633300781250 64.596984863281 204 204 204
10.159912109375 24.525878906250 63.286987304688 52 52 52
10.132568359375 24.524902343750 63.375000000000 68 68 68
10.138916015625 24.524902343750 63.462982177734 73 73 73
10.131591796875 24.524902343750 63.550994873047 71 71 71
10.138916015625 24.524902343750 63.639007568359 67 67 67
10.289794921875 24.530273437500 64.067993164063 187 187 187
10.300048828125 24.530761718750 64.153991699219 184 184 184
10.287841796875 24.530761718750 64.243011474609 183 183 183
10.284179687500 24.529785156250 64.506988525391 198 198 198
10.272949218750 24.529785156250 64.596984863281 204 204 204
10.282226562500 24.530273437500 64.683990478516 202 202 202
10.328857421875 24.427246093750 63.979003906250 29 29 29
10.331787109375 24.427246093750 64.065002441406 189 189 189
10.330810546875 24.426757812500 64.152008056641 186 186 186
10.300537109375 24.426757812500 64.242004394531 42 42 42
10.285888671875 24.425781250000 64.507995605469 65 65 65
10.306640625000 24.426269531250 64.592987060547 201 201 201
10.307861328125 24.426757812500 64.680999755859 200 200 200
10.305664062500 24.426269531250 64.770996093750 186 186 186
10.365478515625 24.322753906250 63.976989746094 112 112 112
10.366943359375 24.324707031250 64.062988281250 186 186 186
10.365478515625 24.322753906250 64.149993896484 186 186 186
10.323974609375 24.322753906250 64.592010498047 127 127 127
10.332275390625 24.322265625000 64.678985595703 202 202 202
10.810302734375 17.108398437500 64.040985107422 209 209 209
10.806884765625 17.108398437500 64.123992919922 207 207 207
10.807373046875 17.109375000000 64.626007080078 191 191 191
10.815673828125 17.109863281250 64.708984375000 189 189 189
10.822021484375 17.110351562500 64.792999267578 110 110 110
10.803955078125 17.005859375000 64.042999267578 185 185 185
10.815429687500 17.006347656250 64.125000000000 191 191 191
10.815429687500 17.006347656250 64.208007812500 207 207 207
10.816650390625 17.006835937500 64.542999267578 184 184 184
10.816650390625 17.006835937500 64.626983642578 184 184 184
10.823974609375 17.006835937500 64.709991455078 188 188 188
10.667236328125 16.897949218750 63.384002685547 72 72 72
10.681884765625 16.897949218750 63.467987060547 101 101 101
10.677734375000 16.897949218750 63.550994873047 89 89 89
10.810791015625 16.901855468750 64.127990722656 196 196 196
10.819091796875 16.902832031250 64.209991455078 193 193 193
10.818115234375 16.903320312500 64.292999267578 188 188 188
10.828613281250 16.902832031250 64.458984375000 75 75 75
10.829589843750 16.902832031250 64.542999267578 207 207 207
10.820068359375 16.903320312500 64.627990722656 178 178 178
10.830810546875 16.903320312500 64.710998535156 102 102 102
10.657470703125 16.793457031250 63.217010498047 82 82 82
10.667724609375 16.792480468750 63.302001953125 112 112 112
10.674072265625 16.793945312500 63.385986328125 115 115 115
10.679199218750 16.793457031250 63.470001220703 109 109 109
10.677246093750 16.794433593750 63.553009033203 106 106 106
10.681396484375 16.793945312500 63.636993408203 102 102 102
10.817626953125 16.799316406250 64.128997802734 146 146 146
10.832275390625 16.799804687500 64.210998535156 200 200 200
10.817626953125 16.799316406250 64.294982910156 209 209 209
10.815673828125 16.799804687500 64.462982177734 193 193 193
10.820800781250 16.799316406250 64.545989990234 178 178 178
10.820800781250 16.799316406250 64.631011962891 165 165 165
10.666259765625 16.689453125000 63.050994873047 86 86 86
10.660156250000 16.690429687500 63.135009765625 116 116 116
10.660156250000 16.690429687500 63.218994140625 108 108 108
10.675048828125 16.691406250000 63.303985595703 168 168 168
10.712402343750 16.691406250000 63.388000488281 110 110 110
10.726318359375 16.692382812500 63.471008300781 103 103 103
10.679443359375 16.691406250000 63.554992675781 189 189 189
10.672363281250 16.692382812500 63.639007568359 108 108 108
10.824707031250 16.695800781250 64.212982177734 178 178 178
10.819580078125 16.696289062500 64.296997070313 193 193 193
10.826904296875 16.696289062500 64.380004882813 191 191 191
10.818603515625 16.696777343750 64.464996337891 180 180 180
10.826904296875 16.696289062500 64.546997070313 182 182 182
10.949951171875 16.699218750000 64.861999511719 73 73 73
10.799804687500 16.696777343750 64.977996826172 85 85 85
10.810791015625 16.588867187500 62.562988281250 22 22 22
10.811035156250 16.589843750000 62.645996093750 61 61 61
10.823730468750 16.590820312500 62.730987548828 98 98 98
10.830810546875 16.590332031250 62.815002441406 111 111 111
10.831787109375 16.590332031250 62.897003173828 132 132 132
10.826904296875 16.590332031250 62.980010986328 148 148 148
10.805908203125 16.590332031250 63.061004638672 165 165 165
10.803710937500 16.589355468750 63.143005371094 176 176 176
10.799560546875 16.589355468750 63.225982666016 169 169 169
10.823974609375 16.591308593750 63.308990478516 185 185 185
10.822753906250 16.590820312500 63.390991210938 181 181 181
10.845703125000 16.591796875000 63.472991943359 206 206 206
10.825927734375 16.590820312500 63.554992675781 191 191 191
10.833007812500 16.590820312500 63.636993408203 185 185 185
10.832275390625 16.591308593750 63.720001220703 177 177 177
10.829345703125 16.591796875000 63.802001953125 183 183 183
10.830322265625 16.591796875000 63.884002685547 181 181 181
10.826904296875 16.591308593750 63.967010498047 182 182 182
10.832275390625 16.592285156250 64.049011230469 173 173 173
10.835693359375 16.592285156250 64.131988525391 177 177 177
10.843994140625 16.593261718750 64.213989257813 176 176 176
10.831298828125 16.592285156250 64.298004150391 181 181 181
10.844970703125 16.592773437500 64.380004882813 184 184 184
10.850341796875 16.593261718750 64.462982177734 175 175 175
10.843017578125 16.593261718750 64.546997070313 166 166 166
10.871337890625 16.594238281250 64.626983642578 166 166 166
10.903564453125 16.594726562500 64.704986572266 159 159 159
10.856689453125 16.593750000000 64.798004150391 177 177 177
11.004150390625 16.598144531250 64.852996826172 140 140 140
10.966552734375 16.596679687500 64.945007324219 142 142 142
11.038330078125 16.599121093750 65.013000488281 101 101 101
10.819091796875 16.483886718750 62.057006835938 179 179 179
10.819091796875 16.483886718750 62.143005371094 190 190 190
10.819091796875 16.483886718750 62.227996826172 181 181 181
10.824951171875 16.485351562500 62.312988281250 170 170 170
10.821533203125 16.484375000000 62.397003173828 181 181 181
10.820556640625 16.484375000000 62.480987548828 194 194 194
10.835205078125 16.485839843750 62.566986083984 185 185 185
10.816406250000 16.484863281250 62.648010253906 203 203 203
10.830322265625 16.485839843750 62.731994628906 180 180 180
10.824951171875 16.485351562500 62.815002441406 187 187 187
10.832519531250 16.486328125000 62.898010253906 196 196 196
10.844970703125 16.486816406250 62.981994628906 183 183 183
10.834228515625 16.485839843750 63.062988281250 182 182 182
10.826171875000 16.486328125000 63.144989013672 185 185 185
10.831298828125 16.486816406250 63.227996826172 179 179 179
10.831298828125 16.486816406250 63.309997558594 184 184 184
10.829345703125 16.486328125000 63.391998291016 191 191 191
10.833740234375 16.487304687500 63.473999023438 186 186 186
10.829345703125 16.487304687500 63.555999755859 177 177 177
10.821533203125 16.487304687500 63.639007568359 178 178 178
10.838623046875 16.486816406250 63.720001220703 157 157 157
10.832763671875 16.487304687500 63.803009033203 158 158 158
10.834716796875 16.487792968750 63.885009765625 155 155 155
10.839111328125 16.487304687500 63.967010498047 147 147 147
10.847412109375 16.488281250000 64.049011230469 144 144 144
10.834716796875 16.487792968750 64.132995605469 144 144 144
10.843505859375 16.488281250000 64.214996337891 126 126 126
10.833740234375 16.488281250000 64.299011230469 181 181 181
10.836181640625 16.488281250000 64.381988525391 179 179 179
10.840576171875 16.489257812500 64.464996337891 176 176 176
10.838134765625 16.487792968750 64.549011230469 162 162 162
10.849853515625 16.488769531250 64.631988525391 106 106 106
10.852783203125 16.488769531250 64.714996337891 85 85 85
10.861083984375 16.489257812500 64.798004150391 106 106 106
10.970947265625 16.493164062500 64.860992431641 120 120 120
10.885498046875 16.491210937500 64.963989257813 101 101 101
11.021240234375 16.493652343750 65.018005371094 87 87 87
10.658203125000 16.376953125000 63.053985595703 95 95 95
10.660400390625 16.377441406250 63.139007568359 100 100 100
10.690673828125 16.377929687500 63.223999023438 119 119 119
10.687500000000 16.377929687500 63.307983398438 167 167 167
10.697998046875 16.378906250000 63.391998291016 105 105 105
10.721923828125 16.378906250000 63.475006103516 109 109 109
10.690673828125 16.377929687500 63.558990478516 202 202 202
10.678466796875 16.377929687500 63.643005371094 109 109 109
10.826904296875 16.382812500000 64.217987060547 183 183 183
10.829101562500 16.383300781250 64.300994873047 182 182 182
10.826904296875 16.382812500000 64.384002685547 178 178 178
10.824951171875 16.383789062500 64.467987060547 181 181 181
10.825927734375 16.383300781250 64.552001953125 182 182 182
10.838623046875 16.384277343750 64.975006103516 82 82 82
10.696044921875 16.272460937500 63.225006103516 87 87 87
10.715087890625 16.273925781250 63.308990478516 142 142 142
10.658691406250 16.272949218750 63.391998291016 115 115 115
10.671142578125 16.272460937500 63.476989746094 220 220 220
10.676269531250 16.271972656250 63.561004638672 107 107 107
10.670166015625 16.272949218750 63.644989013672 101 101 101
10.815673828125 16.277343750000 64.136993408203 172 172 172
10.830322265625 16.278320312500 64.218994140625 188 188 188
10.825439453125 16.278320312500 64.303009033203 193 193 193
10.832519531250 16.278808593750 64.468994140625 184 184 184
10.829345703125 16.278320312500 64.553985595703 182 182 182
10.832519531250 16.278808593750 64.636993408203 183 183 183
10.659912109375 16.167480468750 63.394012451172 52 52 52
10.670410156250 16.167480468750 63.477996826172 181 181 181
10.678466796875 16.167480468750 63.562011718750 79 79 79
10.800048828125 16.171386718750 64.057006835938 49 49 49
10.827636718750 16.173828125000 64.138000488281 187 187 187
10.824951171875 16.171875000000 64.221984863281 191 191 191
10.835693359375 16.173828125000 64.303985595703 126 126 126
10.835937500000 16.174804687500 64.554992675781 191 191 191
10.839111328125 16.173828125000 64.638000488281 187 187 187
10.838134765625 16.174316406250 64.722991943359 178 178 178
10.819335937500 16.067871093750 64.057006835938 193 193 193
10.822509765625 16.068359375000 64.139007568359 193 193 193
10.820556640625 16.067871093750 64.222991943359 203 203 203
10.826660156250 16.068359375000 64.557006835938 75 75 75
10.836181640625 16.069824218750 64.639984130859 206 206 206
10.846435546875 16.068847656250 64.722991943359 188 188 188
10.845458984375 16.069335937500 64.807983398438 124 124 124
10.808593750000 15.964355468750 64.059997558594 118 118 118
10.815673828125 15.964355468750 64.141998291016 192 192 192
10.834716796875 15.965332031250 64.641998291016 174 174 174
10.843017578125 15.964843750000 64.725982666016 158 158 158
10.027099609375 25.485351562500 64.691009521484 37 37 37
10.015380859375 25.492187500000 64.587982177734 143 143 143
9.987060546875 25.510253906250 64.072998046875 14 14 14
10.047363281250 25.375000000000 64.691986083984 80 80 80
10.040771484375 25.377929687500 64.588989257813 100 100 100
10.051757812500 25.372070312500 64.484985351563 81 81 81
10.019287109375 25.392578125000 64.075012207031 120 120 120
10.012939453125 25.396484375000 63.971984863281 175 175 175
10.080810546875 25.254882812500 64.587005615234 97 97 97
10.087158203125 25.251464843750 64.484008789063 104 104 104
10.062988281250 25.265625000000 64.178009033203 117 117 117
10.066894531250 25.264648437500 64.075012207031 120 120 120
10.031005859375 25.284667968750 63.973999023438 69 69 69
10.115722656250 25.132324218750 64.585998535156 32 32 32
10.117675781250 25.131835937500 64.483001708984 101 101 101
10.110595703125 25.136230468750 64.381011962891 105 105 105
10.106201171875 25.139160156250 64.278991699219 129 129 129
10.099365234375 25.145019531250 64.178009033203 126 126 126
10.095703125000 25.146972656250 64.075988769531 96 96 96
10.308349609375 24.923339843750 64.763000488281 112 112 112
10.306640625000 24.924804687500 64.662994384766 185 185 185
10.313720703125 24.920898437500 64.562011718750 180 180 180
10.315673828125 24.920410156250 64.462005615234 186 186 186
10.310302734375 24.922851562500 64.363006591797 188 188 188
10.326904296875 24.915527343750 64.261993408203 189 189 189
10.318603515625 24.919433593750 64.162994384766 190 190 190
10.322265625000 24.917968750000 64.063995361328 197 197 197
10.333251953125 24.912597656250 63.963989257813 197 197 197
10.327880859375 24.916503906250 63.864990234375 195 195 195
10.325439453125 24.917480468750 63.766998291016 190 190 190
10.337158203125 24.911621093750 63.667999267578 182 182 182
10.324462890625 24.917968750000 63.569000244141 177 177 177
10.330810546875 24.915527343750 63.470001220703 167 167 167
10.346191406250 24.907226562500 63.372009277344 167 167 167
10.344482421875 24.908691406250 63.273010253906 116 116 116
10.342041015625 24.910156250000 63.174011230469 106 106 106
10.341064453125 24.910644531250 63.075012207031 75 75 75
10.336181640625 24.914550781250 62.975982666016 75 75 75
10.345947265625 24.909179687500 62.876983642578 61 61 61
10.337890625000 24.914062500000 62.777008056641 41 41 41
10.341308593750 24.911621093750 62.677001953125 19 19 19
10.207763671875 24.874023437500 64.677001953125 95 95 95
10.204833984375 24.875976562500 64.575988769531 105 105 105
10.196289062500 24.881347656250 64.475982666016 161 161 161
10.198974609375 24.880371093750 64.373992919922 165 165 165
10.200927734375 24.879882812500 64.273010253906 171 171 171
10.201904296875 24.879394531250 64.171997070313 159 159 159
10.211669921875 24.874023437500 64.070983886719 170 170 170
10.215332031250 24.872070312500 63.970001220703 167 167 167
10.223388671875 24.867675781250 63.868988037109 165 165 165
10.223876953125 24.868652343750 63.769012451172 165 165 165
10.239257812500 24.860351562500 63.669006347656 168 168 168
10.244873046875 24.857910156250 63.569000244141 174 174 174
10.258056640625 24.850097656250 63.468994140625 178 178 178
10.261474609375 24.848144531250 63.368988037109 211 211 211
10.268310546875 24.845703125000 63.269989013672 195 195 195
10.289794921875 24.834472656250 63.170989990234 163 163 163
10.302490234375 24.827148437500 63.072998046875 176 176 176
10.316406250000 24.820312500000 62.973999023438 160 160 160
10.324462890625 24.816406250000 62.875000000000 186 186 186
10.325439453125 24.816406250000 62.776000976563 192 192 192
10.322753906250 24.817871093750 62.674987792969 194 194 194
10.327392578125 24.815429687500 62.575012207031 194 194 194
10.329345703125 24.814941406250 62.475006103516 188 188 188
10.334716796875 24.812500000000 62.375000000000 187 187 187
10.335693359375 24.812500000000 62.273986816406 184 184 184
10.340332031250 24.810058593750 62.173004150391 180 180 180
10.344726562500 24.806640625000 62.071990966797 185 185 185
10.349365234375 24.804199218750 61.971008300781 178 178 178
10.345214843750 24.808593750000 61.867004394531 178 178 178
10.358154296875 24.799804687500 61.766998291016 175 175 175
10.359130859375 24.799804687500 61.664001464844 164 164 164
10.361083984375 24.798828125000 61.559997558594 163 163 163
10.234619140625 24.753906250000 64.571990966797 113 113 113
10.221435546875 24.761230468750 64.472991943359 127 127 127
10.236572265625 24.753417968750 64.369995117188 114 114 114
10.245849609375 24.749023437500 64.269012451172 105 105 105
10.238769531250 24.753906250000 64.169006347656 94 94 94
10.057373046875 24.855468750000 63.669006347656 14 14 14
10.053955078125 24.857421875000 63.566009521484 7 7 7
10.203369140625 24.775390625000 63.467010498047 101 101 101
10.202392578125 24.776367187500 63.367004394531 117 117 117
10.056884765625 24.856933593750 63.259002685547 13 13 13
10.089111328125 24.839355468750 63.157989501953 15 15 15
10.067626953125 24.851562500000 63.053985595703 13 13 13
10.227294921875 24.764160156250 62.763000488281 32 32 32
10.222900390625 24.767578125000 62.661010742188 83 83 83
10.225585937500 24.766113281250 62.559997558594 91 91 91
10.228271484375 24.765136718750 62.458007812500 99 99 99
10.232177734375 24.763183593750 62.356994628906 106 106 106
10.241943359375 24.757812500000 62.256011962891 112 112 112
10.234130859375 24.762695312500 62.151000976563 117 117 117
10.233154296875 24.763671875000 62.048004150391 139 139 139
10.228759765625 24.766113281250 61.942993164063 145 145 145
10.236083984375 24.763183593750 61.839996337891 149 149 149
10.250488281250 24.754394531250 61.738983154297 147 147 147
10.259521484375 24.750000000000 61.635986328125 146 146 146
10.269775390625 24.745605468750 61.532989501953 144 144 144
10.264404296875 24.631835937500 64.669982910156 98 98 98
10.269042968750 24.629394531250 64.569000244141 127 127 127
10.262939453125 24.634277343750 64.468994140625 127 127 127
10.284912109375 24.623046875000 64.265991210938 102 102 102
10.281982421875 24.624023437500 64.166992187500 107 107 107
10.077392578125 24.738769531250 63.669006347656 14 14 14
10.138671875000 24.705566406250 63.567993164063 43 43 43
10.136962890625 24.707031250000 63.466003417969 56 56 56
10.085693359375 24.735351562500 63.363006591797 70 70 70
10.110839843750 24.721191406250 63.261993408203 36 36 36
10.113525390625 24.720703125000 63.160003662109 24 24 24
10.093017578125 24.732421875000 63.055999755859 12 12 12
10.304687500000 24.505859375000 64.765991210938 79 79 79
10.292724609375 24.512207031250 64.666992187500 120 120 120
10.301025390625 24.507812500000 64.565002441406 122 122 122
10.302978515625 24.508300781250 64.264984130859 20 20 20
10.331054687500 24.492675781250 64.164001464844 107 107 107
10.327636718750 24.494628906250 64.065002441406 106 106 106
10.115966796875 24.612304687500 63.669006347656 14 14 14
10.119873046875 24.611328125000 63.567993164063 46 46 46
10.116455078125 24.613281250000 63.466003417969 57 57 57
10.139160156250 24.601562500000 63.364990234375 33 33 33
10.147216796875 24.597167968750 63.264007568359 34 34 34
10.122314453125 24.611328125000 63.161010742188 9 9 9
10.307861328125 24.399902343750 64.766998291016 84 84 84
10.327392578125 24.388183593750 64.664001464844 125 125 125
10.364257812500 24.371093750000 64.162994384766 100 100 100
10.362060546875 24.371582031250 64.063995361328 111 111 111
10.343017578125 24.381835937500 63.966003417969 11 11 11
10.135986328125 24.499023437500 63.569000244141 20 20 20
10.133789062500 24.499511718750 63.467010498047 9 9 9
10.824951171875 17.139648437500 64.799011230469 128 128 128
10.817626953125 17.143554687500 64.704010009766 173 173 173
10.813232421875 17.145996093750 64.609008789063 153 153 153
10.809814453125 17.148925781250 64.132995605469 196 196 196
10.810546875000 17.147949218750 64.037994384766 142 142 142
10.819091796875 17.039550781250 64.704010009766 178 178 178
10.816650390625 17.041503906250 64.609008789063 192 192 192
10.810302734375 17.045410156250 64.227996826172 202 202 202
10.808349609375 17.045898437500 64.132995605469 180 180 180
10.801513671875 17.049804687500 64.039001464844 171 171 171
10.822509765625 16.934082031250 64.704986572266 149 149 149
10.823486328125 16.933593750000 64.609008789063 166 166 166
10.818115234375 16.937011718750 64.514007568359 191 191 191
10.837158203125 16.926757812500 64.321990966797 118 118 118
10.818115234375 16.937011718750 64.229003906250 182 182 182
10.812744140625 16.939941406250 64.134002685547 180 180 180
10.907958984375 16.784179687500 64.980010986328 64 64 64
10.817138671875 16.834472656250 64.610992431641 171 171 171
10.820556640625 16.833007812500 64.514984130859 188 188 188
10.826171875000 16.830566406250 64.419006347656 100 100 100
10.827148437500 16.830078125000 64.324005126953 200 200 200
10.817138671875 16.834472656250 64.230010986328 181 181 181
10.800048828125 16.845703125000 64.135986328125 99 99 99
10.672607421875 16.916992187500 63.563995361328 62 62 62
10.666259765625 16.920410156250 63.467010498047 79 79 79
10.679199218750 16.914550781250 63.371002197266 28 28 28
10.869384765625 16.810058593750 61.544006347656 130 130 130
10.996826171875 16.631835937500 65.059997558594 76 76 76
10.971679687500 16.646484375000 64.970001220703 102 102 102
10.996826171875 16.631835937500 64.871002197266 124 124 124
10.924072265625 16.673828125000 64.787994384766 54 54 54
10.937500000000 16.665039062500 64.691986083984 138 138 138
10.926269531250 16.673339843750 64.598999023438 107 107 107
10.833251953125 16.723632812500 64.514984130859 167 167 167
10.829589843750 16.725585937500 64.419982910156 168 168 168
10.829589843750 16.725585937500 64.325012207031 189 189 189
10.817138671875 16.733398437500 64.230987548828 171 171 171
10.679687500000 16.810546875000 63.661987304688 63 63 63
10.677001953125 16.812011718750 63.565002441406 83 83 83
10.713134765625 16.791992187500 63.470001220703 73 73 73
10.666259765625 16.818359375000 63.371002197266 81 81 81
10.655517578125 16.823730468750 63.273986816406 76 76 76
10.964599609375 16.548828125000 65.067993164063 87 87 87
10.963623046875 16.549316406250 64.972991943359 140 140 140
10.996337890625 16.531250000000 64.872985839844 110 110 110
10.854980468750 16.609863281250 64.799987792969 115 115 115
10.904052734375 16.582031250000 64.697998046875 111 111 111
10.907958984375 16.580566406250 64.602996826172 117 117 117
10.925048828125 16.570800781250 64.506011962891 141 141 141
10.916259765625 16.576171875000 64.412994384766 110 110 110
10.918701171875 16.574707031250 64.319000244141 152 152 152
10.912597656250 16.578613281250 64.225006103516 105 105 105
10.903564453125 16.583007812500 64.131988525391 117 117 117
10.911621093750 16.578613281250 64.037994384766 125 125 125
10.916259765625 16.576171875000 63.945007324219 145 145 145
10.919189453125 16.575683593750 63.850982666016 155 155 155
10.922607421875 16.573730468750 63.757995605469 155 155 155
10.911865234375 16.579589843750 63.664001464844 141 141 141
10.909912109375 16.580078125000 63.570983886719 124 124 124
10.885986328125 16.595214843750 63.475982666016 145 145 145
10.873291015625 16.602050781250 63.381988525391 126 126 126
10.862548828125 16.607910156250 63.286987304688 109 109 109
10.877929687500 16.599609375000 63.194000244141 93 93 93
10.895751953125 16.588378906250 63.100982666016 76 76 76
10.900146484375 16.585937500000 63.006988525391 30 30 30
10.909179687500 16.581542968750 62.914001464844 49 49 49
10.905517578125 16.583007812500 62.819000244141 71 71 71
10.924560546875 16.573242187500 62.726989746094 70 70 70
10.896728515625 16.588867187500 62.626983642578 43 43 43
10.906005859375 16.584472656250 62.532989501953 8 8 8
10.665771484375 16.719238281250 61.483001708984 192 192 192
10.916259765625 16.474121093750 64.984008789063 84 84 84
10.901855468750 16.482421875000 64.889984130859 77 77 77
10.813720703125 16.532226562500 64.615997314453 9 9 9
10.826416015625 16.525390625000 64.519012451172 165 165 165
10.831298828125 16.522949218750 64.423004150391 161 161 161
10.831542968750 16.520996093750 64.328002929688 166 166 166
10.838134765625 16.518066406250 64.231994628906 101 101 101
10.827392578125 16.525390625000 64.138000488281 107 107 107
10.835449218750 16.520019531250 64.042999267578 110 110 110
10.833496093750 16.520507812500 63.949005126953 111 111 111
10.837402343750 16.519531250000 63.854003906250 122 122 122
10.821289062500 16.528808593750 63.760009765625 124 124 124
10.820312500000 16.529296875000 63.665008544922 136 136 136
10.812255859375 16.533691406250 63.570007324219 147 147 147
10.830322265625 16.524414062500 63.475982666016 157 157 157
10.822509765625 16.528808593750 63.381011962891 164 164 164
10.825927734375 16.526855468750 63.286010742188 154 154 154
10.821289062500 16.528808593750 63.191009521484 158 158 158
10.820556640625 16.530273437500 63.096008300781 153 153 153
10.828857421875 16.525878906250 63.001007080078 158 158 158
10.821533203125 16.529785156250 62.904998779297 157 157 157
10.831298828125 16.523925781250 62.809997558594 155 155 155
10.831787109375 16.524902343750 62.713989257813 143 143 143
10.825195312500 16.527832031250 62.617004394531 143 143 143
10.832275390625 16.523925781250 62.522003173828 154 154 154
10.836181640625 16.522949218750 62.425994873047 145 145 145
10.832519531250 16.524902343750 62.328002929688 143 143 143
10.834228515625 16.523437500000 62.230987548828 127 127 127
10.844482421875 16.518554687500 62.135009765625 117 117 117
10.886474609375 16.494140625000 61.651000976563 111 111 111
10.870361328125 16.503906250000 61.545989990234 147 147 147
10.829833984375 16.526367187500 62.032989501953 97 97 97
10.866699218750 16.399902343750 64.993988037109 10 10 10
10.832763671875 16.419921875000 64.615997314453 165 165 165
10.828369140625 16.421875000000 64.520996093750 173 173 173
10.822998046875 16.425781250000 64.425994873047 175 175 175
10.820312500000 16.427246093750 64.330993652344 174 174 174
10.812255859375 16.431640625000 64.235992431641 178 178 178
10.673828125000 16.509277343750 63.665008544922 68 68 68
10.675781250000 16.508300781250 63.569000244141 147 147 147
10.688232421875 16.500976562500 63.472991943359 112 112 112
10.731201171875 16.476562500000 63.377990722656 78 78 78
10.719970703125 16.485351562500 63.281005859375 92 92 92
10.684814453125 16.503906250000 63.182006835938 85 85 85
10.672119140625 16.510742187500 63.083984375000 75 75 75
10.638183593750 16.530273437500 62.983001708984 18 18 18
10.777099609375 16.455078125000 61.619995117188 181 181 181
10.822021484375 16.429199218750 61.531982421875 169 169 169
10.844970703125 16.312988281250 64.710998535156 67 67 67
10.834960937500 16.317382812500 64.617004394531 169 169 169
10.830566406250 16.320800781250 64.522003173828 180 180 180
10.823974609375 16.323242187500 64.332000732422 182 182 182
10.827636718750 16.321289062500 64.235992431641 178 178 178
10.828613281250 16.321289062500 64.140991210938 95 95 95
10.663574218750 16.414550781250 63.666992187500 83 83 83
10.681396484375 16.404296875000 63.570007324219 89 89 89
10.715576171875 16.385742187500 63.475006103516 77 77 77
10.679443359375 16.404785156250 63.376983642578 119 119 119
10.670898437500 16.411621093750 63.278991699219 114 114 114
10.655517578125 16.419921875000 63.180999755859 48 48 48
10.646240234375 16.424804687500 63.083007812500 76 76 76
10.832275390625 16.218261718750 64.714996337891 177 177 177
10.843505859375 16.212890625000 64.618011474609 172 172 172
10.828857421875 16.219726562500 64.523986816406 136 136 136
10.809814453125 16.230468750000 64.334991455078 80 80 80
10.821044921875 16.225097656250 64.238983154297 181 181 181
10.810302734375 16.232421875000 64.144012451172 182 182 182
