20.688720703125 35.218261718750 68.523986816406 145 145 145
20.226806640625 34.913574218750 68.207000732422 62 62 62
20.154541015625 34.866210937500 68.191986083984 179 179 179
20.089111328125 34.824707031250 68.190002441406 182 182 182
20.033935546875 34.789550781250 68.204986572266 175 175 175
20.622070312500 34.930175781250 61.812988281250 103 103 103
20.610107421875 34.923828125000 61.869995117188 107 107 107
21.015869140625 35.181640625000 61.800994873047 152 152 152
21.011962890625 35.180175781250 61.858001708984 136 136 136
20.717529296875 34.998046875000 62.153991699219 107 107 107
20.723876953125 35.002929687500 62.199005126953 178 178 178
20.728271484375 35.006347656250 62.244995117188 180 180 180
20.736083984375 35.012695312500 62.287994384766 175 175 175
20.724853515625 35.006347656250 62.338989257813 180 180 180
20.718017578125 35.003417968750 62.388000488281 180 180 180
20.716552734375 35.002929687500 62.433990478516 181 181 181
20.717041015625 35.003906250000 62.480010986328 176 176 176
20.716064453125 35.003906250000 62.524993896484 178 178 178
20.715087890625 35.004394531250 62.570007324219 177 177 177
20.720703125000 35.009765625000 62.613006591797 170 170 170
20.714111328125 35.005371093750 62.658996582031 179 179 179
20.713378906250 35.005859375000 62.704010009766 179 179 179
20.716064453125 35.007812500000 62.747009277344 177 177 177
20.708007812500 35.005371093750 62.791992187500 182 182 182
20.713134765625 35.007324218750 62.833984375000 179 179 179
20.702148437500 35.001953125000 62.880004882813 183 183 183
20.719726562500 35.014160156250 62.919006347656 170 170 170
20.704101562500 35.006347656250 62.964996337891 186 186 186
20.696533203125 35.001464843750 63.009002685547 186 186 186
20.697998046875 35.002441406250 63.050994873047 183 183 183
20.699951171875 35.006347656250 63.092987060547 187 187 187
20.706298828125 35.009277343750 63.134002685547 185 185 185
20.701416015625 35.007812500000 63.177001953125 187 187 187
20.705322265625 35.009765625000 63.217987060547 175 175 175
20.698486328125 35.007812500000 63.260986328125 185 185 185
20.698486328125 35.007812500000 63.303009033203 183 183 183
20.698486328125 35.008789062500 63.343994140625 184 184 184
20.698974609375 35.009765625000 63.385986328125 180 180 180
20.698974609375 35.010253906250 63.427001953125 184 184 184
20.703369140625 35.014160156250 63.468994140625 180 180 180
20.702392578125 35.014648437500 63.510009765625 180 180 180
20.708740234375 35.019042968750 63.552001953125 168 168 168
20.701660156250 35.016113281250 63.593994140625 171 171 171
20.699462890625 35.015625000000 63.635009765625 182 182 182
20.709716796875 35.022949218750 63.677001953125 171 171 171
20.691162109375 35.011718750000 63.717987060547 185 185 185
20.653564453125 34.987792968750 63.756988525391 113 113 113
20.644775390625 34.982421875000 63.798004150391 128 128 128
20.639404296875 34.981445312500 63.837982177734 118 118 118
20.651855468750 34.989257812500 63.881011962891 147 147 147
20.622314453125 34.971679687500 63.917999267578 138 138 138
20.614501953125 34.967285156250 63.958984375000 142 142 142
20.692138671875 35.018554687500 64.010986328125 186 186 186
20.688232421875 35.016601562500 64.053009033203 185 185 185
20.687255859375 35.015625000000 64.095001220703 186 186 186
20.686279296875 35.016113281250 64.136993408203 177 177 177
20.684082031250 35.015625000000 64.179992675781 188 188 188
20.684326171875 35.016601562500 64.222991943359 177 177 177
20.685791015625 35.018066406250 64.265991210938 185 185 185
20.683593750000 35.017578125000 64.308990478516 187 187 187
20.685058593750 35.019531250000 64.352996826172 186 186 186
20.681640625000 35.018066406250 64.395996093750 185 185 185
20.679443359375 35.017578125000 64.438995361328 177 177 177
20.676025390625 35.016601562500 64.481994628906 186 186 186
20.672607421875 35.016113281250 64.526000976563 187 187 187
20.672851562500 35.017089843750 64.570007324219 187 187 187
20.677978515625 35.020019531250 64.617004394531 184 184 184
20.673583984375 35.018554687500 64.661010742188 185 185 185
20.672607421875 35.018554687500 64.705993652344 181 181 181
20.667480468750 35.016113281250 64.750000000000 177 177 177
20.667968750000 35.018066406250 64.796997070313 187 187 187
20.668212890625 35.018554687500 64.843994140625 185 185 185
20.668701171875 35.019531250000 64.890991210938 184 184 184
20.673583984375 35.023437500000 64.941009521484 186 186 186
20.672607421875 35.023925781250 64.988006591797 186 186 186
20.668212890625 35.021972656250 65.035003662109 185 185 185
20.768066406250 35.087890625000 65.135009765625 156 156 156
20.765869140625 35.087402343750 65.184997558594 154 154 154
20.766357421875 35.089355468750 65.236999511719 161 161 161
20.765380859375 35.089843750000 65.287994384766 158 158 158
20.761962890625 35.088378906250 65.338989257813 159 159 159
20.767333984375 35.093261718750 65.395996093750 159 159 159
20.759033203125 35.089355468750 65.445007324219 165 165 165
20.762939453125 35.092285156250 65.501983642578 159 159 159
20.760986328125 35.092285156250 65.555999755859 157 157 157
20.760009765625 35.093261718750 65.611999511719 132 132 132
20.750732421875 35.088378906250 65.661987304688 145 145 145
20.749755859375 35.088867187500 65.717987060547 135 135 135
20.757812500000 35.096191406250 65.781982421875 113 113 113
20.598388671875 34.991699218750 65.723999023438 110 110 110
20.587402343750 34.984863281250 65.772003173828 113 113 113
20.617431640625 35.006835937500 65.852996826172 129 129 129
20.617675781250 35.007812500000 65.911987304688 151 151 151
20.745849609375 35.094238281250 66.079010009766 88 88 88
20.754150390625 35.101074218750 66.148986816406 90 90 90
20.747802734375 35.097167968750 66.208984375000 86 86 86
20.749755859375 35.100585937500 66.276000976563 82 82 82
20.736083984375 35.092285156250 66.332000732422 83 83 83
20.752929687500 35.104492187500 66.415008544922 71 71 71
20.737060546875 35.096191406250 66.470001220703 57 57 57
20.739990234375 35.099121093750 66.544006347656 58 58 58
20.744873046875 35.104980468750 66.621002197266 52 52 52
20.739990234375 35.103027343750 66.690002441406 40 40 40
20.734130859375 35.100585937500 66.759002685547 33 33 33
20.291748046875 34.810546875000 66.565002441406 160 160 160
20.253662109375 34.788574218750 66.592010498047 152 152 152
20.228271484375 34.772460937500 66.634002685547 72 72 72
20.259033203125 34.793945312500 66.744995117188 141 141 141
20.803955078125 35.162109375000 67.511993408203 120 120 120
20.808349609375 35.166503906250 67.613006591797 121 121 121
20.784912109375 35.152832031250 67.678985595703 122 122 122
20.785888671875 35.156250000000 67.778991699219 103 103 103
20.672119140625 35.082031250000 67.722991943359 118 118 118
20.662353515625 35.076660156250 67.807983398438 104 104 104
20.656005859375 35.076171875000 67.902984619141 99 99 99
20.655273437500 35.077636718750 68.007995605469 98 98 98
20.712158203125 35.119140625000 68.204986572266 130 130 130
20.728271484375 35.131835937500 68.345001220703 59 59 59
20.718994140625 35.128906250000 68.450012207031 130 130 130
20.687988281250 35.109863281250 68.519989013672 94 94 94
20.288574218750 34.844238281250 68.195983886719 182 182 182
20.228759765625 34.807617187500 68.208007812500 181 181 181
20.164306640625 34.765136718750 68.207000732422 91 91 91
20.606201171875 34.811523437500 61.825012207031 99 99 99
20.590332031250 34.802734375000 61.884002685547 80 80 80
21.014648437500 35.072265625000 61.804992675781 153 153 153
21.021240234375 35.077636718750 61.855010986328 148 148 148
20.881347656250 35.002441406250 62.563995361328 89 89 89
20.876953125000 35.001464843750 62.611999511719 93 93 93
20.874755859375 35.000976562500 62.658996582031 100 100 100
20.871826171875 34.998046875000 62.705993652344 104 104 104
20.875244140625 35.001953125000 62.751007080078 107 107 107
20.883056640625 35.008789062500 62.794982910156 86 86 86
20.871826171875 35.001953125000 62.842987060547 101 101 101
20.873779296875 35.004394531250 62.888000488281 109 109 109
20.873779296875 35.005371093750 62.932983398438 112 112 112
20.868164062500 35.002929687500 62.979003906250 109 109 109
20.869628906250 35.004394531250 63.023010253906 53 53 53
20.868652343750 35.004882812500 63.067993164063 117 117 117
20.862304687500 35.000488281250 63.113006591797 113 113 113
20.867919921875 35.005859375000 63.156982421875 119 119 119
20.865722656250 35.005371093750 63.200988769531 115 115 115
20.860351562500 35.001464843750 63.246002197266 120 120 120
20.864990234375 35.006835937500 63.289001464844 117 117 117
20.864013671875 35.006835937500 63.333007812500 123 123 123
20.860595703125 35.005859375000 63.376983642578 124 124 124
20.858642578125 35.005371093750 63.420989990234 121 121 121
20.856689453125 35.003417968750 63.464996337891 127 127 127
20.862548828125 35.009277343750 63.507995605469 125 125 125
20.852783203125 35.003417968750 63.552001953125 124 124 124
20.840576171875 34.996582031250 63.596008300781 122 122 122
20.833251953125 34.992187500000 63.639007568359 120 120 120
20.825927734375 34.989257812500 63.682006835938 122 122 122
20.848388671875 35.003417968750 63.726989746094 138 138 138
20.855712890625 35.010253906250 63.770996093750 155 155 155
20.636962890625 34.870117187500 63.796997070313 127 127 127
20.643310546875 34.875488281250 63.838989257813 135 135 135
20.813476562500 34.985351562500 63.898986816406 152 152 152
20.832763671875 34.999023437500 63.944000244141 147 147 147
20.795166015625 34.974609375000 63.983001708984 123 123 123
20.794189453125 34.974609375000 64.027008056641 126 126 126
20.803222656250 34.981933593750 64.071990966797 130 130 130
20.788330078125 34.973144531250 64.113006591797 124 124 124
20.785156250000 34.972656250000 64.156982421875 126 126 126
20.782470703125 34.971191406250 64.200012207031 124 124 124
20.785644531250 34.974121093750 64.244995117188 127 127 127
20.783447265625 34.973632812500 64.289001464844 134 134 134
20.784667968750 34.974121093750 64.333984375000 131 131 131
20.782714843750 34.974609375000 64.378997802734 131 131 131
20.786376953125 34.977050781250 64.424987792969 132 132 132
20.780761718750 34.975097656250 64.468994140625 139 139 139
20.789794921875 34.982910156250 64.516998291016 146 146 146
20.782470703125 34.978027343750 64.561004638672 145 145 145
20.780517578125 34.977539062500 64.605987548828 144 144 144
20.775634765625 34.975585937500 64.651000976563 144 144 144
20.768310546875 34.971679687500 64.695983886719 132 132 132
20.781250000000 34.980468750000 64.747009277344 142 142 142
20.783203125000 34.984375000000 64.795989990234 151 151 151
20.780517578125 34.982421875000 64.842987060547 149 149 149
20.772216796875 34.978515625000 64.888000488281 146 146 146
20.773681640625 34.980468750000 64.937011718750 147 147 147
20.772705078125 34.980468750000 64.985992431641 149 149 149
20.769531250000 34.979492187500 65.033996582031 152 152 152
20.758544921875 34.973632812500 65.079010009766 153 153 153
20.740966796875 34.962402343750 65.119995117188 124 124 124
20.988037109375 35.133300781250 65.703002929688 167 167 167
20.960693359375 35.117187500000 65.743988037109 164 164 164
20.932128906250 35.100097656250 65.785003662109 159 159 159
20.939697265625 35.104980468750 65.850982666016 155 155 155
20.932861328125 35.102539062500 65.907989501953 74 74 74
20.582275390625 34.872070312500 65.709991455078 107 107 107
20.617431640625 34.897460937500 65.792999267578 134 134 134
20.602294921875 34.888671875000 65.839996337891 136 136 136
20.610595703125 34.895507812500 65.904998779297 147 147 147
20.477783203125 34.818847656250 66.417999267578 78 78 78
20.451904296875 34.804687500000 66.459991455078 135 135 135
20.425537109375 34.787597656250 66.501007080078 131 131 131
20.412353515625 34.781250000000 66.557006835938 111 111 111
20.334228515625 34.730957031250 66.610992431641 57 57 57
20.803466796875 35.058105468750 67.700988769531 114 114 114
20.803955078125 35.060058593750 67.799987792969 117 117 117
20.785400390625 35.049316406250 67.876007080078 120 120 120
20.634033203125 34.950683593750 67.765991210938 108 108 108
20.634765625000 34.953613281250 67.868988037109 106 106 106
20.626464843750 34.949218750000 67.960998535156 103 103 103
20.465087890625 34.849121093750 68.147003173828 132 132 132
20.416503906250 34.818847656250 68.180999755859 112 112 112
20.387939453125 34.802246093750 68.250000000000 70 70 70
20.569824218750 34.928710937500 68.694000244141 71 71 71
20.583740234375 34.941406250000 68.852996826172 101 101 101
20.633056640625 34.715820312500 61.606994628906 144 144 144
20.622070312500 34.709960937500 61.666992187500 141 141 141
20.626220703125 34.714355468750 61.714996337891 140 140 140
20.631347656250 34.717773437500 61.764007568359 134 134 134
20.584228515625 34.688964843750 61.842010498047 115 115 115
20.631835937500 34.719726562500 61.863983154297 158 158 158
20.632568359375 34.722167968750 61.912994384766 155 155 155
20.625244140625 34.718261718750 61.966003417969 147 147 147
20.630615234375 34.722656250000 62.010986328125 140 140 140
20.633300781250 34.725097656250 62.057983398438 165 165 165
20.629638671875 34.723632812500 62.106994628906 160 160 160
20.635009765625 34.728515625000 62.151000976563 162 162 162
20.629394531250 34.726074218750 62.200012207031 166 166 166
20.637451171875 34.731445312500 62.243011474609 168 168 168
20.628662109375 34.727050781250 62.292999267578 169 169 169
20.634033203125 34.731445312500 62.335998535156 165 165 165
20.635498046875 34.732421875000 62.380004882813 166 166 166
20.639404296875 34.735351562500 62.423004150391 163 163 163
20.639892578125 34.737304687500 62.467987060547 168 168 168
20.644042968750 34.741210937500 62.510009765625 165 165 165
20.637695312500 34.737792968750 62.555999755859 167 167 167
20.635498046875 34.736328125000 62.600982666016 164 164 164
20.639892578125 34.741699218750 62.641998291016 155 155 155
20.639892578125 34.741699218750 62.686004638672 165 165 165
20.642822265625 34.744628906250 62.727996826172 168 168 168
20.649169921875 34.749511718750 62.768005371094 165 165 165
20.642333984375 34.746093750000 62.812988281250 163 163 163
20.646240234375 34.749023437500 62.854003906250 169 169 169
20.651123046875 34.752929687500 62.894989013672 167 167 167
20.643066406250 34.749023437500 62.938995361328 163 163 163
20.640380859375 34.747558593750 62.980987548828 165 165 165
20.644775390625 34.751464843750 63.022003173828 161 161 161
20.646240234375 34.753417968750 63.062988281250 168 168 168
20.650390625000 34.756835937500 63.104003906250 164 164 164
20.643066406250 34.752929687500 63.145996093750 167 167 167
20.645751953125 34.754882812500 63.187011718750 165 165 165
20.644531250000 34.754882812500 63.227996826172 165 165 165
20.646240234375 34.756835937500 63.269012451172 165 165 165
20.638916015625 34.753417968750 63.309997558594 164 164 164
20.646728515625 34.759277343750 63.350982666016 167 167 167
20.647216796875 34.760253906250 63.390991210938 164 164 164
20.642333984375 34.757324218750 63.432006835938 160 160 160
20.643798828125 34.760253906250 63.472991943359 164 164 164
20.651855468750 34.766601562500 63.514007568359 163 163 163
20.645507812500 34.761718750000 63.554992675781 158 158 158
20.652099609375 34.767578125000 63.595001220703 158 158 158
20.644775390625 34.763183593750 63.635986328125 156 156 156
20.647705078125 34.765625000000 63.677001953125 156 156 156
20.649169921875 34.768066406250 63.717987060547 147 147 147
20.648193359375 34.768554687500 63.759002685547 135 135 135
20.631835937500 34.758300781250 63.798004150391 129 129 129
20.636474609375 34.762207031250 63.839996337891 167 167 167
20.651611328125 34.772460937500 63.881988525391 167 167 167
20.642822265625 34.768066406250 63.923004150391 167 167 167
20.639404296875 34.766601562500 63.962982177734 163 163 163
20.647216796875 34.772460937500 64.006011962891 163 163 163
20.652587890625 34.776367187500 64.048004150391 167 167 167
20.646484375000 34.772949218750 64.088989257813 170 170 170
20.645507812500 34.772949218750 64.131011962891 163 163 163
20.645996093750 34.774902343750 64.173004150391 163 163 163
20.653564453125 34.780761718750 64.217010498047 165 165 165
20.649902343750 34.777832031250 64.259002685547 166 166 166
20.651855468750 34.781250000000 64.302001953125 168 168 168
20.648193359375 34.779785156250 64.343994140625 161 161 161
20.652343750000 34.782714843750 64.388000488281 165 165 165
20.647705078125 34.781250000000 64.429992675781 161 161 161
20.646728515625 34.781738281250 64.473999023438 165 165 165
20.645751953125 34.781738281250 64.516998291016 161 161 161
20.645996093750 34.782714843750 64.562011718750 162 162 162
20.654052734375 34.788574218750 64.609008789063 161 161 161
20.647705078125 34.785156250000 64.651000976563 161 161 161
20.653076171875 34.789550781250 64.699005126953 161 161 161
20.652099609375 34.790039062500 64.743988037109 165 165 165
20.653564453125 34.791503906250 64.790985107422 157 157 157
20.652587890625 34.791992187500 64.837005615234 161 161 161
20.655517578125 34.794921875000 64.885009765625 160 160 160
20.648193359375 34.791015625000 64.928985595703 152 152 152
20.656250000000 34.796875000000 64.980010986328 159 159 159
20.651123046875 34.794433593750 65.026000976563 160 160 160
20.650146484375 34.794921875000 65.074005126953 160 160 160
20.644531250000 34.791992187500 65.119995117188 160 160 160
20.653564453125 34.798828125000 65.174011230469 161 161 161
20.652587890625 34.798828125000 65.223999023438 161 161 161
20.649414062500 34.798828125000 65.273010253906 156 156 156
20.652099609375 34.801757812500 65.325988769531 153 153 153
20.652587890625 34.802734375000 65.377990722656 152 152 152
20.644287109375 34.798828125000 65.425994873047 153 153 153
20.654785156250 34.807128906250 65.485992431641 150 150 150
20.646240234375 34.801757812500 65.533996582031 152 152 152
20.650146484375 34.805175781250 65.591003417969 148 148 148
20.646972656250 34.805175781250 65.644012451172 144 144 144
20.647216796875 34.806152343750 65.700988769531 137 137 137
20.650146484375 34.809570312500 65.760009765625 145 145 145
20.621337890625 34.791015625000 65.795989990234 132 132 132
20.601562500000 34.779296875000 65.837982177734 140 140 140
20.651123046875 34.812988281250 65.937011718750 150 150 150
20.646728515625 34.812011718750 65.993988037109 132 132 132
20.652099609375 34.815917968750 66.059997558594 143 143 143
20.647460937500 34.814941406250 66.118988037109 152 152 152
20.648193359375 34.816894531250 66.183990478516 148 148 148
20.648681640625 34.818847656250 66.248992919922 153 153 153
20.647705078125 34.819335937500 66.313995361328 139 139 139
20.635742187500 34.813476562500 66.368988037109 148 148 148
20.594970703125 34.785644531250 66.398010253906 167 167 167
20.595947265625 34.789550781250 66.468994140625 165 165 165
20.640869140625 34.819824218750 66.584991455078 129 129 129
20.646728515625 34.825683593750 66.662994384766 132 132 132
20.643310546875 34.826171875000 66.734008789063 122 122 122
20.638916015625 34.824707031250 66.804992675781 130 130 130
20.648193359375 34.831542968750 66.893005371094 133 133 133
20.648925781250 34.834472656250 66.973999023438 139 139 139
20.646728515625 34.833984375000 67.052001953125 126 126 126
20.645019531250 34.835449218750 67.132995605469 125 125 125
20.638916015625 34.833007812500 67.209991455078 119 119 119
20.634521484375 34.831054687500 67.291992187500 121 121 121
20.636474609375 34.835937500000 67.385009765625 119 119 119
20.643554687500 34.841796875000 67.484985351563 125 125 125
20.638916015625 34.840332031250 67.572998046875 126 126 126
20.639892578125 34.843750000000 67.671997070313 120 120 120
20.610107421875 34.825195312500 67.726989746094 114 114 114
20.612304687500 34.830078125000 67.833984375000 113 113 113
20.617919921875 34.835449218750 67.945983886719 115 115 115
20.611572265625 34.834960937500 68.044006347656 121 121 121
20.580078125000 34.814941406250 68.105010986328 179 179 179
20.577392578125 34.816406250000 68.213989257813 157 157 157
20.630126953125 34.854492187500 68.417999267578 116 116 116
20.634033203125 34.858886718750 68.545989990234 121 121 121
20.638916015625 34.866210937500 68.682983398438 117 117 117
20.623046875000 34.857421875000 68.786010742188 121 121 121
20.608642578125 34.850097656250 68.895996093750 123 123 123
20.630126953125 34.869628906250 69.075988769531 102 102 102
20.627685546875 34.871093750000 69.217987060547 100 100 100
20.629882812500 34.875000000000 69.372985839844 106 106 106
20.686767578125 34.644531250000 61.731994628906 118 118 118
20.693359375000 34.648925781250 61.779998779297 119 119 119
20.688964843750 34.648437500000 61.833007812500 115 115 115
20.821777343750 34.731933593750 61.808990478516 126 126 126
20.841064453125 34.745117187500 61.850006103516 46 46 46
21.031738281250 34.866210937500 61.800994873047 155 155 155
21.023681640625 34.862304687500 61.859008789063 161 161 161
20.729736328125 34.695312500000 62.877990722656 114 114 114
20.730224609375 34.696289062500 62.921997070313 119 119 119
20.734130859375 34.699218750000 62.963989257813 121 121 121
20.877685546875 34.791015625000 62.980010986328 129 129 129
20.970947265625 34.867675781250 63.779998779297 109 109 109
20.643798828125 34.657226562500 63.799987792969 141 141 141
20.648925781250 34.661132812500 63.841003417969 152 152 152
20.901123046875 34.824707031250 63.908996582031 71 71 71
20.764404296875 34.737304687500 63.937011718750 121 121 121
20.759521484375 34.735839843750 63.980010986328 112 112 112
20.728271484375 34.716796875000 64.018005371094 121 121 121
20.728759765625 34.717773437500 64.061004638672 133 133 133
20.736572265625 34.723144531250 64.105010986328 126 126 126
20.732666015625 34.720214843750 64.147003173828 55 55 55
20.879882812500 34.826171875000 64.687988281250 47 47 47
20.885498046875 34.831054687500 64.738006591797 60 60 60
20.884277343750 34.831542968750 64.786987304688 71 71 71
20.873535156250 34.825683593750 64.832000732422 76 76 76
20.879638671875 34.829589843750 64.884002685547 85 85 85
20.881591796875 34.832031250000 64.933990478516 81 81 81
20.878173828125 34.832031250000 64.983001708984 88 88 88
20.873291015625 34.829101562500 65.031982421875 88 88 88
20.876220703125 34.831542968750 65.083984375000 88 88 88
20.874267578125 34.832031250000 65.135009765625 88 88 88
20.870849609375 34.831054687500 65.184997558594 90 90 90
20.855957031250 34.822265625000 65.230010986328 129 129 129
20.719482421875 34.733398437500 65.208984375000 129 129 129
20.715087890625 34.732421875000 65.257995605469 130 130 130
20.713134765625 34.731933593750 65.307983398438 127 127 127
20.887451171875 34.846679687500 65.464996337891 93 93 93
20.870361328125 34.836914062500 65.510009765625 96 96 96
20.875976562500 34.842773437500 65.570007324219 103 103 103
20.917968750000 34.870605468750 65.653991699219 144 144 144
20.905761718750 34.863769531250 65.704986572266 146 146 146
20.894775390625 34.857910156250 65.756988525391 150 150 150
20.887451171875 34.854003906250 65.812011718750 143 143 143
20.866210937500 34.841308593750 65.856994628906 123 123 123
20.565673828125 34.644531250000 65.695007324219 110 110 110
20.613037109375 34.677246093750 65.786987304688 118 118 118
20.587646484375 34.661132812500 65.825012207031 135 135 135
20.600585937500 34.670410156250 65.894012451172 163 163 163
20.846923828125 34.835449218750 66.156982421875 126 126 126
20.862548828125 34.846191406250 66.235992431641 126 126 126
20.849365234375 34.839843750000 66.291992187500 124 124 124
20.849609375000 34.840820312500 66.359985351563 126 126 126
20.842529296875 34.838378906250 66.421997070313 124 124 124
20.846679687500 34.841796875000 66.497009277344 127 127 127
20.700439453125 34.747070312500 66.428985595703 130 130 130
20.708740234375 34.753417968750 66.506988525391 120 120 120
20.739501953125 34.774902343750 66.609008789063 126 126 126
20.828857421875 34.836425781250 66.773986816406 119 119 119
20.819091796875 34.831542968750 66.842010498047 124 124 124
20.817138671875 34.832031250000 66.917999267578 118 118 118
20.813720703125 34.831054687500 66.993988037109 117 117 117
20.805664062500 34.827636718750 67.067993164063 121 121 121
20.802490234375 34.827636718750 67.148010253906 125 125 125
20.808349609375 34.834472656250 67.239990234375 124 124 124
20.793701171875 34.825683593750 67.309997558594 122 122 122
20.796630859375 34.829101562500 67.402984619141 124 124 124
20.787109375000 34.824218750000 67.481994628906 120 120 120
20.782714843750 34.823730468750 67.570007324219 116 116 116
20.793701171875 34.833984375000 67.679992675781 113 113 113
20.781982421875 34.828125000000 67.764007568359 112 112 112
20.730712890625 34.796386718750 67.794006347656 113 113 113
20.625732421875 34.727050781250 67.746002197266 121 121 121
20.626220703125 34.729980468750 67.848999023438 125 125 125
20.619628906250 34.727539062500 67.942993164063 123 123 123
20.634033203125 34.739746093750 68.074005126953 127 127 127
20.751220703125 34.822265625000 68.368988037109 115 115 115
20.742919921875 34.818847656250 68.475982666016 109 109 109
20.738525390625 34.817871093750 68.592010498047 117 117 117
20.747314453125 34.827148437500 68.734008789063 113 113 113
20.685791015625 34.787597656250 68.759002685547 143 143 143
20.625732421875 34.749511718750 68.783996582031 139 139 139
20.725097656250 34.821289062500 69.104003906250 110 110 110
20.724609375000 34.823730468750 69.247009277344 111 111 111
20.678955078125 34.797363281250 69.308990478516 111 111 111
20.668457031250 34.792480468750 69.441986083984 18 18 18
20.976806640625 34.718750000000 61.613006591797 143 143 143
20.859130859375 34.645019531250 61.736999511719 115 115 115
20.849853515625 34.640625000000 61.794982910156 119 119 119
20.867431640625 34.652832031250 61.837982177734 123 123 123
20.992919921875 34.731933593750 61.824005126953 123 123 123
20.992187500000 34.732910156250 61.877990722656 125 125 125
21.002685546875 34.741699218750 61.925994873047 128 128 128
21.000244140625 34.740234375000 61.980010986328 125 125 125
21.005615234375 34.744628906250 62.028991699219 126 126 126
20.997314453125 34.740234375000 62.084991455078 129 129 129
20.705810546875 34.558593750000 62.263000488281 162 162 162
20.707275390625 34.560058593750 62.308990478516 173 173 173
20.710205078125 34.562500000000 62.354003906250 174 174 174
20.701416015625 34.557617187500 62.402984619141 174 174 174
20.695556640625 34.555664062500 62.450012207031 179 179 179
20.680908203125 34.547363281250 62.500000000000 177 177 177
20.698486328125 34.558593750000 62.539001464844 165 165 165
20.680419921875 34.548828125000 62.588989257813 177 177 177
20.671630859375 34.543457031250 62.635986328125 176 176 176
20.665771484375 34.540527343750 62.680999755859 176 176 176
20.662353515625 34.539550781250 62.725006103516 179 179 179
20.662597656250 34.540527343750 62.768005371094 180 180 180
20.663818359375 34.541015625000 62.809997558594 182 182 182
20.664062500000 34.541992187500 62.852996826172 177 177 177
20.655517578125 34.538085937500 62.897003173828 182 182 182
20.659667968750 34.541503906250 62.937988281250 180 180 180
20.655029296875 34.540039062500 62.980987548828 182 182 182
20.657958984375 34.541992187500 63.022003173828 183 183 183
20.653076171875 34.539550781250 63.063995361328 182 182 182
20.654541015625 34.541503906250 63.105010986328 182 182 182
20.662353515625 34.547851562500 63.144989013672 173 173 173
20.655029296875 34.543457031250 63.187988281250 180 180 180
20.654052734375 34.543945312500 63.229003906250 179 179 179
20.658447265625 34.547851562500 63.269012451172 179 179 179
20.664306640625 34.550781250000 63.309997558594 171 171 171
20.660888671875 34.550292968750 63.350982666016 175 175 175
20.665283203125 34.553710937500 63.391998291016 170 170 170
20.652587890625 34.546386718750 63.432983398438 182 182 182
20.654541015625 34.549804687500 63.473999023438 181 181 181
20.659667968750 34.552246093750 63.514984130859 180 180 180
20.653564453125 34.550292968750 63.555999755859 181 181 181
20.654052734375 34.551269531250 63.596008300781 182 182 182
20.657958984375 34.553710937500 63.636993408203 180 180 180
20.650634765625 34.550781250000 63.678009033203 180 180 180
20.654785156250 34.553710937500 63.718994140625 179 179 179
20.658447265625 34.556640625000 63.760009765625 133 133 133
20.650390625000 34.553222656250 63.799987792969 142 142 142
20.646972656250 34.552246093750 63.841003417969 145 145 145
20.658935546875 34.558593750000 63.882995605469 149 149 149
20.639648437500 34.547851562500 63.921997070313 154 154 154
20.617187500000 34.534667968750 63.960998535156 159 159 159
20.670410156250 34.569335937500 64.009002685547 169 169 169
20.666992187500 34.568359375000 64.050994873047 170 170 170
20.668212890625 34.568847656250 64.092987060547 173 173 173
20.671142578125 34.572265625000 64.135009765625 176 176 176
20.669189453125 34.572753906250 64.178009033203 172 172 172
20.666748046875 34.571289062500 64.218994140625 168 168 168
20.662109375000 34.569335937500 64.260986328125 177 177 177
20.663330078125 34.570312500000 64.303985595703 174 174 174
20.667724609375 34.574218750000 64.347991943359 179 179 179
20.685791015625 34.586914062500 64.397003173828 162 162 162
20.670654296875 34.577636718750 64.436004638672 180 180 180
20.660888671875 34.572753906250 64.476989746094 179 179 179
20.668701171875 34.578125000000 64.523986816406 177 177 177
20.662841796875 34.575683593750 64.566009521484 177 177 177
20.667968750000 34.579101562500 64.611999511719 177 177 177
20.671142578125 34.583007812500 64.658996582031 177 177 177
20.677246093750 34.587402343750 64.707000732422 177 177 177
20.669189453125 34.583496093750 64.748992919922 178 178 178
20.666748046875 34.582031250000 64.794006347656 176 176 176
20.679687500000 34.591308593750 64.846008300781 179 179 179
20.667724609375 34.585937500000 64.888000488281 176 176 176
20.663818359375 34.582519531250 64.933990478516 175 175 175
20.665771484375 34.586425781250 64.981994628906 171 171 171
20.903076171875 34.741210937500 65.148010253906 144 144 144
20.890869140625 34.734375000000 65.195007324219 142 142 142
20.887451171875 34.732421875000 65.246002197266 143 143 143
20.885009765625 34.731933593750 65.298004150391 128 128 128
20.888427734375 34.736816406250 65.354003906250 128 128 128
20.884765625000 34.734375000000 65.406982421875 130 130 130
20.885253906250 34.736328125000 65.462005615234 131 131 131
20.883300781250 34.736816406250 65.516998291016 135 135 135
20.885009765625 34.738769531250 65.574005126953 131 131 131
20.876220703125 34.733886718750 65.626007080078 131 131 131
20.880371093750 34.737304687500 65.687011718750 127 127 127
20.882080078125 34.739746093750 65.746002197266 126 126 126
20.882568359375 34.741699218750 65.807006835938 128 128 128
20.876220703125 34.737304687500 65.863006591797 120 120 120
20.566894531250 34.535156250000 65.694000244141 125 125 125
20.604248046875 34.562500000000 65.778991699219 115 115 115
20.580322265625 34.547363281250 65.817993164063 131 131 131
20.613525390625 34.570312500000 65.902984619141 157 157 157
20.876708984375 34.746582031250 66.178985595703 108 108 108
20.866455078125 34.739257812500 66.236999511719 108 108 108
20.873779296875 34.747070312500 66.309997558594 106 106 106
20.872314453125 34.746582031250 66.376983642578 102 102 102
20.871826171875 34.748535156250 66.446990966797 107 107 107
20.869873046875 34.748046875000 66.515991210938 97 97 97
20.864013671875 34.745605468750 66.582000732422 97 97 97
20.852050781250 34.740234375000 66.644989013672 90 90 90
20.866210937500 34.750000000000 66.733001708984 87 87 87
20.860595703125 34.748535156250 66.803009033203 82 82 82
20.864746093750 34.752441406250 66.885986328125 78 78 78
20.865478515625 34.755371093750 66.967010498047 68 68 68
20.859619140625 34.752929687500 67.041992187500 57 57 57
20.864013671875 34.757812500000 67.130004882813 52 52 52
20.855712890625 34.753906250000 67.205993652344 35 35 35
20.845703125000 34.758300781250 67.746002197266 110 110 110
20.841552734375 34.758789062500 67.842010498047 107 107 107
20.776367187500 34.717773437500 67.852996826172 113 113 113
20.644775390625 34.630371093750 67.769012451172 117 117 117
20.646972656250 34.635253906250 67.873992919922 126 126 126
20.635986328125 34.629394531250 67.963989257813 124 124 124
20.696533203125 34.671875000000 68.164001464844 123 123 123
20.806884765625 34.752929687500 68.574005126953 118 118 118
20.842041015625 34.779296875000 68.757995605469 130 130 130
20.790771484375 34.748046875000 68.802001953125 127 127 127
20.689941406250 34.682128906250 68.760009765625 129 129 129
21.051025390625 34.656250000000 61.626983642578 198 198 198
21.071289062500 34.669921875000 61.673004150391 167 167 167
21.004150390625 34.628906250000 61.764984130859 93 93 93
20.998046875000 34.625976562500 61.822998046875 87 87 87
21.008300781250 34.633300781250 61.871002197266 80 80 80
21.006103515625 34.632812500000 61.925994873047 69 69 69
21.006591796875 34.634765625000 61.977996826172 51 51 51
20.694335937500 34.441406250000 62.269012451172 178 178 178
20.701171875000 34.446777343750 62.312988281250 173 173 173
20.697509765625 34.444824218750 62.359985351563 176 176 176
20.706787109375 34.451660156250 62.402008056641 164 164 164
20.699462890625 34.448242187500 62.450012207031 184 184 184
20.697265625000 34.447753906250 62.496002197266 182 182 182
20.697509765625 34.448730468750 62.540985107422 180 180 180
20.690673828125 34.445800781250 62.587005615234 180 180 180
20.698242187500 34.451660156250 62.628997802734 174 174 174
20.705810546875 34.456542968750 62.669982910156 173 173 173
20.702880859375 34.456542968750 62.714996337891 171 171 171
20.697509765625 34.453125000000 62.760009765625 180 180 180
20.702880859375 34.456542968750 62.800994873047 178 178 178
20.706787109375 34.460449218750 62.842987060547 176 176 176
20.698486328125 34.456054687500 62.888000488281 180 180 180
20.695068359375 34.455078125000 62.930999755859 177 177 177
20.701660156250 34.459960937500 62.971984863281 181 181 181
20.705810546875 34.463378906250 63.014007568359 175 175 175
20.702148437500 34.461914062500 63.057006835938 176 176 176
20.703857421875 34.463867187500 63.097991943359 178 178 178
20.710205078125 34.468261718750 63.139984130859 177 177 177
20.704589843750 34.466796875000 63.182006835938 177 177 177
20.708251953125 34.468750000000 63.222991943359 168 168 168
20.708496093750 34.469726562500 63.264984130859 167 167 167
20.708740234375 34.470703125000 63.307006835938 169 169 169
20.715332031250 34.476074218750 63.347991943359 163 163 163
20.711914062500 34.475097656250 63.389984130859 167 167 167
20.707031250000 34.472167968750 63.430999755859 175 175 175
20.703369140625 34.469726562500 63.472991943359 170 170 170
20.692626953125 34.464355468750 63.514984130859 179 179 179
20.705078125000 34.472656250000 63.555999755859 179 179 179
20.700439453125 34.470703125000 63.596984863281 180 180 180
20.697021484375 34.470214843750 63.638000488281 182 182 182
20.696044921875 34.470214843750 63.679992675781 181 181 181
20.692626953125 34.469238281250 63.721008300781 180 180 180
20.657470703125 34.446289062500 63.760009765625 122 122 122
20.671630859375 34.456054687500 63.802001953125 142 142 142
20.660400390625 34.449707031250 63.842010498047 140 140 140
20.659423828125 34.449707031250 63.884002685547 141 141 141
20.648681640625 34.444335937500 63.924011230469 144 144 144
20.622314453125 34.428222656250 63.960998535156 160 160 160
20.699707031250 34.479492187500 64.014007568359 176 176 176
20.686767578125 34.470703125000 64.053985595703 184 184 184
20.691162109375 34.474121093750 64.096984863281 185 185 185
20.693603515625 34.476562500000 64.139984130859 185 185 185
20.691650390625 34.476074218750 64.182006835938 185 185 185
20.689697265625 34.477050781250 64.223999023438 176 176 176
20.688476562500 34.476074218750 64.266998291016 185 185 185
20.686279296875 34.475585937500 64.308990478516 187 187 187
20.693115234375 34.480957031250 64.355010986328 184 184 184
20.681884765625 34.474609375000 64.394989013672 182 182 182
20.687011718750 34.478515625000 64.440002441406 187 187 187
20.686279296875 34.479003906250 64.484008789063 185 185 185
20.689208984375 34.482421875000 64.528991699219 181 181 181
20.681884765625 34.478027343750 64.571990966797 186 186 186
20.688232421875 34.483398437500 64.618988037109 185 185 185
20.685546875000 34.480957031250 64.662994384766 184 184 184
20.682373046875 34.480957031250 64.708007812500 184 184 184
20.681396484375 34.480957031250 64.752990722656 184 184 184
20.686767578125 34.485839843750 64.800994873047 185 185 185
20.692138671875 34.489746093750 64.850982666016 173 173 173
20.683837890625 34.485839843750 64.894012451172 187 187 187
20.680175781250 34.483886718750 64.940002441406 186 186 186
20.681884765625 34.486328125000 64.988983154297 173 173 173
21.010009765625 34.711914062500 65.710998535156 139 139 139
20.974853515625 34.688964843750 65.747009277344 148 148 148
20.942382812500 34.668945312500 65.786010742188 153 153 153
20.945800781250 34.672851562500 65.848999023438 160 160 160
20.939697265625 34.669921875000 65.906005859375 134 134 134
20.561767578125 34.422851562500 65.687011718750 105 105 105
20.615478515625 34.459960937500 65.783996582031 120 120 120
20.603515625000 34.453613281250 65.833007812500 141 141 141
20.609619140625 34.457519531250 65.895996093750 151 151 151
20.825439453125 34.635253906250 67.712982177734 106 106 106
20.822509765625 34.636230468750 67.808990478516 95 95 95
20.681884765625 34.543457031250 67.716003417969 119 119 119
20.659912109375 34.530761718750 67.785003662109 115 115 115
20.658935546875 34.531738281250 67.885986328125 111 111 111
20.664062500000 34.539062500000 68.000000000000 116 116 116
20.717773437500 34.579101562500 68.304992675781 104 104 104
20.715087890625 34.580566406250 68.419982910156 56 56 56
20.713134765625 34.581054687500 68.536987304688 138 138 138
20.672119140625 34.556152343750 68.592987060547 98 98 98
20.812744140625 34.406738281250 62.268005371094 88 88 88
20.816406250000 34.409667968750 62.313995361328 88 88 88
20.816162109375 34.412109375000 62.360992431641 78 78 78
20.817626953125 34.414062500000 62.454010009766 56 56 56
20.953125000000 34.526367187500 63.734008789063 48 48 48
20.679443359375 34.352050781250 63.760986328125 138 138 138
20.696777343750 34.363281250000 63.803985595703 153 153 153
20.694335937500 34.361816406250 63.845001220703 155 155 155
20.685791015625 34.356445312500 63.885986328125 144 144 144
20.671142578125 34.349609375000 63.925994873047 156 156 156
20.647216796875 34.333984375000 63.963989257813 153 153 153
21.003906250000 34.598632812500 65.704010009766 149 149 149
20.969970703125 34.576171875000 65.742004394531 149 149 149
20.946533203125 34.562988281250 65.786010742188 152 152 152
20.935546875000 34.557128906250 65.838989257813 139 139 139
20.929687500000 34.554199218750 65.895996093750 129 129 129
21.415283203125 34.907226562500 67.841003417969 33 33 33
21.380615234375 34.886718750000 67.902008056641 72 72 72
20.808593750000 34.513671875000 67.686004638672 27 27 27
20.773193359375 34.493164062500 67.735992431641 121 121 121
20.757080078125 34.483886718750 67.813995361328 116 116 116
20.746337890625 34.479003906250 67.902984619141 108 108 108
20.733154296875 34.473144531250 67.988983154297 116 116 116
20.696289062500 34.455566406250 68.264984130859 24 24 24
20.700927734375 34.460937500000 68.389007568359 130 130 130
20.659912109375 34.436523437500 68.442993164063 99 99 99
20.696533203125 34.463378906250 68.627990722656 139 139 139
20.932861328125 34.404296875000 63.777984619141 134 134 134
20.883056640625 34.373535156250 63.819000244141 143 143 143
20.902099609375 34.386230468750 63.864990234375 150 150 150
20.935302734375 34.408203125000 63.912994384766 153 153 153
20.973388671875 34.434570312500 63.962982177734 155 155 155
21.001220703125 34.486816406250 65.700988769531 150 150 150
20.974853515625 34.470214843750 65.743011474609 154 154 154
20.941650390625 34.450195312500 65.781005859375 161 161 161
20.927978515625 34.442382812500 65.832000732422 150 150 150
20.921875000000 34.438964843750 65.889007568359 130 130 130
21.621337890625 34.924804687500 67.571990966797 64 64 64
21.592529296875 34.906738281250 67.638000488281 85 85 85
20.729248046875 34.360351562500 67.977996826172 84 84 84
20.696533203125 34.346191406250 68.260009765625 133 133 133
20.708740234375 34.356445312500 68.395996093750 100 100 100
20.691650390625 34.347656250000 68.488006591797 30 30 30
20.698730468750 34.354980468750 68.625000000000 134 134 134
20.919189453125 34.285156250000 63.777984619141 136 136 136
20.895751953125 34.272460937500 63.820007324219 125 125 125
20.895751953125 34.272460937500 63.863983154297 126 126 126
20.907958984375 34.282714843750 63.910003662109 142 142 142
20.955810546875 34.312988281250 63.959991455078 149 149 149
20.715576171875 34.249511718750 68.282989501953 89 89 89
20.685302734375 34.230957031250 68.351989746094 106 106 106
20.690429687500 34.237304687500 68.480010986328 117 117 117
20.692382812500 34.240722656250 68.608001708984 98 98 98
20.702392578125 34.127441406250 68.036987304688 100 100 100
20.695068359375 34.133300781250 68.608001708984 96 96 96
21.137939453125 36.912597656250 61.654998779297 172 172 172
21.009521484375 36.875488281250 61.610992431641 154 154 154
20.912597656250 36.927246093750 61.609985351563 155 155 155
20.833007812500 36.969726562500 61.600006103516 163 163 163
20.537841796875 36.943847656250 68.166992187500 125 125 125
21.005615234375 36.770996093750 61.615997314453 152 152 152
20.883544921875 36.835937500000 61.627990722656 170 170 170
20.805908203125 36.877929687500 61.618011474609 165 165 165
20.719970703125 36.923339843750 61.614990234375 170 170 170
20.667236328125 36.951171875000 61.593994140625 165 165 165
20.551513671875 36.832031250000 68.182006835938 116 116 116
20.919921875000 36.707519531250 61.933990478516 80 80 80
20.936767578125 36.697753906250 61.872009277344 179 179 179
20.897216796875 36.719238281250 61.838989257813 130 130 130
20.881103515625 36.728515625000 61.794006347656 127 127 127
20.853271484375 36.744628906250 61.756011962891 127 127 127
20.837158203125 36.753906250000 61.712005615234 127 127 127
20.826416015625 36.759765625000 61.664001464844 129 129 129
20.796630859375 36.776367187500 61.626983642578 156 156 156
20.720703125000 36.817382812500 61.618011474609 170 170 170
20.654296875000 36.850585937500 61.604003906250 166 166 166
20.579833984375 36.890136718750 61.597991943359 165 165 165
20.537353515625 36.731445312500 68.269989013672 81 81 81
20.550537109375 36.725585937500 68.175994873047 126 126 126
20.582275390625 36.709472656250 68.110992431641 154 154 154
20.914794921875 36.599121093750 62.388000488281 52 52 52
20.912353515625 36.601074218750 62.339996337891 98 98 98
20.897949218750 36.608398437500 62.296997070313 122 122 122
20.885009765625 36.615234375000 62.251983642578 130 130 130
20.860595703125 36.630371093750 62.212982177734 124 124 124
20.842041015625 36.639648437500 62.170989990234 126 126 126
20.824951171875 36.649414062500 62.128997802734 122 122 122
20.800048828125 36.663574218750 62.091003417969 129 129 129
20.796386718750 36.665527343750 62.041992187500 140 140 140
20.794677734375 36.667480468750 61.993011474609 150 150 150
20.792236328125 36.668945312500 61.944000244141 150 150 150
20.802978515625 36.664062500000 61.888000488281 151 151 151
20.812255859375 36.659179687500 61.830993652344 147 147 147
20.771728515625 36.681152343750 61.800994873047 129 129 129
20.618408203125 36.762207031250 61.782989501953 162 162 162
20.717529296875 36.711425781250 61.674011230469 183 183 183
20.596191406250 36.775390625000 61.692993164063 176 176 176
20.625488281250 36.761230468750 61.623992919922 177 177 177
20.561035156250 36.794921875000 61.610992431641 170 170 170
20.543457031250 36.620605468750 68.393005371094 84 84 84
20.573974609375 36.607421875000 68.205993652344 120 120 120
20.586914062500 36.602050781250 68.111999511719 124 124 124
20.593750000000 36.600097656250 68.013000488281 142 142 142
20.909912109375 36.490234375000 62.813995361328 46 46 46
20.899169921875 36.496093750000 62.770996093750 94 94 94
20.893310546875 36.500976562500 62.725982666016 113 113 113
20.874511718750 36.512207031250 62.684997558594 121 121 121
20.859130859375 36.520019531250 62.643005371094 124 124 124
20.848388671875 36.525878906250 62.598999023438 121 121 121
20.835693359375 36.533691406250 62.557006835938 123 123 123
20.793212890625 36.555664062500 62.523010253906 133 133 133
20.785888671875 36.560058593750 62.479003906250 143 143 143
20.789794921875 36.558593750000 62.432006835938 150 150 150
20.790771484375 36.558593750000 62.385009765625 148 148 148
20.792724609375 36.558105468750 62.337005615234 149 149 149
20.784179687500 36.564453125000 62.292999267578 149 149 149
20.783203125000 36.564941406250 62.244995117188 116 116 116
20.784423828125 36.564941406250 62.196990966797 64 64 64
20.947998046875 36.481933593750 61.816986083984 153 153 153
20.927246093750 36.492675781250 61.773010253906 164 164 164
20.781494140625 36.569824218750 61.796997070313 135 135 135
20.601074218750 36.668457031250 61.587982177734 164 164 164
20.555419921875 36.509765625000 68.406982421875 123 123 123
20.572998046875 36.500976562500 68.316009521484 99 99 99
20.558837890625 36.510742187500 68.178009033203 103 103 103
20.596191406250 36.491210937500 68.121002197266 103 103 103
20.596679687500 36.493164062500 68.010986328125 93 93 93
20.909423828125 36.381835937500 63.222991943359 71 71 71
20.898437500000 36.387695312500 63.179992675781 101 101 101
20.884033203125 36.395996093750 63.135986328125 117 117 117
20.861328125000 36.407226562500 63.095001220703 120 120 120
20.847412109375 36.416503906250 63.053009033203 121 121 121
20.830322265625 36.425781250000 63.010986328125 124 124 124
20.804931640625 36.439453125000 62.971008300781 119 119 119
20.793212890625 36.446777343750 62.928985595703 140 140 140
20.788085937500 36.450683593750 62.885986328125 148 148 148
20.786376953125 36.451171875000 62.842010498047 151 151 151
20.784423828125 36.452148437500 62.798004150391 149 149 149
20.791015625000 36.449707031250 62.751983642578 146 146 146
20.796630859375 36.447265625000 62.705993652344 136 136 136
20.781005859375 36.455078125000 62.665008544922 101 101 101
20.781494140625 36.456054687500 62.619995117188 49 49 49
20.978027343750 36.359863281250 61.858001708984 46 46 46
20.959716796875 36.369140625000 61.812988281250 156 156 156
20.881347656250 36.412109375000 61.799987792969 194 194 194
20.781005859375 36.465820312500 61.799987792969 135 135 135
20.591064453125 36.386230468750 68.337982177734 146 146 146
20.601318359375 36.382324218750 68.236999511719 126 126 126
20.618408203125 36.375488281250 68.039001464844 98 98 98
20.900146484375 36.276367187500 63.622985839844 78 78 78
20.888427734375 36.282714843750 63.579010009766 102 102 102
20.866943359375 36.295410156250 63.535003662109 121 121 121
20.852783203125 36.304199218750 63.490997314453 126 126 126
20.826416015625 36.317382812500 63.447998046875 122 122 122
20.804931640625 36.329589843750 63.404998779297 125 125 125
20.787841796875 36.338867187500 63.363006591797 135 135 135
20.788574218750 36.338867187500 63.320007324219 141 141 141
20.772705078125 36.347656250000 63.278991699219 148 148 148
20.767089843750 36.351562500000 63.235992431641 149 149 149
20.773681640625 36.348632812500 63.192993164063 150 150 150
20.773681640625 36.348632812500 63.149993896484 152 152 152
20.783935546875 36.343750000000 63.105010986328 124 124 124
20.768798828125 36.353027343750 63.063995361328 92 92 92
21.009033203125 36.238281250000 61.843994140625 45 45 45
20.957275390625 36.265625000000 61.816009521484 155 155 155
20.845214843750 36.325683593750 61.820007324219 120 120 120
20.772705078125 36.364257812500 61.805999755859 132 132 132
20.873779296875 36.180664062500 64.022003173828 83 83 83
