6.364013671875 25.153808593750 65.606994628906 107 107 107
6.347412109375 25.146972656250 65.765991210938 96 96 96
6.357666015625 25.157714843750 65.920989990234 89 89 89
6.342529296875 25.152343750000 66.080993652344 99 99 99
6.335937500000 25.151367187500 66.239990234375 80 80 80
6.341064453125 25.158691406250 66.398010253906 81 81 81
6.326416015625 25.153808593750 66.561004638672 61 61 61
6.317871093750 25.152832031250 66.723999023438 54 54 54
6.310058593750 25.150878906250 66.886993408203 22 22 22
6.308349609375 25.155761718750 67.049987792969 3 3 3
6.890380859375 21.081542968750 66.220001220703 175 175 175
6.878173828125 21.218750000000 66.216003417969 139 139 139
6.907470703125 21.219726562500 66.345001220703 184 184 184
6.952392578125 21.220703125000 66.467987060547 153 153 153
6.867919921875 21.357910156250 66.214996337891 185 185 185
6.869384765625 21.500976562500 66.212982177734 157 157 157
6.874267578125 21.645996093750 66.212982177734 126 126 126
6.864501953125 21.645019531250 66.350982666016 93 93 93
6.912841796875 21.647460937500 66.473999023438 101 101 101
6.849121093750 21.792480468750 66.220001220703 104 104 104
6.835205078125 21.938964843750 66.225006103516 107 107 107
6.874023437500 21.940429687500 66.488006591797 26 26 26
6.827392578125 22.083984375000 66.226989746094 99 99 99
6.865234375000 22.085937500000 66.489990234375 44 44 44
6.799072265625 22.227050781250 66.233001708984 96 96 96
6.843017578125 22.229003906250 66.493988037109 103 103 103
6.778076171875 22.366210937500 66.234008789063 90 90 90
6.805419921875 22.368164062500 66.501007080078 31 31 31
6.797607421875 22.369140625000 66.640991210938 35 35 35
6.736572265625 22.502441406250 66.238006591797 93 93 93
6.789306640625 22.504882812500 66.498992919922 5 5 5
6.738769531250 22.638183593750 66.230010986328 84 84 84
6.736083984375 22.639160156250 66.368011474609 71 71 71
6.744873046875 22.638671875000 66.502990722656 77 77 77
6.753662109375 22.640625000000 66.778991699219 31 31 31
6.718261718750 22.911132812500 66.915985107422 38 38 38
6.686279296875 23.048339843750 66.501983642578 19 19 19
6.645263671875 23.193847656250 67.075988769531 43 43 43
6.598876953125 23.485351562500 67.238006591797 30 30 30
6.598876953125 23.629394531250 66.527008056641 25 25 25
6.569824218750 23.772949218750 66.535003662109 30 30 30
6.563476562500 23.916015625000 66.533996582031 9 9 9
6.521484375000 24.054687500000 66.542999267578 27 27 27
6.516113281250 24.193359375000 66.537994384766 6 6 6
6.489013671875 24.196777343750 67.558990478516 9 9 9
6.429687500000 24.468261718750 67.714996337891 13 13 13
6.400390625000 24.746582031250 67.867004394531 102 102 102
6.398681640625 24.856933593750 61.584991455078 181 181 181
6.466552734375 24.859375000000 61.729003906250 46 46 46
6.455322265625 24.860351562500 61.860992431641 68 68 68
6.451416015625 24.861328125000 61.993988037109 77 77 77
6.462646484375 24.861328125000 62.127990722656 93 93 93
6.449951171875 24.862792968750 62.259002685547 98 98 98
6.442626953125 24.863769531250 62.389984130859 110 110 110
6.446044921875 24.863769531250 62.522003173828 105 105 105
6.462890625000 24.865234375000 62.654998779297 99 99 99
6.453369140625 24.864746093750 62.785003662109 104 104 104
6.412841796875 24.878906250000 65.569000244141 89 89 89
6.417236328125 24.879882812500 65.704986572266 74 74 74
6.407958984375 24.880371093750 65.843994140625 80 80 80
6.413330078125 24.880859375000 65.980987548828 66 66 66
6.412353515625 24.881347656250 66.119995117188 75 75 75
6.402099609375 24.881835937500 66.261993408203 71 71 71
6.399169921875 24.882812500000 66.402984619141 65 65 65
6.388916015625 24.882324218750 66.548004150391 89 89 89
6.416748046875 24.885253906250 66.682006835938 77 77 77
6.403076171875 24.884765625000 66.829010009766 68 68 68
6.402099609375 24.885253906250 66.973999023438 76 76 76
6.397216796875 24.886718750000 67.121002197266 77 77 77
6.399414062500 24.887207031250 67.266998291016 71 71 71
6.404052734375 24.888671875000 67.412994384766 95 95 95
6.404052734375 24.888671875000 67.562011718750 88 88 88
6.397949218750 24.889648437500 67.713989257813 88 88 88
6.401611328125 24.890625000000 67.863983154297 112 112 112
6.409912109375 24.891601562500 68.014007568359 97 97 97
6.398681640625 24.892578125000 68.173004150391 106 106 106
6.396728515625 24.893066406250 68.329986572266 112 112 112
6.400146484375 24.893066406250 68.485992431641 116 116 116
6.388671875000 24.893066406250 68.651000976563 119 119 119
6.394287109375 24.894531250000 68.808990478516 118 118 118
6.391357421875 24.895507812500 68.972991943359 131 131 131
6.445556640625 24.870117187500 63.833007812500 91 91 91
6.446289062500 24.872070312500 63.964996337891 96 96 96
6.448486328125 24.872558593750 64.096008300781 99 99 99
6.450439453125 24.873046875000 64.226989746094 86 86 86
6.457763671875 24.873046875000 64.358001708984 30 30 30
6.419677734375 24.878417968750 65.432006835938 31 31 31
6.499267578125 25.004394531250 61.601989746094 100 100 100
6.499267578125 25.004394531250 61.734985351563 96 96 96
6.510009765625 25.007324218750 61.869995117188 123 123 123
6.507080078125 25.008300781250 62.001007080078 172 172 172
6.497070312500 25.008789062500 62.131988525391 191 191 191
6.504150390625 25.008789062500 62.264984130859 185 185 185
6.497314453125 25.009765625000 62.395996093750 164 164 164
6.501708984375 25.010742187500 62.527008056641 183 183 183
6.496582031250 25.011230468750 62.657989501953 182 182 182
6.485595703125 25.012207031250 62.787994384766 187 187 187
6.487548828125 25.012207031250 62.919006347656 185 185 185
6.489990234375 25.012695312500 63.049011230469 188 188 188
6.473388671875 25.017578125000 63.833007812500 183 183 183
6.477783203125 25.018066406250 63.962982177734 165 165 165
6.475830078125 25.018554687500 64.093994140625 159 159 159
6.458007812500 25.018066406250 64.226989746094 181 181 181
6.446044921875 25.022949218750 65.156982421875 165 165 165
6.460693359375 25.023925781250 65.289001464844 171 171 171
6.443115234375 25.024414062500 65.427001953125 151 151 151
6.458251953125 25.025390625000 65.559997558594 158 158 158
6.454345703125 25.026367187500 65.696990966797 142 142 142
6.440673828125 25.026367187500 65.837005615234 157 157 157
6.453613281250 25.027343750000 65.971008300781 157 157 157
6.436767578125 25.027343750000 66.113006591797 147 147 147
6.440673828125 25.029296875000 66.251983642578 135 135 135
6.436279296875 25.029785156250 66.393005371094 142 142 142
6.427978515625 25.029785156250 66.536010742188 120 120 120
6.443115234375 25.030273437500 66.674011230469 125 125 125
6.439208984375 25.031738281250 66.817993164063 107 107 107
6.426757812500 25.032226562500 66.964996337891 112 112 112
6.417480468750 25.032714843750 67.113983154297 110 110 110
6.415771484375 25.033203125000 67.260986328125 98 98 98
6.420166015625 25.034179687500 67.406005859375 88 88 88
6.390869140625 25.033203125000 67.566009521484 100 100 100
6.406005859375 25.035644531250 67.710998535156 101 101 101
6.393310546875 25.034667968750 67.867004394531 85 85 85
6.391601562500 25.036132812500 68.020996093750 90 90 90
6.379150390625 25.036621093750 68.180999755859 61 61 61
6.359619140625 25.037109375000 68.345001220703 40 40 40
6.384033203125 25.038085937500 68.493011474609 12 12 12
6.476318359375 25.011718750000 63.178985595703 115 115 115
6.476318359375 25.019531250000 64.356994628906 168 168 168
6.425537109375 25.019531250000 64.759002685547 51 51 51
6.311279296875 25.034667968750 61.489990234375 4 4 4
6.515869140625 24.933593750000 61.523010253906 108 108 108
6.519042968750 24.934082031250 61.656982421875 93 93 93
6.500732421875 24.935058593750 61.787994384766 98 98 98
6.511962890625 24.935058593750 61.921997070313 121 121 121
6.506103515625 24.935546875000 62.053009033203 181 181 181
6.509033203125 24.935546875000 62.186004638672 192 192 192
6.500976562500 24.936035156250 62.316009521484 174 174 174
6.504150390625 24.936035156250 62.447998046875 174 174 174
6.504150390625 24.936035156250 62.579010009766 186 186 186
6.504150390625 24.936035156250 62.709991455078 191 191 191
6.504150390625 24.936035156250 62.839996337891 192 192 192
6.505126953125 24.936523437500 62.971008300781 190 190 190
6.490478515625 24.935546875000 63.100982666016 202 202 202
6.489990234375 24.937988281250 63.884002685547 181 181 181
6.479248046875 24.936523437500 64.014984130859 171 171 171
6.480712890625 24.937011718750 64.145996093750 171 171 171
6.480712890625 24.937011718750 64.277984619141 183 183 183
6.465576171875 24.939453125000 65.208007812500 162 162 162
6.461425781250 24.939453125000 65.342987060547 170 170 170
6.468505859375 24.939453125000 65.475982666016 157 157 157
6.466796875000 24.939941406250 65.611999511719 161 161 161
6.460693359375 24.939453125000 65.750000000000 143 143 143
6.466796875000 24.939941406250 65.885009765625 157 157 157
6.459716796875 24.939941406250 66.024993896484 152 152 152
6.457763671875 24.940429687500 66.164001464844 163 163 163
6.449218750000 24.939941406250 66.304992675781 149 149 149
6.446289062500 24.940917968750 66.445983886719 152 152 152
6.448242187500 24.940429687500 66.587005615234 141 141 141
6.456787109375 24.940429687500 66.725982666016 139 139 139
6.448486328125 24.941406250000 66.872009277344 128 128 128
6.450439453125 24.940917968750 67.014984130859 129 129 129
6.443603515625 24.941406250000 67.161987304688 120 120 120
6.435302734375 24.941894531250 67.311004638672 113 113 113
6.426025390625 24.942382812500 67.462005615234 108 108 108
6.438232421875 24.941894531250 67.606994628906 121 121 121
6.434326171875 24.942871093750 67.757995605469 113 113 113
6.418701171875 24.941406250000 67.915985107422 95 95 95
6.417724609375 24.941894531250 68.070007324219 118 118 118
6.417724609375 24.941894531250 68.225006103516 113 113 113
6.413330078125 24.941894531250 68.382995605469 113 113 113
6.407470703125 24.942382812500 68.542999267578 112 112 112
6.400146484375 24.942382812500 68.705993652344 113 113 113
6.402343750000 24.942871093750 68.867004394531 103 103 103
6.420166015625 24.944824218750 69.020996093750 13 13 13
6.476318359375 24.937500000000 64.408996582031 154 154 154
6.464599609375 24.938476562500 65.074005126953 15 15 15
6.481689453125 24.828125000000 61.516998291016 106 106 106
6.473388671875 24.827148437500 61.649993896484 129 129 129
6.474365234375 24.827148437500 61.782989501953 112 112 112
6.460937500000 24.827636718750 61.915008544922 126 126 126
6.470458984375 24.828125000000 62.049011230469 152 152 152
6.460937500000 24.827636718750 62.179992675781 159 159 159
6.457031250000 24.828613281250 62.312011718750 163 163 163
6.454833984375 24.828125000000 62.442993164063 184 184 184
6.460205078125 24.829101562500 62.575012207031 166 166 166
6.460205078125 24.829101562500 62.707000732422 164 164 164
6.464355468750 24.828613281250 62.837982177734 172 172 172
6.467773437500 24.830078125000 63.885009765625 136 136 136
6.475341796875 24.831054687500 64.015991210938 139 139 139
6.447998046875 24.833496093750 65.480987548828 103 103 103
6.442626953125 24.832519531250 65.618011474609 116 116 116
6.435302734375 24.832519531250 65.756011962891 105 105 105
6.432128906250 24.833007812500 65.893005371094 101 101 101
6.432128906250 24.833007812500 66.031982421875 105 105 105
6.435302734375 24.832519531250 66.169006347656 105 105 105
6.442871093750 24.833496093750 66.307006835938 104 104 104
6.421875000000 24.833007812500 66.453002929688 94 94 94
6.444091796875 24.834472656250 66.587982177734 111 111 111
6.434570312500 24.833984375000 66.733001708984 102 102 102
6.421142578125 24.834472656250 66.880004882813 101 101 101
6.420166015625 24.834472656250 67.024993896484 98 98 98
6.431884765625 24.834472656250 67.166992187500 96 96 96
6.422119140625 24.833984375000 67.316986083984 106 106 106
6.416259765625 24.834472656250 67.467010498047 108 108 108
6.422607421875 24.835449218750 67.613006591797 113 113 113
6.422607421875 24.835449218750 67.764007568359 113 113 113
6.458251953125 24.837890625000 67.901000976563 113 113 113
6.403808593750 24.834960937500 68.075988769531 124 124 124
6.410400390625 24.836425781250 68.227996826172 130 130 130
6.414550781250 24.835937500000 68.382995605469 132 132 132
6.420898437500 24.836425781250 68.536987304688 129 129 129
6.420898437500 24.836425781250 68.696990966797 136 136 136
6.411621093750 24.836914062500 68.863006591797 139 139 139
6.425292968750 24.837402343750 69.019989013672 102 102 102
6.478271484375 24.830078125000 62.970001220703 44 44 44
6.463867187500 24.831054687500 64.148010253906 151 151 151
6.471435546875 24.832031250000 64.277984619141 141 141 141
6.459716796875 24.831054687500 64.411010742188 127 127 127
6.459716796875 24.831054687500 64.542999267578 63 63 63
6.468505859375 24.833007812500 65.074005126953 17 17 17
6.423583984375 24.729003906250 66.596008300781 102 102 102
6.432373046875 24.730957031250 67.912994384766 28 28 28
6.437255859375 24.624511718750 66.593994140625 91 91 91
6.459228515625 24.522460937500 66.591003417969 104 104 104
6.470458984375 24.420898437500 66.589996337891 99 99 99
6.427001953125 24.420898437500 67.772003173828 53 53 53
6.487060546875 24.318359375000 66.587005615234 95 95 95
6.517822265625 24.214355468750 66.579986572266 94 94 94
6.532470703125 24.109863281250 66.578002929688 92 92 92
6.492431640625 24.110839843750 67.602996826172 42 42 42
6.543212890625 24.004882812500 66.575012207031 95 95 95
6.556884765625 23.900390625000 66.570983886719 92 92 92
6.581787109375 23.793945312500 66.563995361328 84 84 84
6.534423828125 23.794921875000 67.441009521484 42 42 42
6.600830078125 23.689453125000 66.558990478516 71 71 71
6.608154296875 23.583496093750 66.557006835938 75 75 75
6.635986328125 23.480957031250 66.550994873047 72 72 72
6.596435546875 23.480468750000 67.274993896484 39 39 39
6.641845703125 23.377441406250 66.550994873047 60 60 60
6.664306640625 23.274414062500 66.546997070313 61 61 61
6.674072265625 23.173828125000 66.546997070313 70 70 70
6.650146484375 23.173828125000 67.118988037109 43 43 43
6.683837890625 23.070312500000 66.546997070313 79 79 79
6.708740234375 22.966796875000 66.541992187500 66 66 66
6.722900390625 22.863281250000 66.539001464844 25 25 25
6.728027343750 22.863769531250 66.957000732422 43 43 43
6.741455078125 22.758300781250 66.533996582031 45 45 45
6.763427734375 22.652832031250 66.528991699219 32 32 32
6.741455078125 22.546386718750 66.257995605469 91 91 91
6.761474609375 22.546875000000 66.527984619141 23 23 23
6.772216796875 22.548339843750 66.803009033203 52 52 52
6.763183593750 22.439453125000 66.251983642578 86 86 86
6.778076171875 22.440429687500 66.523010253906 12 12 12
6.775634765625 22.334472656250 66.248992919922 90 90 90
6.802978515625 22.335449218750 66.515991210938 4 4 4
6.793701171875 22.230468750000 66.244995117188 89 89 89
6.818603515625 22.230468750000 66.511993408203 9 9 9
6.816650390625 22.230957031250 66.651000976563 27 27 27
6.797119140625 22.124511718750 66.246002197266 90 90 90
6.845214843750 22.126953125000 66.506011962891 28 28 28
6.827880859375 22.021484375000 66.240997314453 92 92 92
6.857421875000 22.023925781250 66.506011962891 6 6 6
6.840332031250 21.919921875000 66.239990234375 101 101 101
6.880126953125 21.921386718750 66.501983642578 8 8 8
6.852783203125 21.817382812500 66.239990234375 101 101 101
6.888427734375 21.818847656250 66.502990722656 9 9 9
6.874267578125 21.714355468750 66.236999511719 105 105 105
6.900634765625 21.716796875000 66.501983642578 5 5 5
6.872802734375 21.611328125000 66.239990234375 123 123 123
6.880615234375 21.611816406250 66.373992919922 119 119 119
6.928466796875 21.613281250000 66.496002197266 122 122 122
6.882568359375 21.506835937500 66.238006591797 144 144 144
6.932861328125 21.508789062500 66.496002197266 6 6 6
6.876220703125 21.400390625000 66.242004394531 169 169 169
6.957275390625 21.404296875000 66.492004394531 9 9 9
6.865478515625 21.293457031250 66.244995117188 186 186 186
6.874755859375 21.187011718750 66.243988037109 158 158 158
6.905517578125 21.189453125000 66.371002197266 23 23 23
6.877929687500 21.081054687500 66.243988037109 187 187 187
6.911376953125 21.082031250000 66.371002197266 210 210 210
5.389404296875 32.788574218750 61.497009277344 20 20 20
6.431152343750 24.984375000000 68.960998535156 93 93 93
6.433349609375 24.983886718750 68.785003662109 98 98 98
6.440185546875 24.979003906250 68.608001708984 109 109 109
6.433349609375 24.984863281250 68.438995361328 118 118 118
6.437988281250 24.982421875000 68.266998291016 118 118 118
6.437255859375 24.983886718750 68.097991943359 118 118 118
6.455322265625 24.973144531250 67.923004150391 98 98 98
6.453369140625 24.974609375000 67.757995605469 124 124 124
6.438232421875 24.983398437500 67.596984863281 126 126 126
6.448242187500 24.978027343750 67.429992675781 121 121 121
6.443115234375 24.981933593750 67.269012451172 110 110 110
6.456787109375 24.974609375000 67.102996826172 139 139 139
6.454833984375 24.976074218750 66.942993164063 140 140 140
6.463134765625 24.971679687500 66.779998779297 141 141 141
6.466064453125 24.971191406250 66.621002197266 125 125 125
6.457763671875 24.975585937500 66.463989257813 152 152 152
6.455322265625 24.977539062500 66.307983398438 152 152 152
6.463378906250 24.972656250000 66.148986816406 156 156 156
6.460205078125 24.976562500000 65.993988037109 146 146 146
6.463623046875 24.973632812500 65.837982177734 139 139 139
6.465576171875 24.973144531250 65.682983398438 154 154 154
6.466552734375 24.973144531250 65.528991699219 152 152 152
6.468505859375 24.972656250000 65.375000000000 147 147 147
6.470947265625 24.970703125000 65.221984863281 144 144 144
6.468994140625 24.974121093750 65.070007324219 151 151 151
6.478759765625 24.967773437500 64.915985107422 145 145 145
6.472412109375 24.971679687500 64.764984130859 153 153 153
6.482666015625 24.966796875000 64.613006591797 164 164 164
6.488037109375 24.963867187500 64.460998535156 154 154 154
6.480712890625 24.968261718750 64.311004638672 172 172 172
6.475585937500 24.972167968750 64.160003662109 165 165 165
6.486328125000 24.965332031250 64.009002685547 167 167 167
6.488281250000 24.964843750000 63.858001708984 161 161 161
6.488281250000 24.964843750000 63.708007812500 168 168 168
6.480468750000 24.970703125000 63.557006835938 194 194 194
6.489501953125 24.965820312500 63.406982421875 186 186 186
6.491455078125 24.965332031250 63.256011962891 172 172 172
6.493408203125 24.964843750000 63.105987548828 181 181 181
6.488769531250 24.966796875000 62.954986572266 164 164 164
6.491455078125 24.966308593750 62.803985595703 172 172 172
6.499755859375 24.961914062500 62.652984619141 171 171 171
6.499755859375 24.961914062500 62.501983642578 169 169 169
6.504394531250 24.959472656250 62.350006103516 152 152 152
6.496826171875 24.966308593750 62.196990966797 163 163 163
6.499267578125 24.962890625000 62.044982910156 134 134 134
6.506591796875 24.959960937500 61.893005371094 64 64 64
6.515625000000 24.955566406250 61.740997314453 43 43 43
6.520263671875 24.953125000000 61.587982177734 53 53 53
6.391845703125 24.905273437500 68.983001708984 132 132 132
6.393798828125 24.904785156250 68.807006835938 133 133 133
6.394287109375 24.905761718750 68.631988525391 138 138 138
6.384033203125 24.911132812500 68.463989257813 147 147 147
6.396240234375 24.905273437500 68.287994384766 141 141 141
6.392578125000 24.907714843750 68.118988037109 125 125 125
6.425048828125 24.890625000000 67.937988281250 85 85 85
6.390869140625 24.909179687500 67.783996582031 121 121 121
6.399902343750 24.904296875000 67.614990234375 122 122 122
6.401855468750 24.903808593750 67.449005126953 126 126 126
6.397460937500 24.906250000000 67.286987304688 115 115 115
6.402099609375 24.905273437500 67.122985839844 131 131 131
6.400146484375 24.905761718750 66.962005615234 129 129 129
6.405029296875 24.904296875000 66.799987792969 133 133 133
6.430419921875 24.890625000000 66.632995605469 80 80 80
6.406982421875 24.903808593750 66.480010986328 125 125 125
6.402587890625 24.906250000000 66.322998046875 130 130 130
6.402587890625 24.906250000000 66.165985107422 129 129 129
6.404541015625 24.905761718750 66.009002685547 123 123 123
6.414306640625 24.900390625000 65.850982666016 128 128 128
6.413818359375 24.901855468750 65.695983886719 130 130 130
6.419189453125 24.898925781250 65.540008544922 135 135 135
6.410156250000 24.903808593750 65.386993408203 140 140 140
6.416748046875 24.901367187500 65.231994628906 151 151 151
6.417724609375 24.900878906250 65.079010009766 163 163 163
6.424560546875 24.896484375000 64.924987792969 158 158 158
6.427734375000 24.895507812500 64.772003173828 155 155 155
6.427001953125 24.896972656250 64.619995117188 177 177 177
6.427001953125 24.896972656250 64.467987060547 179 179 179
6.425048828125 24.897460937500 64.316009521484 178 178 178
6.431396484375 24.894531250000 64.164001464844 182 182 182
6.430908203125 24.895507812500 64.013000488281 185 185 185
6.426513671875 24.898437500000 63.861999511719 183 183 183
6.433837890625 24.895019531250 63.709991455078 186 186 186
6.431884765625 24.895507812500 63.558990478516 191 191 191
6.435791015625 24.894531250000 63.407989501953 189 189 189
6.433105468750 24.896484375000 63.256988525391 182 182 182
6.439208984375 24.892578125000 63.105010986328 190 190 190
6.451904296875 24.885742187500 62.954986572266 187 187 187
6.441162109375 24.891601562500 62.802001953125 187 187 187
6.453369140625 24.886230468750 62.651000976563 182 182 182
6.439453125000 24.893554687500 62.497985839844 193 193 193
6.452392578125 24.886718750000 62.346984863281 177 177 177
6.450683593750 24.888183593750 62.194000244141 173 173 173
6.464355468750 24.881347656250 62.041992187500 147 147 147
6.468017578125 24.880371093750 61.889007568359 122 122 122
6.476318359375 24.876464843750 61.736999511719 102 102 102
6.467041015625 24.880371093750 61.580993652344 91 91 91
6.434326171875 24.784179687500 67.937011718750 8 8 8
6.423095703125 24.792968750000 66.636993408203 52 52 52
6.385498046875 24.824707031250 61.566009521484 144 144 144
6.440185546875 24.680175781250 66.635986328125 36 36 36
6.472412109375 24.560058593750 66.628997802734 44 44 44
6.500244140625 24.441406250000 66.623992919922 48 48 48
6.510498046875 24.331542968750 66.623992919922 47 47 47
6.525146484375 24.218750000000 66.621002197266 57 57 57
6.500000000000 24.127441406250 67.596008300781 6 6 6
6.548095703125 24.102539062500 66.617004394531 60 60 60
6.555175781250 23.996093750000 66.613983154297 57 57 57
6.576904296875 23.882324218750 66.611999511719 56 56 56
6.564697265625 23.787109375000 67.416992187500 5 5 5
6.590820312500 23.773925781250 66.610992431641 60 60 60
6.621337890625 23.658203125000 66.605987548828 56 56 56
6.638427734375 23.546386718750 66.605010986328 63 63 63
6.659912109375 23.432617187500 66.604003906250 54 54 54
6.687988281250 23.315917968750 66.600982666016 53 53 53
6.688964843750 23.212890625000 66.604003906250 56 56 56
6.674316406250 23.118164062500 67.083007812500 3 3 3
6.713134765625 23.097167968750 66.600006103516 61 61 61
6.731201171875 22.984863281250 66.596008300781 33 33 33
6.751953125000 22.868164062500 66.592010498047 37 37 37
6.768798828125 22.755371093750 66.589996337891 42 42 42
6.793701171875 22.638671875000 66.584991455078 58 58 58
6.738037109375 22.669433593750 66.445007324219 11 11 11
6.749755859375 22.663085937500 66.286987304688 16 16 16
6.798583984375 22.534667968750 66.587005615234 52 52 52
6.769531250000 22.550781250000 66.286010742188 18 18 18
6.827880859375 22.415039062500 66.582000732422 46 46 46
6.774658203125 22.443847656250 66.287994384766 19 19 19
6.850341796875 22.300781250000 66.579986572266 54 54 54
6.787353515625 22.334960937500 66.287994384766 19 19 19
6.864013671875 22.191406250000 66.579010009766 45 45 45
6.812744140625 22.219726562500 66.283996582031 18 18 18
6.885498046875 22.076660156250 66.575012207031 39 39 39
6.829345703125 22.107421875000 66.282989501953 22 22 22
6.907958984375 21.962402343750 66.570983886719 51 51 51
6.843017578125 21.998046875000 66.281005859375 23 23 23
6.913085937500 21.856445312500 66.570983886719 45 45 45
6.844970703125 21.894531250000 66.281982421875 30 30 30
6.939208984375 21.739257812500 66.566009521484 50 50 50
6.867919921875 21.778808593750 66.277984619141 26 26 26
6.956542968750 21.625488281250 66.561004638672 54 54 54
6.877685546875 21.669921875000 66.428985595703 15 15 15
6.868408203125 21.674316406250 66.277984619141 50 50 50
6.976562500000 21.513183593750 66.557006835938 54 54 54
6.883056640625 21.564941406250 66.276000976563 34 34 34
6.993896484375 21.401855468750 66.555999755859 50 50 50
6.883544921875 21.461914062500 66.278991699219 31 31 31
6.887939453125 21.360351562500 66.278991699219 27 27 27
6.937500000000 21.230468750000 66.421997070313 111 111 111
6.888916015625 21.258300781250 66.281005859375 45 45 45
6.920410156250 21.137695312500 66.428009033203 175 175 175
6.894287109375 21.152832031250 66.281982421875 161 161 161
5.654052734375 31.077636718750 61.458007812500 27 27 27
6.436279296875 25.066406250000 61.645996093750 120 120 120
6.421142578125 25.061523437500 61.799011230469 85 85 85
6.437500000000 25.074707031250 61.957000732422 117 117 117
6.434814453125 25.076171875000 62.109985351563 119 119 119
6.433349609375 25.078613281250 62.264007568359 123 123 123
6.420654296875 25.074218750000 62.415985107422 116 116 116
6.424560546875 25.080078125000 62.570007324219 121 121 121
6.415283203125 25.077148437500 62.721984863281 124 124 124
6.412841796875 25.079589843750 62.875000000000 120 120 120
6.407714843750 25.080078125000 63.027008056641 114 114 114
6.407470703125 25.081542968750 63.178985595703 113 113 113
6.401123046875 25.082031250000 63.332000732422 113 113 113
6.404541015625 25.086914062500 63.484008789063 110 110 110
6.403076171875 25.089355468750 63.635986328125 93 93 93
6.392822265625 25.085937500000 63.787994384766 69 69 69
6.371582031250 25.076660156250 63.941009521484 65 65 65
6.378906250000 25.084960937500 64.093994140625 27 27 27
6.385986328125 25.091796875000 64.246002197266 19 19 19
6.526611328125 25.009765625000 61.506011962891 113 113 113
6.510009765625 25.002441406250 61.657989501953 95 95 95
6.515869140625 25.008789062500 61.812988281250 102 102 102
6.507080078125 25.007324218750 61.966003417969 129 129 129
6.510498046875 25.013183593750 62.119995117188 174 174 174
6.518066406250 25.021484375000 62.273010253906 172 172 172
6.505371093750 25.016601562500 62.424011230469 167 167 167
6.497802734375 25.014648437500 62.575988769531 175 175 175
6.508544921875 25.024902343750 62.727996826172 195 195 195
6.502197265625 25.023437500000 62.880004882813 189 189 189
6.503173828125 25.026855468750 63.031005859375 175 175 175
6.492919921875 25.023925781250 63.182006835938 205 205 205
6.487060546875 25.024902343750 63.333007812500 202 202 202
6.478759765625 25.021484375000 63.484008789063 212 212 212
6.492919921875 25.034667968750 63.635009765625 198 198 198
6.488525390625 25.034667968750 63.786010742188 180 180 180
6.472412109375 25.028808593750 63.937988281250 190 190 190
6.473388671875 25.031738281250 64.088989257813 195 195 195
6.471923828125 25.034179687500 64.240997314453 198 198 198
6.472900390625 25.038085937500 64.391998291016 181 181 181
6.469482421875 25.040039062500 64.544006347656 179 179 179
6.459960937500 25.036132812500 64.696990966797 185 185 185
6.458496093750 25.038574218750 64.850006103516 163 163 163
6.465576171875 25.046386718750 65.001983642578 156 156 156
6.459716796875 25.046875000000 65.154998779297 166 166 166
6.454345703125 25.046386718750 65.309997558594 163 163 163
6.446777343750 25.043945312500 65.464996337891 154 154 154
6.445312500000 25.046386718750 65.619995117188 164 164 164
6.445068359375 25.049804687500 65.774993896484 147 147 147
6.436279296875 25.047851562500 65.932983398438 142 142 142
6.443603515625 25.055664062500 66.087982177734 140 140 140
6.443847656250 25.060058593750 66.243988037109 140 140 140
6.434570312500 25.057128906250 66.403991699219 141 141 141
6.423095703125 25.052734375000 66.566009521484 119 119 119
6.425537109375 25.058105468750 66.725006103516 135 135 135
6.420654296875 25.059570312500 66.886993408203 103 103 103
6.412841796875 25.057617187500 67.050994873047 114 114 114
6.396484375000 25.050781250000 67.218994140625 95 95 95
6.409423828125 25.062988281250 67.377990722656 90 90 90
6.400146484375 25.060058593750 67.545989990234 93 93 93
6.396240234375 25.061035156250 67.712982177734 107 107 107
6.392822265625 25.062988281250 67.881011962891 69 69 69
6.376220703125 25.056152343750 68.055999755859 96 96 96
6.372802734375 25.058105468750 68.227996826172 70 70 70
6.356689453125 25.052734375000 68.406005859375 76 76 76
6.354003906250 25.053710937500 68.579986572266 59 59 59
6.349121093750 25.055175781250 68.756988525391 49 49 49
6.355224609375 25.062988281250 68.929992675781 28 28 28
6.473632812500 24.869628906250 61.652008056641 45 45 45
6.521240234375 24.907714843750 61.967987060547 41 41 41
6.517333984375 24.908691406250 62.121002197266 79 79 79
6.509521484375 24.906738281250 62.273010253906 102 102 102
6.523193359375 24.918457031250 62.427001953125 111 111 111
6.520507812500 24.920410156250 62.578002929688 110 110 110
6.514404296875 24.919921875000 62.730010986328 119 119 119
6.506103515625 24.917480468750 62.881011962891 122 122 122
6.529052734375 24.935546875000 63.032989501953 130 130 130
6.507080078125 24.925292968750 63.182983398438 111 111 111
6.523437500000 24.937988281250 63.334991455078 131 131 131
6.505371093750 24.929199218750 63.484985351563 131 131 131
6.508056640625 24.936035156250 63.635986328125 137 137 137
6.512939453125 24.941894531250 63.786987304688 123 123 123
6.505126953125 24.939941406250 63.937988281250 129 129 129
6.510009765625 24.945800781250 64.088989257813 126 126 126
6.510009765625 24.949218750000 64.239990234375 141 141 141
6.505615234375 24.949218750000 64.390991210938 134 134 134
6.498291015625 24.949218750000 64.542999267578 142 142 142
6.496826171875 24.950683593750 64.695007324219 130 130 130
6.500244140625 24.956542968750 64.846008300781 128 128 128
6.501220703125 24.959472656250 64.997985839844 143 143 143
6.499755859375 24.961914062500 65.151000976563 129 129 129
6.488525390625 24.958984375000 65.305999755859 122 122 122
6.489990234375 24.963378906250 65.458984375000 131 131 131
6.484863281250 24.963867187500 65.613983154297 128 128 128
6.489501953125 24.969238281250 65.768005371094 117 117 117
6.473144531250 24.963378906250 65.925994873047 120 120 120
6.468994140625 24.963378906250 66.083007812500 134 134 134
6.479248046875 24.973144531250 66.238006591797 130 130 130
6.467773437500 24.969726562500 66.398010253906 123 123 123
6.472900390625 24.977050781250 66.553985595703 138 138 138
6.466064453125 24.975585937500 66.714996337891 132 132 132
6.463378906250 24.976562500000 66.876007080078 122 122 122
6.458496093750 24.978027343750 67.037994384766 132 132 132
6.447509765625 24.975097656250 67.204010009766 124 124 124
6.456298828125 24.984375000000 67.363983154297 115 115 115
6.456787109375 24.987304687500 67.527008056641 120 120 120
6.449462890625 24.986328125000 67.695007324219 129 129 129
6.444335937500 24.986328125000 67.863006591797 125 125 125
6.442138671875 24.989257812500 68.031982421875 139 139 139
6.435546875000 24.988281250000 68.203002929688 131 131 131
6.437988281250 24.993652343750 68.372985839844 134 134 134
6.419189453125 24.985839843750 68.553009033203 134 134 134
6.425537109375 24.993652343750 68.723999023438 139 139 139
6.414794921875 24.992187500000 68.903991699219 128 128 128
6.392822265625 24.847167968750 67.885009765625 54 54 54
6.437744140625 24.894042968750 68.720001220703 25 25 25
6.439208984375 24.899414062500 68.894012451172 49 49 49
6.418701171875 24.757324218750 67.878997802734 61 61 61
6.430664062500 24.449707031250 67.717987060547 15 15 15
6.453613281250 24.358886718750 67.713989257813 44 44 44
6.510742187500 24.068359375000 67.533996582031 39 39 39
6.591552734375 23.678222656250 67.346008300781 25 25 25
6.665283203125 23.405761718750 67.169006347656 26 26 26
6.703125000000 23.102050781250 66.535003662109 60 60 60
6.718017578125 23.013183593750 67.002990722656 22 22 22
6.743896484375 22.687011718750 66.372009277344 56 56 56
6.755126953125 22.697753906250 66.523986816406 72 72 72
6.744873046875 22.698242187500 66.838989257813 30 30 30
6.807373046875 22.412597656250 66.670989990234 4 4 4
6.852050781250 22.336425781250 66.661987304688 15 15 15
6.870117187500 22.240234375000 66.505004882813 64 64 64
6.888427734375 21.936035156250 66.510009765625 1 1 1
6.915771484375 21.846679687500 66.505004882813 7 7 7
6.897705078125 21.724609375000 66.358001708984 23 23 23
6.923583984375 21.743164062500 66.503997802734 19 19 19
6.955322265625 21.651855468750 66.496002197266 43 43 43
6.871826171875 21.376953125000 66.213989257813 4 4 4
6.880126953125 21.168945312500 66.213989257813 11 11 11
6.919433593750 21.194824218750 66.356994628906 181 181 181
28.580810546875 15.488281250000 62.421997070313 60 60 60
28.561523437500 15.502441406250 62.281982421875 106 106 106
28.542724609375 15.513671875000 62.140991210938 111 111 111
28.531005859375 15.522949218750 62.000000000000 103 103 103
28.520263671875 15.530273437500 61.859008789063 128 128 128
28.520751953125 15.532226562500 61.714996337891 147 147 147
28.501220703125 15.543945312500 61.575012207031 157 157 157
28.670654296875 15.564453125000 64.126983642578 74 74 74
28.644775390625 15.580078125000 63.984008789063 109 109 109
28.628662109375 15.591796875000 63.841003417969 128 128 128
28.618896484375 15.598632812500 63.699005126953 131 131 131
28.612060546875 15.603515625000 63.557006835938 148 148 148
28.616455078125 15.604492187500 63.415985107422 182 182 182
28.612548828125 15.608398437500 63.273986816406 185 185 185
28.604492187500 15.613769531250 63.131988525391 186 186 186
28.592773437500 15.623535156250 62.990997314453 174 174 174
28.589355468750 15.626464843750 62.850006103516 192 192 192
28.587158203125 15.629882812500 62.708007812500 196 196 196
28.582275390625 15.634277343750 62.566009521484 190 190 190
28.582519531250 15.635253906250 62.424011230469 186 186 186
28.572998046875 15.643066406250 62.281982421875 189 189 189
28.570068359375 15.646972656250 62.139984130859 185 185 185
28.578369140625 15.644042968750 61.994995117188 187 187 187
28.575439453125 15.647460937500 61.851989746094 182 182 182
28.573486328125 15.651367187500 61.708007812500 171 171 171
28.572998046875 15.653808593750 61.562988281250 164 164 164
28.771240234375 15.636230468750 65.589996337891 20 20 20
28.746582031250 15.651855468750 65.438995361328 93 93 93
28.719970703125 15.667968750000 65.287994384766 117 117 117
28.723144531250 15.668457031250 65.143005371094 118 118 118
28.722900390625 15.670410156250 64.997009277344 162 162 162
28.707275390625 15.682128906250 64.850982666016 177 177 177
28.697509765625 15.688964843750 64.704986572266 166 166 166
28.691650390625 15.693847656250 64.561004638672 169 169 169
28.683349609375 15.701171875000 64.416992187500 179 179 179
28.673095703125 15.708984375000 64.273010253906 180 180 180
28.669189453125 15.713378906250 64.130004882813 182 182 182
28.674072265625 15.711914062500 63.986999511719 189 189 189
28.680664062500 15.710449218750 63.845001220703 189 189 189
28.671630859375 15.718261718750 63.701995849609 192 192 192
28.672851562500 15.719238281250 63.559997558594 189 189 189
28.675048828125 15.719726562500 63.416992187500 189 189 189
28.674560546875 15.722167968750 63.274993896484 170 170 170
28.681396484375 15.720214843750 63.131988525391 154 154 154
28.675537109375 15.726074218750 62.988983154297 142 142 142
28.681396484375 15.724121093750 62.846008300781 109 109 109
28.705322265625 15.713378906250 62.700988769531 76 76 76
28.840576171875 15.725097656250 66.815002441406 46 46 46
28.822021484375 15.737792968750 66.656005859375 97 97 97
28.806396484375 15.749511718750 66.497985839844 90 90 90
28.802490234375 15.753417968750 66.345001220703 133 133 133
28.784179687500 15.766113281250 66.190002441406 144 144 144
28.783691406250 15.768066406250 66.040008544922 166 166 166
28.768798828125 15.777832031250 65.886993408203 159 159 159
28.775634765625 15.776367187500 65.739990234375 162 162 162
28.770751953125 15.781738281250 65.591003417969 163 163 163
28.764892578125 15.786621093750 65.442993164063 154 154 154
28.774658203125 15.783691406250 65.298004150391 163 163 163
28.763916015625 15.791503906250 65.149993896484 164 164 164
28.770263671875 15.791503906250 65.003997802734 141 141 141
28.771728515625 15.791992187500 64.859008789063 117 117 117
28.776855468750 15.791503906250 64.713989257813 112 112 112
28.786132812500 15.788085937500 64.570007324219 91 91 91
28.790771484375 15.786621093750 64.425994873047 21 21 21
28.897460937500 15.819824218750 67.949005126953 77 77 77
28.897460937500 15.824218750000 67.785003662109 107 107 107
28.884521484375 15.832519531250 67.618988037109 120 120 120
28.882080078125 15.834960937500 67.458984375000 151 151 151
28.868408203125 15.846191406250 67.294982910156 134 134 134
28.862548828125 15.852050781250 67.135009765625 150 150 150
28.855957031250 15.856933593750 66.976989746094 139 139 139
28.868164062500 15.852539062500 66.825012207031 142 142 142
28.860595703125 15.859863281250 66.667999267578 150 150 150
28.844970703125 15.870605468750 66.510986328125 104 104 104
28.854248046875 15.866699218750 66.359985351563 124 124 124
28.854736328125 15.868164062500 66.208984375000 104 104 104
28.860107421875 15.869140625000 66.058990478516 87 87 87
28.878417968750 15.860351562500 65.911987304688 55 55 55
28.938232421875 15.934570312500 68.128997802734 7 7 7
28.937255859375 15.938476562500 67.962982177734 143 143 143
28.950439453125 15.933593750000 67.804992675781 136 136 136
28.931396484375 15.947265625000 67.635986328125 116 116 116
28.942626953125 15.943359375000 67.477996826172 94 94 94
28.945800781250 15.943359375000 67.320007324219 56 56 56
28.992919921875 15.918457031250 67.175994873047 35 35 35
28.873779296875 15.995117187500 66.516998291016 78 78 78
28.837158203125 16.152343750000 66.505004882813 54 54 54
28.906005859375 16.240234375000 67.143005371094 16 16 16
28.822998046875 16.297363281250 66.497985839844 62 62 62
28.816650390625 16.433105468750 66.493988037109 58 58 58
28.799072265625 16.579589843750 66.485992431641 44 44 44
28.768798828125 16.733886718750 66.476989746094 52 52 52
28.752685546875 16.883789062500 66.473999023438 52 52 52
28.783447265625 17.002929687500 66.945983886719 18 18 18
28.733886718750 17.038574218750 66.471008300781 67 67 67
28.721923828125 17.191894531250 66.471984863281 73 73 73
28.706298828125 17.349609375000 66.473999023438 90 90 90
28.675781250000 17.514648437500 66.468994140625 82 82 82
28.694091796875 17.645507812500 66.781982421875 15 15 15
28.661865234375 17.667968750000 66.468994140625 87 87 87
28.647216796875 17.817871093750 66.467010498047 91 91 91
28.616455078125 17.975097656250 66.458007812500 86 86 86
28.613769531250 18.112304687500 66.455993652344 86 86 86
28.586669921875 18.263183593750 66.447998046875 75 75 75
28.597412109375 18.389648437500 66.597991943359 17 17 17
28.573486328125 18.405273437500 66.441986083984 75 75 75
28.540771484375 18.560546875000 66.583007812500 3 3 3
28.546386718750 18.559082031250 66.433990478516 75 75 75
28.531494140625 18.708496093750 66.430999755859 69 69 69
28.507568359375 18.866210937500 66.425994873047 77 77 77
28.492919921875 19.021972656250 66.424987792969 77 77 77
28.474121093750 19.180664062500 66.424011230469 87 87 87
28.452880859375 19.340820312500 66.424011230469 81 81 81
28.432373046875 19.496582031250 66.421997070313 87 87 87
28.405029296875 19.653808593750 66.415008544922 81 81 81
28.393554687500 19.797363281250 66.411987304688 73 73 73
28.383056640625 19.940429687500 66.406982421875 69 69 69
28.357421875000 20.089355468750 66.397003173828 72 72 72
28.341308593750 20.234863281250 66.389984130859 64 64 64
28.317138671875 20.388183593750 66.384002685547 70 70 70
28.304443359375 20.538574218750 66.381011962891 76 76 76
28.269287109375 20.705078125000 66.375000000000 68 68 68
28.249755859375 20.865722656250 66.375000000000 73 73 73
28.222656250000 21.030761718750 66.372009277344 81 81 81
28.185302734375 21.200683593750 66.365997314453 90 90 90
28.159179687500 21.359375000000 66.360992431641 76 76 76
28.089355468750 21.539062500000 66.341003417969 84 84 84
27.934570312500 21.761718750000 66.295989990234 90 90 90
27.913818359375 21.908691406250 66.286987304688 61 61 61
27.660888671875 22.177246093750 66.632995605469 14 14 14
28.015869140625 21.985351562500 66.309997558594 28 28 28
27.773681640625 22.248046875000 66.662994384766 54 54 54
27.842529296875 22.347656250000 66.682983398438 7 7 7
27.992919921875 22.408691406250 66.583984375000 53 53 53
28.116455078125 22.934570312500 66.485992431641 38 38 38
28.153564453125 22.915039062500 66.350982666016 22 22 22
28.139892578125 23.065917968750 66.493988037109 17 17 17
28.064453125000 23.384277343750 66.613006591797 21 21 21
28.168701171875 23.462890625000 66.639007568359 36 36 36
28.132080078125 23.895019531250 66.470001220703 12 12 12
28.169921875000 24.014160156250 66.777008056641 31 31 31
28.145751953125 24.471191406250 66.928009033203 7 7 7
28.173583984375 24.603027343750 66.938995361328 29 29 29
28.138916015625 24.915039062500 66.483001708984 21 21 21
28.176513671875 25.021972656250 67.085998535156 33 33 33
28.131591796875 25.058105468750 66.476989746094 36 36 36
28.121582031250 25.198730468750 66.470001220703 62 62 62
28.124023437500 25.333007812500 66.467010498047 81 81 81
27.796142578125 25.577148437500 62.442993164063 88 88 88
27.778808593750 25.590332031250 62.311004638672 114 114 114
27.782958984375 25.590332031250 62.174987792969 137 137 137
27.769775390625 25.599121093750 62.041992187500 142 142 142
27.769775390625 25.602539062500 61.906982421875 177 177 177
27.756347656250 25.610839843750 61.773010253906 180 180 180
27.744873046875 25.618164062500 61.639007568359 188 188 188
27.744140625000 25.623046875000 61.502990722656 185 185 185
28.189208984375 25.422851562500 67.231994628906 21 21 21
28.127197265625 25.468750000000 66.464996337891 87 87 87
27.895507812500 25.638183593750 63.914001464844 32 32 32
27.885986328125 25.645507812500 63.778991699219 112 112 112
27.885742187500 25.647460937500 63.644012451172 137 137 137
27.872802734375 25.657226562500 63.509002685547 152 152 152
27.861328125000 25.664550781250 63.375000000000 170 170 170
27.854736328125 25.670898437500 63.240997314453 192 192 192
27.847412109375 25.677734375000 63.106994628906 189 189 189
27.840332031250 25.682617187500 62.972991943359 194 194 194
27.837158203125 25.687011718750 62.837982177734 193 193 193
27.821777343750 25.697753906250 62.704986572266 195 195 195
27.813720703125 25.703125000000 62.570983886719 189 189 189
27.816162109375 25.704589843750 62.436004638672 190 190 190
27.815185546875 25.708007812500 62.300994873047 194 194 194
27.817382812500 25.708496093750 62.165985107422 192 192 192
27.814453125000 25.712402343750 62.029998779297 192 192 192
27.809326171875 25.716796875000 61.894989013672 183 183 183
27.822509765625 25.712402343750 61.756011962891 178 178 178
27.846679687500 25.701660156250 61.613983154297 219 219 219
27.858642578125 25.696289062500 61.473999023438 216 216 216
28.199218750000 25.558105468750 67.235992431641 7 7 7
28.118408203125 25.614257812500 66.462982177734 94 94 94
28.008056640625 25.693359375000 65.294982910156 22 22 22
27.981689453125 25.709960937500 65.152008056641 94 94 94
27.965087890625 25.722167968750 65.010986328125 119 119 119
27.965576171875 25.723632812500 64.872985839844 140 140 140
27.958740234375 25.728515625000 64.734985351563 169 169 169
27.964599609375 25.727050781250 64.597991943359 188 188 188
27.935546875000 25.746582031250 64.458984375000 186 186 186
27.934326171875 25.749023437500 64.321990966797 191 191 191
27.916748046875 25.761230468750 64.184997558594 191 191 191
27.921142578125 25.760742187500 64.049987792969 196 196 196
27.912353515625 25.767578125000 63.914001464844 197 197 197
27.904785156250 25.773925781250 63.777984619141 196 196 196
27.902587890625 25.777343750000 63.643005371094 196 196 196
27.912109375000 25.773925781250 63.507995605469 201 201 201
27.916259765625 25.773925781250 63.372985839844 191 191 191
27.915771484375 25.775878906250 63.238006591797 195 195 195
27.934326171875 25.768066406250 63.101989746094 197 197 197
27.938232421875 25.767578125000 62.966003417969 195 195 195
27.961425781250 25.757324218750 62.828002929688 195 195 195
27.943603515625 25.768554687500 62.694000244141 146 146 146
27.926513671875 25.780761718750 62.558990478516 66 66 66
28.220703125000 25.689453125000 67.244995117188 25 25 25
28.113525390625 25.752929687500 66.906982421875 7 7 7
28.093994140625 25.767578125000 66.751007080078 68 68 68
28.076171875000 25.778808593750 66.598999023438 107 107 107
28.057617187500 25.790527343750 66.446990966797 127 127 127
28.050048828125 25.797363281250 66.299011230469 140 140 140
28.054443359375 25.797363281250 66.156005859375 161 161 161
28.039794921875 25.808105468750 66.009002685547 171 171 171
28.036621093750 25.812011718750 65.864990234375 177 177 177
28.021728515625 25.822265625000 65.720001220703 175 175 175
28.028564453125 25.820312500000 65.579986572266 180 180 180
28.022705078125 25.826660156250 65.437988281250 182 182 182
28.018798828125 25.830566406250 65.298004150391 181 181 181
28.017333984375 25.833007812500 65.157989501953 183 183 183
28.019775390625 25.834472656250 65.019012451172 187 187 187
28.017822265625 25.837890625000 64.880004882813 187 187 187
28.022705078125 25.836425781250 64.742004394531 172 172 172
28.009521484375 25.845214843750 64.602996826172 155 155 155
28.008789062500 25.850097656250 64.464996337891 132 132 132
28.024169921875 25.842285156250 64.329010009766 114 114 114
28.017578125000 25.849121093750 64.191009521484 78 78 78
28.172607421875 25.847656250000 68.166992187500 49 49 49
28.173339843750 25.849609375000 68.007995605469 133 133 133
28.166748046875 25.855468750000 67.846984863281 141 141 141
28.152587890625 25.865234375000 67.684997558594 155 155 155
28.154296875000 25.867187500000 67.531005859375 161 161 161
28.138427734375 25.877441406250 67.371002197266 159 159 159
28.136474609375 25.881347656250 67.217987060547 159 159 159
28.132812500000 25.886718750000 67.065002441406 158 158 158
28.125732421875 25.891601562500 66.912994384766 166 166 166
28.117675781250 25.899902343750 66.760986328125 158 158 158
28.124511718750 25.897949218750 66.614990234375 156 156 156
28.123779296875 25.899902343750 66.467987060547 128 128 128
28.114501953125 25.907226562500 66.319000244141 134 134 134
28.113037109375 25.909667968750 66.173004150391 125 125 125
28.118408203125 25.910156250000 66.029998779297 106 106 106
28.118896484375 25.912109375000 65.885986328125 82 82 82
28.156982421875 25.892089843750 65.751007080078 17 17 17
28.233398437500 25.962890625000 68.036010742188 108 108 108
28.236816406250 25.963867187500 67.878997802734 88 88 88
28.254394531250 25.956054687500 67.727996826172 44 44 44
28.244384765625 25.964843750000 67.567993164063 7 7 7
28.737304687500 15.488769531250 62.417999267578 41 41 41
28.729736328125 15.488281250000 62.562988281250 61 61 61
28.733154296875 15.492187500000 62.707000732422 76 76 76
28.740234375000 15.500000000000 62.850006103516 89 89 89
28.748779296875 15.507812500000 62.993011474609 88 88 88
28.768310546875 15.522949218750 63.135986328125 98 98 98
28.760498046875 15.521484375000 63.279998779297 96 96 96
28.781005859375 15.535156250000 63.423004150391 84 84 84
28.781005859375 15.539550781250 63.566009521484 100 100 100
28.782958984375 15.542968750000 63.709991455078 100 100 100
28.795654296875 15.554199218750 63.854003906250 104 104 104
28.801269531250 15.559570312500 63.997985839844 108 108 108
28.813720703125 15.570800781250 64.143005371094 109 109 109
28.805419921875 15.568359375000 64.286987304688 104 104 104
28.810302734375 15.573730468750 64.432006835938 108 108 108
