24.390625000000 16.734375000000 1.745994567871 53 53 53
24.390625000000 16.734375000000 1.776000976563 219 219 219
24.390625000000 16.734375000000 1.803001403809 222 222 222
24.375000000000 16.734375000000 1.832000732422 218 218 218
24.390625000000 16.734375000000 1.858001708984 221 221 221
24.375000000000 16.734375000000 1.887001037598 216 216 216
24.578125000000 16.734375000000 1.873001098633 219 219 219
24.687500000000 16.734375000000 1.880996704102 199 199 199
24.687500000000 16.734375000000 1.908996582031 148 148 148
24.343750000000 17.046875000000 1.769996643066 218 218 218
24.343750000000 17.046875000000 1.797996520996 220 220 220
24.343750000000 17.031250000000 1.825996398926 217 217 217
24.343750000000 17.031250000000 1.851997375488 218 218 218
24.343750000000 17.031250000000 1.879997253418 219 219 219
24.453125000000 17.031250000000 1.887001037598 223 223 223
24.718750000000 17.031250000000 1.860000610352 225 225 225
24.718750000000 17.031250000000 1.890998840332 188 188 188
24.312500000000 17.328125000000 1.762001037598 213 213 213
24.312500000000 17.328125000000 1.791000366211 217 217 217
24.343750000000 17.343750000000 1.814994812012 222 222 222
24.312500000000 17.328125000000 1.844001770020 219 219 219
24.312500000000 17.328125000000 1.870994567871 220 220 220
24.343750000000 17.328125000000 1.891998291016 220 220 220
24.750000000000 17.328125000000 1.838996887207 225 225 225
24.750000000000 17.328125000000 1.869995117188 214 214 214
24.750000000000 17.328125000000 1.900001525879 191 191 191
24.296875000000 17.656250000000 1.753997802734 208 208 208
24.296875000000 17.656250000000 1.779998779297 218 218 218
24.296875000000 17.656250000000 1.807998657227 217 217 217
24.296875000000 17.656250000000 1.833999633789 219 219 219
24.296875000000 17.656250000000 1.861000061035 219 219 219
24.296875000000 17.656250000000 1.887001037598 215 215 215
24.750000000000 17.640625000000 1.825996398926 150 150 150
24.750000000000 17.640625000000 1.848999023438 193 193 193
24.765625000000 17.640625000000 1.876998901367 203 203 203
24.812500000000 17.640625000000 1.899002075195 71 71 71
24.281250000000 17.953125000000 1.748001098633 211 211 211
24.281250000000 17.953125000000 1.772994995117 220 220 220
24.281250000000 17.953125000000 1.800994873047 221 221 221
24.281250000000 17.953125000000 1.824996948242 226 226 226
24.281250000000 17.968750000000 1.852996826172 219 219 219
24.281250000000 17.968750000000 1.878997802734 220 220 220
24.796875000000 17.953125000000 1.803001403809 229 229 229
24.796875000000 17.953125000000 1.831001281738 220 220 220
24.796875000000 17.953125000000 1.861000061035 209 209 209
24.796875000000 17.953125000000 1.890998840332 189 189 189
24.250000000000 18.265625000000 1.743995666504 217 217 217
24.250000000000 18.265625000000 1.770996093750 219 219 219
24.265625000000 18.265625000000 1.796997070313 221 221 221
24.265625000000 18.265625000000 1.823997497559 224 224 224
24.265625000000 18.265625000000 1.848999023438 223 223 223
24.265625000000 18.265625000000 1.875999450684 216 216 216
24.828125000000 18.265625000000 1.788002014160 226 226 226
24.828125000000 18.265625000000 1.817001342773 227 227 227
24.812500000000 18.265625000000 1.848999023438 219 219 219
24.812500000000 18.265625000000 1.877998352051 207 207 207
24.281250000000 18.562500000000 1.705001831055 69 69 69
24.250000000000 18.578125000000 1.738998413086 218 218 218
24.250000000000 18.562500000000 1.766998291016 220 220 220
24.234375000000 18.578125000000 1.793998718262 217 217 217
24.234375000000 18.578125000000 1.819999694824 218 218 218
24.234375000000 18.578125000000 1.847000122070 220 220 220
24.250000000000 18.578125000000 1.868995666504 218 218 218
24.843750000000 18.562500000000 1.775001525879 223 223 223
24.843750000000 18.562500000000 1.804000854492 222 222 222
24.843750000000 18.562500000000 1.834999084473 223 223 223
24.828125000000 18.562500000000 1.864997863770 207 207 207
24.859375000000 18.562500000000 1.888000488281 25 25 25
24.250000000000 18.890625000000 1.707000732422 123 123 123
24.218750000000 18.875000000000 1.735000610352 169 169 169
24.218750000000 18.875000000000 1.761001586914 165 165 165
24.218750000000 18.875000000000 1.786994934082 168 168 168
24.218750000000 18.875000000000 1.812995910645 171 171 171
24.250000000000 18.890625000000 1.837997436523 161 161 161
24.250000000000 18.890625000000 1.863998413086 170 170 170
24.265625000000 18.875000000000 1.885002136230 164 164 164
24.859375000000 18.859375000000 1.789001464844 176 176 176
24.843750000000 18.859375000000 1.820999145508 172 172 172
24.843750000000 18.859375000000 1.851997375488 191 191 191
24.843750000000 18.859375000000 1.880996704102 168 168 168
24.390625000000 19.171875000000 1.197998046875 159 159 159
24.343750000000 19.171875000000 1.241996765137 179 179 179
24.343750000000 19.171875000000 1.267997741699 179 179 179
24.343750000000 19.171875000000 1.297996520996 178 178 178
24.343750000000 19.171875000000 1.326995849609 179 179 179
24.343750000000 19.171875000000 1.353996276855 181 181 181
24.343750000000 19.171875000000 1.382995605469 180 180 180
24.343750000000 19.171875000000 1.411994934082 181 181 181
24.343750000000 19.171875000000 1.439994812012 180 180 180
24.343750000000 19.171875000000 1.470001220703 180 180 180
24.343750000000 19.171875000000 1.497001647949 180 180 180
24.343750000000 19.171875000000 1.526000976563 181 181 181
24.343750000000 19.171875000000 1.553001403809 183 183 183
24.343750000000 19.171875000000 1.581001281738 180 180 180
24.343750000000 19.171875000000 1.609001159668 180 180 180
24.343750000000 19.171875000000 1.636001586914 179 179 179
24.296875000000 19.187500000000 1.678001403809 178 178 178
24.234375000000 19.187500000000 1.722000122070 169 169 169
24.218750000000 19.187500000000 1.751998901367 162 162 162
24.218750000000 19.171875000000 1.776000976563 168 168 168
24.218750000000 19.187500000000 1.803001403809 170 170 170
24.218750000000 19.187500000000 1.828994750977 169 169 169
24.218750000000 19.187500000000 1.855995178223 175 175 175
24.281250000000 19.171875000000 1.868995666504 178 178 178
24.343750000000 19.171875000000 1.880996704102 182 182 182
24.343750000000 19.171875000000 1.906997680664 203 203 203
24.375000000000 19.187500000000 1.930000305176 166 166 166
24.484375000000 19.187500000000 1.935997009277 89 89 89
24.625000000000 19.187500000000 1.935997009277 90 90 90
24.375000000000 19.484375000000 1.136001586914 216 216 216
24.390625000000 19.484375000000 1.156997680664 227 227 227
24.375000000000 19.484375000000 1.194000244141 223 223 223
24.343750000000 19.484375000000 1.230995178223 182 182 182
24.343750000000 19.484375000000 1.257995605469 180 180 180
24.375000000000 19.484375000000 1.284996032715 181 181 181
24.343750000000 19.484375000000 1.314994812012 180 180 180
24.375000000000 19.484375000000 1.341995239258 179 179 179
24.359375000000 19.484375000000 1.372001647949 178 178 178
24.343750000000 19.484375000000 1.401000976563 178 178 178
24.359375000000 19.484375000000 1.429000854492 179 179 179
24.343750000000 19.484375000000 1.458000183105 181 181 181
24.359375000000 19.484375000000 1.485000610352 179 179 179
24.359375000000 19.484375000000 1.513000488281 180 180 180
24.343750000000 19.484375000000 1.542999267578 183 183 183
24.359375000000 19.484375000000 1.568000793457 182 182 182
24.343750000000 19.484375000000 1.597999572754 184 184 184
24.343750000000 19.484375000000 1.627998352051 184 184 184
24.171875000000 19.500000000000 1.696998596191 154 154 154
24.187500000000 19.500000000000 1.720001220703 170 170 170
24.171875000000 19.500000000000 1.750000000000 168 168 168
24.187500000000 19.500000000000 1.774002075195 169 169 169
24.171875000000 19.500000000000 1.804000854492 165 165 165
24.187500000000 19.500000000000 1.826995849609 167 167 167
24.171875000000 19.500000000000 1.853996276855 162 162 162
24.359375000000 19.484375000000 1.842994689941 180 180 180
24.359375000000 19.484375000000 1.869995117188 180 180 180
24.343750000000 19.484375000000 1.897994995117 189 189 189
24.359375000000 19.484375000000 1.921997070313 171 171 171
24.468750000000 19.484375000000 1.929000854492 95 95 95
24.593750000000 19.500000000000 1.931999206543 84 84 84
24.703125000000 19.500000000000 1.939994812012 26 26 26
24.125000000000 19.796875000000 1.624000549316 236 236 236
24.031250000000 19.796875000000 1.680000305176 163 163 163
24.031250000000 19.796875000000 1.705001831055 170 170 170
24.015625000000 19.796875000000 1.731994628906 170 170 170
24.031250000000 19.796875000000 1.757995605469 166 166 166
24.000000000000 19.796875000000 1.783996582031 167 167 167
24.031250000000 19.812500000000 1.807998657227 167 167 167
24.031250000000 19.796875000000 1.833000183105 169 169 169
24.000000000000 19.796875000000 1.860000610352 166 166 166
24.031250000000 19.796875000000 1.880996704102 157 157 157
25.046875000000 19.796875000000 1.680999755859 147 147 147
24.984375000000 19.796875000000 1.723999023438 188 188 188
24.984375000000 19.796875000000 1.755996704102 186 186 186
24.984375000000 19.796875000000 1.785995483398 191 191 191
24.984375000000 19.796875000000 1.816001892090 189 189 189
24.984375000000 19.796875000000 1.847999572754 194 194 194
25.031250000000 19.796875000000 1.867996215820 158 158 158
25.140625000000 19.796875000000 1.879997253418 141 141 141
24.031250000000 20.109375000000 1.642997741699 148 148 148
24.015625000000 20.109375000000 1.673995971680 165 165 165
24.031250000000 20.109375000000 1.697998046875 167 167 167
24.015625000000 20.109375000000 1.723999023438 166 166 166
24.015625000000 20.109375000000 1.750000000000 171 171 171
24.015625000000 20.109375000000 1.775001525879 167 167 167
24.015625000000 20.109375000000 1.800994873047 165 165 165
24.031250000000 20.109375000000 1.824996948242 164 164 164
24.015625000000 20.109375000000 1.851997375488 166 166 166
24.031250000000 20.109375000000 1.873001098633 165 165 165
24.078125000000 20.109375000000 1.887001037598 91 91 91
25.062500000000 20.109375000000 1.700996398926 167 167 167
25.062500000000 20.109375000000 1.731994628906 169 169 169
25.031250000000 20.109375000000 1.763999938965 172 172 172
25.031250000000 20.109375000000 1.795997619629 171 171 171
25.062500000000 20.109375000000 1.825996398926 172 172 172
25.031250000000 20.109375000000 1.859001159668 171 171 171
25.062500000000 20.109375000000 1.886001586914 150 150 150
25.062500000000 20.109375000000 1.661994934082 132 132 132
25.078125000000 20.109375000000 1.854995727539 125 125 125
25.078125000000 20.109375000000 1.797996520996 115 115 115
25.078125000000 20.109375000000 1.738998413086 114 114 114
25.093750000000 20.109375000000 1.680000305176 128 128 128
25.062500000000 19.859375000000 1.885002136230 104 104 104
25.015625000000 19.890625000000 1.833999633789 117 117 117
25.000000000000 19.906250000000 1.777999877930 128 128 128
25.015625000000 19.906250000000 1.720001220703 129 129 129
25.046875000000 19.890625000000 1.655998229980 112 112 112
25.000000000000 19.640625000000 1.851997375488 104 104 104
25.000000000000 19.640625000000 1.794998168945 125 125 125
24.984375000000 19.656250000000 1.738998413086 127 127 127
25.000000000000 19.640625000000 1.680000305176 59 59 59
24.953125000000 19.421875000000 1.877998352051 26 26 26
24.953125000000 19.437500000000 1.821998596191 198 198 198
24.921875000000 19.437500000000 1.765998840332 169 169 169
24.031250000000 20.109375000000 1.864997863770 138 138 138
24.031250000000 20.109375000000 1.816001892090 137 137 137
24.031250000000 20.109375000000 1.763999938965 142 142 142
24.031250000000 20.109375000000 1.711997985840 135 135 135
24.031250000000 20.109375000000 1.661994934082 135 135 135
24.468750000000 19.484375000000 1.917999267578 103 103 103
24.437500000000 19.515625000000 1.870994567871 138 138 138
24.078125000000 19.796875000000 1.878997802734 149 149 149
24.015625000000 19.828125000000 1.835998535156 148 148 148
24.015625000000 19.828125000000 1.785995483398 128 128 128
24.015625000000 19.828125000000 1.735000610352 138 138 138
24.015625000000 19.828125000000 1.681999206543 134 134 134
24.406250000000 19.531250000000 1.495994567871 135 135 135
24.406250000000 19.531250000000 1.441001892090 142 142 142
24.406250000000 19.531250000000 1.387001037598 144 144 144
24.406250000000 19.546875000000 1.333999633789 156 156 156
24.390625000000 19.546875000000 1.227996826172 160 160 160
24.406250000000 19.546875000000 1.169998168945 161 161 161
24.375000000000 19.296875000000 1.905998229980 152 152 152
24.359375000000 19.296875000000 1.853996276855 144 144 144
24.203125000000 19.406250000000 1.827995300293 107 107 107
24.203125000000 19.421875000000 1.774002075195 118 118 118
24.203125000000 19.406250000000 1.722000122070 112 112 112
24.312500000000 19.328125000000 1.645996093750 140 140 140
24.359375000000 19.296875000000 1.583999633789 144 144 144
24.359375000000 19.296875000000 1.529998779297 150 150 150
24.375000000000 19.281250000000 1.472000122070 179 179 179
24.375000000000 19.296875000000 1.418998718262 173 173 173
24.375000000000 19.296875000000 1.364997863770 171 171 171
24.359375000000 19.281250000000 1.310997009277 151 151 151
24.328125000000 19.296875000000 1.263000488281 119 119 119
24.421875000000 19.265625000000 1.135002136230 233 233 233
24.843750000000 18.640625000000 1.853996276855 190 190 190
24.843750000000 18.671875000000 1.799995422363 191 191 191
24.234375000000 19.109375000000 1.844001770020 128 128 128
24.234375000000 19.109375000000 1.791999816895 127 127 127
24.234375000000 19.109375000000 1.738998413086 119 119 119
24.234375000000 19.109375000000 1.685997009277 44 44 44
24.843750000000 18.390625000000 1.875000000000 157 157 157
24.812500000000 18.390625000000 1.818000793457 217 217 217
24.234375000000 18.828125000000 1.860000610352 126 126 126
24.234375000000 18.828125000000 1.806999206543 132 132 132
24.234375000000 18.828125000000 1.752998352051 123 123 123
24.234375000000 18.828125000000 1.699996948242 60 60 60
24.828125000000 18.140625000000 1.888000488281 125 125 125
24.828125000000 18.156250000000 1.832000732422 218 218 218
24.250000000000 18.546875000000 1.864997863770 208 208 208
24.250000000000 18.546875000000 1.811996459961 216 216 216
24.250000000000 18.546875000000 1.758995056152 211 211 211
24.250000000000 18.546875000000 1.703994750977 70 70 70
24.812500000000 17.890625000000 1.902000427246 23 23 23
24.781250000000 17.890625000000 1.847999572754 208 208 208
24.296875000000 18.265625000000 1.869995117188 213 213 213
24.265625000000 18.265625000000 1.820999145508 214 214 214
24.265625000000 18.265625000000 1.767997741699 212 212 212
24.265625000000 18.281250000000 1.714996337891 101 101 101
24.781250000000 17.625000000000 1.874000549316 175 175 175
24.375000000000 17.921875000000 1.880996704102 164 164 164
24.281250000000 17.984375000000 1.840995788574 215 215 215
24.281250000000 17.984375000000 1.785995483398 213 213 213
24.296875000000 17.984375000000 1.730995178223 183 183 183
24.781250000000 17.359375000000 1.850997924805 207 207 207
24.312500000000 17.687500000000 1.864997863770 213 213 213
24.312500000000 17.687500000000 1.810997009277 210 210 210
24.312500000000 17.671875000000 1.756996154785 211 211 211
24.718750000000 17.078125000000 1.886001586914 150 150 150
24.406250000000 17.328125000000 1.881996154785 249 249 249
24.328125000000 17.390625000000 1.836997985840 214 214 214
24.328125000000 17.390625000000 1.781997680664 212 212 212
24.312500000000 17.390625000000 1.727996826172 77 77 77
24.687500000000 16.859375000000 1.911994934082 54 54 54
24.578125000000 16.921875000000 1.873001098633 235 235 235
24.328125000000 17.109375000000 1.853996276855 212 212 212
24.343750000000 17.109375000000 1.796997070313 215 215 215
24.328125000000 17.109375000000 1.743995666504 141 141 141
24.656250000000 16.609375000000 1.875000000000 202 202 202
24.343750000000 16.828125000000 1.864997863770 209 209 209
24.359375000000 16.828125000000 1.808998107910 214 214 214
24.375000000000 16.828125000000 1.752998352051 178 178 178
24.640625000000 16.359375000000 1.899002075195 148 148 148
24.390625000000 16.546875000000 1.879997253418 209 209 209
24.390625000000 16.546875000000 1.823997497559 209 209 209
24.390625000000 16.546875000000 1.767997741699 200 200 200
24.531250000000 16.171875000000 1.891998291016 204 204 204
24.421875000000 16.234375000000 1.851997375488 207 207 207
24.421875000000 16.234375000000 1.795997619629 208 208 208
24.421875000000 16.234375000000 1.739997863770 49 49 49
24.609375000000 15.828125000000 1.921997070313 15 15 15
24.453125000000 15.937500000000 1.887001037598 206 206 206
24.453125000000 15.937500000000 1.832000732422 210 210 210
24.453125000000 15.937500000000 1.774002075195 202 202 202
24.468750000000 15.640625000000 1.918998718262 93 93 93
24.453125000000 15.656250000000 1.865997314453 210 210 210
24.453125000000 15.640625000000 1.808998107910 206 206 206
24.468750000000 15.640625000000 1.748001098633 48 48 48
24.453125000000 15.375000000000 1.892997741699 204 204 204
24.453125000000 15.375000000000 1.836997985840 210 210 210
24.453125000000 15.375000000000 1.779998779297 174 174 174
24.500000000000 15.078125000000 1.910995483398 169 169 169
24.500000000000 15.078125000000 1.853996276855 216 216 216
24.500000000000 15.078125000000 1.794998168945 207 207 207
24.515625000000 14.812500000000 1.881996154785 207 207 207
24.515625000000 14.812500000000 1.824996948242 217 217 217
24.515625000000 14.796875000000 1.764999389648 23 23 23
24.500000000000 14.515625000000 1.916999816895 148 148 148
24.515625000000 14.515625000000 1.858001708984 220 220 220
24.500000000000 14.515625000000 1.802001953125 204 204 204
24.500000000000 14.234375000000 1.897994995117 203 203 203
24.500000000000 14.234375000000 1.838996887207 216 216 216
24.500000000000 14.234375000000 1.780998229980 90 90 90
24.468750000000 13.984375000000 2.049995422363 88 88 88
24.484375000000 13.984375000000 1.991996765137 96 96 96
24.484375000000 13.968750000000 1.931999206543 151 151 151
24.484375000000 13.968750000000 1.874000549316 219 219 219
24.484375000000 13.968750000000 1.816001892090 202 202 202
24.015625000000 19.921875000000 1.652999877930 143 143 143
24.015625000000 19.921875000000 1.706001281738 145 145 145
24.015625000000 19.921875000000 1.756996154785 140 140 140
24.015625000000 19.937500000000 1.808998107910 141 141 141
24.031250000000 19.937500000000 1.858001708984 162 162 162
24.109375000000 19.734375000000 1.650001525879 27 27 27
24.125000000000 19.765625000000 1.696998596191 158 158 158
24.125000000000 19.765625000000 1.750000000000 153 153 153
24.125000000000 19.765625000000 1.804000854492 148 148 148
24.218750000000 19.546875000000 1.647994995117 220 220 220
24.140625000000 19.515625000000 1.711997985840 203 203 203
24.156250000000 19.515625000000 1.763999938965 203 203 203
24.156250000000 19.515625000000 1.817001342773 207 207 207
25.015625000000 19.937500000000 1.747001647949 138 138 138
25.000000000000 19.921875000000 1.806999206543 127 127 127
25.031250000000 19.953125000000 1.860000610352 116 116 116
24.359375000000 19.359375000000 1.208000183105 156 156 156
24.359375000000 19.359375000000 1.264999389648 152 152 152
24.359375000000 19.359375000000 1.319000244141 155 155 155
24.359375000000 19.359375000000 1.375000000000 156 156 156
24.359375000000 19.359375000000 1.430999755859 158 158 158
24.359375000000 19.359375000000 1.485000610352 156 156 156
24.359375000000 19.359375000000 1.540000915527 156 156 156
24.359375000000 19.359375000000 1.596000671387 159 159 159
24.250000000000 19.328125000000 1.666000366211 146 146 146
24.218750000000 19.296875000000 1.728996276855 125 125 125
24.218750000000 19.296875000000 1.783996582031 134 134 134
24.218750000000 19.296875000000 1.835998535156 132 132 132
24.359375000000 19.359375000000 1.870994567871 152 152 152
24.406250000000 19.390625000000 1.916999816895 71 71 71
24.375000000000 19.109375000000 1.174995422363 125 125 125
24.343750000000 19.093750000000 1.237998962402 161 161 161
24.359375000000 19.109375000000 1.291999816895 161 161 161
24.343750000000 19.093750000000 1.348999023438 160 160 160
24.343750000000 19.093750000000 1.404998779297 161 161 161
24.359375000000 19.109375000000 1.458999633789 161 161 161
24.359375000000 19.109375000000 1.513999938965 166 166 166
24.359375000000 19.109375000000 1.568000793457 166 166 166
24.343750000000 19.093750000000 1.625999450684 163 163 163
24.234375000000 19.046875000000 1.700996398926 126 126 126
24.218750000000 19.046875000000 1.756996154785 133 133 133
24.234375000000 19.046875000000 1.808998107910 136 136 136
24.312500000000 19.078125000000 1.850997924805 165 165 165
24.375000000000 19.109375000000 1.895996093750 152 152 152
24.609375000000 19.234375000000 1.918998718262 13 13 13
24.718750000000 19.031250000000 1.293998718262 44 44 44
24.718750000000 19.031250000000 1.348999023438 29 29 29
24.750000000000 19.046875000000 1.405998229980 17 17 17
24.234375000000 18.796875000000 1.720001220703 128 128 128
24.234375000000 18.796875000000 1.775001525879 131 131 131
24.234375000000 18.796875000000 1.828994750977 125 125 125
24.375000000000 18.859375000000 1.863998413086 161 161 161
24.843750000000 19.093750000000 1.853996276855 139 139 139
24.234375000000 18.578125000000 1.730995178223 211 211 211
24.234375000000 18.578125000000 1.784996032715 211 211 211
24.250000000000 18.578125000000 1.838996887207 212 212 212
24.812500000000 18.859375000000 1.812995910645 130 130 130
24.843750000000 18.859375000000 1.866996765137 102 102 102
24.250000000000 18.328125000000 1.739997863770 211 211 211
24.250000000000 18.328125000000 1.794998168945 213 213 213
24.250000000000 18.328125000000 1.848999023438 212 212 212
24.812500000000 18.609375000000 1.825996398926 192 192 192
24.843750000000 18.640625000000 1.880996704102 63 63 63
24.281250000000 18.109375000000 1.700996398926 77 77 77
24.265625000000 18.109375000000 1.758995056152 214 214 214
24.265625000000 18.109375000000 1.812995910645 217 217 217
24.281250000000 18.109375000000 1.865997314453 219 219 219
24.812500000000 18.375000000000 1.848999023438 195 195 195
24.281250000000 17.859375000000 1.728996276855 196 196 196
24.281250000000 17.859375000000 1.783996582031 215 215 215
24.265625000000 17.843750000000 1.839996337891 213 213 213
24.796875000000 18.109375000000 1.823997497559 208 208 208
24.812500000000 18.109375000000 1.880996704102 96 96 96
24.296875000000 17.593750000000 1.753997802734 208 208 208
24.296875000000 17.593750000000 1.808998107910 211 211 211
24.281250000000 17.609375000000 1.863998413086 213 213 213
24.781250000000 17.828125000000 1.853996276855 192 192 192
24.328125000000 17.359375000000 1.711997985840 19 19 19
24.312500000000 17.359375000000 1.768997192383 213 213 213
24.312500000000 17.359375000000 1.824996948242 213 213 213
24.328125000000 17.359375000000 1.878997802734 194 194 194
24.781250000000 17.578125000000 1.875999450684 156 156 156
24.359375000000 17.156250000000 1.717994689941 71 71 71
24.328125000000 17.140625000000 1.777999877930 214 214 214
24.328125000000 17.140625000000 1.833000183105 211 211 211
24.390625000000 17.171875000000 1.879997253418 237 237 237
24.734375000000 17.343750000000 1.891998291016 121 121 121
24.343750000000 16.921875000000 1.728996276855 101 101 101
24.343750000000 16.921875000000 1.784996032715 212 212 212
24.343750000000 16.921875000000 1.841995239258 218 218 218
24.453125000000 16.968750000000 1.883995056152 231 231 231
24.718750000000 17.109375000000 1.906997680664 10 10 10
24.375000000000 16.687500000000 1.748001098633 183 183 183
24.375000000000 16.687500000000 1.805000305176 211 211 211
24.375000000000 16.687500000000 1.861999511719 210 210 210
24.687500000000 16.828125000000 1.877998352051 174 174 174
24.390625000000 16.421875000000 1.777000427246 209 209 209
24.390625000000 16.421875000000 1.833000183105 205 205 205
24.421875000000 16.453125000000 1.885002136230 209 209 209
24.406250000000 16.171875000000 1.748001098633 152 152 152
24.406250000000 16.171875000000 1.805000305176 209 209 209
24.406250000000 16.187500000000 1.862998962402 211 211 211
24.609375000000 16.281250000000 1.892997741699 143 143 143
24.437500000000 15.937500000000 1.769996643066 186 186 186
24.437500000000 15.937500000000 1.826995849609 212 212 212
24.437500000000 15.937500000000 1.883995056152 208 208 208
24.625000000000 16.046875000000 1.916000366211 28 28 28
24.437500000000 15.718750000000 1.780998229980 195 195 195
24.437500000000 15.718750000000 1.837997436523 206 206 206
24.453125000000 15.734375000000 1.892997741699 211 211 211
24.437500000000 15.484375000000 1.794998168945 205 205 205
24.437500000000 15.484375000000 1.851997375488 204 204 204
24.468750000000 15.500000000000 1.908996582031 150 150 150
24.453125000000 15.234375000000 1.764999389648 154 154 154
24.453125000000 15.234375000000 1.821998596191 201 201 201
24.453125000000 15.234375000000 1.879997253418 196 196 196
24.500000000000 15.015625000000 1.795997619629 209 209 209
24.500000000000 15.015625000000 1.854995727539 210 210 210
24.484375000000 15.000000000000 1.913002014160 135 135 135
24.500000000000 14.734375000000 1.777000427246 153 153 153
24.484375000000 14.734375000000 1.836997985840 209 209 209
24.484375000000 14.734375000000 1.893997192383 192 192 192
24.468750000000 14.484375000000 1.804000854492 202 202 202
24.500000000000 14.484375000000 1.861999511719 213 213 213
24.468750000000 14.484375000000 1.921997070313 133 133 133
24.484375000000 14.265625000000 1.822998046875 205 205 205
24.468750000000 14.250000000000 1.881996154785 200 200 200
24.484375000000 14.265625000000 1.939994812012 14 14 14
24.468750000000 14.015625000000 1.786994934082 132 132 132
24.468750000000 14.015625000000 1.847000122070 195 195 195
24.468750000000 14.015625000000 1.906997680664 175 175 175
24.468750000000 14.015625000000 1.964996337891 125 125 125
24.468750000000 14.015625000000 2.024002075195 127 127 127
24.468750000000 14.015625000000 2.082000732422 110 110 110
24.031250000000 19.984375000000 1.626998901367 109 109 109
24.000000000000 19.984375000000 1.672996520996 160 160 160
24.000000000000 19.984375000000 1.717994689941 163 163 163
24.015625000000 19.984375000000 1.762001037598 165 165 165
24.000000000000 19.984375000000 1.807998657227 155 155 155
24.031250000000 19.984375000000 1.850997924805 159 159 159
25.015625000000 19.906250000000 1.774002075195 157 157 157
25.000000000000 19.906250000000 1.824996948242 160 160 160
25.031250000000 19.890625000000 1.870994567871 131 131 131
24.125000000000 19.703125000000 1.685997009277 200 200 200
24.125000000000 19.703125000000 1.731994628906 199 199 199
24.125000000000 19.703125000000 1.777000427246 203 203 203
24.125000000000 19.703125000000 1.822998046875 196 196 196
24.984375000000 19.640625000000 1.760002136230 178 178 178
24.984375000000 19.625000000000 1.809997558594 191 191 191
25.000000000000 19.640625000000 1.859001159668 77 77 77
24.375000000000 19.421875000000 1.154998779297 166 166 166
24.343750000000 19.421875000000 1.305000305176 168 168 168
24.343750000000 19.421875000000 1.351997375488 169 169 169
24.343750000000 19.421875000000 1.399002075195 168 168 168
24.343750000000 19.421875000000 1.446998596191 169 169 169
24.343750000000 19.421875000000 1.495994567871 165 165 165
24.343750000000 19.421875000000 1.541999816895 168 168 168
24.343750000000 19.421875000000 1.587997436523 171 171 171
24.328125000000 19.421875000000 1.640998840332 163 163 163
24.187500000000 19.437500000000 1.708999633789 139 139 139
24.187500000000 19.421875000000 1.752998352051 137 137 137
24.187500000000 19.437500000000 1.799995422363 137 137 137
24.218750000000 19.421875000000 1.841995239258 139 139 139
24.343750000000 19.421875000000 1.870994567871 173 173 173
24.375000000000 19.421875000000 1.916000366211 101 101 101
24.359375000000 19.171875000000 1.231994628906 168 168 168
24.359375000000 19.156250000000 1.278999328613 170 170 170
24.359375000000 19.171875000000 1.327995300293 174 174 174
24.359375000000 19.156250000000 1.375999450684 171 171 171
24.359375000000 19.156250000000 1.422996520996 167 167 167
24.359375000000 19.156250000000 1.470001220703 170 170 170
24.359375000000 19.156250000000 1.517997741699 170 170 170
24.359375000000 19.156250000000 1.567001342773 167 167 167
24.359375000000 19.156250000000 1.613998413086 169 169 169
24.312500000000 19.171875000000 1.668998718262 163 163 163
24.218750000000 19.171875000000 1.728996276855 145 145 145
24.218750000000 19.171875000000 1.772994995117 153 153 153
24.218750000000 19.171875000000 1.819000244141 149 149 149
24.265625000000 19.171875000000 1.861000061035 159 159 159
24.359375000000 19.156250000000 1.895996093750 162 162 162
24.484375000000 19.140625000000 1.930000305176 29 29 29
24.218750000000 18.921875000000 1.696998596191 101 101 101
24.250000000000 18.921875000000 1.741996765137 142 142 142
24.250000000000 18.921875000000 1.789001464844 148 148 148
24.250000000000 18.921875000000 1.834999084473 149 149 149
24.343750000000 18.890625000000 1.868995666504 171 171 171
24.828125000000 18.859375000000 1.858001708984 161 161 161
24.250000000000 18.640625000000 1.710998535156 185 185 185
24.234375000000 18.640625000000 1.758995056152 214 214 214
24.250000000000 18.640625000000 1.805000305176 211 211 211
24.250000000000 18.640625000000 1.850997924805 210 210 210
24.812500000000 18.609375000000 1.828994750977 202 202 202
24.843750000000 18.609375000000 1.876998901367 106 106 106
24.250000000000 18.390625000000 1.734001159668 210 210 210
24.250000000000 18.390625000000 1.779998779297 214 214 214
24.265625000000 18.390625000000 1.826995849609 216 216 216
24.359375000000 18.375000000000 1.861999511719 244 244 244
24.828125000000 18.328125000000 1.854995727539 191 191 191
24.281250000000 18.109375000000 1.708999633789 109 109 109
24.265625000000 18.109375000000 1.756996154785 212 212 212
24.265625000000 18.109375000000 1.804000854492 214 214 214
24.250000000000 18.109375000000 1.852996826172 214 214 214
24.781250000000 18.078125000000 1.839996337891 220 220 220
24.796875000000 18.078125000000 1.886001586914 104 104 104
24.281250000000 17.843750000000 1.728996276855 185 185 185
24.281250000000 17.843750000000 1.776000976563 213 213 213
24.281250000000 17.828125000000 1.824996948242 215 215 215
24.312500000000 17.843750000000 1.868995666504 229 229 229
24.781250000000 17.796875000000 1.862998962402 202 202 202
24.296875000000 17.578125000000 1.744995117188 202 202 202
24.296875000000 17.578125000000 1.792999267578 211 211 211
24.296875000000 17.578125000000 1.839996337891 209 209 209
24.390625000000 17.578125000000 1.875999450684 233 233 233
24.765625000000 17.546875000000 1.883995056152 166 166 166
24.312500000000 17.328125000000 1.757995605469 207 207 207
24.312500000000 17.328125000000 1.805999755859 211 211 211
24.312500000000 17.328125000000 1.852996826172 210 210 210
24.578125000000 17.296875000000 1.869995117188 224 224 224
24.750000000000 17.296875000000 1.902000427246 82 82 82
24.359375000000 17.046875000000 1.719001770020 14 14 14
24.343750000000 17.062500000000 1.770996093750 213 213 213
24.343750000000 17.062500000000 1.819000244141 211 211 211
24.343750000000 17.062500000000 1.866996765137 209 209 209
24.687500000000 17.046875000000 1.875000000000 193 193 193
24.375000000000 16.796875000000 1.740997314453 154 154 154
24.343750000000 16.796875000000 1.789001464844 206 206 206
24.343750000000 16.796875000000 1.837997436523 211 211 211
24.390625000000 16.796875000000 1.881996154785 217 217 217
24.687500000000 16.765625000000 1.897994995117 116 116 116
24.375000000000 16.531250000000 1.764999389648 203 203 203
24.375000000000 16.515625000000 1.812995910645 206 206 206
24.375000000000 16.531250000000 1.861999511719 210 210 210
24.593750000000 16.515625000000 1.887001037598 193 193 193
24.406250000000 16.265625000000 1.736000061035 28 28 28
24.406250000000 16.265625000000 1.786994934082 208 208 208
24.406250000000 16.265625000000 1.834999084473 210 210 210
24.406250000000 16.250000000000 1.882995605469 208 208 208
24.640625000000 16.234375000000 1.908996582031 113 113 113
24.437500000000 15.984375000000 1.747001647949 87 87 87
24.421875000000 15.984375000000 1.799995422363 214 214 214
24.421875000000 15.984375000000 1.848999023438 213 213 213
24.437500000000 16.000000000000 1.895996093750 207 207 207
24.468750000000 15.750000000000 1.757995605469 137 137 137
24.437500000000 15.734375000000 1.808998107910 208 208 208
24.437500000000 15.734375000000 1.858001708984 208 208 208
24.468750000000 15.734375000000 1.902999877930 200 200 200
24.468750000000 15.484375000000 1.772994995117 185 185 185
24.437500000000 15.484375000000 1.823997497559 204 204 204
24.437500000000 15.484375000000 1.873001098633 212 212 212
24.468750000000 15.484375000000 1.920997619629 109 109 109
24.468750000000 15.234375000000 1.745994567871 16 16 16
24.453125000000 15.234375000000 1.798995971680 205 205 205
24.453125000000 15.234375000000 1.847999572754 207 207 207
24.453125000000 15.234375000000 1.897994995117 188 188 188
24.515625000000 14.953125000000 1.769996643066 152 152 152
24.500000000000 14.953125000000 1.822998046875 216 216 216
24.500000000000 14.953125000000 1.872001647949 212 212 212
24.500000000000 14.953125000000 1.922996520996 115 115 115
24.484375000000 14.671875000000 1.794998168945 198 198 198
24.484375000000 14.671875000000 1.845001220703 220 220 220
24.484375000000 14.671875000000 1.895996093750 203 203 203
24.484375000000 14.421875000000 1.807998657227 202 202 202
24.484375000000 14.421875000000 1.858001708984 217 217 217
24.484375000000 14.421875000000 1.907997131348 199 199 199
24.484375000000 14.171875000000 1.817001342773 212 212 212
24.484375000000 14.187500000000 1.867996215820 214 214 214
24.484375000000 14.171875000000 1.917999267578 180 180 180
24.484375000000 13.921875000000 1.784996032715 59 59 59
24.468750000000 13.921875000000 1.835998535156 218 218 218
24.468750000000 13.921875000000 1.887001037598 218 218 218
24.468750000000 13.921875000000 1.937995910645 113 113 113
24.468750000000 13.984375000000 2.119995117188 56 56 56
24.468750000000 13.984375000000 2.086997985840 141 141 141
24.484375000000 13.984375000000 2.053001403809 154 154 154
24.468750000000 13.984375000000 2.022994995117 153 153 153
24.468750000000 13.984375000000 1.988998413086 150 150 150
24.484375000000 13.984375000000 1.955001831055 196 196 196
24.484375000000 13.984375000000 1.920997619629 216 216 216
24.484375000000 13.984375000000 1.890998840332 213 213 213
24.484375000000 13.984375000000 1.856994628906 214 214 214
24.500000000000 13.984375000000 1.819999694824 49 49 49
24.515625000000 14.265625000000 1.959999084473 97 97 97
24.500000000000 14.281250000000 1.933998107910 196 196 196
24.500000000000 14.281250000000 1.901000976563 212 212 212
24.484375000000 14.296875000000 1.870994567871 210 210 210
24.484375000000 14.296875000000 1.836997985840 197 197 197
24.500000000000 14.578125000000 1.950996398926 176 176 176
24.500000000000 14.578125000000 1.916999816895 199 199 199
24.500000000000 14.578125000000 1.885002136230 213 213 213
24.500000000000 14.578125000000 1.853996276855 213 213 213
24.500000000000 14.578125000000 1.819999694824 165 165 165
24.500000000000 14.890625000000 1.936996459961 205 205 205
24.500000000000 14.906250000000 1.906997680664 211 211 211
24.500000000000 14.890625000000 1.872001647949 214 214 214
24.500000000000 14.890625000000 1.839996337891 214 214 214
24.500000000000 14.906250000000 1.808998107910 115 115 115
24.531250000000 15.203125000000 1.952995300293 86 86 86
24.468750000000 15.234375000000 1.933998107910 197 197 197
24.468750000000 15.234375000000 1.901000976563 205 205 205
24.468750000000 15.250000000000 1.870994567871 206 206 206
24.468750000000 15.234375000000 1.835998535156 193 193 193
24.468750000000 15.234375000000 1.805000305176 156 156 156
24.500000000000 15.546875000000 1.941001892090 154 154 154
24.437500000000 15.562500000000 1.919998168945 208 208 208
24.437500000000 15.578125000000 1.889999389648 209 209 209
24.437500000000 15.562500000000 1.855995178223 204 204 204
24.437500000000 15.562500000000 1.822998046875 202 202 202
24.468750000000 15.562500000000 1.785995483398 67 67 67
24.593750000000 15.765625000000 1.933998107910 173 173 173
24.515625000000 15.843750000000 1.924995422363 197 197 197
24.421875000000 15.890625000000 1.910995483398 212 212 212
24.437500000000 15.890625000000 1.876998901367 208 208 208
24.437500000000 15.890625000000 1.845001220703 208 208 208
24.437500000000 15.890625000000 1.811996459961 206 206 206
24.656250000000 16.062500000000 1.941001892090 36 36 36
24.625000000000 16.078125000000 1.916000366211 196 196 196
24.468750000000 16.171875000000 1.920997619629 206 206 206
24.421875000000 16.203125000000 1.900001525879 209 209 209
24.421875000000 16.203125000000 1.865997314453 205 205 205
24.421875000000 16.203125000000 1.834999084473 204 204 204
24.421875000000 16.203125000000 1.802001953125 194 194 194
24.656250000000 16.359375000000 1.919998168945 190 190 190
24.640625000000 16.359375000000 1.888999938965 215 215 215
24.375000000000 16.515625000000 1.920997619629 205 205 205
24.390625000000 16.515625000000 1.887001037598 204 204 204
24.375000000000 16.515625000000 1.856994628906 208 208 208
24.375000000000 16.515625000000 1.824996948242 205 205 205
24.375000000000 16.515625000000 1.791999816895 186 186 186
24.687500000000 16.671875000000 1.929000854492 164 164 164
24.687500000000 16.671875000000 1.895996093750 204 204 204
24.640625000000 16.671875000000 1.872001647949 218 218 218
24.343750000000 16.859375000000 1.911994934082 209 209 209
24.343750000000 16.859375000000 1.881996154785 211 211 211
24.343750000000 16.859375000000 1.849998474121 210 210 210
24.375000000000 16.859375000000 1.817001342773 209 209 209
24.375000000000 16.859375000000 1.783996582031 173 173 173
24.718750000000 16.968750000000 1.910995483398 181 181 181
24.718750000000 16.968750000000 1.876998901367 218 218 218
24.703125000000 16.984375000000 1.847000122070 220 220 220
24.343750000000 17.203125000000 1.909996032715 209 209 209
24.343750000000 17.203125000000 1.877998352051 210 210 210
24.343750000000 17.187500000000 1.844001770020 206 206 206
24.343750000000 17.203125000000 1.814994812012 208 208 208
24.343750000000 17.187500000000 1.781997680664 196 196 196
24.750000000000 17.234375000000 1.921997070313 116 116 116
24.718750000000 17.265625000000 1.895996093750 195 195 195
24.750000000000 17.265625000000 1.860000610352 215 215 215
24.718750000000 17.265625000000 1.827995300293 218 218 218
24.296875000000 17.515625000000 1.905998229980 208 208 208
24.296875000000 17.515625000000 1.874000549316 214 214 214
24.312500000000 17.531250000000 1.842994689941 212 212 212
24.296875000000 17.515625000000 1.811996459961 209 209 209
24.296875000000 17.515625000000 1.780998229980 203 203 203
24.781250000000 17.546875000000 1.905998229980 196 196 196
24.765625000000 17.546875000000 1.874000549316 188 188 188
24.781250000000 17.546875000000 1.837997436523 173 173 173
24.468750000000 17.734375000000 1.885002136230 148 148 148
24.296875000000 17.843750000000 1.895996093750 212 212 212
24.296875000000 17.843750000000 1.865997314453 212 212 212
24.296875000000 17.843750000000 1.833999633789 209 209 209
24.296875000000 17.843750000000 1.803001403809 210 210 210
24.281250000000 17.843750000000 1.772994995117 200 200 200
24.781250000000 17.828125000000 1.911994934082 186 186 186
24.796875000000 17.828125000000 1.875999450684 201 201 201
24.781250000000 17.828125000000 1.844001770020 211 211 211
24.781250000000 17.828125000000 1.809997558594 213 213 213
24.312500000000 18.125000000000 1.902000427246 222 222 222
24.281250000000 18.140625000000 1.879997253418 213 213 213
24.281250000000 18.140625000000 1.848999023438 209 209 209
24.281250000000 18.140625000000 1.819999694824 212 212 212
24.281250000000 18.140625000000 1.786994934082 209 209 209
24.281250000000 18.140625000000 1.754997253418 160 160 160
24.843750000000 18.125000000000 1.914001464844 98 98 98
24.812500000000 18.140625000000 1.883995056152 192 192 192
24.812500000000 18.140625000000 1.847999572754 212 212 212
24.812500000000 18.140625000000 1.813995361328 215 215 215
24.812500000000 18.140625000000 1.778999328613 207 207 207
24.265625000000 18.453125000000 1.894996643066 208 208 208
24.265625000000 18.453125000000 1.863998413086 210 210 210
24.250000000000 18.468750000000 1.834999084473 212 212 212
24.265625000000 18.453125000000 1.802001953125 211 211 211
24.250000000000 18.468750000000 1.771995544434 211 211 211
24.250000000000 18.468750000000 1.743995666504 127 127 127
24.843750000000 18.437500000000 1.899002075195 186 186 186
24.843750000000 18.437500000000 1.863998413086 198 198 198
24.843750000000 18.437500000000 1.830001831055 211 211 211
24.843750000000 18.437500000000 1.794998168945 217 217 217
24.859375000000 18.421875000000 1.754997253418 185 185 185
24.250000000000 18.796875000000 1.887001037598 147 147 147
24.234375000000 18.796875000000 1.860000610352 149 149 149
24.250000000000 18.796875000000 1.825996398926 149 149 149
24.250000000000 18.796875000000 1.793998718262 149 149 149
24.250000000000 18.796875000000 1.763999938965 147 147 147
24.234375000000 18.796875000000 1.736000061035 120 120 120
24.843750000000 18.750000000000 1.892997741699 146 146 146
24.843750000000 18.750000000000 1.855995178223 154 154 154
24.843750000000 18.750000000000 1.823997497559 166 166 166
24.843750000000 18.750000000000 1.786994934082 158 158 158
24.843750000000 18.750000000000 1.752998352051 155 155 155
24.218750000000 19.140625000000 1.890998840332 135 135 135
24.218750000000 19.125000000000 1.859001159668 148 148 148
24.250000000000 19.140625000000 1.825996398926 152 152 152
24.250000000000 19.140625000000 1.795997619629 149 149 149
24.250000000000 19.140625000000 1.765998840332 145 145 145
24.250000000000 19.140625000000 1.735000610352 143 143 143
24.375000000000 19.046875000000 1.366996765137 22 22 22
24.406250000000 19.031250000000 1.248001098633 205 205 205
24.375000000000 19.046875000000 1.227996826172 104 104 104
24.687500000000 19.171875000000 1.956001281738 100 100 100
24.562500000000 19.234375000000 1.949996948242 101 101 101
24.437500000000 19.312500000000 1.951995849609 99 99 99
24.359375000000 19.359375000000 1.936996459961 166 166 166
24.359375000000 19.359375000000 1.907997131348 168 168 168
24.359375000000 19.359375000000 1.875999450684 167 167 167
24.281250000000 19.421875000000 1.866996765137 146 146 146
24.203125000000 19.453125000000 1.853996276855 139 139 139
24.218750000000 19.453125000000 1.822998046875 131 131 131
24.218750000000 19.453125000000 1.791000366211 137 137 137
24.218750000000 19.453125000000 1.757995605469 137 137 137
24.203125000000 19.453125000000 1.733001708984 143 143 143
24.187500000000 19.453125000000 1.703994750977 142 142 142
24.359375000000 19.359375000000 1.620994567871 171 171 171
24.359375000000 19.359375000000 1.589996337891 166 166 166
24.359375000000 19.359375000000 1.553001403809 167 167 167
24.359375000000 19.359375000000 1.521995544434 169 169 169
24.359375000000 19.359375000000 1.489997863770 168 168 168
24.359375000000 19.359375000000 1.458000183105 169 169 169
24.359375000000 19.359375000000 1.423995971680 167 167 167
24.359375000000 19.359375000000 1.391998291016 171 171 171
24.359375000000 19.359375000000 1.353996276855 166 166 166
24.359375000000 19.359375000000 1.322998046875 166 166 166
24.359375000000 19.359375000000 1.291000366211 167 167 167
24.359375000000 19.359375000000 1.254997253418 166 166 166
24.437500000000 19.328125000000 1.192001342773 161 161 161
24.718750000000 19.453125000000 1.961997985840 49 49 49
24.640625000000 19.500000000000 1.947998046875 140 140 140
24.593750000000 19.515625000000 1.922996520996 147 147 147
24.593750000000 19.515625000000 1.889999389648 144 144 144
24.593750000000 19.546875000000 1.860000610352 140 140 140
24.593750000000 19.515625000000 1.822998046875 138 138 138
24.593750000000 19.546875000000 1.793998718262 137 137 137
24.062500000000 19.843750000000 1.907997131348 145 145 145
24.031250000000 19.859375000000 1.888000488281 166 166 166
24.031250000000 19.859375000000 1.860000610352 161 161 161
24.031250000000 19.875000000000 1.833000183105 157 157 157
24.031250000000 19.859375000000 1.798995971680 157 157 157
24.031250000000 19.859375000000 1.771995544434 160 160 160
24.031250000000 19.859375000000 1.740997314453 155 155 155
24.031250000000 19.859375000000 1.711997985840 158 158 158
24.031250000000 19.859375000000 1.680999755859 149 149 149
24.562500000000 19.546875000000 1.459999084473 141 141 141
25.015625000000 19.578125000000 1.897994995117 73 73 73
25.000000000000 19.578125000000 1.864997863770 154 154 154
25.000000000000 19.578125000000 1.830001831055 156 156 156
25.000000000000 19.578125000000 1.794998168945 158 158 158
25.000000000000 19.578125000000 1.757995605469 155 155 155
25.000000000000 19.578125000000 1.722999572754 144 144 144
24.093750000000 20.140625000000 1.878997802734 122 122 122
24.093750000000 20.140625000000 1.847999572754 105 105 105
24.093750000000 20.125000000000 1.817001342773 97 97 97
24.093750000000 20.140625000000 1.789001464844 98 98 98
24.093750000000 20.140625000000 1.757995605469 91 91 91
24.109375000000 20.125000000000 1.722000122070 115 115 115
24.109375000000 20.125000000000 1.693000793457 86 86 86
25.062500000000 19.859375000000 1.904998779297 147 147 147
25.031250000000 19.875000000000 1.875999450684 129 129 129
25.015625000000 19.890625000000 1.846000671387 144 144 144
25.000000000000 19.890625000000 1.809997558594 148 148 148
25.015625000000 19.890625000000 1.774002075195 148 148 148
25.000000000000 19.890625000000 1.738998413086 148 148 148
25.046875000000 19.890625000000 1.694999694824 148 148 148
24.484375000000 14.109375000000 2.099998474121 107 107 107
24.484375000000 14.109375000000 2.072998046875 159 159 159
24.484375000000 14.109375000000 2.046997070313 163 163 163
24.468750000000 14.125000000000 2.018997192383 143 143 143
24.500000000000 14.125000000000 1.988998413086 129 129 129
24.484375000000 14.109375000000 1.961997985840 144 144 144
24.484375000000 14.109375000000 1.934997558594 208 208 208
24.500000000000 14.125000000000 1.905998229980 225 225 225
24.500000000000 14.125000000000 1.877998352051 223 223 223
24.484375000000 14.109375000000 1.850997924805 223 223 223
24.500000000000 14.125000000000 1.819999694824 87 87 87
24.515625000000 14.421875000000 1.962997436523 34 34 34
24.484375000000 14.421875000000 1.942001342773 206 206 206
24.484375000000 14.421875000000 1.913002014160 225 225 225
24.484375000000 14.421875000000 1.883995056152 223 223 223
24.484375000000 14.421875000000 1.854995727539 224 224 224
24.484375000000 14.421875000000 1.830001831055 180 180 180
24.500000000000 14.734375000000 1.945999145508 206 206 206
24.500000000000 14.734375000000 1.916999816895 222 222 222
24.515625000000 14.734375000000 1.887001037598 224 224 224
24.500000000000 14.734375000000 1.861000061035 222 222 222
24.500000000000 14.734375000000 1.833000183105 220 220 220
24.531250000000 15.046875000000 1.952995300293 79 79 79
24.500000000000 15.046875000000 1.930000305176 204 204 204
24.500000000000 15.046875000000 1.901000976563 224 224 224
24.500000000000 15.046875000000 1.870994567871 223 223 223
24.500000000000 15.046875000000 1.846000671387 220 220 220
24.500000000000 15.046875000000 1.819000244141 202 202 202
24.500000000000 15.359375000000 1.945999145508 125 125 125
24.468750000000 15.359375000000 1.928001403809 217 217 217
24.437500000000 15.359375000000 1.902999877930 209 209 209
24.437500000000 15.359375000000 1.873001098633 218 218 218
24.437500000000 15.359375000000 1.846000671387 202 202 202
24.437500000000 15.359375000000 1.818000793457 209 209 209
24.531250000000 15.671875000000 1.931999206543 195 195 195
24.437500000000 15.671875000000 1.919998168945 218 218 218
