23.640625000000 8.546875000000 1.368995666504 136 136 136
23.640625000000 8.546875000000 1.402000427246 137 137 137
23.609375000000 8.515625000000 1.443000793457 140 140 140
23.609375000000 8.515625000000 1.469001770020 135 135 135
23.593750000000 8.515625000000 1.502998352051 136 136 136
23.531250000000 8.484375000000 1.550994873047 135 135 135
23.515625000000 8.468750000000 1.588996887207 147 147 147
23.546875000000 8.484375000000 1.599998474121 181 181 181
23.531250000000 8.484375000000 1.639999389648 170 170 170
23.437500000000 8.437500000000 1.691001892090 143 143 143
23.437500000000 8.421875000000 1.722000122070 144 144 144
23.437500000000 8.437500000000 1.747001647949 144 144 144
23.437500000000 8.437500000000 1.769996643066 145 145 145
23.437500000000 8.421875000000 1.799995422363 142 142 142
23.437500000000 8.437500000000 1.820999145508 149 149 149
23.500000000000 8.453125000000 1.834999084473 150 150 150
23.500000000000 8.468750000000 1.861000061035 157 157 157
23.468750000000 8.453125000000 1.891998291016 151 151 151
23.468750000000 8.453125000000 1.916999816895 151 151 151
23.468750000000 8.453125000000 1.948997497559 146 146 146
23.468750000000 8.453125000000 1.973999023438 141 141 141
23.468750000000 8.453125000000 1.999000549316 139 139 139
23.468750000000 8.453125000000 2.024002075195 140 140 140
23.468750000000 8.453125000000 2.049995422363 138 138 138
23.437500000000 8.437500000000 2.077995300293 138 138 138
23.437500000000 8.421875000000 2.104995727539 149 149 149
23.437500000000 8.421875000000 2.130996704102 144 144 144
23.437500000000 8.421875000000 2.154998779297 143 143 143
23.437500000000 8.437500000000 2.178001403809 139 139 139
23.437500000000 8.437500000000 2.201995849609 137 137 137
23.437500000000 8.421875000000 2.228996276855 139 139 139
23.437500000000 8.421875000000 2.253997802734 141 141 141
23.437500000000 8.437500000000 2.277999877930 141 141 141
23.437500000000 8.421875000000 2.303001403809 141 141 141
23.437500000000 8.421875000000 2.328994750977 140 140 140
23.437500000000 8.421875000000 2.351997375488 140 140 140
23.437500000000 8.421875000000 2.375999450684 140 140 140
23.437500000000 8.421875000000 2.402999877930 145 145 145
23.437500000000 8.421875000000 2.424995422363 150 150 150
23.437500000000 8.421875000000 2.449996948242 156 156 156
23.437500000000 8.421875000000 2.473999023438 159 159 159
23.437500000000 8.421875000000 2.499000549316 164 164 164
23.437500000000 8.421875000000 2.521995544434 165 165 165
23.437500000000 8.421875000000 2.546997070313 161 161 161
23.437500000000 8.421875000000 2.570999145508 161 161 161
23.437500000000 8.421875000000 2.595001220703 164 164 164
23.421875000000 8.421875000000 2.619995117188 167 167 167
23.421875000000 8.437500000000 2.641998291016 165 165 165
23.421875000000 8.437500000000 2.666000366211 165 165 165
23.421875000000 8.437500000000 2.689994812012 165 165 165
23.421875000000 8.437500000000 2.713996887207 162 162 162
23.421875000000 8.437500000000 2.736999511719 160 160 160
23.421875000000 8.437500000000 2.761001586914 162 162 162
23.421875000000 8.437500000000 2.784996032715 163 163 163
23.421875000000 8.437500000000 2.807998657227 166 166 166
23.421875000000 8.437500000000 2.832000732422 166 166 166
23.421875000000 8.437500000000 2.855995178223 168 168 168
23.421875000000 8.437500000000 2.879997253418 170 170 170
23.421875000000 8.437500000000 2.902999877930 169 169 169
23.421875000000 8.437500000000 2.927001953125 175 175 175
23.421875000000 8.437500000000 2.950996398926 171 171 171
23.421875000000 8.437500000000 2.973999023438 172 172 172
23.421875000000 8.437500000000 2.998001098633 172 172 172
23.437500000000 8.453125000000 3.021995544434 174 174 174
23.421875000000 8.437500000000 3.044998168945 170 170 170
23.421875000000 8.437500000000 3.069000244141 174 174 174
23.421875000000 8.437500000000 3.092994689941 174 174 174
23.437500000000 8.453125000000 3.115997314453 176 176 176
23.437500000000 8.453125000000 3.139999389648 177 177 177
23.437500000000 8.453125000000 3.164001464844 180 180 180
23.437500000000 8.453125000000 3.187995910645 179 179 179
23.437500000000 8.453125000000 3.210998535156 177 177 177
23.437500000000 8.453125000000 3.235000610352 177 177 177
23.437500000000 8.453125000000 3.258995056152 178 178 178
23.437500000000 8.453125000000 3.282997131348 180 180 180
23.437500000000 8.453125000000 3.305999755859 182 182 182
23.453125000000 8.453125000000 3.331001281738 178 178 178
23.437500000000 8.453125000000 3.353996276855 180 180 180
23.437500000000 8.453125000000 3.378997802734 181 181 181
23.437500000000 8.453125000000 3.402000427246 179 179 179
23.437500000000 8.453125000000 3.425994873047 178 178 178
23.437500000000 8.453125000000 3.450996398926 176 176 176
23.453125000000 8.453125000000 3.474998474121 179 179 179
23.437500000000 8.453125000000 3.499000549316 180 180 180
23.437500000000 8.453125000000 3.522994995117 180 180 180
23.453125000000 8.453125000000 3.546997070313 180 180 180
23.453125000000 8.453125000000 3.571998596191 182 182 182
23.453125000000 8.453125000000 3.596000671387 181 181 181
23.453125000000 8.453125000000 3.620994567871 182 182 182
23.453125000000 8.453125000000 3.644996643066 181 181 181
23.453125000000 8.453125000000 3.668998718262 179 179 179
23.453125000000 8.453125000000 3.693000793457 179 179 179
23.453125000000 8.453125000000 3.716995239258 179 179 179
23.453125000000 8.453125000000 3.741996765137 176 176 176
23.453125000000 8.453125000000 3.766998291016 177 177 177
23.453125000000 8.453125000000 3.791999816895 176 176 176
23.453125000000 8.453125000000 3.817001342773 177 177 177
23.453125000000 8.453125000000 3.840995788574 177 177 177
23.468750000000 8.484375000000 3.867996215820 177 177 177
23.453125000000 8.453125000000 3.890998840332 175 175 175
23.453125000000 8.453125000000 3.916999816895 175 175 175
23.468750000000 8.484375000000 3.944000244141 175 175 175
23.453125000000 8.453125000000 3.965995788574 177 177 177
23.468750000000 8.484375000000 3.993995666504 173 173 173
23.468750000000 8.484375000000 4.017997741699 176 176 176
23.468750000000 8.484375000000 4.043998718262 176 176 176
23.468750000000 8.484375000000 4.069999694824 179 179 179
23.468750000000 8.484375000000 4.095001220703 178 178 178
23.468750000000 8.484375000000 4.119995117188 176 176 176
23.468750000000 8.484375000000 4.147994995117 182 182 182
23.468750000000 8.484375000000 4.172996520996 178 178 178
23.468750000000 8.484375000000 4.198997497559 178 178 178
23.468750000000 8.484375000000 4.224998474121 179 179 179
23.468750000000 8.484375000000 4.250999450684 181 181 181
23.484375000000 8.484375000000 4.277999877930 177 177 177
23.468750000000 8.484375000000 4.303001403809 176 176 176
23.484375000000 8.484375000000 4.331001281738 180 180 180
23.484375000000 8.484375000000 4.356994628906 178 178 178
23.484375000000 8.484375000000 4.383995056152 176 176 176
23.484375000000 8.484375000000 4.408996582031 178 178 178
23.484375000000 8.484375000000 4.438995361328 177 177 177
23.484375000000 8.484375000000 4.465995788574 178 178 178
23.484375000000 8.484375000000 4.492996215820 179 179 179
23.484375000000 8.484375000000 4.519996643066 177 177 177
23.484375000000 8.484375000000 4.547996520996 178 178 178
23.484375000000 8.484375000000 4.573997497559 179 179 179
23.484375000000 8.484375000000 4.601997375488 178 178 178
23.484375000000 8.484375000000 4.629997253418 178 178 178
23.500000000000 8.500000000000 4.657997131348 178 178 178
23.500000000000 8.500000000000 4.685997009277 181 181 181
23.500000000000 8.500000000000 4.713996887207 178 178 178
23.484375000000 8.484375000000 4.740997314453 178 178 178
23.500000000000 8.500000000000 4.770996093750 181 181 181
23.500000000000 8.500000000000 4.800994873047 179 179 179
23.500000000000 8.500000000000 4.830001831055 184 184 184
23.500000000000 8.500000000000 4.861000061035 181 181 181
23.500000000000 8.500000000000 4.888000488281 182 182 182
23.500000000000 8.500000000000 4.916999816895 181 181 181
23.500000000000 8.500000000000 4.946998596191 180 180 180
23.500000000000 8.500000000000 4.976997375488 180 180 180
23.500000000000 8.500000000000 5.004997253418 176 176 176
23.515625000000 8.515625000000 5.039001464844 175 175 175
23.500000000000 8.500000000000 5.064994812012 176 176 176
23.515625000000 8.515625000000 5.097000122070 176 176 176
23.515625000000 8.515625000000 5.127998352051 177 177 177
23.500000000000 8.500000000000 5.155998229980 174 174 174
23.312500000000 8.656250000000 0.942001342773 204 204 204
23.281250000000 8.640625000000 0.998001098633 207 207 207
23.281250000000 8.640625000000 1.020996093750 212 212 212
23.203125000000 8.593750000000 1.091995239258 208 208 208
23.265625000000 8.625000000000 1.089996337891 164 164 164
23.203125000000 8.593750000000 1.174995422363 106 106 106
23.234375000000 8.328125000000 1.109001159668 208 208 208
23.234375000000 8.328125000000 1.054000854492 204 204 204
23.234375000000 8.328125000000 1.027000427246 208 208 208
23.234375000000 8.328125000000 0.994995117188 212 212 212
23.234375000000 8.343750000000 0.976997375488 213 213 213
23.187500000000 8.375000000000 0.978996276855 211 211 211
23.156250000000 8.390625000000 0.966995239258 212 212 212
23.531250000000 8.468750000000 5.144996643066 170 170 170
23.531250000000 8.484375000000 5.109001159668 168 168 168
23.531250000000 8.468750000000 5.083000183105 177 177 177
23.531250000000 8.484375000000 5.050994873047 180 180 180
23.531250000000 8.484375000000 5.019996643066 179 179 179
23.531250000000 8.484375000000 4.988998413086 178 178 178
23.531250000000 8.484375000000 4.959999084473 182 182 182
23.531250000000 8.484375000000 4.931999206543 182 182 182
23.531250000000 8.484375000000 4.900001525879 184 184 184
23.531250000000 8.484375000000 4.870994567871 184 184 184
23.531250000000 8.484375000000 4.842994689941 187 187 187
23.531250000000 8.484375000000 4.812995910645 185 185 185
23.531250000000 8.484375000000 4.784996032715 185 185 185
23.531250000000 8.484375000000 4.753997802734 184 184 184
23.531250000000 8.484375000000 4.725997924805 184 184 184
23.515625000000 8.484375000000 4.694999694824 184 184 184
23.531250000000 8.484375000000 4.670997619629 186 186 186
23.531250000000 8.484375000000 4.641998291016 187 187 187
23.531250000000 8.484375000000 4.612998962402 183 183 183
23.531250000000 8.484375000000 4.584999084473 185 185 185
23.515625000000 8.484375000000 4.555999755859 185 185 185
23.515625000000 8.484375000000 4.527999877930 182 182 182
23.515625000000 8.484375000000 4.500999450684 183 183 183
23.531250000000 8.484375000000 4.474998474121 184 184 184
23.515625000000 8.484375000000 4.446998596191 181 181 181
23.515625000000 8.484375000000 4.418998718262 182 182 182
23.500000000000 8.484375000000 4.389999389648 181 181 181
23.500000000000 8.484375000000 4.364997863770 182 182 182
23.500000000000 8.484375000000 4.335998535156 182 182 182
23.500000000000 8.484375000000 4.309997558594 184 184 184
23.500000000000 8.484375000000 4.283996582031 189 189 189
23.500000000000 8.484375000000 4.256996154785 185 185 185
23.500000000000 8.500000000000 4.227996826172 183 183 183
23.500000000000 8.500000000000 4.200996398926 185 185 185
23.500000000000 8.484375000000 4.178001403809 185 185 185
23.500000000000 8.500000000000 4.149002075195 188 188 188
23.500000000000 8.500000000000 4.124000549316 185 185 185
23.500000000000 8.500000000000 4.098999023438 188 188 188
23.500000000000 8.500000000000 4.071998596191 185 185 185
23.500000000000 8.500000000000 4.045997619629 184 184 184
23.500000000000 8.500000000000 4.019996643066 183 183 183
23.500000000000 8.500000000000 3.993995666504 182 182 182
23.500000000000 8.500000000000 3.967994689941 183 183 183
23.500000000000 8.500000000000 3.943000793457 181 181 181
23.500000000000 8.500000000000 3.916999816895 180 180 180
23.500000000000 8.500000000000 3.892997741699 182 182 182
23.468750000000 8.500000000000 3.864997863770 182 182 182
23.468750000000 8.500000000000 3.839996337891 181 181 181
23.500000000000 8.500000000000 3.816001892090 184 184 184
23.468750000000 8.500000000000 3.789001464844 184 184 184
23.468750000000 8.515625000000 3.763999938965 182 182 182
23.468750000000 8.500000000000 3.739997863770 185 185 185
23.484375000000 8.515625000000 3.715995788574 184 184 184
23.484375000000 8.515625000000 3.691001892090 183 183 183
23.468750000000 8.515625000000 3.665000915527 185 185 185
23.484375000000 8.515625000000 3.641998291016 186 186 186
23.468750000000 8.515625000000 3.615997314453 184 184 184
23.468750000000 8.500000000000 3.590995788574 184 184 184
23.468750000000 8.515625000000 3.566001892090 184 184 184
23.468750000000 8.500000000000 3.542999267578 185 185 185
23.468750000000 8.515625000000 3.516998291016 184 184 184
23.468750000000 8.515625000000 3.492996215820 184 184 184
23.468750000000 8.515625000000 3.467994689941 187 187 187
23.468750000000 8.515625000000 3.444000244141 184 184 184
23.468750000000 8.515625000000 3.419998168945 189 189 189
23.468750000000 8.515625000000 3.394996643066 184 184 184
23.468750000000 8.515625000000 3.370994567871 187 187 187
23.468750000000 8.515625000000 3.347000122070 185 185 185
23.468750000000 8.515625000000 3.321998596191 184 184 184
23.468750000000 8.515625000000 3.297996520996 186 186 186
23.468750000000 8.515625000000 3.274002075195 186 186 186
23.468750000000 8.515625000000 3.250000000000 186 186 186
23.468750000000 8.515625000000 3.224998474121 187 187 187
23.468750000000 8.515625000000 3.200996398926 185 185 185
23.468750000000 8.515625000000 3.177001953125 190 190 190
23.437500000000 8.515625000000 3.152999877930 185 185 185
23.437500000000 8.515625000000 3.128997802734 188 188 188
23.468750000000 8.515625000000 3.104995727539 186 186 186
23.468750000000 8.515625000000 3.081001281738 187 187 187
23.468750000000 8.515625000000 3.056999206543 184 184 184
23.437500000000 8.531250000000 3.032997131348 185 185 185
23.437500000000 8.515625000000 3.008995056152 184 184 184
23.437500000000 8.515625000000 2.985000610352 185 185 185
23.468750000000 8.515625000000 2.959999084473 183 183 183
23.468750000000 8.515625000000 2.935997009277 187 187 187
23.437500000000 8.515625000000 2.911994934082 185 185 185
23.437500000000 8.531250000000 2.888999938965 182 182 182
23.437500000000 8.515625000000 2.864997863770 182 182 182
23.437500000000 8.515625000000 2.839996337891 185 185 185
23.437500000000 8.515625000000 2.816001892090 185 185 185
23.437500000000 8.515625000000 2.791999816895 184 184 184
23.437500000000 8.515625000000 2.767997741699 185 185 185
23.437500000000 8.515625000000 2.743995666504 182 182 182
23.437500000000 8.531250000000 2.720001220703 182 182 182
23.437500000000 8.531250000000 2.696998596191 185 185 185
23.437500000000 8.531250000000 2.672996520996 183 183 183
23.437500000000 8.531250000000 2.647994995117 184 184 184
23.437500000000 8.531250000000 2.624000549316 185 185 185
23.437500000000 8.531250000000 2.598999023438 184 184 184
23.437500000000 8.531250000000 2.574996948242 184 184 184
23.437500000000 8.531250000000 2.552001953125 182 182 182
23.437500000000 8.531250000000 2.527000427246 182 182 182
23.437500000000 8.531250000000 2.502998352051 184 184 184
23.437500000000 8.531250000000 2.477996826172 184 184 184
23.437500000000 8.531250000000 2.453994750977 184 184 184
23.437500000000 8.531250000000 2.430000305176 185 185 185
23.437500000000 8.531250000000 2.404998779297 183 183 183
23.437500000000 8.531250000000 2.381996154785 185 185 185
23.437500000000 8.531250000000 2.356994628906 184 184 184
23.437500000000 8.546875000000 2.333000183105 184 184 184
23.437500000000 8.546875000000 2.307998657227 178 178 178
23.437500000000 8.531250000000 2.282997131348 164 164 164
23.437500000000 8.546875000000 2.258995056152 165 165 165
23.437500000000 8.546875000000 2.234001159668 171 171 171
23.406250000000 8.531250000000 2.210998535156 167 167 167
23.406250000000 8.531250000000 2.186996459961 165 165 165
23.437500000000 8.546875000000 2.159996032715 163 163 163
23.406250000000 8.515625000000 2.135002136230 167 167 167
23.406250000000 8.515625000000 2.110000610352 164 164 164
23.406250000000 8.515625000000 2.084999084473 171 171 171
23.406250000000 8.531250000000 2.061996459961 181 181 181
23.406250000000 8.531250000000 2.034996032715 174 174 174
23.406250000000 8.531250000000 2.011001586914 176 176 176
23.406250000000 8.531250000000 1.986000061035 173 173 173
23.406250000000 8.531250000000 1.959999084473 171 171 171
23.406250000000 8.546875000000 1.935997009277 177 177 177
23.406250000000 8.531250000000 1.909996032715 179 179 179
23.406250000000 8.531250000000 1.882995605469 181 181 181
23.406250000000 8.546875000000 1.858001708984 175 175 175
23.406250000000 8.546875000000 1.833000183105 170 170 170
23.406250000000 8.546875000000 1.807998657227 176 176 176
23.406250000000 8.546875000000 1.783996582031 178 178 178
23.406250000000 8.546875000000 1.754997253418 181 181 181
23.406250000000 8.546875000000 1.730995178223 181 181 181
23.406250000000 8.546875000000 1.705001831055 184 184 184
23.406250000000 8.546875000000 1.680000305176 181 181 181
23.406250000000 8.546875000000 1.652999877930 182 182 182
23.406250000000 8.546875000000 1.626998901367 183 183 183
23.375000000000 8.546875000000 1.601997375488 172 172 172
23.406250000000 8.546875000000 1.574996948242 180 180 180
23.375000000000 8.546875000000 1.548995971680 178 178 178
23.375000000000 8.546875000000 1.520996093750 180 180 180
23.375000000000 8.546875000000 1.495994567871 181 181 181
23.375000000000 8.546875000000 1.467994689941 178 178 178
23.375000000000 8.546875000000 1.443000793457 176 176 176
23.375000000000 8.546875000000 1.415000915527 174 174 174
23.375000000000 8.546875000000 1.387001037598 155 155 155
23.375000000000 8.546875000000 1.360000610352 161 161 161
23.375000000000 8.546875000000 1.333000183105 162 162 162
23.375000000000 8.546875000000 1.300994873047 163 163 163
23.375000000000 8.546875000000 1.277999877930 165 165 165
23.375000000000 8.546875000000 1.247001647949 157 157 157
23.375000000000 8.546875000000 1.221000671387 162 162 162
23.375000000000 8.562500000000 1.198997497559 163 163 163
23.328125000000 8.578125000000 1.191001892090 177 177 177
23.343750000000 8.578125000000 1.158996582031 184 184 184
23.343750000000 8.578125000000 1.120994567871 193 193 193
23.343750000000 8.578125000000 1.096000671387 193 193 193
23.343750000000 8.578125000000 1.072998046875 185 185 185
23.312500000000 8.609375000000 1.059997558594 190 190 190
23.328125000000 8.593750000000 1.028999328613 201 201 201
23.312500000000 8.609375000000 1.002998352051 207 207 207
23.328125000000 8.578125000000 0.961997985840 211 211 211
23.781250000000 8.640625000000 4.142997741699 147 147 147
23.781250000000 8.640625000000 4.113998413086 171 171 171
23.781250000000 8.640625000000 4.085998535156 172 172 172
23.781250000000 8.640625000000 4.057998657227 180 180 180
23.781250000000 8.640625000000 4.031997680664 150 150 150
23.828125000000 8.609375000000 1.736000061035 122 122 122
23.843750000000 8.578125000000 1.068000793457 216 216 216
23.781250000000 8.625000000000 1.064994812012 213 213 213
23.843750000000 8.593750000000 1.008995056152 215 215 215
23.843750000000 8.593750000000 0.976997375488 212 212 212
23.812500000000 8.609375000000 0.960998535156 216 216 216
23.718750000000 8.671875000000 0.972000122070 212 212 212
23.687500000000 8.671875000000 0.949996948242 209 209 209
23.687500000000 8.687500000000 0.930000305176 210 210 210
23.171875000000 8.421875000000 0.957000732422 196 196 196
23.218750000000 8.421875000000 0.951995849609 197 197 197
23.218750000000 8.421875000000 0.975997924805 200 200 200
23.250000000000 8.421875000000 0.994995117188 189 189 189
23.250000000000 8.421875000000 1.018997192383 192 192 192
23.250000000000 8.421875000000 1.044998168945 189 189 189
23.234375000000 8.421875000000 1.073997497559 191 191 191
23.250000000000 8.421875000000 1.090995788574 189 189 189
23.312500000000 8.421875000000 1.085998535156 195 195 195
23.296875000000 8.421875000000 1.115997314453 196 196 196
23.281250000000 8.421875000000 1.147994995117 196 196 196
23.296875000000 8.421875000000 1.168998718262 195 195 195
23.312500000000 8.421875000000 1.184997558594 194 194 194
23.343750000000 8.421875000000 1.189994812012 190 190 190
23.343750000000 8.421875000000 1.217994689941 192 192 192
23.390625000000 8.421875000000 1.221000671387 195 195 195
23.468750000000 8.421875000000 1.208000183105 198 198 198
23.468750000000 8.421875000000 1.235000610352 203 203 203
23.468750000000 8.421875000000 1.257995605469 200 200 200
23.437500000000 8.421875000000 1.293998718262 183 183 183
23.453125000000 8.421875000000 1.313995361328 185 185 185
23.500000000000 8.437500000000 1.320999145508 198 198 198
23.437500000000 8.421875000000 1.367996215820 198 198 198
23.437500000000 8.421875000000 1.390998840332 192 192 192
23.437500000000 8.421875000000 1.416999816895 189 189 189
23.453125000000 8.421875000000 1.430999755859 202 202 202
23.453125000000 8.421875000000 1.458999633789 203 203 203
23.437500000000 8.421875000000 1.488998413086 190 190 190
23.406250000000 8.421875000000 1.522994995117 168 168 168
23.406250000000 8.437500000000 1.552001953125 158 158 158
23.421875000000 8.421875000000 1.562995910645 184 184 184
23.421875000000 8.421875000000 1.587997436523 178 178 178
23.406250000000 8.437500000000 1.616996765137 165 165 165
23.406250000000 8.421875000000 1.638000488281 168 168 168
23.406250000000 8.437500000000 1.663002014160 164 164 164
23.375000000000 8.421875000000 1.691001892090 155 155 155
23.406250000000 8.437500000000 1.709999084473 149 149 149
23.406250000000 8.437500000000 1.733001708984 160 160 160
23.406250000000 8.437500000000 1.752998352051 155 155 155
23.406250000000 8.437500000000 1.777999877930 164 164 164
23.406250000000 8.437500000000 1.798995971680 163 163 163
23.406250000000 8.437500000000 1.820999145508 165 165 165
23.406250000000 8.437500000000 1.842994689941 162 162 162
23.406250000000 8.437500000000 1.865997314453 163 163 163
23.406250000000 8.437500000000 1.886001586914 162 162 162
23.406250000000 8.437500000000 1.909996032715 165 165 165
23.406250000000 8.437500000000 1.930999755859 168 168 168
23.421875000000 8.453125000000 1.948997497559 173 173 173
23.421875000000 8.453125000000 1.970001220703 179 179 179
23.421875000000 8.453125000000 1.991996765137 181 181 181
23.421875000000 8.453125000000 2.013999938965 158 158 158
23.421875000000 8.453125000000 2.035995483398 176 176 176
23.406250000000 8.437500000000 2.058998107910 173 173 173
23.406250000000 8.437500000000 2.080001831055 172 172 172
23.421875000000 8.453125000000 2.100997924805 174 174 174
23.421875000000 8.453125000000 2.122001647949 173 173 173
23.406250000000 8.437500000000 2.143997192383 173 173 173
23.406250000000 8.437500000000 2.165000915527 172 172 172
23.421875000000 8.453125000000 2.185997009277 173 173 173
23.421875000000 8.453125000000 2.206001281738 176 176 176
23.421875000000 8.453125000000 2.225997924805 175 175 175
23.421875000000 8.453125000000 2.248001098633 178 178 178
23.421875000000 8.453125000000 2.269996643066 178 178 178
23.421875000000 8.453125000000 2.291000366211 178 178 178
23.406250000000 8.437500000000 2.312995910645 180 180 180
23.421875000000 8.453125000000 2.332000732422 178 178 178
23.421875000000 8.453125000000 2.353996276855 178 178 178
23.421875000000 8.453125000000 2.374000549316 178 178 178
23.421875000000 8.453125000000 2.393997192383 176 176 176
23.421875000000 8.453125000000 2.415000915527 180 180 180
23.421875000000 8.453125000000 2.436996459961 178 178 178
23.421875000000 8.453125000000 2.457000732422 178 178 178
23.421875000000 8.453125000000 2.477996826172 184 184 184
23.421875000000 8.453125000000 2.498001098633 184 184 184
23.421875000000 8.453125000000 2.518997192383 182 182 182
23.421875000000 8.453125000000 2.540000915527 185 185 185
23.421875000000 8.453125000000 2.559997558594 185 185 185
23.421875000000 8.453125000000 2.581001281738 184 184 184
23.406250000000 8.453125000000 2.601997375488 183 183 183
23.421875000000 8.453125000000 2.622001647949 180 180 180
23.421875000000 8.453125000000 2.642997741699 181 181 181
23.421875000000 8.453125000000 2.663002014160 180 180 180
23.421875000000 8.453125000000 2.683998107910 183 183 183
23.421875000000 8.453125000000 2.705001831055 183 183 183
23.421875000000 8.453125000000 2.724998474121 185 185 185
23.421875000000 8.453125000000 2.745994567871 184 184 184
23.421875000000 8.453125000000 2.766998291016 184 184 184
23.421875000000 8.453125000000 2.786994934082 184 184 184
23.421875000000 8.453125000000 2.807998657227 182 182 182
23.421875000000 8.453125000000 2.828994750977 181 181 181
23.421875000000 8.453125000000 2.848999023438 182 182 182
23.421875000000 8.453125000000 2.869995117188 180 180 180
23.421875000000 8.453125000000 2.890998840332 183 183 183
23.437500000000 8.453125000000 2.911994934082 182 182 182
23.437500000000 8.453125000000 2.931999206543 184 184 184
23.437500000000 8.453125000000 2.952995300293 183 183 183
23.437500000000 8.453125000000 2.973999023438 186 186 186
23.437500000000 8.453125000000 2.993995666504 186 186 186
23.421875000000 8.453125000000 3.014999389648 182 182 182
23.437500000000 8.453125000000 3.035995483398 182 182 182
23.437500000000 8.453125000000 3.056999206543 183 183 183
23.437500000000 8.453125000000 3.077995300293 181 181 181
23.437500000000 8.453125000000 3.097999572754 180 180 180
23.421875000000 8.453125000000 3.118995666504 180 180 180
23.437500000000 8.453125000000 3.139999389648 183 183 183
23.437500000000 8.453125000000 3.160995483398 184 184 184
23.437500000000 8.453125000000 3.181999206543 183 183 183
23.437500000000 8.453125000000 3.202995300293 180 180 180
23.437500000000 8.453125000000 3.224998474121 187 187 187
23.437500000000 8.453125000000 3.244995117188 183 183 183
23.437500000000 8.453125000000 3.266998291016 184 184 184
23.437500000000 8.453125000000 3.288002014160 183 183 183
23.437500000000 8.453125000000 3.308998107910 181 181 181
23.437500000000 8.453125000000 3.331001281738 179 179 179
23.453125000000 8.453125000000 3.352996826172 178 178 178
23.437500000000 8.453125000000 3.373001098633 181 181 181
23.453125000000 8.453125000000 3.395996093750 183 183 183
23.453125000000 8.453125000000 3.416999816895 184 184 184
23.453125000000 8.453125000000 3.437995910645 181 181 181
23.453125000000 8.453125000000 3.460998535156 183 183 183
23.453125000000 8.468750000000 3.479995727539 183 183 183
23.453125000000 8.453125000000 3.502998352051 181 181 181
23.453125000000 8.453125000000 3.525001525879 183 183 183
23.453125000000 8.453125000000 3.546997070313 180 180 180
23.453125000000 8.453125000000 3.568000793457 183 183 183
23.453125000000 8.453125000000 3.590995788574 181 181 181
23.453125000000 8.453125000000 3.611000061035 182 182 182
23.453125000000 8.468750000000 3.631996154785 181 181 181
23.453125000000 8.453125000000 3.656997680664 180 180 180
23.453125000000 8.453125000000 3.679000854492 180 180 180
23.453125000000 8.453125000000 3.701995849609 180 180 180
23.453125000000 8.453125000000 3.723999023438 181 181 181
23.468750000000 8.484375000000 3.747001647949 178 178 178
23.468750000000 8.484375000000 3.769996643066 179 179 179
23.453125000000 8.453125000000 3.791000366211 178 178 178
23.468750000000 8.484375000000 3.814994812012 178 178 178
23.468750000000 8.468750000000 3.838996887207 178 178 178
23.468750000000 8.484375000000 3.859001159668 179 179 179
23.468750000000 8.468750000000 3.883995056152 179 179 179
23.468750000000 8.468750000000 3.906997680664 177 177 177
23.468750000000 8.484375000000 3.928001403809 181 181 181
23.468750000000 8.468750000000 3.952995300293 179 179 179
23.468750000000 8.484375000000 3.973999023438 181 181 181
23.468750000000 8.484375000000 3.998001098633 181 181 181
23.468750000000 8.484375000000 4.021995544434 180 180 180
23.484375000000 8.484375000000 4.047996520996 178 178 178
23.468750000000 8.468750000000 4.070999145508 179 179 179
23.468750000000 8.484375000000 4.090995788574 182 182 182
23.468750000000 8.484375000000 4.115997314453 181 181 181
23.468750000000 8.484375000000 4.139999389648 183 183 183
23.468750000000 8.484375000000 4.165000915527 181 181 181
23.468750000000 8.484375000000 4.187995910645 183 183 183
23.484375000000 8.484375000000 4.215995788574 182 182 182
23.484375000000 8.484375000000 4.238998413086 183 183 183
23.484375000000 8.484375000000 4.263999938965 181 181 181
23.484375000000 8.484375000000 4.290000915527 179 179 179
23.484375000000 8.484375000000 4.313995361328 178 178 178
23.484375000000 8.484375000000 4.339996337891 179 179 179
23.484375000000 8.484375000000 4.363998413086 178 178 178
23.484375000000 8.484375000000 4.389999389648 176 176 176
23.484375000000 8.484375000000 4.413002014160 174 174 174
23.484375000000 8.484375000000 4.437995910645 177 177 177
23.484375000000 8.484375000000 4.464996337891 180 180 180
23.500000000000 8.484375000000 4.493995666504 180 180 180
23.484375000000 8.484375000000 4.517997741699 178 178 178
23.484375000000 8.484375000000 4.543998718262 181 181 181
23.500000000000 8.484375000000 4.574996948242 179 179 179
23.484375000000 8.484375000000 4.596000671387 181 181 181
23.484375000000 8.484375000000 4.623001098633 178 178 178
23.500000000000 8.484375000000 4.651000976563 180 180 180
23.500000000000 8.484375000000 4.678001403809 177 177 177
23.500000000000 8.484375000000 4.705001831055 176 176 176
23.500000000000 8.484375000000 4.736999511719 177 177 177
23.500000000000 8.484375000000 4.764999389648 182 182 182
23.500000000000 8.484375000000 4.791999816895 182 182 182
23.500000000000 8.484375000000 4.817001342773 179 179 179
23.500000000000 8.484375000000 4.847000122070 180 180 180
23.500000000000 8.484375000000 4.873001098633 184 184 184
23.500000000000 8.484375000000 4.902999877930 179 179 179
23.500000000000 8.484375000000 4.929000854492 170 170 170
23.500000000000 8.484375000000 4.958999633789 176 176 176
23.500000000000 8.484375000000 4.988998413086 177 177 177
23.531250000000 8.484375000000 5.019996643066 180 180 180
23.515625000000 8.484375000000 5.047996520996 179 179 179
23.531250000000 8.484375000000 5.082000732422 180 180 180
23.531250000000 8.484375000000 5.109001159668 180 180 180
23.531250000000 8.484375000000 5.140998840332 180 180 180
23.640625000000 8.546875000000 5.153999328613 142 142 142
23.656250000000 8.546875000000 5.099998474121 147 147 147
23.671875000000 8.531250000000 5.045997619629 153 153 153
23.671875000000 8.531250000000 4.989997863770 153 153 153
23.671875000000 8.531250000000 4.932998657227 157 157 157
23.671875000000 8.515625000000 4.877998352051 156 156 156
23.687500000000 8.515625000000 4.822998046875 156 156 156
23.703125000000 8.500000000000 4.770996093750 160 160 160
23.703125000000 8.500000000000 4.715995788574 162 162 162
23.734375000000 8.484375000000 4.661994934082 160 160 160
23.734375000000 8.484375000000 4.606994628906 162 162 162
23.734375000000 8.484375000000 4.550994873047 154 154 154
23.734375000000 8.484375000000 4.494995117188 131 131 131
23.750000000000 8.468750000000 4.439994812012 158 158 158
23.765625000000 8.468750000000 4.385002136230 154 154 154
23.765625000000 8.468750000000 4.330001831055 134 134 134
23.750000000000 8.468750000000 4.271995544434 140 140 140
23.750000000000 8.468750000000 4.215995788574 146 146 146
23.578125000000 8.609375000000 4.135002136230 137 137 137
23.546875000000 8.609375000000 4.076995849609 160 160 160
23.562500000000 8.609375000000 4.022994995117 135 135 135
23.750000000000 8.468750000000 3.992996215820 136 136 136
23.765625000000 8.468750000000 3.937995910645 146 146 146
23.765625000000 8.468750000000 3.882995605469 154 154 154
23.765625000000 8.468750000000 3.827995300293 158 158 158
23.765625000000 8.468750000000 3.771995544434 159 159 159
23.765625000000 8.468750000000 3.715995788574 160 160 160
23.750000000000 8.453125000000 3.660995483398 166 166 166
23.765625000000 8.468750000000 3.605995178223 162 162 162
23.765625000000 8.468750000000 3.549995422363 164 164 164
23.750000000000 8.468750000000 3.494995117188 161 161 161
23.781250000000 8.453125000000 3.439994812012 165 165 165
23.765625000000 8.468750000000 3.385002136230 164 164 164
23.750000000000 8.453125000000 3.330001831055 139 139 139
23.750000000000 8.453125000000 3.274002075195 137 137 137
23.750000000000 8.453125000000 3.219001770020 138 138 138
23.750000000000 8.453125000000 3.164001464844 132 132 132
23.750000000000 8.453125000000 3.109001159668 151 151 151
23.781250000000 8.453125000000 3.054000854492 158 158 158
23.750000000000 8.453125000000 2.999000549316 145 145 145
23.593750000000 8.578125000000 2.945999145508 122 122 122
23.562500000000 8.578125000000 2.891998291016 136 136 136
23.578125000000 8.578125000000 2.837997436523 126 126 126
23.750000000000 8.453125000000 2.777999877930 135 135 135
23.750000000000 8.453125000000 2.722999572754 147 147 147
23.750000000000 8.453125000000 2.667999267578 148 148 148
23.750000000000 8.453125000000 2.611999511719 144 144 144
23.750000000000 8.453125000000 2.556999206543 145 145 145
23.750000000000 8.453125000000 2.501998901367 144 144 144
23.750000000000 8.453125000000 2.446998596191 147 147 147
23.750000000000 8.453125000000 2.390998840332 144 144 144
23.750000000000 8.453125000000 2.335998535156 141 141 141
23.750000000000 8.453125000000 2.279998779297 149 149 149
23.578125000000 8.578125000000 2.243995666504 188 188 188
23.578125000000 8.578125000000 2.189994812012 181 181 181
23.578125000000 8.578125000000 2.135002136230 186 186 186
23.578125000000 8.578125000000 2.081001281738 172 172 172
23.640625000000 8.531250000000 2.016998291016 135 135 135
23.750000000000 8.453125000000 1.946998596191 121 121 121
23.750000000000 8.453125000000 1.889999389648 120 120 120
23.750000000000 8.453125000000 1.834999084473 128 128 128
23.687500000000 8.500000000000 1.789001464844 133 133 133
23.578125000000 8.562500000000 1.750000000000 124 124 124
23.578125000000 8.578125000000 1.695999145508 120 120 120
23.640625000000 8.531250000000 1.630996704102 137 137 137
23.687500000000 8.500000000000 1.566001892090 172 172 172
23.718750000000 8.484375000000 1.501998901367 134 134 134
23.750000000000 8.453125000000 1.441001892090 127 127 127
23.734375000000 8.453125000000 1.385002136230 113 113 113
23.734375000000 8.453125000000 1.327995300293 112 112 112
23.734375000000 8.453125000000 1.270996093750 121 121 121
23.718750000000 8.484375000000 1.220001220703 139 139 139
23.687500000000 8.484375000000 1.166000366211 140 140 140
23.640625000000 8.515625000000 1.124000549316 159 159 159
23.640625000000 8.531250000000 1.069999694824 160 160 160
23.546875000000 8.593750000000 1.039001464844 184 184 184
23.484375000000 8.625000000000 0.995994567871 202 202 202
23.437500000000 8.656250000000 0.949996948242 199 199 199
23.468750000000 8.375000000000 4.098999023438 23 23 23
23.453125000000 8.390625000000 4.042999267578 31 31 31
23.390625000000 8.421875000000 2.288002014160 13 13 13
23.406250000000 8.421875000000 2.233001708984 28 28 28
23.421875000000 8.406250000000 2.179000854492 43 43 43
23.390625000000 8.421875000000 2.127998352051 65 65 65
23.437500000000 8.390625000000 2.069999694824 118 118 118
23.468750000000 8.375000000000 1.958000183105 190 190 190
23.453125000000 8.390625000000 1.905998229980 177 177 177
23.453125000000 8.390625000000 1.852996826172 178 178 178
23.453125000000 8.390625000000 1.797996520996 193 193 193
23.453125000000 8.390625000000 1.743995666504 202 202 202
23.453125000000 8.390625000000 1.689994812012 197 197 197
23.453125000000 8.390625000000 1.635002136230 197 197 197
23.453125000000 8.390625000000 1.582000732422 206 206 206
23.437500000000 8.390625000000 1.527999877930 198 198 198
23.437500000000 8.390625000000 1.473999023438 197 197 197
23.437500000000 8.390625000000 1.419998168945 208 208 208
23.453125000000 8.375000000000 1.361000061035 235 235 235
23.437500000000 8.390625000000 1.309997558594 193 193 193
23.421875000000 8.390625000000 1.257995605469 184 184 184
23.343750000000 8.453125000000 1.222000122070 175 175 175
23.296875000000 8.484375000000 1.179000854492 186 186 186
23.281250000000 8.484375000000 1.126998901367 195 195 195
23.250000000000 8.515625000000 1.080001831055 192 192 192
23.250000000000 8.515625000000 1.029998779297 207 207 207
23.250000000000 8.515625000000 0.974998474121 202 202 202
23.296875000000 8.671875000000 0.983001708984 189 189 189
23.125000000000 8.328125000000 0.955001831055 191 191 191
23.156250000000 8.328125000000 1.000999450684 193 193 193
23.218750000000 8.359375000000 1.040000915527 192 192 192
23.234375000000 8.375000000000 1.089996337891 182 182 182
23.281250000000 8.390625000000 1.135002136230 161 161 161
23.312500000000 8.406250000000 1.183998107910 164 164 164
23.359375000000 8.437500000000 1.226997375488 128 128 128
23.359375000000 8.437500000000 1.281997680664 133 133 133
23.375000000000 8.453125000000 1.335998535156 136 136 136
23.375000000000 8.453125000000 1.389999389648 139 139 139
23.390625000000 8.453125000000 1.444000244141 145 145 145
23.375000000000 8.453125000000 1.500000000000 151 151 151
23.375000000000 8.453125000000 1.555000305176 153 153 153
23.390625000000 8.453125000000 1.608001708984 156 156 156
23.390625000000 8.453125000000 1.664001464844 157 157 157
23.390625000000 8.453125000000 1.717994689941 153 153 153
23.390625000000 8.453125000000 1.771995544434 160 160 160
23.390625000000 8.453125000000 1.826995849609 158 158 158
23.390625000000 8.453125000000 1.880996704102 157 157 157
23.406250000000 8.453125000000 1.933998107910 157 157 157
23.406250000000 8.453125000000 1.988998413086 152 152 152
23.390625000000 8.453125000000 2.043998718262 160 160 160
23.406250000000 8.453125000000 2.096000671387 160 160 160
23.406250000000 8.453125000000 2.150001525879 156 156 156
23.406250000000 8.453125000000 2.205001831055 156 156 156
23.406250000000 8.453125000000 2.258995056152 154 154 154
23.406250000000 8.468750000000 2.311996459961 161 161 161
23.406250000000 8.468750000000 2.365997314453 161 161 161
23.406250000000 8.468750000000 2.419998168945 161 161 161
23.406250000000 8.468750000000 2.473999023438 162 162 162
23.421875000000 8.484375000000 2.527000427246 160 160 160
23.421875000000 8.484375000000 2.581001281738 165 165 165
23.421875000000 8.484375000000 2.635002136230 165 165 165
23.421875000000 8.484375000000 2.688995361328 158 158 158
23.421875000000 8.484375000000 2.742996215820 164 164 164
23.421875000000 8.484375000000 2.796997070313 162 162 162
23.421875000000 8.484375000000 2.849998474121 158 158 158
23.421875000000 8.484375000000 2.903999328613 159 159 159
23.437500000000 8.484375000000 2.958000183105 161 161 161
23.437500000000 8.484375000000 3.012001037598 156 156 156
23.437500000000 8.484375000000 3.066001892090 160 160 160
23.437500000000 8.484375000000 3.119995117188 162 162 162
23.437500000000 8.484375000000 3.173995971680 161 161 161
23.437500000000 8.484375000000 3.227996826172 158 158 158
23.437500000000 8.484375000000 3.281997680664 160 160 160
23.437500000000 8.484375000000 3.335998535156 163 163 163
23.437500000000 8.484375000000 3.389999389648 160 160 160
23.453125000000 8.515625000000 3.444000244141 159 159 159
23.453125000000 8.515625000000 3.498001098633 157 157 157
23.453125000000 8.515625000000 3.553001403809 161 161 161
23.453125000000 8.515625000000 3.606994628906 164 164 164
23.453125000000 8.515625000000 3.660995483398 160 160 160
23.468750000000 8.515625000000 3.715995788574 156 156 156
23.468750000000 8.515625000000 3.770996093750 158 158 158
23.468750000000 8.515625000000 3.824996948242 160 160 160
23.468750000000 8.515625000000 3.879997253418 160 160 160
23.468750000000 8.515625000000 3.934997558594 157 157 157
23.468750000000 8.515625000000 3.988998413086 162 162 162
23.468750000000 8.515625000000 4.043998718262 158 158 158
23.468750000000 8.515625000000 4.098999023438 165 165 165
23.484375000000 8.515625000000 4.154998779297 162 162 162
23.484375000000 8.515625000000 4.209999084473 160 160 160
23.484375000000 8.515625000000 4.264999389648 152 152 152
23.484375000000 8.515625000000 4.320999145508 162 162 162
23.484375000000 8.515625000000 4.376998901367 162 162 162
23.484375000000 8.515625000000 4.431999206543 162 162 162
23.484375000000 8.515625000000 4.487998962402 159 159 159
23.484375000000 8.515625000000 4.542999267578 157 157 157
23.484375000000 8.515625000000 4.598999023438 160 160 160
23.500000000000 8.531250000000 4.655998229980 159 159 159
23.500000000000 8.531250000000 4.713996887207 156 156 156
23.500000000000 8.531250000000 4.767997741699 158 158 158
23.500000000000 8.531250000000 4.825996398926 156 156 156
23.500000000000 8.546875000000 4.883995056152 160 160 160
23.500000000000 8.546875000000 4.941001892090 160 160 160
23.500000000000 8.531250000000 4.994995117188 160 160 160
23.500000000000 8.546875000000 5.054000854492 157 157 157
23.500000000000 8.546875000000 5.111000061035 158 158 158
23.781250000000 8.421875000000 1.097999572754 169 169 169
23.625000000000 8.328125000000 1.191001892090 200 200 200
23.734375000000 8.390625000000 1.228996276855 194 194 194
23.750000000000 8.390625000000 1.279998779297 203 203 203
23.765625000000 8.406250000000 1.335998535156 175 175 175
23.625000000000 8.328125000000 1.418998718262 158 158 158
23.734375000000 8.390625000000 1.458999633789 143 143 143
23.734375000000 8.390625000000 1.513000488281 134 134 134
23.750000000000 8.421875000000 3.993995666504 11 11 11
23.750000000000 8.406250000000 4.049995422363 131 131 131
23.750000000000 8.421875000000 4.106994628906 121 121 121
23.750000000000 8.406250000000 4.163002014160 13 13 13
23.750000000000 8.406250000000 4.220001220703 27 27 27
23.781250000000 8.421875000000 4.337997436523 9 9 9
23.750000000000 8.421875000000 4.393997192383 21 21 21
23.750000000000 8.421875000000 4.449996948242 15 15 15
23.750000000000 8.421875000000 4.507995605469 15 15 15
23.750000000000 8.421875000000 4.564994812012 13 13 13
23.750000000000 8.421875000000 4.623001098633 17 17 17
23.781250000000 8.421875000000 4.682998657227 17 17 17
23.750000000000 8.421875000000 4.739997863770 20 20 20
23.781250000000 8.421875000000 4.800994873047 20 20 20
23.734375000000 8.421875000000 4.852996826172 21 21 21
23.765625000000 8.421875000000 4.917999267578 23 23 23
23.765625000000 8.421875000000 4.973999023438 27 27 27
23.750000000000 8.421875000000 5.028999328613 25 25 25
23.765625000000 8.421875000000 5.090995788574 38 38 38
23.750000000000 8.421875000000 5.149002075195 31 31 31
23.218750000000 8.515625000000 0.955001831055 189 189 189
23.250000000000 8.515625000000 0.994995117188 192 192 192
23.265625000000 8.500000000000 1.039001464844 184 184 184
23.250000000000 8.515625000000 1.092994689941 180 180 180
23.250000000000 8.515625000000 1.135002136230 182 182 182
23.265625000000 8.500000000000 1.180999755859 174 174 174
23.343750000000 8.500000000000 1.214996337891 150 150 150
23.343750000000 8.500000000000 1.262001037598 157 157 157
23.359375000000 8.500000000000 1.304000854492 148 148 148
23.375000000000 8.500000000000 1.349998474121 139 139 139
23.375000000000 8.500000000000 1.396995544434 151 151 151
23.375000000000 8.500000000000 1.444000244141 164 164 164
23.390625000000 8.500000000000 1.488998413086 165 165 165
23.390625000000 8.484375000000 1.536994934082 164 164 164
23.390625000000 8.484375000000 1.583000183105 159 159 159
23.390625000000 8.484375000000 1.629997253418 169 169 169
23.390625000000 8.484375000000 1.677001953125 166 166 166
23.390625000000 8.500000000000 1.722000122070 163 163 163
23.390625000000 8.500000000000 1.768997192383 153 153 153
23.390625000000 8.500000000000 1.816001892090 156 156 156
23.390625000000 8.500000000000 1.861999511719 163 163 163
23.390625000000 8.484375000000 1.906997680664 167 167 167
23.390625000000 8.500000000000 1.955001831055 153 153 153
23.390625000000 8.500000000000 2.000999450684 159 159 159
23.390625000000 8.484375000000 2.046997070313 163 163 163
23.390625000000 8.500000000000 2.094001770020 149 149 149
23.390625000000 8.484375000000 2.138999938965 149 149 149
23.390625000000 8.484375000000 2.185997009277 148 148 148
23.390625000000 8.484375000000 2.231994628906 150 150 150
23.406250000000 8.500000000000 2.277999877930 158 158 158
23.406250000000 8.500000000000 2.323997497559 171 171 171
23.406250000000 8.500000000000 2.369995117188 172 172 172
23.406250000000 8.484375000000 2.416000366211 171 171 171
23.406250000000 8.500000000000 2.461997985840 171 171 171
23.406250000000 8.484375000000 2.507995605469 171 171 171
23.406250000000 8.484375000000 2.554000854492 173 173 173
23.406250000000 8.484375000000 2.599998474121 175 175 175
23.406250000000 8.484375000000 2.645996093750 172 172 172
23.406250000000 8.484375000000 2.692001342773 171 171 171
23.406250000000 8.484375000000 2.737998962402 168 168 168
23.406250000000 8.484375000000 2.783996582031 169 169 169
23.437500000000 8.484375000000 2.830001831055 169 169 169
23.437500000000 8.484375000000 2.875999450684 172 172 172
23.437500000000 8.484375000000 2.921997070313 171 171 171
23.437500000000 8.484375000000 2.969001770020 174 174 174
23.437500000000 8.484375000000 3.014999389648 166 166 166
23.437500000000 8.484375000000 3.060997009277 174 174 174
23.437500000000 8.484375000000 3.106994628906 178 178 178
23.437500000000 8.484375000000 3.152999877930 171 171 171
23.437500000000 8.484375000000 3.199996948242 172 172 172
23.437500000000 8.484375000000 3.245994567871 168 168 168
23.453125000000 8.500000000000 3.291999816895 171 171 171
23.437500000000 8.484375000000 3.338996887207 172 172 172
23.437500000000 8.484375000000 3.385002136230 167 167 167
23.453125000000 8.484375000000 3.431999206543 172 172 172
23.453125000000 8.500000000000 3.477996826172 167 167 167
23.453125000000 8.484375000000 3.526000976563 174 174 174
23.453125000000 8.484375000000 3.571998596191 173 173 173
23.453125000000 8.484375000000 3.618995666504 173 173 173
23.453125000000 8.484375000000 3.666000366211 166 166 166
23.453125000000 8.484375000000 3.712997436523 168 168 168
23.453125000000 8.484375000000 3.760002136230 171 171 171
23.468750000000 8.484375000000 3.807998657227 170 170 170
23.453125000000 8.484375000000 3.853996276855 169 169 169
23.453125000000 8.484375000000 3.901000976563 167 167 167
23.468750000000 8.484375000000 3.949996948242 170 170 170
23.468750000000 8.484375000000 3.997001647949 170 170 170
23.468750000000 8.484375000000 4.044998168945 171 171 171
23.468750000000 8.484375000000 4.091995239258 174 174 174
23.468750000000 8.484375000000 4.138999938965 171 171 171
23.484375000000 8.484375000000 4.188995361328 169 169 169
23.484375000000 8.484375000000 4.236000061035 163 163 163
23.484375000000 8.484375000000 4.284996032715 168 168 168
23.484375000000 8.484375000000 4.333000183105 174 174 174
23.500000000000 8.500000000000 4.380996704102 171 171 171
23.500000000000 8.500000000000 4.430000305176 169 169 169
23.500000000000 8.500000000000 4.477996826172 170 170 170
23.500000000000 8.484375000000 4.527999877930 168 168 168
23.500000000000 8.484375000000 4.577995300293 166 166 166
23.500000000000 8.484375000000 4.625000000000 170 170 170
23.500000000000 8.484375000000 4.675994873047 165 165 165
23.500000000000 8.484375000000 4.723999023438 166 166 166
23.500000000000 8.484375000000 4.774002075195 172 172 172
23.500000000000 8.484375000000 4.821998596191 169 169 169
23.500000000000 8.484375000000 4.873001098633 169 169 169
23.500000000000 8.484375000000 4.922996520996 165 165 165
23.500000000000 8.484375000000 4.971000671387 164 164 164
23.500000000000 8.484375000000 5.024002075195 167 167 167
23.531250000000 8.484375000000 5.076995849609 163 163 163
23.515625000000 8.484375000000 5.126998901367 165 165 165
23.546875000000 8.312500000000 1.361000061035 224 224 224
23.437500000000 8.359375000000 1.380996704102 132 132 132
23.375000000000 8.390625000000 1.375000000000 95 95 95
