16.506036758423 11.315053939819 4.215000152588 220 220 220
16.506036758423 11.315053939819 4.185001373291 220 220 220
16.506036758423 11.315053939819 4.155002593994 174 174 174
15.946113586426 11.898192405701 4.312000274658 185 185 185
15.946113586426 11.898192405701 4.275001525879 218 218 218
15.946113586426 11.898192405701 4.243000030518 221 221 221
15.946113586426 11.898192405701 4.209003448486 222 222 222
16.395122528076 11.669507980347 4.296001434326 227 227 227
16.490264892578 11.642799377441 4.290000915527 216 216 216
16.491016387939 11.627192497253 4.260002136230 219 219 219
16.490264892578 11.642799377441 4.228000640869 222 222 222
16.490264892578 11.642799377441 4.197002410889 222 222 222
16.491016387939 11.627192497253 4.168003082275 215 215 215
15.931095123291 12.210330963135 4.329002380371 107 107 107
15.962308883667 12.211833000183 4.302001953125 200 200 200
15.962308883667 12.211833000183 4.268001556396 204 204 204
15.962308883667 12.211833000183 4.235000610352 202 202 202
15.994272232056 12.197728157043 4.204002380371 206 206 206
16.444032669067 11.953436851501 4.303001403809 219 219 219
16.444032669067 11.953436851501 4.272003173828 219 219 219
16.475246429443 11.954938888550 4.243000030518 220 220 220
16.444032669067 11.953436851501 4.210002899170 221 221 221
16.444032669067 11.953436851501 4.179000854492 219 219 219
15.979253768921 12.509866714478 4.327003479004 173 173 173
15.980005264282 12.494259834290 4.296001434326 214 214 214
15.980005264282 12.494259834290 4.261001586914 222 222 222
15.980005264282 12.494259834290 4.230003356934 223 223 223
16.443870544434 12.281932830811 4.317001342773 219 219 219
16.429014205933 12.265575408936 4.285003662109 220 220 220
16.460227966309 12.267077445984 4.256999969482 219 219 219
16.460227966309 12.267077445984 4.226001739502 215 215 215
16.460227966309 12.267077445984 4.195003509521 220 220 220
16.429014205933 12.265575408936 4.161003112793 124 124 124
15.996950149536 12.792292594910 4.324001312256 193 193 193
15.996950149536 12.792292594910 4.290000915527 222 222 222
15.996950149536 12.792292594910 4.256999969482 221 221 221
16.285385131836 12.649741172791 4.298000335693 224 224 224
16.413993835449 12.577713966370 4.302001953125 219 219 219
16.413993835449 12.577713966370 4.270999908447 219 219 219
16.413993835449 12.577713966370 4.241001129150 218 218 218
16.413993835449 12.577713966370 4.209003448486 220 220 220
16.413993835449 12.577713966370 4.182003021240 186 186 186
15.981931686401 13.104432106018 4.340000152588 33 33 33
16.013896942139 13.090327262878 4.318000793457 195 195 195
16.013896942139 13.090327262878 4.285003662109 222 222 222
16.078577041626 13.046509742737 4.270000457764 222 222 222
16.366260528564 12.919565200806 4.312000274658 221 221 221
16.366260528564 12.919565200806 4.281002044678 220 220 220
16.381868362427 12.920315742493 4.252002716064 219 219 219
16.381868362427 12.920315742493 4.220001220703 219 219 219
16.366260528564 12.919565200806 4.188003540039 207 207 207
16.062807083130 13.374256134033 4.341003417969 142 142 142
16.062807083130 13.374256134033 4.311000823975 204 204 204
16.062807083130 13.374256134033 4.279003143311 218 218 218
16.335634231567 13.230953216553 4.320003509521 213 213 213
16.335634231567 13.230953216553 4.289001464844 218 218 218
16.335634231567 13.230953216553 4.258003234863 220 220 220
16.351240158081 13.231703758240 4.228000640869 217 217 217
16.351240158081 13.231703758240 4.197002410889 219 219 219
16.079002380371 13.687896728516 4.337001800537 178 178 178
16.079751968384 13.672289848328 4.305000305176 220 220 220
16.303504943848 13.573554992676 4.328002929688 215 215 215
16.304256439209 13.557948112488 4.300003051758 221 221 221
16.303504943848 13.573554992676 4.268001556396 221 221 221
16.303504943848 13.573554992676 4.237003326416 221 221 221
16.303504943848 13.573554992676 4.205001831055 218 218 218
16.096698760986 13.970323562622 4.332000732422 193 193 193
16.192592620850 13.928008079529 4.323001861572 214 214 214
16.257272720337 13.884191513062 4.315002441406 221 221 221
16.272880554199 13.884943008423 4.285003662109 222 222 222
16.257272720337 13.884191513062 4.252002716064 222 222 222
16.257272720337 13.884191513062 4.221000671387 221 221 221
16.241666793823 13.883440971375 4.184001922607 106 106 106
16.082429885864 14.266856193542 4.357002258301 20 20 20
16.146358489990 14.238645553589 4.341003417969 182 182 182
16.242254257202 14.196330070496 4.331001281738 212 212 212
16.242254257202 14.196330070496 4.303001403809 222 222 222
16.242254257202 14.196330070496 4.272003173828 222 222 222
16.242254257202 14.196330070496 4.238002777100 222 222 222
16.242254257202 14.196330070496 4.210002899170 188 188 188
16.130588531494 14.566391944885 4.355003356934 160 160 160
16.226482391357 14.524076461792 4.344001770020 202 202 202
16.227233886719 14.508469581604 4.316001892090 220 220 220
16.227233886719 14.508469581604 4.287002563477 221 221 221
16.227233886719 14.508469581604 4.254001617432 221 221 221
16.227233886719 14.508469581604 4.222000122070 212 212 212
16.146783828735 14.880032539368 4.532001495361 67 67 67
16.179498672485 14.850319862366 4.508003234863 156 156 156
16.179498672485 14.850319862366 4.477001190186 167 167 167
16.179498672485 14.850319862366 4.447002410889 164 164 164
16.179498672485 14.850319862366 4.416000366211 169 169 169
16.179498672485 14.850319862366 4.386001586914 164 164 164
16.179498672485 14.850319862366 4.353000640869 182 182 182
16.179498672485 14.850319862366 4.322002410889 203 203 203
16.179498672485 14.850319862366 4.291000366211 210 210 210
16.148284912109 14.848818778992 4.256000518799 220 220 220
16.179498672485 14.850319862366 4.228000640869 203 203 203
16.792119979858 9.920942306519 4.079002380371 106 106 106
16.792119979858 9.920942306519 4.109001159668 154 154 154
16.792871475220 9.905335426331 4.136001586914 155 155 155
16.792119979858 9.920942306519 4.167003631592 157 157 157
16.792119979858 9.920942306519 4.196002960205 157 157 157
16.792871475220 9.905335426331 4.225002288818 157 157 157
16.792119979858 9.920942306519 4.255001068115 155 155 155
16.792871475220 9.905335426331 4.282001495361 155 155 155
16.792871475220 9.905335426331 4.311000823975 143 143 143
16.731945037842 9.871117591858 4.320003509521 69 69 69
16.685712814331 10.181754112244 4.123001098633 129 129 129
16.686464309692 10.166147232056 4.145000457764 156 156 156
16.686464309692 10.166147232056 4.175003051758 160 160 160
16.686464309692 10.166147232056 4.206001281738 168 168 168
16.686464309692 10.166147232056 4.236000061035 155 155 155
16.685712814331 10.181754112244 4.266002655029 162 162 162
16.684961318970 10.197360992432 4.303001403809 64 64 64
16.624622344971 10.476033210754 4.119003295898 94 94 94
16.609767913818 10.459675788879 4.143001556396 168 168 168
16.624622344971 10.476033210754 4.178001403809 171 171 171
16.609767913818 10.459675788879 4.206001281738 172 172 172
16.609767913818 10.459675788879 4.236000061035 174 174 174
16.609016418457 10.475281715393 4.265003204346 172 172 172
16.609016418457 10.475281715393 4.297000885010 141 141 141
15.759809494019 9.918199539185 4.086002349854 140 140 140
15.820735931396 9.952417373657 4.133003234863 158 158 158
15.820735931396 9.952417373657 4.168003082275 158 158 158
15.820735931396 9.952417373657 4.203002929688 149 149 149
15.820735931396 9.952417373657 4.240001678467 153 153 153
15.790271759033 9.935308456421 4.272003173828 142 142 142
15.759809494019 9.918199539185 4.300003051758 142 142 142
16.352546691895 10.603730201721 3.476001739502 123 123 123
16.352546691895 10.603730201721 3.511001586914 122 122 122
16.352546691895 10.603730201721 3.546001434326 121 121 121
16.352546691895 10.603730201721 3.582000732422 124 124 124
16.443183898926 10.670662879944 3.653003692627 147 147 147
16.443183898926 10.670662879944 3.686000823975 159 159 159
16.443183898926 10.670662879944 3.724002838135 141 141 141
16.443183898926 10.670662879944 3.755001068115 170 170 170
16.443183898926 10.670662879944 3.789001464844 177 177 177
16.443183898926 10.670662879944 3.817001342773 176 176 176
16.443183898926 10.670662879944 3.853000640869 168 168 168
16.443183898926 10.670662879944 3.886001586914 176 176 176
16.443183898926 10.670662879944 3.915000915527 166 166 166
16.443183898926 10.670662879944 3.951000213623 174 174 174
16.443183898926 10.670662879944 3.982002258301 180 180 180
16.443183898926 10.670662879944 4.013999938965 143 143 143
16.443183898926 10.670662879944 4.049003601074 130 130 130
16.504110336304 10.704880714417 4.099002838135 162 162 162
16.563535690308 10.770313262939 4.154003143311 164 164 164
16.563535690308 10.770313262939 4.184001922607 165 165 165
16.563535690308 10.770313262939 4.216003417969 168 168 168
16.563535690308 10.770313262939 4.246002197266 166 166 166
16.564285278320 10.754706382751 4.274002075195 166 166 166
16.564285278320 10.754706382751 4.302001953125 158 158 158
16.442432403564 10.686269760132 4.301002502441 178 178 178
16.442432403564 10.686269760132 4.330001831055 173 173 173
16.411970138550 10.669160842896 4.354000091553 153 153 153
16.275262832642 10.584367752075 4.350002288818 122 122 122
16.139307022095 10.483967781067 4.345001220703 119 119 119
15.805715560913 10.264556884766 4.296001434326 79 79 79
16.245388031006 10.880148887634 3.661003112793 182 182 182
16.214925765991 10.863039970398 3.691001892090 179 179 179
16.214925765991 10.863039970398 3.726001739502 173 173 173
16.214925765991 10.863039970398 3.760002136230 172 172 172
16.214925765991 10.863039970398 3.791000366211 173 173 173
16.215675354004 10.847433090210 3.821002960205 172 172 172
16.215675354004 10.847433090210 3.852001190186 170 170 170
16.215675354004 10.847433090210 3.883003234863 169 169 169
16.200067520142 10.846682548523 3.919002532959 171 171 171
16.184461593628 10.845931053162 3.950000762939 169 169 169
16.184461593628 10.845931053162 3.981002807617 169 169 169
16.518802642822 11.049736022949 4.126003265381 158 158 158
16.548515319824 11.082451820374 4.169002532959 160 160 160
16.548515319824 11.082451820374 4.197002410889 161 161 161
16.548515319824 11.082451820374 4.232002258301 158 158 158
16.548515319824 11.082451820374 4.261001586914 161 161 161
16.548515319824 11.082451820374 4.290000915527 160 160 160
16.487588882446 11.048233985901 4.304000854492 161 161 161
16.123537063599 10.811713218689 4.237003326416 172 172 172
16.123537063599 10.811713218689 4.270000457764 169 169 169
16.123537063599 10.811713218689 4.303001403809 170 170 170
16.123537063599 10.811713218689 4.331001281738 171 171 171
16.093824386597 10.778998374939 4.356002807617 149 149 149
16.533496856689 11.394590377808 4.155002593994 182 182 182
16.533496856689 11.394590377808 4.185001373291 223 223 223
16.533496856689 11.394590377808 4.216003417969 223 223 223
16.533496856689 11.394590377808 4.246002197266 222 222 222
16.533496856689 11.394590377808 4.276000976563 219 219 219
16.533496856689 11.394590377808 4.305000305176 200 200 200
15.926488876343 11.005592346191 4.167003631592 153 153 153
15.956953048706 11.022701263428 4.203002929688 165 165 165
15.956953048706 11.022701263428 4.237003326416 152 152 152
15.956953048706 11.022701263428 4.270999908447 154 154 154
15.956953048706 11.022701263428 4.305000305176 145 145 145
16.517726898193 11.722336769104 4.168003082275 216 216 216
16.502870559692 11.705978393555 4.198001861572 224 224 224
16.502870559692 11.705978393555 4.228000640869 224 224 224
16.502870559692 11.705978393555 4.260002136230 223 223 223
16.502870559692 11.705978393555 4.289001464844 219 219 219
15.941183090210 11.350446701050 4.156002044678 164 164 164
15.941183090210 11.350446701050 4.192001342773 219 219 219
15.971645355225 11.367555618286 4.227001190186 209 209 209
15.941183090210 11.350446701050 4.259002685547 217 217 217
15.971645355225 11.367555618286 4.294002532959 205 205 205
16.472242355347 12.017366409302 4.180000305176 223 223 223
16.472242355347 12.017366409302 4.211002349854 225 225 225
16.502706527710 12.034475326538 4.241001129150 223 223 223
16.472242355347 12.017366409302 4.270000457764 224 224 224
16.502706527710 12.034475326538 4.302001953125 225 225 225
15.926164627075 11.662586212158 4.174003601074 211 211 211
15.971483230591 11.696052551270 4.219001770020 219 219 219
15.956626892090 11.679695129395 4.250000000000 224 224 224
15.971483230591 11.696052551270 4.285003662109 213 213 213
15.941020965576 11.678943634033 4.315002441406 173 173 173
16.457223892212 12.329504966736 4.161003112793 106 106 106
16.457223892212 12.329504966736 4.192001342773 228 228 228
16.457223892212 12.329504966736 4.222000122070 209 209 209
16.457223892212 12.329504966736 4.253002166748 224 224 224
16.456472396851 12.345111846924 4.282001495361 217 217 217
16.456472396851 12.345111846924 4.314002990723 221 221 221
16.001783370972 12.041658401489 4.212001800537 223 223 223
16.001783370972 12.041658401489 4.245002746582 221 221 221
15.971319198608 12.024549484253 4.278003692627 219 219 219
15.971319198608 12.024549484253 4.311000823975 195 195 195
16.442203521729 12.641644477844 4.176002502441 187 187 187
16.442203521729 12.641644477844 4.204002380371 225 225 225
16.442203521729 12.641644477844 4.237003326416 221 221 221
16.442203521729 12.641644477844 4.266002655029 225 225 225
16.442203521729 12.641644477844 4.297000885010 223 223 223
16.381278991699 12.607426643372 4.311000823975 239 239 239
16.017225265503 12.370905876160 4.240001678467 219 219 219
15.986011505127 12.369404792786 4.270999908447 220 220 220
16.017225265503 12.370905876160 4.306003570557 195 195 195
15.986763000488 12.353797912598 4.335002899170 21 21 21
16.395971298218 12.952280998230 4.187000274658 213 213 213
16.395971298218 12.952280998230 4.219001770020 224 224 224
16.395971298218 12.952280998230 4.248001098633 226 226 226
16.380365371704 12.951529502869 4.278003692627 227 227 227
16.395971298218 12.952280998230 4.309001922607 227 227 227
16.061632156372 12.748476028442 4.247001647949 220 220 220
16.031919479370 12.715760231018 4.268001556396 221 221 221
16.031919479370 12.715760231018 4.301002502441 212 212 212
16.031919479370 12.715760231018 4.333000183105 148 148 148
16.365346908569 13.263668060303 4.199001312256 223 223 223
16.365346908569 13.263668060303 4.230003356934 222 222 222
16.365346908569 13.263668060303 4.260002136230 223 223 223
16.349739074707 13.262917518616 4.290000915527 221 221 221
16.380201339722 13.280026435852 4.322002410889 219 219 219
16.046611785889 13.060615539551 4.267002105713 221 221 221
16.046611785889 13.060615539551 4.297000885010 221 221 221
16.046611785889 13.060615539551 4.329002380371 183 183 183
16.334718704224 13.575057029724 4.207000732422 224 224 224
16.303504943848 13.573554992676 4.237003326416 228 228 228
16.303504943848 13.573554992676 4.268001556396 228 228 228
16.303504943848 13.573554992676 4.299003601074 228 228 228
16.304256439209 13.557948112488 4.325000762939 220 220 220
16.092519760132 13.406971931458 4.293003082275 216 216 216
16.076911926270 13.406221389771 4.326000213623 191 191 191
16.288486480713 13.885693550110 4.184001922607 65 65 65
16.288486480713 13.885693550110 4.217002868652 226 226 226
16.288486480713 13.885693550110 4.248001098633 228 228 228
16.288486480713 13.885693550110 4.280002593994 228 228 228
16.288486480713 13.885693550110 4.311000823975 226 226 226
16.243167877197 13.852227210999 4.326000213623 218 218 218
16.122066497803 13.768184661865 4.323001861572 196 196 196
16.091604232788 13.751074790955 4.348003387451 32 32 32
16.273468017578 14.197832107544 4.202003479004 177 177 177
16.273468017578 14.197832107544 4.233001708984 226 226 226
16.273468017578 14.197832107544 4.263000488281 225 225 225
16.273468017578 14.197832107544 4.294002532959 226 226 226
16.273468017578 14.197832107544 4.326000213623 219 219 219
16.151615142822 14.129397392273 4.322002410889 204 204 204
16.121152877808 14.112288475037 4.347000122070 128 128 128
16.274055480957 14.510723114014 4.220001220703 217 217 217
16.258447647095 14.509971618652 4.249000549316 224 224 224
16.258447647095 14.509971618652 4.279003143311 227 227 227
16.258447647095 14.509971618652 4.311000823975 226 226 226
16.257696151733 14.525578498840 4.343002319336 211 211 211
16.166309356689 14.474251747131 4.351001739502 172 172 172
16.181753158569 14.803499221802 4.224002838135 217 217 217
16.181753158569 14.803499221802 4.255001068115 223 223 223
16.181753158569 14.803499221802 4.286003112793 224 224 224
16.181753158569 14.803499221802 4.318000793457 221 221 221
16.181753158569 14.803499221802 4.349002838135 203 203 203
16.212215423584 14.820608139038 4.381999969482 117 117 117
16.212215423584 14.820608139038 4.413002014160 125 125 125
16.212215423584 14.820608139038 4.446002960205 132 132 132
16.212215423584 14.820608139038 4.478000640869 125 125 125
16.242677688599 14.837717056274 4.509002685547 27 27 27
16.188348770142 14.991534233093 4.242000579834 203 203 203
16.188348770142 14.991534233093 4.273002624512 226 226 226
16.188348770142 14.991534233093 4.305000305176 226 226 226
16.188348770142 14.991534233093 4.336002349854 224 224 224
16.188348770142 14.991534233093 4.368000030518 216 216 216
16.188348770142 14.991534233093 4.395999908447 134 134 134
16.188348770142 14.991534233093 4.426002502441 135 135 135
16.188348770142 14.991534233093 4.458000183105 119 119 119
16.188348770142 14.991534233093 4.487003326416 99 99 99
16.157886505127 14.974425315857 4.513999938965 90 90 90
16.127422332764 14.957316398621 4.537002563477 76 76 76
16.249437332153 14.697254180908 4.236000061035 193 193 193
16.249437332153 14.697254180908 4.267002105713 226 226 226
16.249437332153 14.697254180908 4.295001983643 226 226 226
16.249437332153 14.697254180908 4.327003479004 228 228 228
16.249437332153 14.697254180908 4.359001159668 213 213 213
16.188510894775 14.663036346436 4.374000549316 169 169 169
16.263704299927 14.400722503662 4.220001220703 128 128 128
16.263704299927 14.400722503662 4.251003265381 226 226 226
16.233242034912 14.383613586426 4.281002044678 225 225 225
16.233242034912 14.383613586426 4.311000823975 227 227 227
16.233242034912 14.383613586426 4.341003417969 223 223 223
16.233242034912 14.383613586426 4.363002777100 190 190 190
16.142604827881 14.316680908203 4.374000549316 133 133 133
16.279474258423 14.072977066040 4.237003326416 224 224 224
16.279474258423 14.072977066040 4.267002105713 227 227 227
16.279474258423 14.072977066040 4.298000335693 226 226 226
16.279474258423 14.072977066040 4.328002929688 221 221 221
16.248260498047 14.071475028992 4.351001739502 215 215 215
16.112304687500 13.971074104309 4.347000122070 203 203 203
16.292991638184 13.792052268982 4.225002288818 220 220 220
16.293743133545 13.776445388794 4.255001068115 225 225 225
16.293743133545 13.776445388794 4.286003112793 223 223 223
16.292991638184 13.792052268982 4.317001342773 222 222 222
16.293743133545 13.776445388794 4.345001220703 222 222 222
16.081254959106 13.641076087952 4.321002960205 222 222 222
16.081254959106 13.641076087952 4.352001190186 184 184 184
16.339225769043 13.481414794922 4.212001800537 209 209 209
16.339225769043 13.481414794922 4.242000579834 222 222 222
16.339225769043 13.481414794922 4.273002624512 225 225 225
16.339225769043 13.481414794922 4.305000305176 219 219 219
16.339225769043 13.481414794922 4.334003448486 226 226 226
16.111879348755 13.329688072205 4.302001953125 222 222 222
16.065811157227 13.311828613281 4.323001861572 216 216 216
16.050954818726 13.295471191406 4.355003356934 177 177 177
16.354244232178 13.169276237488 4.201000213623 171 171 171
16.354244232178 13.169276237488 4.229000091553 224 224 224
16.354244232178 13.169276237488 4.262001037598 227 227 227
16.354244232178 13.169276237488 4.292003631592 223 223 223
16.354244232178 13.169276237488 4.323001861572 224 224 224
16.263607025146 13.102342605591 4.329002380371 223 223 223
16.020654678345 12.949864387512 4.293003082275 223 223 223
16.020654678345 12.949864387512 4.325000762939 209 209 209
16.020654678345 12.949864387512 4.357002258301 136 136 136
16.398975372314 12.889853477478 4.192001342773 120 120 120
16.399726867676 12.874246597290 4.219001770020 229 229 229
16.399726867676 12.874246597290 4.249000549316 228 228 228
16.399726867676 12.874246597290 4.281002044678 227 227 227
16.399726867676 12.874246597290 4.311000823975 229 229 229
16.369262695313 12.857137680054 4.337001800537 230 230 230
16.005210876465 12.620617866516 4.265003204346 220 220 220
16.005210876465 12.620617866516 4.298000335693 222 222 222
15.973997116089 12.619115829468 4.329002380371 196 196 196
16.413993835449 12.577713966370 4.209003448486 225 225 225
16.413993835449 12.577713966370 4.240001678467 222 222 222
16.413993835449 12.577713966370 4.270999908447 224 224 224
16.413993835449 12.577713966370 4.299003601074 224 224 224
16.413993835449 12.577713966370 4.331001281738 222 222 222
16.050693511963 12.325586318970 4.256999969482 135 135 135
16.005374908447 12.292119979858 4.276000976563 127 127 127
15.974910736084 12.275011062622 4.303001403809 185 185 185
15.974910736084 12.275011062622 4.335002899170 191 191 191
16.460227966309 12.267077445984 4.198001861572 221 221 221
16.460227966309 12.267077445984 4.229000091553 220 220 220
16.460227966309 12.267077445984 4.259002685547 224 224 224
16.460227966309 12.267077445984 4.290000915527 222 222 222
16.460227966309 12.267077445984 4.317001342773 227 227 227
15.959466934204 11.945763587952 4.211002349854 208 208 208
15.959466934204 11.945763587952 4.243000030518 224 224 224
15.959466934204 11.945763587952 4.276000976563 223 223 223
15.959466934204 11.945763587952 4.311000823975 201 201 201
15.959466934204 11.945763587952 4.344001770020 131 131 131
16.475246429443 11.954938888550 4.184001922607 193 193 193
16.475246429443 11.954938888550 4.214000701904 228 228 228
16.475246429443 11.954938888550 4.244003295898 227 227 227
16.475246429443 11.954938888550 4.276000976563 223 223 223
16.475246429443 11.954938888550 4.306003570557 226 226 226
16.475246429443 11.954938888550 4.333000183105 219 219 219
15.944023132324 11.616515159607 4.216003417969 222 222 222
15.944023132324 11.616515159607 4.249000549316 224 224 224
15.959630966187 11.617266654968 4.286003112793 222 222 222
15.944023132324 11.616515159607 4.318000793457 199 199 199
16.521480560303 11.644301414490 4.173000335693 129 129 129
16.521480560303 11.644301414490 4.201000213623 226 226 226
16.521480560303 11.644301414490 4.232002258301 226 226 226
16.490264892578 11.642799377441 4.260002136230 225 225 225
16.490264892578 11.642799377441 4.291000366211 225 225 225
16.490264892578 11.642799377441 4.322002410889 218 218 218
15.929330825806 11.271661758423 4.187000274658 197 197 197
15.974649429321 11.305128097534 4.233001708984 168 168 168
15.974649429321 11.305128097534 4.267002105713 171 171 171
15.929330825806 11.271661758423 4.291000366211 192 192 192
15.929330825806 11.271661758423 4.324001312256 172 172 172
16.534997940063 11.363376617432 4.188003540039 221 221 221
16.534997940063 11.363376617432 4.219001770020 226 226 226
16.504533767700 11.346267700195 4.248001098633 225 225 225
16.504533767700 11.346267700195 4.278003692627 224 224 224
16.534997940063 11.363376617432 4.310001373291 220 220 220
16.475572586060 11.297945022583 4.322002410889 183 183 183
15.913887023926 10.942414283752 4.199001312256 159 159 159
15.928743362427 10.958771705627 4.234001159668 161 161 161
15.913887023926 10.942414283752 4.266002655029 159 159 159
15.913887023926 10.942414283752 4.301002502441 157 157 157
15.899030685425 10.926054954529 4.329002380371 87 87 87
16.307815551758 10.883152961731 3.664001464844 181 181 181
16.307815551758 10.883152961731 3.698001861572 190 190 190
16.307815551758 10.883152961731 3.730003356934 179 179 179
16.307815551758 10.883152961731 3.763999938965 179 179 179
16.307815551758 10.883152961731 3.791000366211 178 178 178
16.307815551758 10.883152961731 3.824001312256 178 178 178
16.277353286743 10.866044044495 3.855003356934 175 175 175
16.277353286743 10.866044044495 3.887001037598 173 173 173
16.277353286743 10.866044044495 3.921001434326 171 171 171
16.278102874756 10.850437164307 3.950000762939 169 169 169
16.278102874756 10.850437164307 3.982002258301 168 168 168
16.278102874756 10.850437164307 4.016002655029 168 168 168
16.277353286743 10.866044044495 4.052001953125 169 169 169
16.550767898560 11.035631179810 4.173000335693 159 159 159
16.550767898560 11.035631179810 4.202003479004 164 164 164
16.550767898560 11.035631179810 4.234001159668 159 159 159
16.550018310547 11.051238059998 4.266002655029 163 163 163
16.550767898560 11.035631179810 4.295001983643 162 162 162
16.550767898560 11.035631179810 4.325000762939 158 158 158
16.246889114380 10.848935127258 4.268001556396 168 168 168
16.248392105103 10.817721366882 4.296001434326 171 171 171
16.248392105103 10.817721366882 4.328002929688 171 171 171
16.217178344727 10.816219329834 4.358001708984 175 175 175
16.171108245850 10.798359870911 4.381000518799 147 147 147
16.064863204956 10.730675697327 4.387001037598 51 51 51
16.383760452271 10.605231285095 3.635002136230 190 190 190
16.413471221924 10.637947082520 3.686000823975 166 166 166
16.444684982300 10.639449119568 3.727001190186 140 140 140
16.413471221924 10.637947082520 3.754001617432 169 169 169
16.444684982300 10.639449119568 3.792003631592 174 174 174
16.444684982300 10.639449119568 3.822002410889 177 177 177
16.444684982300 10.639449119568 3.857002258301 176 176 176
16.413471221924 10.637947082520 3.887001037598 176 176 176
16.413471221924 10.637947082520 3.919002532959 175 175 175
16.413471221924 10.637947082520 3.949001312256 166 166 166
16.444684982300 10.639449119568 3.985000610352 175 175 175
16.413471221924 10.637947082520 4.016002655029 181 181 181
16.444684982300 10.639449119568 4.051002502441 163 163 163
16.443935394287 10.655055999756 4.087001800537 166 166 166
16.566539764404 10.707884788513 4.151000976563 146 146 146
16.566539764404 10.707884788513 4.185001373291 167 167 167
16.566539764404 10.707884788513 4.216003417969 166 166 166
16.566539764404 10.707884788513 4.247001647949 164 164 164
16.566539764404 10.707884788513 4.277000427246 167 167 167
16.566539764404 10.707884788513 4.307003021240 161 161 161
16.474397659302 10.672164916992 4.313003540039 168 168 168
16.444684982300 10.639449119568 4.334003448486 173 173 173
16.413471221924 10.637947082520 4.361000061035 168 168 168
16.383760452271 10.605231285095 4.376003265381 121 121 121
16.200983047485 10.502578735352 4.366001129150 116 116 116
15.852537155151 10.266809463501 4.308002471924 144 144 144
16.640981674194 10.461176872253 4.133003234863 44 44 44
16.611270904541 10.428462028503 4.152000427246 162 162 162
16.611270904541 10.428462028503 4.181003570557 177 177 177
16.611270904541 10.428462028503 4.210002899170 179 179 179
16.611270904541 10.428462028503 4.241001129150 179 179 179
16.611270904541 10.428462028503 4.272003173828 184 184 184
16.611270904541 10.428462028503 4.302001953125 167 167 167
15.761310577393 9.886985778809 4.083000183105 74 74 74
15.792526245117 9.888487815857 4.128002166748 144 144 144
15.807380676270 9.904845237732 4.166000366211 153 153 153
15.807380676270 9.904845237732 4.201000213623 152 152 152
15.807380676270 9.904845237732 4.237003326416 152 152 152
15.807380676270 9.904845237732 4.273002624512 149 149 149
15.761310577393 9.886985778809 4.298000335693 146 146 146
15.730848312378 9.869876861572 4.330001831055 93 93 93
16.687213897705 10.150540351868 4.128002166748 89 89 89
16.656000137329 10.149038314819 4.147003173828 155 155 155
16.656000137329 10.149038314819 4.180000305176 153 153 153
16.656000137329 10.149038314819 4.209003448486 153 153 153
16.656000137329 10.149038314819 4.240001678467 158 158 158
16.656000137329 10.149038314819 4.268001556396 161 161 161
16.656000137329 10.149038314819 4.300003051758 143 143 143
16.761657714844 9.903833389282 4.107002258301 151 151 151
16.761657714844 9.903833389282 4.138000488281 157 157 157
16.761657714844 9.903833389282 4.166000366211 158 158 158
16.761657714844 9.903833389282 4.199001312256 155 155 155
16.761657714844 9.903833389282 4.227001190186 156 156 156
16.761657714844 9.903833389282 4.255001068115 156 156 156
16.761657714844 9.903833389282 4.287002563477 154 154 154
16.761657714844 9.903833389282 4.314002990723 150 150 150
16.731945037842 9.871117591858 4.334003448486 138 138 138
16.184005737305 14.756678581238 4.378002166748 166 166 166
16.184005737305 14.756678581238 4.349002838135 233 233 233
16.184005737305 14.756678581238 4.325000762939 228 228 228
16.152791976929 14.755177497864 4.295001983643 239 239 239
16.184005737305 14.756678581238 4.270000457764 229 229 229
16.184005737305 14.756678581238 4.245002746582 217 217 217
16.136596679688 14.441535949707 4.381999969482 138 138 138
16.214632034302 14.445290565491 4.371002197266 198 198 198
16.230237960815 14.446041107178 4.347000122070 227 227 227
16.230237960815 14.446041107178 4.320003509521 228 228 228
16.230237960815 14.446041107178 4.293003082275 231 231 231
16.230237960815 14.446041107178 4.267002105713 230 230 230
16.230237960815 14.446041107178 4.239002227783 220 220 220
16.120401382446 14.127895355225 4.358001708984 203 203 203
16.245256423950 14.133902549744 4.359001159668 212 212 212
16.276470184326 14.135404586792 4.334003448486 226 226 226
16.245256423950 14.133902549744 4.304000854492 241 241 241
16.245256423950 14.133902549744 4.279003143311 234 234 234
16.245256423950 14.133902549744 4.250000000000 236 236 236
16.276470184326 14.135404586792 4.230003356934 193 193 193
16.103456497192 13.829861640930 4.361000061035 181 181 181
16.104207992554 13.814254760742 4.337001800537 217 217 217
16.259525299072 13.837370872498 4.344001770020 230 230 230
16.259525299072 13.837370872498 4.319000244141 232 232 232
16.259525299072 13.837370872498 4.292003631592 231 231 231
16.260276794434 13.821763992310 4.266002655029 231 231 231
16.259525299072 13.837370872498 4.239002227783 234 234 234
16.307098388672 13.824017524719 4.219001770020 139 139 139
16.071653366089 13.515469551086 4.367000579834 142 142 142
16.087261199951 13.516220092773 4.341003417969 204 204 204
16.150440216064 13.503617286682 4.327003479004 225 225 225
16.306509017944 13.511126518250 4.338001251221 228 228 228
16.306509017944 13.511126518250 4.313003540039 216 216 216
16.305757522583 13.526733398438 4.283000946045 236 236 236
16.306509017944 13.511126518250 4.255001068115 228 228 228
16.305757522583 13.526733398438 4.229000091553 233 233 233
16.306509017944 13.511126518250 4.204002380371 134 134 134
16.040605545044 13.185470581055 4.347000122070 205 205 205
16.040605545044 13.185470581055 4.317001342773 223 223 223
16.257598876953 13.227197647095 4.336002349854 226 226 226
16.321529388428 13.198987960815 4.325000762939 235 235 235
16.321529388428 13.198987960815 4.300003051758 224 224 224
16.337137222290 13.199739456177 4.275001525879 227 227 227
16.337137222290 13.199739456177 4.248001098633 226 226 226
16.321529388428 13.198987960815 4.219001770020 232 232 232
16.351991653442 13.216096878052 4.197002410889 65 65 65
16.022909164429 12.903043746948 4.351001739502 192 192 192
16.022909164429 12.903043746948 4.322002410889 222 222 222
16.022909164429 12.903043746948 4.295001983643 228 228 228
16.366260528564 12.919565200806 4.343002319336 225 225 225
16.381868362427 12.920315742493 4.320003509521 228 228 228
16.381868362427 12.920315742493 4.292003631592 230 230 230
16.398223876953 12.905460357666 4.267002105713 230 230 230
16.381868362427 12.920315742493 4.239002227783 230 230 230
16.398223876953 12.905460357666 4.214000701904 221 221 221
15.975498199463 12.587902069092 4.355003356934 152 152 152
16.006711959839 12.589404106140 4.328002929688 206 206 206
15.975498199463 12.587902069092 4.298000335693 231 231 231
16.037927627563 12.590905189514 4.278003692627 228 228 228
16.413244247437 12.593320846558 4.335002899170 224 224 224
16.413244247437 12.593320846558 4.309001922607 229 229 229
16.396886825562 12.608177185059 4.279003143311 234 234 234
16.413244247437 12.593320846558 4.255001068115 225 225 225
16.413244247437 12.593320846558 4.228000640869 231 231 231
16.413244247437 12.593320846558 4.204002380371 212 212 212
15.990518569946 12.275762557983 4.334003448486 210 210 210
15.990518569946 12.275762557983 4.306003570557 192 192 192
15.990518569946 12.275762557983 4.278003692627 165 165 165
16.428262710571 12.281182289124 4.344001770020 203 203 203
16.427511215210 12.296789169312 4.321002960205 237 237 237
16.458724975586 12.298291206360 4.299003601074 227 227 227
16.427511215210 12.296789169312 4.269001007080 231 231 231
16.427511215210 12.296789169312 4.243000030518 223 223 223
16.427511215210 12.296789169312 4.215000152588 236 236 236
16.458724975586 12.298291206360 4.194000244141 192 192 192
15.943109512329 11.960619926453 4.341003417969 187 187 187
15.943109512329 11.960619926453 4.313003540039 213 213 213
15.943109512329 11.960619926453 4.280002593994 236 236 236
15.943109512329 11.960619926453 4.253002166748 227 227 227
16.442531585693 11.984650611877 4.330001831055 232 232 232
16.442531585693 11.984650611877 4.310001373291 229 229 229
16.442531585693 11.984650611877 4.284000396729 231 231 231
16.473745346069 11.986152648926 4.259002685547 227 227 227
16.442531585693 11.984650611877 4.229000091553 239 239 239
16.442531585693 11.984650611877 4.205001831055 230 230 230
16.473745346069 11.986152648926 4.183002471924 130 130 130
15.926916122437 11.646979331970 4.344001770020 72 72 72
15.942522048950 11.647729873657 4.321002960205 204 204 204
15.926916122437 11.646979331970 4.288002014160 228 228 228
15.926916122437 11.646979331970 4.259002685547 231 231 231
15.942522048950 11.647729873657 4.232002258301 228 228 228
16.488763809204 11.674014091492 4.325000762939 218 218 218
16.488763809204 11.674014091492 4.301002502441 228 228 228
16.504371643066 11.674764633179 4.276000976563 223 223 223
16.488763809204 11.674014091492 4.248001098633 231 231 231
16.488763809204 11.674014091492 4.220001220703 230 230 230
16.488763809204 11.674014091492 4.195003509521 223 223 223
16.504371643066 11.674764633179 4.169002532959 27 27 27
15.941934585571 11.334839820862 4.327003479004 197 197 197
15.941934585571 11.334839820862 4.297000885010 211 211 211
15.941934585571 11.334839820862 4.270000457764 198 198 198
15.941934585571 11.334839820862 4.242000579834 187 187 187
15.910718917847 11.333337783813 4.204002380371 190 190 190
16.503782272339 11.361874580383 4.312000274658 224 224 224
16.503782272339 11.361874580383 4.285003662109 227 227 227
16.519390106201 11.362625122070 4.263999938965 221 221 221
16.503782272339 11.361874580383 4.232002258301 230 230 230
16.519390106201 11.362625122070 4.210002899170 223 223 223
16.519390106201 11.362625122070 4.184001922607 209 209 209
15.894525527954 11.019697189331 4.333000183105 151 151 151
15.925739288330 11.021199226379 4.307003021240 174 174 174
15.925739288330 11.021199226379 4.278003692627 171 171 171
15.925739288330 11.021199226379 4.249000549316 175 175 175
15.925739288330 11.021199226379 4.216003417969 169 169 169
16.550018310547 11.051238059998 4.328002929688 176 176 176
16.550018310547 11.051238059998 4.303001403809 175 175 175
16.518802642822 11.049736022949 4.274002075195 179 179 179
16.518802642822 11.049736022949 4.248001098633 172 172 172
16.518802642822 11.049736022949 4.221000671387 171 171 171
16.534410476685 11.050486564636 4.196002960205 174 174 174
16.518802642822 11.049736022949 4.168003082275 155 155 155
16.096076965332 10.732176780701 4.383003234863 123 123 123
16.252897262573 10.724080085754 4.384002685547 118 118 118
16.393360137939 10.730838775635 4.384002685547 157 157 157
16.408966064453 10.731589317322 4.365001678467 177 177 177
16.408966064453 10.731589317322 4.338001251221 181 181 181
16.455787658691 10.733842849731 4.318000793457 172 172 172
16.549428939819 10.738348007202 4.312000274658 174 174 174
16.549428939819 10.738348007202 4.287002563477 183 183 183
16.549428939819 10.738348007202 4.261001586914 184 184 184
16.549428939819 10.738348007202 4.234001159668 182 182 182
16.565036773682 10.739099502563 4.209003448486 183 183 183
16.549428939819 10.738348007202 4.181003570557 178 178 178
16.533821105957 10.737597465515 4.147003173828 162 162 162
16.408966064453 10.731589317322 4.093002319336 181 181 181
16.408966064453 10.731589317322 4.064002990723 175 175 175
16.408966064453 10.731589317322 4.038002014160 174 174 174
16.408966064453 10.731589317322 4.010002136230 173 173 173
16.408966064453 10.731589317322 3.982002258301 174 174 174
16.408966064453 10.731589317322 3.952003479004 172 172 172
16.408966064453 10.731589317322 3.925003051758 174 174 174
16.424573898315 10.732340812683 3.899002075195 172 172 172
16.424573898315 10.732340812683 3.871002197266 171 171 171
16.424573898315 10.732340812683 3.842002868652 173 173 173
16.408966064453 10.731589317322 3.807003021240 169 169 169
16.408966064453 10.731589317322 3.782001495361 169 169 169
16.424573898315 10.732340812683 3.756000518799 162 162 162
16.408966064453 10.731589317322 3.725002288818 163 163 163
16.408966064453 10.731589317322 3.695003509521 166 166 166
16.408966064453 10.731589317322 3.664001464844 167 167 167
16.284111022949 10.725582122803 3.585002899170 126 126 126
16.284862518311 10.709974288940 3.557003021240 121 121 121
16.284111022949 10.725582122803 3.525001525879 125 125 125
16.315324783325 10.727084159851 3.499000549316 125 125 125
16.284111022949 10.725582122803 3.464000701904 132 132 132
16.284862518311 10.709974288940 3.436000823975 134 134 134
16.284862518311 10.709974288940 3.404003143311 137 137 137
16.284862518311 10.709974288940 3.375000000000 142 142 142
16.316076278687 10.711476325989 3.345001220703 144 144 144
16.049419403076 10.401427268982 4.358001708984 116 116 116
16.267166137695 10.427547454834 4.370002746582 107 107 107
16.392021179199 10.433554649353 4.364002227783 129 129 129
16.423986434937 10.419449806213 4.348003387451 166 166 166
16.423986434937 10.419449806213 4.320003509521 175 175 175
16.423986434937 10.419449806213 4.297000885010 174 174 174
16.611270904541 10.428462028503 4.311000823975 158 158 158
16.611270904541 10.428462028503 4.282001495361 160 160 160
16.611270904541 10.428462028503 4.256000518799 163 163 163
16.611270904541 10.428462028503 4.230003356934 162 162 162
16.611270904541 10.428462028503 4.204002380371 165 165 165
16.611270904541 10.428462028503 4.178001403809 166 166 166
16.611270904541 10.428462028503 4.152000427246 145 145 145
16.455200195313 10.420951843262 4.082000732422 176 176 176
16.423986434937 10.419449806213 4.048000335693 171 171 171
16.423986434937 10.419449806213 4.020999908447 170 170 170
16.423986434937 10.419449806213 3.991001129150 170 170 170
16.423986434937 10.419449806213 3.963001251221 171 171 171
16.423986434937 10.419449806213 3.936000823975 171 171 171
16.423986434937 10.419449806213 3.907001495361 171 171 171
16.423986434937 10.419449806213 3.879001617432 171 171 171
16.423986434937 10.419449806213 3.849002838135 167 167 167
16.423986434937 10.419449806213 3.823001861572 169 169 169
16.423986434937 10.419449806213 3.792003631592 170 170 170
16.423986434937 10.419449806213 3.763999938965 174 174 174
16.423986434937 10.419449806213 3.735000610352 169 169 169
16.423986434937 10.419449806213 3.705001831055 173 173 173
16.423986434937 10.419449806213 3.678001403809 172 172 172
16.392772674561 10.417947769165 3.637001037598 187 187 187
15.751548767090 10.089876174927 4.338001251221 122 122 122
15.752298355103 10.074269294739 4.312000274658 152 152 152
15.782762527466 10.091378211975 4.287002563477 171 171 171
15.783514022827 10.075771331787 4.256000518799 174 174 174
15.783514022827 10.075771331787 4.226001739502 168 168 168
15.782762527466 10.091378211975 4.193000793457 171 171 171
15.783514022827 10.075771331787 4.164001464844 172 172 172
16.719930648804 10.120828628540 4.342002868652 153 153 153
16.782358169556 10.123832702637 4.332000732422 167 167 167
16.781606674194 10.139439582825 4.305000305176 171 171 171
16.781606674194 10.139439582825 4.280002593994 166 166 166
16.782358169556 10.123832702637 4.256999969482 165 165 165
16.782358169556 10.123832702637 4.230003356934 163 163 163
16.782358169556 10.123832702637 4.204002380371 167 167 167
16.782358169556 10.123832702637 4.180000305176 164 164 164
16.782358169556 10.123832702637 4.155002593994 161 161 161
16.782358169556 10.123832702637 4.128002166748 162 162 162
16.782358169556 10.123832702637 4.106002807617 57 57 57
15.766567230225 9.777737617493 4.321002960205 40 40 40
15.736104965210 9.760628700256 4.290000915527 72 72 72
15.766567230225 9.777737617493 4.260002136230 55 55 55
15.736104965210 9.760628700256 4.227001190186 35 35 35
16.764661788940 9.841405868530 4.335002899170 140 140 140
16.796625137329 9.827301025391 4.318000793457 157 157 157
16.781017303467 9.826549530029 4.290000915527 156 156 156
16.781017303467 9.826549530029 4.263000488281 159 159 159
16.781017303467 9.826549530029 4.238002777100 159 159 159
16.797376632690 9.811694145203 4.215000152588 154 154 154
16.797376632690 9.811694145203 4.188003540039 159 159 159
16.797376632690 9.811694145203 4.162002563477 154 154 154
16.781017303467 9.826549530029 4.136001586914 154 154 154
16.797376632690 9.811694145203 4.111000061035 139 139 139
16.168399810791 14.755928039551 4.381999969482 87 87 87
16.184755325317 14.741071701050 4.358001708984 208 208 208
16.184005737305 14.756678581238 4.326000213623 215 215 215
16.184005737305 14.756678581238 4.295001983643 212 212 212
16.184005737305 14.756678581238 4.263999938965 211 211 211
16.215969085693 14.742573738098 4.238002777100 130 130 130
16.103130340576 14.486855506897 4.381000518799 105 105 105
16.198272705078 14.460145950317 4.368000030518 182 182 182
16.230989456177 14.430434226990 4.349002838135 218 218 218
16.231740951538 14.414827346802 4.319000244141 217 217 217
16.230989456177 14.430434226990 4.287002563477 221 221 221
16.230989456177 14.430434226990 4.255001068115 220 220 220
16.230989456177 14.430434226990 4.223003387451 127 127 127
16.117399215698 14.190322875977 4.358001708984 184 184 184
16.214042663574 14.132400512695 4.355003356934 208 208 208
16.261615753174 14.119047164917 4.333000183105 219 219 219
16.261615753174 14.119047164917 4.301002502441 222 222 222
16.245256423950 14.133902549744 4.268001556396 223 223 223
16.261615753174 14.119047164917 4.239002227783 220 220 220
16.068489074707 13.906394004822 4.362003326416 153 153 153
16.068489074707 13.906394004822 4.335002899170 216 216 216
16.260276794434 13.821763992310 4.349002838135 217 217 217
16.275884628296 13.822515487671 4.319000244141 223 223 223
16.292242050171 13.807659149170 4.289001464844 222 222 222
16.275884628296 13.822515487671 4.256999969482 222 222 222
16.292242050171 13.807659149170 4.228000640869 212 212 212
16.050790786743 13.623967170715 4.366001129150 96 96 96
16.082004547119 13.625469207764 4.339000701904 203 203 203
16.114721298218 13.595757484436 4.318000793457 223 223 223
16.307260513306 13.495519638062 4.338001251221 221 221 221
16.307260513306 13.495519638062 4.308002471924 213 213 213
16.307260513306 13.495519638062 4.277000427246 220 220 220
16.307260513306 13.495519638062 4.243000030518 221 221 221
16.307260513306 13.495519638062 4.214000701904 194 194 194
16.017486572266 13.340789794922 4.368000030518 30 30 30
16.049451828003 13.326684951782 4.342002868652 195 195 195
16.049451828003 13.326684951782 4.310001373291 220 220 220
16.257598876953 13.227197647095 4.331001281738 219 219 219
16.354244232178 13.169276237488 4.327003479004 219 219 219
16.338638305664 13.168525695801 4.295001983643 218 218 218
16.354244232178 13.169276237488 4.265003204346 219 219 219
16.354244232178 13.169276237488 4.234001159668 219 219 219
16.338638305664 13.168525695801 4.201000213623 148 148 148
16.016149520874 13.043505668640 4.347000122070 191 191 191
16.016149520874 13.043505668640 4.313003540039 222 222 222
16.032506942749 13.028650283813 4.283000946045 221 221 221
16.369262695313 12.857137680054 4.342002868652 219 219 219
16.369262695313 12.857137680054 4.313003540039 222 222 222
16.369262695313 12.857137680054 4.282001495361 221 221 221
16.384870529175 12.857888221741 4.253002166748 220 220 220
16.369262695313 12.857137680054 4.221000671387 220 220 220
16.369262695313 12.857137680054 4.185001373291 40 40 40
15.999202728271 12.745472908020 4.353000640869 165 165 165
15.999202728271 12.745472908020 4.320003509521 218 218 218
15.999202728271 12.745472908020 4.288002014160 222 222 222
16.031167984009 12.731367111206 4.263000488281 222 222 222
16.399890899658 12.545748710632 4.333000183105 217 217 217
16.416246414185 12.530893325806 4.303001403809 219 219 219
16.416246414185 12.530893325806 4.273002624512 220 220 220
16.416246414185 12.530893325806 4.242000579834 218 218 218
16.416246414185 12.530893325806 4.212001800537 219 219 219
15.950292587280 12.461544036865 4.359001159668 17 17 17
15.981506347656 12.463046073914 4.330001831055 199 199 199
15.981506347656 12.463046073914 4.295001983643 223 223 223
15.981506347656 12.463046073914 4.263000488281 222 222 222
16.014223098755 12.433333396912 4.241001129150 217 217 217
16.431266784668 12.218754768372 4.322002410889 221 221 221
16.431266784668 12.218754768372 4.292003631592 209 209 209
16.431266784668 12.218754768372 4.262001037598 219 219 219
16.461729049683 12.235863685608 4.232002258301 214 214 214
16.431266784668 12.218754768372 4.200000762939 217 217 217
15.948204040527 12.179867744446 4.335002899170 191 191 191
15.963809967041 12.180619239807 4.304000854492 220 220 220
15.963809967041 12.180619239807 4.270999908447 222 222 222
15.964561462402 12.165012359619 4.239002227783 222 222 222
16.445535659790 11.922223091125 4.331001281738 219 219 219
16.477499008179 11.908118247986 4.310001373291 220 220 220
16.476749420166 11.923725128174 4.278003692627 220 220 220
16.476749420166 11.923725128174 4.248001098633 222 222 222
16.476749420166 11.923725128174 4.217002868652 221 221 221
16.477499008179 11.908118247986 4.188003540039 187 187 187
15.914899826050 11.896690368652 4.341003417969 143 143 143
15.946865081787 11.882585525513 4.311000823975 207 207 207
15.946865081787 11.882585525513 4.277000427246 223 223 223
15.946865081787 11.882585525513 4.244003295898 222 222 222
15.946865081787 11.882585525513 4.210002899170 213 213 213
16.492519378662 11.595978736877 4.326000213623 211 211 211
16.492519378662 11.595978736877 4.293003082275 219 219 219
16.492519378662 11.595978736877 4.263999938965 220 220 220
16.493268966675 11.580371856689 4.234001159668 222 222 222
16.492519378662 11.595978736877 4.201000213623 221 221 221
16.492519378662 11.595978736877 4.171001434326 102 102 102
15.929918289185 11.584550857544 4.321002960205 198 198 198
15.929918289185 11.584550857544 4.287002563477 221 221 221
15.929918289185 11.584550857544 4.253002166748 222 222 222
15.929918289185 11.584550857544 4.218002319336 221 221 221
15.929918289185 11.584550857544 4.184001922607 174 174 174
16.522394180298 11.300197601318 4.312000274658 217 217 217
16.522394180298 11.300197601318 4.280002593994 220 220 220
16.538002014160 11.300949096680 4.251003265381 220 220 220
16.522394180298 11.300197601318 4.219001770020 220 220 220
16.538002014160 11.300949096680 4.190002441406 217 217 217
15.912221908569 11.302124023438 4.330001831055 152 152 152
15.912221908569 11.302124023438 4.298000335693 196 196 196
15.944938659668 11.272412300110 4.272003173828 169 169 169
15.944938659668 11.272412300110 4.238002777100 168 168 168
15.912221908569 11.302124023438 4.196002960205 186 186 186
16.521806716919 10.987308502197 4.328002929688 156 156 156
16.537414550781 10.988059043884 4.298000335693 158 158 158
16.521806716919 10.987308502197 4.266002655029 159 159 159
16.521806716919 10.987308502197 4.237003326416 157 157 157
16.521806716919 10.987308502197 4.205001831055 158 158 158
16.521806716919 10.987308502197 4.173000335693 153 153 153
