36.295322418213 29.807960510254 3.100997924805 219 219 219
36.251411437988 29.791553497314 3.123001098633 177 177 177
36.271194458008 29.515384674072 2.992004394531 45 45 45
36.288566589355 29.513538360596 3.027008056641 222 222 222
36.271194458008 29.515384674072 3.055007934570 229 229 229
36.271194458008 29.515384674072 3.085006713867 226 226 226
36.271194458008 29.515384674072 3.115997314453 213 213 213
36.200744628906 29.480724334717 3.128997802734 148 148 148
36.276344299316 29.233749389648 3.018005371094 213 213 213
36.281810760498 29.219112396240 3.044998168945 228 228 228
36.279075622559 29.226432800293 3.078002929688 223 223 223
36.279075622559 29.226432800293 3.110000610352 210 210 210
36.191257476807 29.193618774414 3.121002197266 203 203 203
36.272323608398 28.932006835938 3.008010864258 181 181 181
36.272323608398 28.932006835938 3.039001464844 230 230 230
36.272323608398 28.932006835938 3.072006225586 223 223 223
36.289695739746 28.930160522461 3.102996826172 221 221 221
36.196403503418 28.911983489990 3.115997314453 219 219 219
36.137855529785 28.890110015869 3.132003784180 67 67 67
36.265563964844 28.637584686279 2.994003295898 45 45 45
36.292106628418 28.655841827393 3.033004760742 221 221 221
36.292106628418 28.655841827393 3.065002441406 215 215 215
36.292106628418 28.655841827393 3.096008300781 208 208 208
36.265563964844 28.637584686279 3.124008178711 214 214 214
36.148471832275 28.593837738037 3.132003784180 195 195 195
36.288082122803 28.354099273682 3.023010253906 205 205 205
36.273445129395 28.348628997803 3.053009033203 223 223 223
36.273445129395 28.348628997803 3.085998535156 223 223 223
36.288082122803 28.354099273682 3.120010375977 209 209 209
36.153617858887 28.312198638916 3.123001098633 212 212 212
36.244174957275 28.337692260742 3.177001953125 95 95 95
36.241439819336 28.345012664795 3.208007812500 68 68 68
36.256076812744 28.350479125977 3.242996215820 77 77 77
36.241439819336 28.345012664795 3.270996093750 97 97 97
36.241439819336 28.345012664795 3.303009033203 56 56 56
36.278594970703 28.066993713379 3.013000488281 182 182 182
36.278594970703 28.066993713379 3.048004150391 205 205 205
36.281326293945 28.059673309326 3.078002929688 165 165 165
36.278594970703 28.066993713379 3.113006591797 216 216 216
36.161499023438 28.023242950439 3.120010375977 216 216 216
36.102954864502 28.001369476318 3.139999389648 188 188 188
36.289207458496 27.770717620850 3.009002685547 174 174 174
36.301109313965 27.783504486084 3.044998168945 216 216 216
36.289207458496 27.770717620850 3.077011108398 178 178 178
36.301109313965 27.783504486084 3.111999511719 220 220 220
36.198654174805 27.745223999023 3.124008178711 213 213 213
36.096195220947 27.706943511963 3.135009765625 202 202 202
36.323627471924 27.500019073486 3.010009765625 187 187 187
36.323627471924 27.500019073486 3.046005249023 213 213 213
36.291622161865 27.496402740479 3.077011108398 178 178 178
36.323627471924 27.500019073486 3.111999511719 218 218 218
36.174526214600 27.452651977539 3.117996215820 221 221 221
36.057434082031 27.408901214600 3.130004882813 221 221 221
36.147987365723 27.434398651123 3.184005737305 71 71 71
36.299503326416 27.207447052002 3.009002685547 175 175 175
36.328777313232 27.218383789063 3.046997070313 216 216 216
36.314140319824 27.212913513184 3.081008911133 197 197 197
36.314140319824 27.212913513184 3.113998413086 221 221 221
36.211681365967 27.174633026123 3.128005981445 224 224 224
36.030570983887 27.123645782471 3.128005981445 225 225 225
36.004032135010 27.105392456055 3.161010742188 60 60 60
36.307380676270 26.918491363525 3.001998901367 111 111 111
36.319282531738 26.931278228760 3.044006347656 222 222 222
36.319282531738 26.931278228760 3.078002929688 171 171 171
36.319282531738 26.931278228760 3.113998413086 217 217 217
36.275375366211 26.914871215820 3.138000488281 219 219 219
36.009181976318 26.823753356934 3.122009277344 224 224 224
35.997276306152 26.810966491699 3.156997680664 152 152 152
36.155548095703 26.878440856934 3.223999023438 56 56 56
36.315265655518 26.629535675049 2.996002197266 34 34 34
36.341804504395 26.647792816162 3.039001464844 220 220 220
36.341804504395 26.647792816162 3.074996948242 190 190 190
36.341804504395 26.647792816162 3.110000610352 195 195 195
36.329902648926 26.635005950928 3.143997192383 217 217 217
36.019794464111 26.527481079102 3.117996215820 180 180 180
35.987785339355 26.523860931396 3.152999877930 185 185 185
36.154258728027 26.569377899170 3.255004882813 69 69 69
36.352416992188 26.351520538330 3.035003662109 216 216 216
36.352416992188 26.351520538330 3.070007324219 225 225 225
36.352416992188 26.351520538330 3.107009887695 222 222 222
36.352416992188 26.351520538330 3.143005371094 217 217 217
35.969131469727 26.216648101807 3.108001708984 215 215 215
35.937122344971 26.213031768799 3.143997192383 199 199 199
36.144767761230 26.282276153564 3.289001464844 57 57 57
36.340194702148 26.071731567383 3.035003662109 227 227 227
36.328292846680 26.058944702148 3.070007324219 226 226 226
36.328292846680 26.058944702148 3.108001708984 226 226 226
36.331027984619 26.051624298096 3.143005371094 219 219 219
35.930366516113 25.918609619141 3.105010986328 220 220 220
35.912994384766 25.920459747314 3.143005371094 196 196 196
36.336174011230 25.769989013672 2.998001098633 58 58 58
36.362712860107 25.788246154785 3.040008544922 225 225 225
36.350811004639 25.775455474854 3.076004028320 226 226 226
36.362712860107 25.788246154785 3.113998413086 226 226 226
36.316066741943 25.779155731201 3.145004272461 231 231 231
35.906238555908 25.626033782959 3.107009887695 222 222 222
35.906238555908 25.626033782959 3.147003173828 200 200 200
36.128524780273 25.700748443604 3.339996337891 57 57 57
36.341316223145 25.488353729248 3.003005981445 137 137 137
36.341316223145 25.488353729248 3.040008544922 225 225 225
36.370590209961 25.499290466309 3.080001831055 222 222 222
36.341316223145 25.488353729248 3.115997314453 217 217 217
36.312042236328 25.477413177490 3.145996093750 234 234 234
35.884845733643 25.326141357422 3.108001708984 224 224 224
35.884845733643 25.326141357422 3.148010253906 204 204 204
36.346466064453 25.206714630127 2.996002197266 52 52 52
36.349201202393 25.199398040771 3.038009643555 231 231 231
36.346466064453 25.206714630127 3.076004028320 227 227 227
36.346466064453 25.206714630127 3.115997314453 225 225 225
36.334564208984 25.193927764893 3.149002075195 229 229 229
35.846084594727 25.028099060059 3.104003906250 220 220 220
35.846084594727 25.028099060059 3.145004272461 202 202 202
36.112277984619 25.119216918945 3.385009765625 63 63 63
36.354347229004 24.917762756348 2.996002197266 53 53 53
36.368984222412 24.923229217529 3.039001464844 226 226 226
36.371719360352 24.915912628174 3.077011108398 226 226 226
36.371719360352 24.915912628174 3.115997314453 226 226 226
36.325073242188 24.906826019287 3.149002075195 236 236 236
35.839324951172 24.733676910400 3.102005004883 225 225 225
35.839324951172 24.733676910400 3.145004272461 205 205 205
36.093620300293 24.812007904053 3.427001953125 53 53 53
36.362228393555 24.628807067871 2.998001098633 96 96 96
36.376861572266 24.634273529053 3.040008544922 225 225 225
36.376861572266 24.634273529053 3.079010009766 227 227 227
36.376861572266 24.634273529053 3.119003295898 219 219 219
36.364959716797 24.621486663818 3.152008056641 232 232 232
35.815200805664 24.441101074219 3.102996826172 215 215 215
35.815200805664 24.441101074219 3.143997192383 202 202 202
36.157310485840 24.552242279053 3.442001342773 62 62 62
36.399383544922 24.350788116455 3.005996704102 178 178 178
36.382011413574 24.352638244629 3.044006347656 226 226 226
36.399383544922 24.350788116455 3.083999633789 226 226 226
36.399383544922 24.350788116455 3.125000000000 224 224 224
35.791072845459 24.148529052734 3.061996459961 205 205 205
35.808441162109 24.146678924561 3.110000610352 219 219 219
35.808441162109 24.146678924561 3.152008056641 188 188 188
36.223739624023 24.285163879395 3.458007812500 68 68 68
35.984085083008 24.212303161621 3.471008300781 42 42 42
36.401794433594 24.076469421387 3.012008666992 204 204 204
36.401794433594 24.076469421387 3.052001953125 225 225 225
36.401794433594 24.076469421387 3.092010498047 224 224 224
36.401794433594 24.076469421387 3.132003784180 221 221 221
35.784317016602 23.854103088379 3.070999145508 208 208 208
35.810859680176 23.872360229492 3.117996215820 210 210 210
35.784317016602 23.854103088379 3.158004760742 184 184 184
36.409675598145 23.787513732910 3.016006469727 199 199 199
36.389572143555 23.796680450439 3.055999755859 224 224 224
36.377670288086 23.783893585205 3.096008300781 227 227 227
36.409675598145 23.787513732910 3.138000488281 223 223 223
35.789463043213 23.572467803955 3.078002929688 208 208 208
35.804100036621 23.577934265137 3.125000000000 200 200 200
35.789463043213 23.572467803955 3.167999267578 115 115 115
36.292583465576 23.743762969971 3.529998779297 47 47 47
35.877285003662 23.605278015137 3.527999877930 34 34 34
36.414825439453 23.505878448486 3.016998291016 216 216 216
36.414825439453 23.505878448486 3.059005737305 219 219 219
36.414825439453 23.505878448486 3.100006103516 224 224 224
36.402919769287 23.493091583252 3.139999389648 226 226 226
35.855892181396 23.305385589600 3.093002319336 171 171 171
35.779975891113 23.285362243652 3.128005981445 213 213 213
35.782711029053 23.278045654297 3.171005249023 55 55 55
36.329734802246 23.465747833252 3.541000366211 62 62 62
36.408065795898 23.211452484131 3.016998291016 192 192 192
36.408065795898 23.211452484131 3.057998657227 198 198 198
36.410800933838 23.204135894775 3.098999023438 203 203 203
36.408065795898 23.211452484131 3.141998291016 197 197 197
35.802490234375 23.001876831055 3.085998535156 127 127 127
35.770484924316 22.998256683350 3.128997802734 141 141 141
35.773216247559 22.990940093994 3.173004150391 24 24 24
35.743942260742 22.979999542236 3.216003417969 18 18 18
35.775951385498 22.983619689941 3.264007568359 57 57 57
35.790588378906 22.989089965820 3.311004638672 85 85 85
35.773216247559 22.990940093994 3.356002807617 89 89 89
35.790588378906 22.989089965820 3.402008056641 103 103 103
35.805225372314 22.994556427002 3.447998046875 113 113 113
35.805225372314 22.994556427002 3.494003295898 125 125 125
35.819862365723 23.000026702881 3.540008544922 126 126 126
35.805225372314 22.994556427002 3.583007812500 121 121 121
35.773216247559 22.990940093994 3.626007080078 16 16 16
36.249473571777 22.876979827881 2.503997802734 176 176 176
36.266845703125 22.875129699707 2.554000854492 138 138 138
36.266845703125 22.875129699707 2.598999023438 128 128 128
36.246738433838 22.884300231934 2.641006469727 132 132 132
36.266845703125 22.875129699707 2.684997558594 130 130 130
36.266845703125 22.875129699707 2.730010986328 120 120 120
36.246738433838 22.884300231934 2.773010253906 127 127 127
36.246738433838 22.884300231934 2.816009521484 125 125 125
36.246738433838 22.884300231934 2.860000610352 121 121 121
36.266845703125 22.875129699707 2.904998779297 119 119 119
36.337295532227 22.909793853760 2.962005615234 121 121 121
36.395843505859 22.931667327881 3.020004272461 136 136 136
36.395843505859 22.931667327881 3.061996459961 140 140 140
36.398578643799 22.924350738525 3.102996826172 137 137 137
36.398578643799 22.924350738525 3.145004272461 137 137 137
36.383941650391 22.918880462646 3.184005737305 135 135 135
36.372039794922 22.906093597412 3.223999023438 132 132 132
36.372039794922 22.906093597412 3.266006469727 122 122 122
36.383941650391 22.918880462646 3.311004638672 91 91 91
36.372039794922 22.906093597412 3.350997924805 35 35 35
36.383941650391 22.918880462646 3.564010620117 39 39 39
36.372039794922 22.906093597412 3.604003906250 59 59 59
36.164066314697 22.569850921631 2.208999633789 111 111 111
36.164066314697 22.569850921631 2.253005981445 115 115 115
36.161331176758 22.577167510986 2.303009033203 116 116 116
36.164066314697 22.569850921631 2.345001220703 110 110 110
36.164066314697 22.569850921631 2.389999389648 112 112 112
36.164066314697 22.569850921631 2.440002441406 139 139 139
36.266525268555 22.608131408691 2.512008666992 158 158 158
36.286632537842 22.598960876465 2.557998657227 151 151 151
36.266525268555 22.608131408691 2.600997924805 150 150 150
36.286632537842 22.598960876465 2.647003173828 151 151 151
36.286632537842 22.598960876465 2.691009521484 154 154 154
36.286632537842 22.598960876465 2.736007690430 156 156 156
36.286632537842 22.598960876465 2.779998779297 153 153 153
36.286632537842 22.598960876465 2.824996948242 158 158 158
36.286632537842 22.598960876465 2.867996215820 159 159 159
36.286632537842 22.598960876465 2.914001464844 158 158 158
36.377182006836 22.624454498291 2.975006103516 137 137 137
36.430263519287 22.660968780518 3.027008056641 137 137 137
36.432998657227 22.653648376465 3.068008422852 141 141 141
36.432998657227 22.653648376465 3.111999511719 137 137 137
36.374450683594 22.631774902344 3.149002075195 140 140 140
36.286632537842 22.598960876465 3.176010131836 155 155 155
36.257358551025 22.588024139404 3.216003417969 118 118 118
35.988426208496 22.504226684570 3.223007202148 26 26 26
36.508594512939 22.406673431396 2.960998535156 67 67 67
36.479320526123 22.395736694336 3.000000000000 150 150 150
36.479320526123 22.395736694336 3.041000366211 161 161 161
36.479320526123 22.395736694336 3.085998535156 158 158 158
36.479320526123 22.395736694336 3.128997802734 153 153 153
35.639556884766 22.098659515381 3.041000366211 141 141 141
35.642292022705 22.091342926025 3.087997436523 150 150 150
35.610282897949 22.087722778320 3.135009765625 137 137 137
35.554470062256 22.058528900146 3.173995971680 108 108 108
36.680213928223 22.170558929443 2.951004028320 103 103 103
36.680213928223 22.170558929443 2.992996215820 123 123 123
36.682949066162 22.163238525391 3.035003662109 127 127 127
36.650939941406 22.159618377686 3.074996948242 134 134 134
36.650939941406 22.159618377686 3.115997314453 129 129 129
36.636302947998 22.154151916504 3.156997680664 123 123 123
36.563117980957 22.126808166504 3.188003540039 26 26 26
36.720100402832 21.885219573975 2.914001464844 94 94 94
36.720100402832 21.885219573975 2.957000732422 157 157 157
36.720100402832 21.885219573975 3.000000000000 152 152 152
36.732002258301 21.898006439209 3.044006347656 149 149 149
36.732002258301 21.898006439209 3.085998535156 159 159 159
36.702728271484 21.887069702148 3.125000000000 163 163 163
36.658821105957 21.870662689209 3.162002563477 114 114 114
35.545143127441 21.904922485352 3.212997436523 56 56 56
35.669471740723 21.884658813477 3.173995971680 162 162 162
35.692314147949 21.868171691895 3.121002197266 168 168 168
35.692314147949 21.868171691895 3.064010620117 170 170 170
35.689579010010 21.875492095947 3.008010864258 152 152 152
35.669471740723 21.884658813477 2.947006225586 7 7 7
35.660629272461 22.131553649902 3.216003417969 13 13 13
35.698104858398 22.120532989502 3.167007446289 153 153 153
35.695369720459 22.127853393555 3.110000610352 175 175 175
36.626007080078 21.958484649658 3.195007324219 166 166 166
36.773181915283 21.921733856201 3.169006347656 174 174 174
36.773181915283 21.921733856201 3.120010375977 169 169 169
36.773181915283 21.921733856201 3.070007324219 172 172 172
36.773181915283 21.921733856201 3.020996093750 170 170 170
36.773181915283 21.921733856201 2.970001220703 165 165 165
35.703895568848 22.372898101807 3.161010742188 155 155 155
35.733169555664 22.383834838867 3.108001708984 157 157 157
36.490097045898 22.232963562012 3.171005249023 184 184 184
36.544944763184 22.220096588135 3.128005981445 171 171 171
36.544944763184 22.220096588135 3.078002929688 167 167 167
36.556846618652 22.232883453369 3.027999877930 158 158 158
35.990036010742 22.321346282959 2.770996093750 17 17 17
36.019309997559 22.332286834717 2.718002319336 20 20 20
36.024776458740 22.317649841309 2.667999267578 26 26 26
36.054050445557 22.328586578369 2.617004394531 32 32 32
36.054050445557 22.328586578369 2.566009521484 30 30 30
36.091526031494 22.317569732666 2.518997192383 22 22 22
36.065311431885 22.566310882568 3.253005981445 36 36 36
36.322177886963 22.503822326660 3.240005493164 145 145 145
36.334079742432 22.516613006592 3.191009521484 165 165 165
36.515991210938 22.476158142090 3.167007446289 138 138 138
36.515991210938 22.476158142090 3.117996215820 127 127 127
36.515991210938 22.476158142090 3.068008422852 134 134 134
36.461143493652 22.489025115967 3.007003784180 148 148 148
36.334079742432 22.516613006592 2.934997558594 163 163 163
36.351451873779 22.514759063721 2.884002685547 164 164 164
36.334079742432 22.516613006592 2.831008911133 162 162 162
36.334079742432 22.516613006592 2.781005859375 166 166 166
36.334079742432 22.516613006592 2.727996826172 163 163 163
36.334079742432 22.516613006592 2.675003051758 161 161 161
36.351451873779 22.514759063721 2.626007080078 162 162 162
36.334079742432 22.516613006592 2.572998046875 162 162 162
36.311241149902 22.533096313477 2.511001586914 167 167 167
36.241752624512 22.540496826172 2.443008422852 171 171 171
36.239021301270 22.547817230225 2.391006469727 162 162 162
36.239021301270 22.547817230225 2.339004516602 167 167 167
36.239021301270 22.547817230225 2.285003662109 164 164 164
36.239021301270 22.547817230225 2.230010986328 161 161 161
36.271026611328 22.551433563232 2.182006835938 131 131 131
35.825172424316 22.851890563965 3.262008666992 79 79 79
35.859912872314 22.848190307617 3.214004516602 111 111 111
36.325233459473 22.763504028320 3.229003906250 149 149 149
36.400184631348 22.741470336914 3.191009521484 160 160 160
36.501678466797 22.737689971924 3.154006958008 146 146 146
36.472404479980 22.726753234863 3.102005004883 144 144 144
36.472404479980 22.726753234863 3.052001953125 149 149 149
36.359973907471 22.759807586670 2.981002807617 162 162 162
36.325233459473 22.763504028320 2.929000854492 166 166 166
36.359973907471 22.759807586670 2.878005981445 164 164 164
36.359973907471 22.759807586670 2.828002929688 164 164 164
36.359973907471 22.759807586670 2.777999877930 160 160 160
36.359973907471 22.759807586670 2.725006103516 164 164 164
36.359973907471 22.759807586670 2.673995971680 163 163 163
36.325233459473 22.763504028320 2.622009277344 163 163 163
36.357238769531 22.767124176025 2.572006225586 163 163 163
36.357238769531 22.767124176025 2.520996093750 136 136 136
35.833694458008 23.096935272217 3.615005493164 220 220 220
36.408710479736 22.986515045166 3.576004028320 125 125 125
36.408710479736 22.986515045166 3.527008056641 133 133 133
36.388607025146 22.995681762695 3.473999023438 221 221 221
36.440719604492 22.990135192871 3.430999755859 145 145 145
36.371234893799 22.997531890869 3.373001098633 213 213 213
36.336494445801 23.001232147217 3.320007324219 230 230 230
36.333755493164 23.008548736572 3.268997192383 195 195 195
35.865707397461 23.100551605225 3.149002075195 150 150 150
36.458087921143 22.988285064697 3.190002441406 151 151 151
36.475460052490 22.986434936523 3.141006469727 158 158 158
36.458087921143 22.988285064697 3.092010498047 150 150 150
36.475460052490 22.986434936523 3.042999267578 150 150 150
36.411766052246 23.246196746826 3.613006591797 22 22 22
35.839485168457 23.349296569824 3.190002441406 167 167 167
35.836750030518 23.356616973877 3.139007568359 234 234 234
36.446510314941 23.242496490479 3.180999755859 242 242 242
36.449241638184 23.235179901123 3.136001586914 236 236 236
36.449241638184 23.235179901123 3.085998535156 238 238 238
36.446510314941 23.242496490479 3.039001464844 206 206 206
35.954975128174 23.575923919678 3.554000854492 38 38 38
35.845275878906 23.601657867432 3.182998657227 196 196 196
35.877285003662 23.605278015137 3.134002685547 230 230 230
36.452301025391 23.494861602783 3.179000854492 241 241 241
36.452301025391 23.494861602783 3.130996704102 242 242 242
36.455036163330 23.487541198730 3.083999633789 237 237 237
36.455036163330 23.487541198730 3.037002563477 183 183 183
35.958026885986 23.835605621338 3.542999267578 48 48 48
36.353866577148 23.758323669434 3.538009643555 45 45 45
35.853805541992 23.846706390381 3.177001953125 203 203 203
35.883071899414 23.857643127441 3.126998901367 232 232 232
36.458087921143 23.747222900391 3.173995971680 240 240 240
36.458087921143 23.747222900391 3.128005981445 238 238 238
36.458087921143 23.747222900391 3.078002929688 237 237 237
36.458087921143 23.747222900391 3.031005859375 142 142 142
36.290172576904 24.018081665039 3.518005371094 41 41 41
35.856857299805 24.106388092041 3.167999267578 214 214 214
35.856857299805 24.106388092041 3.115005493164 235 235 235
36.449241638184 23.994117736816 3.165008544922 236 236 236
36.449241638184 23.994117736816 3.117996215820 237 237 237
36.449241638184 23.994117736816 3.072006225586 239 239 239
36.414501190186 23.997817993164 3.018997192383 38 38 38
36.191734313965 24.281543731689 3.495010375977 74 74 74
35.865383148193 24.351432800293 3.208007812500 75 75 75
35.894657135010 24.362369537354 3.161010742188 221 221 221
35.894657135010 24.362369537354 3.111007690430 200 200 200
36.455036163330 24.246479034424 3.158996582031 239 239 239
36.437664031982 24.248329162598 3.111999511719 238 238 238
36.455036163330 24.246479034424 3.067001342773 238 238 238
36.105201721191 24.557796478271 3.473999023438 65 65 65
35.905914306641 24.600093841553 3.205001831055 115 115 115
35.891277313232 24.594627380371 3.152999877930 237 237 237
36.336494445801 24.519111633301 3.180007934570 18 18 18
36.446186065674 24.493373870850 3.151000976563 234 234 234
36.443450927734 24.500694274902 3.107009887695 239 239 239
36.443450927734 24.500694274902 3.061996459961 235 235 235
36.200580596924 24.793590545654 3.430999755859 22 22 22
35.882431030273 24.841522216797 3.197998046875 166 166 166
35.914440155029 24.845142364502 3.150009155273 241 241 241
36.377025604248 24.767772674561 3.182006835938 11 11 11
36.431873321533 24.754905700684 3.148010253906 237 237 237
36.431873321533 24.754905700684 3.104003906250 238 238 238
36.431873321533 24.754905700684 3.057006835938 228 228 228
36.189002990723 25.047801971436 3.421997070313 53 53 53
35.920230865479 25.097503662109 3.194000244141 161 161 161
35.920230865479 25.097503662109 3.148010253906 240 240 240
36.353542327881 25.009201049805 3.178009033203 254 254 254
36.423027038574 25.001800537109 3.143997192383 239 239 239
36.423027038574 25.001800537109 3.098999023438 236 236 236
36.440399169922 24.999950408936 3.055999755859 227 227 227
36.180152893066 25.294696807861 3.416000366211 19 19 19
35.926021575928 25.349864959717 3.193008422852 175 175 175
35.960762023926 25.346164703369 3.150009155273 203 203 203
36.411445617676 25.256015777588 3.184005737305 227 227 227
36.423347473145 25.268802642822 3.139999389648 238 238 238
36.423347473145 25.268802642822 3.096008300781 241 241 241
36.423347473145 25.268802642822 3.053009033203 221 221 221
36.183212280273 25.554378509521 3.363998413086 26 26 26
35.949184417725 25.600379943848 3.190002441406 182 182 182
35.966556549072 25.598529815674 3.147003173828 235 235 235
36.397132873535 25.517543792725 3.177001953125 238 238 238
36.399864196777 25.510227203369 3.138000488281 238 238 238
36.399864196777 25.510227203369 3.093002319336 240 240 240
36.429138183594 25.521163940430 3.052001953125 217 217 217
36.206371307373 25.804889678955 3.361999511719 49 49 49
35.975078582764 25.843574523926 3.190002441406 176 176 176
35.977813720703 25.836254119873 3.145996093750 235 235 235
36.402923583984 25.769908905029 3.177001953125 236 236 236
36.402923583984 25.769908905029 3.133010864258 241 241 241
36.402923583984 25.769908905029 3.091003417969 240 240 240
36.402923583984 25.769908905029 3.048995971680 202 202 202
35.983604431152 26.088619232178 3.189010620117 177 177 177
36.000976562500 26.086772918701 3.147003173828 233 233 233
36.396808624268 26.009483337402 3.175003051758 234 234 234
36.396808624268 26.009483337402 3.133010864258 239 239 239
36.376705169678 26.018650054932 3.089004516602 242 242 242
36.411445617676 26.014953613281 3.048004150391 195 195 195
36.188682556152 26.298679351807 3.305999755859 68 68 68
36.024135589600 26.337284088135 3.191009521484 181 181 181
36.058879852295 26.333583831787 3.151000976563 231 231 231
36.417240142822 26.267314910889 3.175003051758 229 229 229
36.385231018066 26.263698577881 3.130004882813 237 237 237
36.385231018066 26.263698577881 3.087997436523 238 238 238
36.385231018066 26.263698577881 3.048004150391 200 200 200
36.032661437988 26.582328796387 3.192001342773 166 166 166
36.061935424805 26.593265533447 3.151000976563 239 239 239
36.393756866455 26.508739471436 3.173004150391 229 229 229
36.391021728516 26.516059875488 3.132003784180 230 230 230
36.391021728516 26.516059875488 3.089996337891 226 226 226
36.385555267334 26.530696868896 3.046997070313 206 206 206
36.197525024414 26.810726165771 3.264007568359 74 74 74
36.055824279785 26.832843780518 3.195999145508 55 55 55
36.073192596436 26.830989837646 3.154006958008 241 241 241
36.359333038330 26.779441833496 3.167999267578 229 229 229
36.394077301025 26.775741577148 3.134002685547 220 220 220
36.394077301025 26.775741577148 3.094009399414 209 209 209
36.376705169678 26.777591705322 3.048995971680 216 216 216
36.078987121582 27.083354949951 3.201004028320 40 40 40
36.078987121582 27.083354949951 3.156997680664 240 240 240
36.362392425537 27.039123535156 3.167999267578 226 226 226
36.382495880127 27.029953002930 3.135009765625 211 211 211
36.382495880127 27.029953002930 3.093002319336 212 212 212
36.382495880127 27.029953002930 3.052001953125 216 216 216
36.194469451904 27.309986114502 3.219009399414 87 87 87
36.102149963379 27.333866119385 3.158996582031 240 240 240
36.336174011230 27.287868499756 3.167007446289 225 225 225
36.373653411865 27.276847839355 3.133010864258 229 229 229
36.373653411865 27.276847839355 3.092010498047 230 230 230
36.373653411865 27.276847839355 3.053009033203 217 217 217
36.128044128418 27.577064514160 3.165008544922 227 227 227
36.344696044922 27.532909393311 3.169006347656 210 210 210
36.362068176270 27.531063079834 3.132003784180 212 212 212
36.362068176270 27.531063079834 3.094009399414 197 197 197
36.362068176270 27.531063079834 3.053009033203 219 219 219
36.168579101563 27.825729370117 3.171005249023 200 200 200
36.275535583496 27.807312011719 3.154998779297 230 230 230
36.370597839355 27.776107788086 3.135009765625 225 225 225
36.367862701416 27.783428192139 3.098007202148 213 213 213
36.350490570068 27.785274505615 3.055999755859 221 221 221
36.145092010498 28.067153930664 3.175003051758 169 169 169
36.263957977295 28.061523437500 3.156005859375 224 224 224
36.338912963867 28.039489746094 3.136001586914 227 227 227
36.356281280518 28.037639617920 3.100006103516 205 205 205
36.356281280518 28.037639617920 3.061004638672 228 228 228
36.292587280273 28.297397613525 3.320999145508 35 35 35
36.330062866211 28.286384582520 3.290008544922 38 38 38
36.324592590332 28.301017761230 3.212005615234 33 33 33
36.220367431641 28.312118530273 3.154006958008 226 226 226
36.359336853027 28.297321319580 3.143997192383 222 222 222
36.327327728271 28.293701171875 3.102005004883 235 235 235
36.327327728271 28.293701171875 3.065002441406 232 232 232
36.321861267090 28.308338165283 3.023010253906 26 26 26
36.223423004150 28.571800231934 3.156005859375 226 226 226
36.347755432129 28.551532745361 3.147003173828 226 226 226
36.347755432129 28.551532745361 3.109008789063 226 226 226
36.330383300781 28.553382873535 3.070007324219 236 236 236
36.347755432129 28.551532745361 3.033996582031 116 116 116
36.217311859131 28.811374664307 3.162002563477 202 202 202
36.338912963867 28.798427581787 3.148010253906 225 225 225
36.338912963867 28.798427581787 3.111999511719 233 233 233
36.338912963867 28.798427581787 3.074996948242 236 236 236
36.338912963867 28.798427581787 3.040008544922 184 184 184
36.237739562988 29.069206237793 3.165008544922 143 143 143
36.312690734863 29.047172546387 3.147003173828 224 224 224
36.344699859619 29.050792694092 3.115997314453 230 230 230
36.344699859619 29.050792694092 3.079010009766 238 238 238
36.341964721680 29.058109283447 3.046005249023 215 215 215
36.281005859375 29.310554504395 3.149002075195 222 222 222
36.333122253418 29.305004119873 3.124008178711 234 234 234
36.333122253418 29.305004119873 3.085998535156 238 238 238
36.333122253418 29.305004119873 3.052001953125 230 230 230
36.269428253174 29.564765930176 3.154006958008 201 201 201
36.327011108398 29.544582366943 3.134002685547 231 231 231
36.324275970459 29.551898956299 3.096008300781 241 241 241
36.324275970459 29.551898956299 3.059997558594 245 245 245
36.324275970459 29.551898956299 3.027999877930 123 123 123
36.257843017578 29.818981170654 3.162002563477 91 91 91
36.332798004150 29.796943664551 3.143005371094 215 215 215
36.332798004150 29.796943664551 3.109008789063 230 230 230
36.332798004150 29.796943664551 3.074005126953 222 222 222
36.362071990967 29.807880401611 3.042999267578 205 205 205
36.335857391357 30.056625366211 3.149002075195 202 202 202
36.335857391357 30.056625366211 3.115005493164 242 242 242
36.338592529297 30.049304962158 3.083007812500 237 237 237
36.338592529297 30.049304962158 3.051010131836 231 231 231
36.306900024414 30.312686920166 3.152008056641 135 135 135
36.341644287109 30.308986663818 3.125000000000 229 229 229
36.309635162354 30.305370330811 3.087997436523 242 242 242
36.309635162354 30.305370330811 3.054000854492 237 237 237
36.304168701172 30.320003509521 3.018005371094 23 23 23
36.332801818848 30.555881500244 3.134002685547 218 218 218
36.315429687500 30.557731628418 3.098007202148 241 241 241
36.332801818848 30.555881500244 3.066009521484 241 241 241
36.350170135498 30.554031372070 3.037002563477 195 195 195
36.323951721191 30.802776336670 3.139007568359 164 164 164
36.323951721191 30.802776336670 3.113998413086 233 233 233
36.321220397949 30.810092926025 3.077011108398 243 243 243
36.323951721191 30.802776336670 3.046997070313 234 234 234
36.784278869629 22.025959014893 2.947998046875 74 74 74
36.796180725098 22.038745880127 2.992004394531 155 155 155
36.796180725098 22.038745880127 3.035003662109 148 148 148
36.796180725098 22.038745880127 3.079010009766 153 153 153
36.796180725098 22.038745880127 3.120010375977 154 154 154
36.796180725098 22.038745880127 3.162002563477 153 153 153
36.749538421631 22.029659271240 3.199005126953 128 128 128
36.560546875000 22.267627716064 2.992996215820 85 85 85
36.560546875000 22.267627716064 3.035003662109 145 145 145
36.560546875000 22.267627716064 3.078002929688 146 146 146
36.548645019531 22.254840850830 3.120010375977 144 144 144
36.560546875000 22.267627716064 3.165008544922 142 142 142
35.696975708008 21.944972991943 3.074996948242 144 144 144
35.694244384766 21.952293395996 3.124008178711 149 149 149
35.662235260010 21.948673248291 3.169006347656 136 136 136
35.594520568848 21.906696319580 3.205001831055 91 91 91
36.359653472900 22.492805480957 2.551010131836 156 156 156
36.359653472900 22.492805480957 2.596008300781 154 154 154
36.330379486084 22.481868743896 2.639999389648 155 155 155
36.330379486084 22.481868743896 2.682998657227 154 154 154
36.330379486084 22.481868743896 2.727005004883 158 158 158
36.330379486084 22.481868743896 2.772003173828 157 157 157
36.330379486084 22.481868743896 2.817001342773 155 155 155
36.330379486084 22.481868743896 2.861007690430 155 155 155
36.330379486084 22.481868743896 2.906005859375 155 155 155
36.330379486084 22.481868743896 2.949996948242 153 153 153
36.476745605469 22.536556243896 3.020004272461 148 148 148
36.479480743408 22.529235839844 3.061996459961 154 154 154
36.447471618652 22.525615692139 3.102996826172 158 158 158
36.476745605469 22.536556243896 3.149002075195 148 148 148
36.420932769775 22.507362365723 3.180999755859 144 144 144
36.330379486084 22.481868743896 3.214004516602 153 153 153
36.298370361328 22.478248596191 3.253005981445 90 90 90
36.343566894531 22.803714752197 2.557998657227 161 161 161
36.343566894531 22.803714752197 2.602996826172 158 158 158
36.343566894531 22.803714752197 2.647003173828 157 157 157
36.343566894531 22.803714752197 2.692001342773 155 155 155
36.343566894531 22.803714752197 2.735000610352 153 153 153
36.346302032471 22.796398162842 2.777999877930 153 153 153
36.346302032471 22.796398162842 2.822998046875 150 150 150
36.346302032471 22.796398162842 2.865005493164 155 155 155
36.346302032471 22.796398162842 2.908996582031 152 152 152
36.346302032471 22.796398162842 2.953002929688 148 148 148
36.448760986328 22.834678649902 3.014999389648 134 134 134
36.478034973145 22.845615386963 3.064010620117 141 141 141
36.478034973145 22.845615386963 3.105010986328 134 134 134
36.466133117676 22.832828521729 3.147003173828 143 143 143
36.448760986328 22.834678649902 3.186996459961 134 134 134
36.375576019287 22.807334899902 3.217010498047 148 148 148
36.287754058838 22.774524688721 3.248001098633 88 88 88
36.050830841064 22.694343566895 3.258010864258 22 22 22
36.467418670654 23.141887664795 3.016998291016 67 67 67
36.467418670654 23.141887664795 3.059005737305 185 185 185
36.467418670654 23.141887664795 3.102005004883 189 189 189
36.467418670654 23.141887664795 3.143997192383 191 191 191
36.467418670654 23.141887664795 3.184997558594 175 175 175
35.861843109131 22.932308197021 3.132003784180 139 139 139
35.849941253662 22.919525146484 3.175003051758 128 128 128
35.803295135498 22.910434722900 3.216003417969 30 30 30
35.817932128906 22.915904998779 3.263000488281 55 55 55
35.849941253662 22.919525146484 3.311996459961 85 85 85
35.847206115723 22.926841735840 3.358001708984 95 95 95
35.847206115723 22.926841735840 3.402999877930 108 108 108
35.847206115723 22.926841735840 3.449005126953 115 115 115
35.847206115723 22.926841735840 3.492996215820 127 127 127
36.274406433105 23.078117370605 3.582000732422 143 143 143
35.861843109131 22.932308197021 3.585998535156 116 116 116
35.861843109131 22.932308197021 3.630996704102 106 106 106
36.468704223633 23.450950622559 3.055007934570 225 225 225
36.468704223633 23.450950622559 3.098007202148 221 221 221
36.465972900391 23.458267211914 3.139999389648 224 224 224
36.465972900391 23.458267211914 3.180999755859 216 216 216
35.865863800049 23.234050750732 3.126007080078 177 177 177
35.851226806641 23.228584289551 3.169006347656 198 198 198
36.410156250000 23.429073333740 3.582000732422 57 57 57
36.455352783203 23.754543304443 3.055007934570 212 212 212
36.458087921143 23.747222900391 3.094009399414 224 224 224
36.458087921143 23.747222900391 3.134002685547 224 224 224
36.440719604492 23.749073028564 3.173995971680 228 228 228
35.881790161133 23.548583984375 3.122009277344 212 212 212
35.852516174316 23.537647247314 3.163009643555 194 194 194
35.837879180908 23.532176971436 3.204010009766 17 17 17
35.925701141357 23.564987182617 3.567001342773 20 20 20
36.444740295410 24.050815582275 3.052001953125 223 223 223
36.444740295410 24.050815582275 3.093002319336 221 221 221
36.444740295410 24.050815582275 3.132003784180 224 224 224
36.444740295410 24.050815582275 3.173004150391 216 216 216
35.888542175293 23.843006134033 3.117004394531 210 210 210
35.856536865234 23.839385986328 3.158004760742 197 197 197
36.002902984619 23.894073486328 3.520004272461 26 26 26
36.446029663086 24.359874725342 3.055007934570 222 222 222
36.431392669678 24.354404449463 3.091003417969 225 225 225
36.448764801025 24.352558135986 3.133010864258 225 225 225
36.446029663086 24.359874725342 3.173995971680 223 223 223
35.904468536377 24.157535552979 3.119003295898 219 219 219
35.875194549561 24.146598815918 3.158996582031 199 199 199
35.872459411621 24.153915405273 3.201004028320 103 103 103
36.255748748779 24.288784027100 3.503005981445 32 32 32
36.450050354004 24.661617279053 3.055999755859 222 222 222
36.450050354004 24.661617279053 3.095001220703 227 227 227
36.450050354004 24.661617279053 3.135009765625 224 224 224
36.450050354004 24.661617279053 3.173995971680 222 222 222
35.920391082764 24.472064971924 3.123001098633 200 200 200
35.891120910645 24.461128234863 3.161010742188 214 214 214
35.888385772705 24.468444824219 3.202011108398 88 88 88
36.227764129639 24.586906433105 3.456008911133 70 70 70
36.093299865723 24.545005798340 3.482009887695 22 22 22
36.436698913574 24.965206146240 3.057006835938 220 220 220
36.436698913574 24.965206146240 3.095001220703 225 225 225
36.436698913574 24.965206146240 3.133010864258 227 227 227
36.422061920166 24.959739685059 3.171005249023 226 226 226
35.936317443848 24.786594390869 3.123001098633 221 221 221
35.921676635742 24.781124114990 3.162002563477 219 219 219
35.909774780273 24.768337249756 3.202011108398 119 119 119
36.199775695801 24.885028839111 3.447006225586 77 77 77
36.420616149902 25.276119232178 3.055007934570 220 220 220
36.423347473145 25.268802642822 3.092010498047 224 224 224
36.420616149902 25.276119232178 3.132003784180 224 224 224
36.423347473145 25.268802642822 3.169006347656 225 225 225
35.952239990234 25.101123809814 3.125000000000 222 222 222
35.922966003418 25.090183258057 3.161010742188 220 220 220
35.922966003418 25.090183258057 3.202011108398 105 105 105
36.189159393311 25.181301116943 3.401000976563 40 40 40
36.409999847412 25.572391510010 3.055999755859 217 217 217
36.412734985352 25.565074920654 3.092010498047 226 226 226
36.412734985352 25.565074920654 3.130004882813 226 226 226
36.412734985352 25.565074920654 3.167007446289 222 222 222
36.119998931885 25.455699920654 3.152008056641 160 160 160
35.973632812500 25.401016235352 3.163009643555 198 198 198
35.941623687744 25.397396087646 3.201004028320 105 105 105
36.190448760986 25.490364074707 3.397003173828 32 32 32
36.399387359619 25.868663787842 3.057998657227 217 217 217
36.399387359619 25.868663787842 3.095001220703 225 225 225
36.402122497559 25.861347198486 3.128997802734 227 227 227
36.402122497559 25.861347198486 3.167007446289 224 224 224
36.018829345703 25.726482391357 3.133010864258 222 222 222
35.989555358887 25.715541839600 3.165008544922 209 209 209
35.960281372070 25.704605102539 3.202011108398 48 48 48
36.194469451904 25.792102813721 3.355010986328 53 53 53
36.403404235840 26.170406341553 3.059997558594 224 224 224
36.403404235840 26.170406341553 3.096008300781 227 227 227
36.403404235840 26.170406341553 3.133010864258 224 224 224
36.403404235840 26.170406341553 3.171005249023 221 221 221
36.008213043213 26.022754669189 3.134002685547 218 218 218
36.005477905273 26.030071258545 3.169006347656 207 207 207
36.210395812988 26.106632232666 3.318008422852 62 62 62
36.404693603516 26.479469299316 3.066009521484 223 223 223
36.375419616699 26.468532562256 3.098007202148 226 226 226
36.390056610107 26.474002838135 3.135009765625 224 224 224
36.404693603516 26.479469299316 3.173004150391 219 219 219
36.053409576416 26.348220825195 3.141998291016 217 217 217
36.033302307129 26.357387542725 3.179000854492 197 197 197
36.362068176270 26.772121429443 3.026000976563 51 51 51
36.391342163086 26.783061981201 3.069000244141 218 218 218
36.391342163086 26.783061981201 3.105010986328 188 188 188
36.391342163086 26.783061981201 3.141006469727 211 211 211
36.367538452148 26.757484436035 3.169998168945 211 211 211
36.069335937500 26.662750244141 3.148010253906 211 211 211
36.037326812744 26.659130096436 3.180999755859 174 174 174
36.218437194824 26.710117340088 3.281997680664 36 36 36
36.368827819824 27.066547393799 3.033996582031 141 141 141
36.380729675293 27.079334259033 3.072006225586 216 216 216
36.380729675293 27.079334259033 3.105010986328 177 177 177
36.380729675293 27.079334259033 3.141998291016 215 215 215
36.324913024902 27.050140380859 3.164001464844 222 222 222
36.085258483887 26.977279663086 3.152999877930 224 224 224
36.085258483887 26.977279663086 3.190002441406 106 106 106
36.234359741211 27.024646759033 3.251007080078 66 66 66
36.367378234863 27.382926940918 3.039001464844 168 168 168
36.367378234863 27.382926940918 3.074996948242 218 218 218
36.367378234863 27.382926940918 3.109008789063 182 182 182
36.352745056152 27.377456665039 3.141998291016 189 189 189
36.282291412354 27.342796325684 3.158996582031 219 219 219
36.101184844971 27.291809082031 3.160003662109 221 221 221
36.177101135254 27.311832427979 3.210006713867 87 87 87
36.354026794434 27.686515808105 3.046005249023 182 182 182
36.354026794434 27.686515808105 3.080001831055 211 211 211
36.356761932373 27.679199218750 3.111999511719 177 177 177
36.356761932373 27.679199218750 3.145004272461 213 213 213
36.268939971924 27.646389007568 3.162002563477 181 181 181
36.149112701416 27.609954833984 3.169998168945 200 200 200
36.343414306641 27.982791900635 3.051010131836 209 209 209
36.343414306641 27.982791900635 3.083999633789 209 209 209
36.343414306641 27.982791900635 3.117004394531 202 202 202
36.343414306641 27.982791900635 3.151000976563 211 211 211
36.167770385742 27.917167663574 3.145996093750 213 213 213
36.150402069092 27.919017791748 3.175003051758 153 153 153
36.359336853027 28.297321319580 3.059005737305 217 217 217
36.359336853027 28.297321319580 3.089996337891 220 220 220
36.359336853027 28.297321319580 3.122009277344 223 223 223
36.359336853027 28.297321319580 3.154998779297 206 206 206
36.242244720459 28.253570556641 3.167007446289 166 166 166
36.330062866211 28.286384582520 3.218002319336 69 69 69
36.330062866211 28.286384582520 3.250000000000 39 39 39
36.330062866211 28.286384582520 3.283004760742 82 82 82
36.332794189453 28.279064178467 3.313003540039 97 97 97
36.315425872803 28.280914306641 3.342010498047 42 42 42
36.331352233887 28.595443725586 3.031005859375 67 67 67
36.348724365234 28.593593597412 3.065002441406 219 219 219
36.345989227295 28.600910186768 3.098007202148 213 213 213
36.348724365234 28.593593597412 3.130004882813 207 207 207
36.316715240479 28.589973449707 3.156005859375 213 213 213
36.196884155273 28.553543090820 3.166000366211 185 185 185
36.335369110107 28.897186279297 3.041000366211 180 180 180
36.335369110107 28.897186279297 3.070999145508 225 225 225
36.335369110107 28.897186279297 3.104003906250 220 220 220
36.335369110107 28.897186279297 3.135009765625 218 218 218
36.247550964355 28.864372253418 3.148010253906 218 218 218
36.200904846191 28.855285644531 3.169006347656 39 39 39
36.324756622314 29.193458557129 3.048004150391 214 214 214
36.319286346436 29.208095550537 3.079010009766 228 228 228
36.336658477783 29.206245422363 3.113006591797 223 223 223
36.354030609131 29.204395294189 3.145996093750 199 199 199
36.260738372803 29.186222076416 3.156005859375 195 195 195
36.337947845459 29.515308380127 3.031005859375 113 113 113
36.337947845459 29.515308380127 3.061004638672 224 224 224
36.340682983398 29.507987976074 3.089004516602 226 226 226
36.337947845459 29.515308380127 3.122009277344 223 223 223
36.311408996582 29.497051239014 3.143997192383 210 210 210
36.252861022949 29.475177764893 3.161010742188 80 80 80
36.341964721680 29.817050933838 3.044998168945 206 206 206
36.341964721680 29.817050933838 3.074005126953 222 222 222
36.324596405029 29.818897247314 3.102996826172 224 224 224
36.341964721680 29.817050933838 3.135009765625 217 217 217
36.312690734863 29.806110382080 3.154006958008 170 170 170
36.316715240479 30.107852935791 3.022003173828 173 173 173
36.345989227295 30.118793487549 3.059005737305 217 217 217
36.360626220703 30.124259948730 3.091003417969 218 218 218
36.345989227295 30.118793487549 3.117996215820 211 211 211
36.345989227295 30.118793487549 3.147003173828 196 196 196
36.284706115723 30.104232788086 3.162002563477 92 92 92
36.332637786865 30.422382354736 3.044006347656 181 181 181
36.335372924805 30.415065765381 3.068008422852 224 224 224
36.332637786865 30.422382354736 3.097000122070 225 225 225
36.332637786865 30.422382354736 3.130004882813 221 221 221
36.300632476807 30.418762207031 3.149002075195 146 146 146
36.322021484375 30.718654632568 3.024002075195 49 49 49
36.333927154541 30.731441497803 3.055007934570 223 223 223
36.333927154541 30.731441497803 3.083999633789 230 230 230
36.333927154541 30.731441497803 3.111999511719 222 222 222
36.333927154541 30.731441497803 3.141006469727 197 197 197
36.323310852051 31.027713775635 3.041000366211 156 156 156
36.337947845459 31.033184051514 3.069000244141 171 171 171
36.323310852051 31.027713775635 3.095001220703 175 175 175
36.323310852051 31.027713775635 3.122009277344 176 176 176
36.326045989990 31.020397186279 3.148010253906 38 38 38
36.798755645752 21.897926330566 2.977005004883 119 119 119
36.834465026855 21.936286926270 3.037002563477 126 126 126
36.781383514404 21.899776458740 3.074996948242 134 134 134
36.781383514404 21.899776458740 3.124008178711 127 127 127
36.781383514404 21.899776458740 3.171997070313 121 121 121
36.638072967529 22.104770660400 2.988006591797 146 146 146
36.638072967529 22.104770660400 3.038009643555 146 146 146
36.638072967529 22.104770660400 3.087997436523 138 138 138
36.638072967529 22.104770660400 3.137008666992 137 137 137
36.626167297363 22.091983795166 3.184005737305 124 124 124
36.522262573242 22.370082855225 3.012008666992 149 149 149
36.522262573242 22.370082855225 3.061004638672 152 152 152
36.534168243408 22.382869720459 3.111999511719 149 149 149
36.534168243408 22.382869720459 3.163009643555 131 131 131
36.343246459961 22.536716461182 2.557998657227 137 137 137
36.343246459961 22.536716461182 2.610000610352 138 138 138
36.343246459961 22.536716461182 2.660003662109 134 134 134
36.343246459961 22.536716461182 2.712005615234 132 132 132
36.343246459961 22.536716461182 2.762008666992 131 131 131
36.343246459961 22.536716461182 2.814010620117 134 134 134
36.343246459961 22.536716461182 2.865005493164 130 130 130
36.343246459961 22.536716461182 2.915008544922 132 132 132
36.438465118408 22.639011383057 2.992004394531 123 123 123
36.483341217041 22.697479248047 3.055007934570 111 111 111
36.483341217041 22.697479248047 3.102005004883 111 111 111
36.483341217041 22.697479248047 3.152008056641 118 118 118
36.376216888428 22.582397460938 3.179000854492 118 118 118
36.345981597900 22.529399871826 3.218002319336 127 127 127
36.298370361328 22.478248596191 3.257003784180 28 28 28
36.155059814453 22.683246612549 2.180007934570 103 103 103
36.155059814453 22.683246612549 2.234008789063 103 103 103
36.123050689697 22.679626464844 2.283996582031 112 112 112
36.155059814453 22.683246612549 2.339996337891 109 109 109
36.155059814453 22.683246612549 2.393005371094 120 120 120
36.149589538574 22.697879791260 2.451004028320 127 127 127
36.265880584717 22.833068847656 2.544006347656 134 134 134
36.268615722656 22.825752258301 2.594009399414 139 139 139
36.268615722656 22.825752258301 2.641998291016 140 140 140
36.268615722656 22.825752258301 2.695007324219 143 143 143
36.268615722656 22.825752258301 2.746002197266 140 140 140
36.256710052490 22.812965393066 2.794998168945 139 139 139
36.268615722656 22.825752258301 2.847000122070 139 139 139
36.268615722656 22.825752258301 2.897003173828 142 142 142
36.379436492920 22.975578308105 2.984008789063 134 134 134
36.477390289307 23.070552825928 3.057998657227 109 109 109
36.474655151367 23.077873229980 3.108001708984 110 110 110
36.474655151367 23.077873229980 3.156005859375 112 112 112
36.450851440430 23.052299499512 3.197006225586 120 120 120
36.403244018555 23.001148223877 3.238998413086 129 129 129
36.405975341797 22.993831634521 3.286010742188 115 115 115
36.408710479736 22.986515045166 3.332000732422 140 140 140
36.379436492920 22.975578308105 3.376998901367 150 150 150
36.412410736084 23.021255493164 3.434005737305 71 71 71
36.400508880615 23.008468627930 3.482009887695 55 55 55
36.450851440430 23.052299499512 3.630004882813 59 59 59
35.932132720947 22.833473205566 2.544998168945 8 8 8
36.468704223633 23.450950622559 3.013000488281 74 74 74
36.468704223633 23.450950622559 3.061004638672 210 210 210
36.468704223633 23.450950622559 3.109008789063 207 207 207
36.468704223633 23.450950622559 3.156997680664 210 210 210
35.806671142578 22.678176879883 3.038009643555 135 135 135
35.839645385742 22.723857879639 3.100997924805 142 142 142
