25.916408538818 24.569494247437 1.926000118256 152 152 152
25.725862503052 24.753896713257 1.784999847412 161 161 161
25.725862503052 24.753896713257 1.714999675751 162 162 162
25.725862503052 24.753896713257 1.645999908447 158 158 158
25.725862503052 24.753896713257 1.577000141144 158 158 158
25.725862503052 24.753896713257 1.505000114441 161 161 161
25.725862503052 24.753896713257 1.434999942780 147 147 147
25.537363052368 24.813316345215 1.299999952316 119 119 119
25.537363052368 24.813316345215 1.227999925613 118 118 118
25.537363052368 24.813316345215 1.152999877930 119 119 119
25.538387298584 24.750825881958 2.146999835968 119 119 119
25.600879669189 24.751850128174 2.091000080109 120 120 120
25.601902008057 24.689357757568 2.025000095367 115 115 115
26.043437957764 24.446557998657 2.072999954224 150 150 150
26.043437957764 24.446557998657 2.013999938965 148 148 148
26.043437957764 24.446557998657 1.950999736786 151 151 151
26.043437957764 24.446557998657 1.883999824524 144 144 144
25.601902008057 24.689357757568 1.687999725342 111 111 111
25.664394378662 24.690382003784 1.623000144958 113 113 113
25.664394378662 24.690382003784 1.552000045776 120 120 120
25.664394378662 24.690382003784 1.480999946594 127 127 127
25.475896835327 24.749801635742 2.124000072479 122 122 122
25.476919174194 24.687309265137 2.060999870300 114 114 114
25.476919174194 24.687309265137 1.989999771118 118 118 118
26.044462203979 24.384065628052 2.075999736786 149 149 149
26.044462203979 24.384065628052 2.014999866486 146 146 146
26.044462203979 24.384065628052 1.947000026703 141 141 141
26.044462203979 24.384065628052 1.884999752045 145 145 145
25.476919174194 24.687309265137 1.639999866486 119 119 119
25.476919174194 24.687309265137 1.573999881744 116 116 116
25.539409637451 24.688333511353 1.505000114441 116 116 116
25.476919174194 24.687309265137 1.411999702454 157 157 157
25.162414550781 24.807172775269 2.067999839783 145 145 145
25.224905014038 24.808197021484 2.005000114441 133 133 133
25.351936340332 24.685262680054 1.959000110626 65 65 65
26.045486450195 24.321575164795 2.073999881744 143 143 143
26.045486450195 24.321575164795 2.013000011444 130 130 130
26.045486450195 24.321575164795 1.948999881744 140 140 140
26.045486450195 24.321575164795 1.888000011444 151 151 151
25.351936340332 24.685262680054 1.591000080109 138 138 138
25.351936340332 24.685262680054 1.523999691010 114 114 114
25.351936340332 24.685262680054 1.447999954224 150 150 150
25.100946426392 24.743659973145 2.051000118256 152 152 152
25.100946426392 24.743659973145 1.977999687195 121 121 121
26.047534942627 24.196590423584 2.074999809265 142 142 142
26.047534942627 24.196590423584 2.013999938965 132 132 132
26.047534942627 24.196590423584 1.950999736786 149 149 149
26.047534942627 24.196590423584 1.885999679565 152 152 152
25.039478302002 24.680143356323 2.044000148773 149 149 149
25.039478302002 24.680143356323 1.968999862671 123 123 123
26.048557281494 24.134099960327 2.072999954224 138 138 138
26.048557281494 24.134099960327 2.012000083923 137 137 137
26.048557281494 24.134099960327 1.946000099182 136 136 136
26.048557281494 24.134099960327 1.883999824524 134 134 134
25.102993011475 24.618677139282 2.041999816895 123 123 123
25.102993011475 24.618677139282 1.967999935150 114 114 114
25.041526794434 24.555160522461 2.041999816895 124 124 124
25.041526794434 24.555160522461 1.967000007629 125 125 125
24.980058670044 24.491643905640 2.105000019073 106 106 106
25.043573379517 24.430177688599 2.041999816895 118 118 118
25.043573379517 24.430177688599 1.966000080109 133 133 133
24.981081008911 24.429153442383 2.108999729156 134 134 134
25.044597625732 24.367685317993 2.042999744415 136 136 136
25.044597625732 24.367685317993 1.967999935150 136 136 136
24.982105255127 24.366661071777 1.882999897003 121 121 121
25.045621871948 24.305194854736 2.107999801636 126 126 126
25.108112335205 24.306219100952 2.044000148773 138 138 138
25.108112335205 24.306219100952 1.969999790192 135 135 135
25.045621871948 24.305194854736 1.882999897003 121 121 121
25.046646118164 24.242702484131 2.108999729156 117 117 117
25.047670364380 24.180210113525 2.041999816895 135 135 135
25.047670364380 24.180210113525 1.967999935150 136 136 136
25.046646118164 24.242702484131 1.882999897003 122 122 122
24.985177993774 24.179185867310 2.105999946594 110 110 110
24.986200332642 24.116695404053 2.032999992371 137 137 137
24.986200332642 24.116695404053 1.957999706268 129 129 129
24.986200332642 24.116695404053 1.881000041962 115 115 115
24.923707962036 24.115671157837 2.091000080109 38 38 38
24.923707962036 24.115671157837 2.013000011444 42 42 42
24.923707962036 24.115671157837 1.934000015259 28 28 28
25.513856887817 30.063636779785 2.117000102997 176 176 176
25.513856887817 30.063636779785 2.056999683380 201 201 201
25.514881134033 30.001144409180 2.117000102997 183 183 183
25.514881134033 30.001144409180 2.055999755859 191 191 191
25.454435348511 29.875137329102 2.177999973297 31 31 31
25.454435348511 29.875137329102 2.117000102997 185 185 185
25.454435348511 29.875137329102 2.056999683380 200 200 200
25.580444335938 29.814695358276 2.297999858856 160 160 160
25.580444335938 29.814695358276 2.238999843597 166 166 166
25.517951965332 29.813671112061 2.177999973297 170 170 170
25.517951965332 29.813671112061 2.118999958038 171 171 171
25.517951965332 29.813671112061 2.058000087738 168 168 168
25.520000457764 29.688686370850 2.291999816895 45 45 45
25.520000457764 29.688686370850 2.237999916077 166 166 166
25.520000457764 29.688686370850 2.177999973297 162 162 162
25.520000457764 29.688686370850 2.117000102997 182 182 182
25.520000457764 29.688686370850 2.055999755859 189 189 189
25.458530426025 29.625171661377 2.115999698639 188 188 188
25.458530426025 29.625171661377 2.055999755859 177 177 177
25.459554672241 29.562679290771 2.117000102997 187 187 187
25.459554672241 29.562679290771 2.056999683380 184 184 184
25.523071289063 29.501213073730 2.118000030518 189 189 189
25.523071289063 29.501213073730 2.056999683380 177 177 177
25.524095535278 29.438720703125 2.118999958038 189 189 189
25.524095535278 29.438720703125 2.058000087738 176 176 176
25.463649749756 29.312713623047 2.117000102997 186 186 186
25.463649749756 29.312713623047 2.055999755859 179 179 179
25.464673995972 29.250221252441 2.114999771118 186 186 186
25.464673995972 29.250221252441 2.054999828339 181 181 181
25.528190612793 29.188755035400 2.114999771118 189 189 189
25.528190612793 29.188755035400 2.054999828339 180 180 180
25.467744827271 29.062746047974 2.166999816895 21 21 21
25.530237197876 29.063770294189 2.117000102997 176 176 176
25.530237197876 29.063770294189 2.056999683380 170 170 170
25.530237197876 29.063770294189 2.000000000000 79 79 79
25.468769073486 29.000255584717 2.166999816895 73 73 73
25.531261444092 29.001279830933 2.125999927521 191 191 191
25.531261444092 29.001279830933 2.062999725342 181 181 181
25.468769073486 29.000255584717 1.999000072479 183 183 183
25.469793319702 28.937763214111 2.164999961853 65 65 65
25.594778060913 28.939811706543 2.123000144958 203 203 203
25.532285690308 28.938787460327 2.064000129700 171 171 171
25.532285690308 28.938787460327 2.001999855042 189 189 189
25.471839904785 28.812780380249 2.164000034332 43 43 43
25.534332275391 28.813804626465 2.125999927521 203 203 203
25.534332275391 28.813804626465 2.066999912262 203 203 203
25.534332275391 28.813804626465 2.005000114441 182 182 182
25.410373687744 28.749263763428 2.164000034332 41 41 41
25.535356521606 28.751312255859 2.126999855042 205 205 205
25.535356521606 28.751312255859 2.066999912262 198 198 198
25.535356521606 28.751312255859 2.006999969482 179 179 179
25.411397933960 28.686773300171 2.160999774933 21 21 21
25.598873138428 28.689846038818 2.128999710083 201 201 201
25.536380767822 28.688821792603 2.067999839783 210 210 210
25.536380767822 28.688821792603 2.006999969482 174 174 174
25.600919723511 28.564863204956 2.128999710083 193 193 193
25.600919723511 28.564863204956 2.067999839783 195 195 195
25.600919723511 28.564863204956 2.008999824524 172 172 172
25.539451599121 28.501346588135 2.127999782562 193 193 193
25.539451599121 28.501346588135 2.068999767303 174 174 174
25.539451599121 28.501346588135 2.008999824524 176 176 176
25.540475845337 28.438854217529 2.126999855042 195 195 195
25.540475845337 28.438854217529 2.071000099182 172 172 172
25.540475845337 28.438854217529 2.012000083923 177 177 177
25.605014801025 28.314895629883 2.124000072479 193 193 193
25.605014801025 28.314895629883 2.072000026703 182 182 182
25.605014801025 28.314895629883 2.010999679565 176 176 176
25.418563842773 28.249332427979 2.156000137329 14 14 14
25.543546676636 28.251380920410 2.119999885559 205 205 205
25.606039047241 28.252405166626 2.071000099182 185 185 185
25.606039047241 28.252405166626 2.013999938965 175 175 175
25.357095718384 28.185817718506 2.153999805450 40 40 40
25.482078552246 28.187864303589 2.118000030518 207 207 207
25.607063293457 28.189912796021 2.074999809265 183 183 183
25.607063293457 28.189912796021 2.015999794006 182 182 182
25.358119964600 28.123325347900 2.152999877930 24 24 24
25.483102798462 28.125371932983 2.111999988556 213 213 213
25.546617507935 28.063905715942 2.074999809265 185 185 185
25.546617507935 28.063905715942 2.015999794006 178 178 178
25.359142303467 28.060834884644 2.151000022888 42 42 42
25.485149383545 28.000389099121 2.108999729156 218 218 218
25.610134124756 28.002437591553 2.078000068665 178 178 178
25.610134124756 28.002437591553 2.016999721527 175 175 175
25.361190795898 27.935852050781 2.148999691010 35 35 35
25.423683166504 27.936874389648 2.102999687195 221 221 221
25.611158370972 27.939947128296 2.078999996185 176 176 176
25.611158370972 27.939947128296 2.019999980927 180 180 180
25.362215042114 27.873359680176 2.148999691010 45 45 45
25.424707412720 27.874382019043 2.100999832153 213 213 213
25.613204956055 27.814962387085 2.078999996185 176 176 176
25.613204956055 27.814962387085 2.020999908447 179 179 179
25.301771163940 27.747352600098 2.146999835968 37 37 37
25.364261627197 27.748376846313 2.093999862671 198 198 198
25.676719665527 27.753494262695 2.080999851227 169 169 169
25.614229202271 27.752471923828 2.020999908447 172 172 172
25.365285873413 27.685884475708 2.146999835968 44 44 44
25.365285873413 27.685884475708 2.087999820709 210 210 210
25.677743911743 27.691001892090 2.081999778748 184 184 184
25.677743911743 27.691001892090 2.023999691010 175 175 175
25.367332458496 27.560901641846 2.146999835968 52 52 52
25.367332458496 27.560901641846 2.086999893188 208 208 208
25.678768157959 27.628511428833 2.085000038147 194 194 194
25.616277694702 27.627489089966 2.023999691010 182 182 182
25.616277694702 27.627489089966 1.966000080109 80 80 80
25.304841995239 27.559877395630 2.144000053406 73 73 73
25.305866241455 27.497385025024 2.084000110626 212 212 212
25.617300033569 27.564996719360 2.085000038147 185 185 185
25.617300033569 27.564996719360 2.029999732971 190 190 190
25.617300033569 27.564996719360 1.967999935150 94 94 94
25.306890487671 27.434894561768 2.143000125885 84 84 84
25.306890487671 27.434894561768 2.081999778748 211 211 211
25.681838989258 27.441036224365 2.087999820709 190 190 190
25.681838989258 27.441036224365 2.028999805450 190 190 190
25.681838989258 27.441036224365 1.968999862671 132 132 132
25.370405197144 27.373426437378 2.138999938965 100 100 100
25.370405197144 27.373426437378 2.078999996185 212 212 212
25.682863235474 27.378543853760 2.087999820709 195 195 195
25.682863235474 27.378543853760 2.029999732971 192 192 192
25.682863235474 27.378543853760 1.969999790192 149 149 149
25.308937072754 27.309909820557 2.137000083923 125 125 125
25.308937072754 27.309909820557 2.077000141144 223 223 223
25.683885574341 27.316051483154 2.088999748230 192 192 192
25.683885574341 27.316051483154 2.029999732971 188 188 188
25.683885574341 27.316051483154 1.970999717712 163 163 163
25.310985565186 27.184926986694 2.134999752045 86 86 86
25.310985565186 27.184926986694 2.073999881744 221 221 221
25.748426437378 27.192092895508 2.089999675751 202 202 202
25.748426437378 27.192092895508 2.032000064850 188 188 188
25.748426437378 27.192092895508 1.973000049591 177 177 177
25.249517440796 27.121412277222 2.132999897003 131 131 131
25.249517440796 27.121412277222 2.072000026703 220 220 220
25.686958312988 27.128578186035 2.088999748230 193 193 193
25.749450683594 27.129602432251 2.032999992371 186 186 186
25.686958312988 27.128578186035 1.973000049591 173 173 173
25.313034057617 27.059944152832 2.131999969482 145 145 145
25.313034057617 27.059944152832 2.071000099182 217 217 217
25.687980651855 27.066085815430 2.092000007629 200 200 200
25.687980651855 27.066085815430 2.034999847412 175 175 175
25.687980651855 27.066085815430 1.974999904633 179 179 179
25.315080642700 26.934961318970 2.131000041962 145 145 145
25.315080642700 26.934961318970 2.068999767303 215 215 215
25.690029144287 26.941102981567 2.091000080109 176 176 176
25.690029144287 26.941102981567 2.034999847412 182 182 182
25.690029144287 26.941102981567 1.976999759674 184 184 184
25.253612518311 26.871444702148 2.130000114441 130 130 130
25.253612518311 26.871444702148 2.069999694824 215 215 215
25.753545761108 26.879634857178 2.093999862671 186 186 186
25.753545761108 26.879634857178 2.038000106812 179 179 179
25.753545761108 26.879634857178 1.979000091553 183 183 183
25.317129135132 26.809978485107 2.128999710083 143 143 143
25.317129135132 26.809978485107 2.067999839783 214 214 214
25.754570007324 26.817144393921 2.094999790192 188 188 188
25.754570007324 26.817144393921 2.036999702454 177 177 177
25.754570007324 26.817144393921 1.980999946594 184 184 184
25.319175720215 26.684993743896 2.128999710083 154 154 154
25.256683349609 26.683969497681 2.066999912262 206 206 206
25.756616592407 26.692159652710 2.097000122070 196 196 196
25.756616592407 26.692159652710 2.040999889374 172 172 172
25.756616592407 26.692159652710 1.982999801636 180 180 180
25.257707595825 26.621479034424 2.126999855042 147 147 147
25.257707595825 26.621479034424 2.066999912262 167 167 167
25.695148468018 26.628644943237 2.098000049591 186 186 186
25.757640838623 26.629669189453 2.040999889374 177 177 177
25.757640838623 26.629669189453 1.983999729156 185 185 185
25.258731842041 26.558986663818 2.125000000000 150 150 150
25.258731842041 26.558986663818 2.065000057220 202 202 202
25.758665084839 26.567176818848 2.097000122070 184 184 184
25.758665084839 26.567176818848 2.040999889374 178 178 178
25.758665084839 26.567176818848 1.986999988556 176 176 176
25.260778427124 26.434003829956 2.123000144958 122 122 122
25.260778427124 26.434003829956 2.059000015259 230 230 230
25.760711669922 26.442193984985 2.095999717712 182 182 182
25.760711669922 26.442193984985 2.042999744415 183 183 183
25.760711669922 26.442193984985 1.985000133514 179 179 179
25.261802673340 26.371511459351 2.121999740601 148 148 148
25.261802673340 26.371511459351 2.059000015259 227 227 227
25.761735916138 26.379701614380 2.098000049591 191 191 191
25.761735916138 26.379701614380 2.041999816895 168 168 168
25.761735916138 26.379701614380 1.986999988556 181 181 181
25.262826919556 26.309020996094 2.119999885559 149 149 149
25.262826919556 26.309020996094 2.058000087738 225 225 225
25.762760162354 26.317211151123 2.097000122070 198 198 198
25.825250625610 26.318235397339 2.042999744415 181 181 181
25.825250625610 26.318235397339 1.985000133514 178 178 178
25.202381134033 26.183013916016 2.120999813080 145 145 145
25.202381134033 26.183013916016 2.056999683380 224 224 224
25.764806747437 26.192228317261 2.095999717712 201 201 201
25.764806747437 26.192228317261 2.045000076294 186 186 186
25.764806747437 26.192228317261 1.986000061035 178 178 178
25.265897750854 26.121545791626 2.117000102997 151 151 151
25.265897750854 26.121545791626 2.054999828339 223 223 223
25.765830993652 26.129735946655 2.092000007629 212 212 212
25.765830993652 26.129735946655 2.045000076294 181 181 181
25.765830993652 26.129735946655 1.986999988556 181 181 181
25.204429626465 26.058029174805 2.117000102997 149 149 149
25.204429626465 26.058029174805 2.052999973297 227 227 227
25.704362869263 26.066219329834 2.089999675751 219 219 219
25.766855239868 26.067243576050 2.045000076294 184 184 184
25.766855239868 26.067243576050 1.987999916077 183 183 183
25.766855239868 26.067243576050 1.928999900818 35 35 35
25.206476211548 25.933046340942 2.115999698639 149 149 149
25.206476211548 25.933046340942 2.051000118256 228 228 228
25.706409454346 25.941236495972 2.081999778748 222 222 222
25.831392288208 25.943284988403 2.046000003815 182 182 182
25.831392288208 25.943284988403 1.988999843597 183 183 183
25.831392288208 25.943284988403 1.933000087738 71 71 71
25.269992828369 25.871580123901 2.113999843597 137 137 137
25.145009994507 25.869531631470 2.048999786377 233 233 233
25.269992828369 25.871580123901 1.996999740601 199 199 199
25.832416534424 25.880794525146 2.046000003815 185 185 185
25.769926071167 25.879770278931 1.988999843597 177 177 177
25.832416534424 25.880794525146 1.933000087738 121 121 121
25.208524703979 25.808063507080 2.112999916077 123 123 123
25.208524703979 25.808063507080 2.048999786377 213 213 213
25.271017074585 25.809087753296 1.990999698639 193 193 193
25.770950317383 25.817277908325 2.046000003815 169 169 169
25.770950317383 25.817277908325 1.989999771118 176 176 176
25.770950317383 25.817277908325 1.933000087738 137 137 137
25.210571289063 25.683080673218 2.113999843597 112 112 112
25.210571289063 25.683080673218 2.047999858856 217 217 217
25.210571289063 25.683080673218 1.983999729156 210 210 210
25.772996902466 25.692295074463 2.047999858856 186 186 186
25.772996902466 25.692295074463 1.990999698639 175 175 175
25.772996902466 25.692295074463 1.934999942780 152 152 152
25.211595535278 25.620588302612 2.110000133514 114 114 114
25.211595535278 25.620588302612 2.054999828339 169 169 169
25.211595535278 25.620588302612 1.993999958038 161 161 161
25.836511611938 25.630826950073 2.049999713898 185 185 185
25.836511611938 25.630826950073 1.989999771118 178 178 178
25.836511611938 25.630826950073 1.934000015259 160 160 160
25.212619781494 25.558097839355 2.111000061035 107 107 107
25.212619781494 25.558097839355 2.046000003815 213 213 213
25.212619781494 25.558097839355 1.981999874115 210 210 210
25.837535858154 25.568336486816 2.048999786377 184 184 184
25.837535858154 25.568336486816 1.993000030518 177 177 177
25.837535858154 25.568336486816 1.935999870300 163 163 163
25.213644027710 25.495605468750 2.108999729156 127 127 127
25.213644027710 25.495605468750 2.046000003815 145 145 145
25.714599609375 25.441303253174 2.086999893188 193 193 193
25.838560104370 25.505844116211 2.051000118256 168 168 168
25.777091979980 25.442327499390 1.992000102997 153 153 153
25.777091979980 25.442327499390 1.934999942780 157 157 157
25.152175903320 25.432088851929 2.105999946594 129 129 129
25.214666366577 25.433113098145 2.046000003815 152 152 152
25.152175903320 25.432088851929 1.976999759674 126 126 126
25.840606689453 25.380861282349 2.048999786377 161 161 161
25.840606689453 25.380861282349 1.993999958038 152 152 152
25.840606689453 25.380861282349 1.934999942780 157 157 157
25.154224395752 25.307106018066 2.105000019073 124 124 124
25.154224395752 25.307106018066 2.042999744415 156 156 156
25.154224395752 25.307106018066 1.979000091553 129 129 129
25.841630935669 25.318368911743 2.049999713898 155 155 155
25.841630935669 25.318368911743 1.994999885559 156 156 156
25.841630935669 25.318368911743 1.935999870300 154 154 154
25.217739105225 25.245639801025 2.104000091553 113 113 113
25.217739105225 25.245639801025 2.042999744415 163 163 163
25.217739105225 25.245639801025 1.982999801636 146 146 146
25.842655181885 25.255878448486 2.052000045776 158 158 158
25.842655181885 25.255878448486 1.995999813080 152 152 152
25.842655181885 25.255878448486 1.936999797821 158 158 158
25.156270980835 25.182123184204 2.102999687195 113 113 113
25.407260894775 25.123727798462 2.088999748230 155 155 155
25.656204223633 25.190315246582 2.075999736786 136 136 136
25.907194137573 25.131917953491 2.052000045776 157 157 157
25.782211303711 25.129869461060 1.993999958038 156 156 156
25.843677520752 25.193386077881 1.939000129700 155 155 155
25.656204223633 25.190315246582 1.844999790192 158 158 158
25.656204223633 25.190315246582 1.786999702454 158 158 158
25.656204223633 25.190315246582 1.727999687195 162 162 162
25.656204223633 25.190315246582 1.670000076294 158 158 158
25.656204223633 25.190315246582 1.610000133514 162 162 162
25.656204223633 25.190315246582 1.546999931335 161 161 161
25.657228469849 25.127822875977 1.490999698639 160 160 160
25.656204223633 25.190315246582 1.423999786377 146 146 146
25.408285140991 25.061237335205 2.146999835968 134 134 134
25.720743179321 25.066354751587 2.132999897003 160 160 160
25.720743179321 25.066354751587 2.080999851227 178 178 178
25.845726013184 25.068403244019 2.051000118256 160 160 160
25.845726013184 25.068403244019 1.993999958038 160 160 160
25.845726013184 25.068403244019 1.939000129700 160 160 160
25.720743179321 25.066354751587 1.848999977112 170 170 170
25.720743179321 25.066354751587 1.789999961853 167 167 167
25.720743179321 25.066354751587 1.729000091553 170 170 170
25.720743179321 25.066354751587 1.671000003815 168 168 168
25.720743179321 25.066354751587 1.612999916077 169 169 169
25.720743179321 25.066354751587 1.553999900818 168 168 168
25.720743179321 25.066354751587 1.490999698639 167 167 167
25.720743179321 25.066354751587 1.428999900818 152 152 152
25.409309387207 24.998744964600 2.143000125885 137 137 137
25.721767425537 25.003862380981 2.133999824524 159 159 159
25.784259796143 25.004886627197 2.091000080109 176 176 176
25.847772598267 24.943420410156 2.052999973297 166 166 166
25.847772598267 24.943420410156 1.995999813080 163 163 163
25.847772598267 24.943420410156 1.941999912262 162 162 162
25.721767425537 25.003862380981 1.854000091553 156 156 156
25.721767425537 25.003862380981 1.790999889374 166 166 166
25.721767425537 25.003862380981 1.732999801636 167 167 167
25.721767425537 25.003862380981 1.672999858856 162 162 162
25.721767425537 25.003862380981 1.611000061035 149 149 149
25.721767425537 25.003862380981 1.551000118256 160 160 160
25.721767425537 25.003862380981 1.494999885559 161 161 161
25.721767425537 25.003862380981 1.427000045776 157 157 157
25.596784591675 25.001815795898 1.332999706268 150 150 150
25.596784591675 25.001815795898 1.266999959946 146 146 146
25.596784591675 25.001815795898 1.200999975204 145 145 145
25.411355972290 24.873762130737 2.145999908447 102 102 102
25.660299301147 24.940349578857 2.132999897003 156 156 156
25.722789764404 24.941371917725 2.082999706268 177 177 177
25.847772598267 24.943420410156 2.052000045776 162 162 162
25.847772598267 24.943420410156 1.994999885559 161 161 161
25.847772598267 24.943420410156 1.940000057220 160 160 160
25.722789764404 24.941371917725 1.851999759674 169 169 169
25.722789764404 24.941371917725 1.794000148773 169 169 169
25.722789764404 24.941371917725 1.731999874115 168 168 168
25.660299301147 24.940349578857 1.671000003815 173 173 173
25.722789764404 24.941371917725 1.612999916077 170 170 170
25.722789764404 24.941371917725 1.552999973297 169 169 169
25.722789764404 24.941371917725 1.493000030518 164 164 164
25.660299301147 24.940349578857 1.428999900818 163 163 163
25.597806930542 24.939325332642 1.332999706268 158 158 158
25.597806930542 24.939325332642 1.269999980927 152 152 152
25.597806930542 24.939325332642 1.201999902725 142 142 142
25.412380218506 24.811269760132 2.147999763489 95 95 95
25.662347793579 24.815364837646 2.135999679565 156 156 156
25.662347793579 24.815364837646 2.084000110626 179 179 179
25.912313461304 24.819459915161 2.062999725342 150 150 150
25.912313461304 24.819459915161 2.008999824524 148 148 148
25.912313461304 24.819459915161 1.950999736786 150 150 150
25.787330627441 24.817411422729 1.861999988556 169 169 169
25.662347793579 24.815364837646 1.792999744415 169 169 169
25.662347793579 24.815364837646 1.732999801636 171 171 171
25.662347793579 24.815364837646 1.672999858856 169 169 169
25.662347793579 24.815364837646 1.613999843597 170 170 170
25.662347793579 24.815364837646 1.552999973297 171 171 171
25.662347793579 24.815364837646 1.493999958038 170 170 170
25.662347793579 24.815364837646 1.429999828339 163 163 163
25.474872589111 24.812292098999 1.300999879837 82 82 82
25.412380218506 24.811269760132 1.146999835968 140 140 140
25.225929260254 24.745706558228 2.112999916077 96 96 96
25.600879669189 24.751850128174 2.118999958038 87 87 87
25.725862503052 24.753896713257 2.079999923706 153 153 153
25.913337707520 24.756969451904 2.068999767303 149 149 149
25.913337707520 24.756969451904 2.010999679565 153 153 153
25.913337707520 24.756969451904 1.954999923706 155 155 155
25.913337707520 24.756969451904 1.901999950409 144 144 144
25.725862503052 24.753896713257 1.790999889374 163 163 163
25.725862503052 24.753896713257 1.733999729156 165 165 165
25.725862503052 24.753896713257 1.672999858856 170 170 170
25.725862503052 24.753896713257 1.613999843597 170 170 170
25.725862503052 24.753896713257 1.553999900818 165 165 165
25.725862503052 24.753896713257 1.492000102997 165 165 165
25.725862503052 24.753896713257 1.429999828339 160 160 160
25.039478302002 24.680143356323 2.085999965668 135 135 135
25.039478302002 24.680143356323 2.022999763489 152 152 152
25.039478302002 24.680143356323 1.956999778748 151 151 151
25.976852416992 24.695499420166 2.080999851227 112 112 112
25.915384292603 24.631986618042 2.021999835968 164 164 164
25.976852416992 24.695499420166 1.967999935150 163 163 163
25.915384292603 24.631986618042 1.910999774933 149 149 149
25.104017257690 24.556184768677 2.085999965668 129 129 129
25.104017257690 24.556184768677 2.020999908447 150 150 150
25.041526794434 24.555160522461 1.954999923706 155 155 155
25.916408538818 24.569494247437 2.078999996185 86 86 86
25.916408538818 24.569494247437 2.022999763489 163 163 163
25.916408538818 24.569494247437 1.967999935150 164 164 164
25.916408538818 24.569494247437 1.911999702454 162 162 162
25.042551040649 24.492668151855 2.082999706268 122 122 122
25.042551040649 24.492668151855 2.019000053406 156 156 156
25.042551040649 24.492668151855 1.955999851227 158 158 158
25.979925155640 24.508024215698 2.080999851227 79 79 79
25.979925155640 24.508024215698 2.022999763489 158 158 158
25.979925155640 24.508024215698 1.968999862671 160 160 160
25.980947494507 24.445533752441 1.917999744415 160 160 160
25.043573379517 24.430177688599 2.080999851227 148 148 148
25.043573379517 24.430177688599 2.019999980927 152 152 152
25.043573379517 24.430177688599 1.954999923706 154 154 154
26.044462203979 24.384065628052 2.095999717712 154 154 154
26.044462203979 24.384065628052 2.042999744415 162 162 162
26.044462203979 24.384065628052 1.990999698639 154 154 154
26.043437957764 24.446557998657 1.933000087738 162 162 162
26.043437957764 24.446557998657 1.876999855042 157 157 157
25.045621871948 24.305194854736 2.080999851227 147 147 147
25.108112335205 24.306219100952 2.020999908447 161 161 161
25.108112335205 24.306219100952 1.954999923706 161 161 161
26.045486450195 24.321575164795 2.092999935150 152 152 152
26.045486450195 24.321575164795 2.040999889374 151 151 151
26.045486450195 24.321575164795 1.987999916077 153 153 153
26.045486450195 24.321575164795 1.933000087738 152 152 152
26.045486450195 24.321575164795 1.875999927521 161 161 161
25.046646118164 24.242702484131 2.078999996185 151 151 151
25.046646118164 24.242702484131 2.019000053406 161 161 161
25.046646118164 24.242702484131 1.954999923706 157 157 157
26.046510696411 24.259082794189 2.092999935150 150 150 150
26.046510696411 24.259082794189 2.039999961853 154 154 154
26.109003067017 24.260107040405 1.987999916077 152 152 152
26.046510696411 24.259082794189 1.933000087738 160 160 160
26.109003067017 24.260107040405 1.878999710083 163 163 163
25.047670364380 24.180210113525 2.078000068665 155 155 155
25.047670364380 24.180210113525 2.015999794006 159 159 159
25.047670364380 24.180210113525 1.947999954224 157 157 157
26.047534942627 24.196590423584 2.092000007629 150 150 150
26.047534942627 24.196590423584 2.040999889374 151 151 151
26.047534942627 24.196590423584 1.986999988556 160 160 160
26.047534942627 24.196590423584 1.931999683380 161 161 161
26.047534942627 24.196590423584 1.880000114441 160 160 160
25.513856887817 30.063636779785 2.054999828339 121 121 121
25.513856887817 30.063636779785 2.127999782562 110 110 110
25.514881134033 30.001144409180 2.059999942780 190 190 190
25.514881134033 30.001144409180 2.127999782562 168 168 168
25.453411102295 29.937629699707 2.056999683380 152 152 152
25.515903472900 29.938653945923 2.126999855042 150 150 150
25.455459594727 29.812646865845 2.055999755859 145 145 145
25.455459594727 29.812646865845 2.130000114441 143 143 143
25.516927719116 29.876161575317 2.202000141144 126 126 126
25.516927719116 29.876161575317 2.269999980927 107 107 107
25.455459594727 29.812646865845 2.323999881744 43 43 43
25.518976211548 29.751178741455 2.053999900818 164 164 164
25.580444335938 29.814695358276 2.135999679565 137 137 137
25.518976211548 29.751178741455 2.198999881744 152 152 152
25.580444335938 29.814695358276 2.269999980927 145 145 145
25.457508087158 29.687662124634 2.053999900818 163 163 163
25.520000457764 29.688686370850 2.125999927521 151 151 151
25.520000457764 29.688686370850 2.199999809265 48 48 48
25.520000457764 29.688686370850 2.270999908447 57 57 57
25.458530426025 29.625171661377 2.052000045776 149 149 149
25.458530426025 29.625171661377 2.125999927521 165 165 165
25.523071289063 29.501213073730 2.052999973297 151 151 151
25.459554672241 29.562679290771 2.125999927521 169 169 169
25.524095535278 29.438720703125 2.052999973297 155 155 155
25.524095535278 29.438720703125 2.123000144958 159 159 159
25.463649749756 29.312713623047 2.053999900818 143 143 143
25.525117874146 29.376228332520 2.125000000000 174 174 174
25.464673995972 29.250221252441 2.054999828339 172 172 172
25.463649749756 29.312713623047 2.126999855042 166 166 166
25.528190612793 29.188755035400 2.054999828339 156 156 156
25.528190612793 29.188755035400 2.126999855042 177 177 177
25.467744827271 29.062746047974 2.054999828339 150 150 150
25.529212951660 29.126262664795 2.125999927521 162 162 162
25.530237197876 29.063770294189 1.993000030518 75 75 75
25.530237197876 29.063770294189 2.065000057220 151 151 151
25.530237197876 29.063770294189 2.134999752045 159 159 159
25.469793319702 28.937763214111 1.993999958038 120 120 120
25.531261444092 29.001279830933 2.065999984741 152 152 152
25.531261444092 29.001279830933 2.135999679565 177 177 177
25.594778060913 28.939811706543 2.000000000000 99 99 99
25.594778060913 28.939811706543 2.069999694824 141 141 141
25.594778060913 28.939811706543 2.139999866486 181 181 181
25.534332275391 28.813804626465 2.001999855042 95 95 95
25.534332275391 28.813804626465 2.071000099182 189 189 189
25.534332275391 28.813804626465 2.138000011444 182 182 182
25.535356521606 28.751312255859 2.001999855042 103 103 103
25.535356521606 28.751312255859 2.071000099182 185 185 185
25.535356521606 28.751312255859 2.138999938965 184 184 184
25.598873138428 28.689846038818 2.000000000000 116 116 116
25.536380767822 28.688821792603 2.074999809265 192 192 192
25.598873138428 28.689846038818 2.138999938965 178 178 178
25.600919723511 28.564863204956 2.005000114441 121 121 121
25.600919723511 28.564863204956 2.073999881744 184 184 184
25.538427352905 28.563838958740 2.131999969482 188 188 188
25.539451599121 28.501346588135 2.003999710083 141 141 141
25.539451599121 28.501346588135 2.072999954224 161 161 161
25.477983474731 28.437829971313 2.126999855042 188 188 188
25.540475845337 28.438854217529 2.003999710083 148 148 148
25.540475845337 28.438854217529 2.075999736786 149 149 149
25.479007720947 28.375339508057 2.120999813080 196 196 196
25.605014801025 28.314895629883 2.006000041962 155 155 155
25.605014801025 28.314895629883 2.077000141144 153 153 153
25.480030059814 28.312847137451 2.120999813080 198 198 198
25.606039047241 28.252405166626 2.008999824524 150 150 150
25.605014801025 28.314895629883 2.080999851227 179 179 179
25.419588088989 28.186840057373 2.111999988556 200 200 200
25.607063293457 28.189912796021 2.013000011444 164 164 164
25.607063293457 28.189912796021 2.082999706268 177 177 177
25.420612335205 28.124347686768 2.110000133514 201 201 201
25.545595169067 28.126396179199 2.013999938965 164 164 164
25.608087539673 28.127420425415 2.084000110626 180 180 180
25.422658920288 27.999364852905 2.105999946594 201 201 201
25.609109878540 28.064929962158 2.015999794006 162 162 162
25.609109878540 28.064929962158 2.085999965668 176 176 176
25.423683166504 27.936874389648 2.102999687195 199 199 199
25.611158370972 27.939947128296 2.016999721527 164 164 164
25.611158370972 27.939947128296 2.087999820709 167 167 167
25.363237380981 27.810867309570 2.099999904633 196 196 196
25.612182617188 27.877454757690 2.018000125885 158 158 158
25.612182617188 27.877454757690 2.085999965668 156 156 156
25.364261627197 27.748376846313 2.098000049591 192 192 192
25.613204956055 27.814962387085 2.019999980927 176 176 176
25.613204956055 27.814962387085 2.088999748230 158 158 158
25.366310119629 27.623394012451 2.093999862671 188 188 188
25.677743911743 27.691001892090 2.022999763489 169 169 169
25.676719665527 27.753494262695 2.092999935150 177 177 177
25.367332458496 27.560901641846 2.094999790192 194 194 194
25.616277694702 27.627489089966 2.023999691010 173 173 173
25.677743911743 27.691001892090 2.097000122070 184 184 184
25.305866241455 27.497385025024 2.092000007629 196 196 196
25.617300033569 27.564996719360 2.027999877930 179 179 179
25.679790496826 27.566019058228 2.097000122070 185 185 185
25.369380950928 27.435918807983 2.092000007629 193 193 193
25.618324279785 27.502504348755 2.032000064850 180 180 180
25.618324279785 27.502504348755 2.098000049591 179 179 179
25.371427536011 27.310934066772 2.089999675751 197 197 197
25.681838989258 27.441036224365 1.968999862671 47 47 47
25.681838989258 27.441036224365 2.033999919891 178 178 178
25.681838989258 27.441036224365 2.102999687195 182 182 182
25.310985565186 27.184926986694 2.089999675751 198 198 198
25.682863235474 27.378543853760 1.969999790192 91 91 91
25.682863235474 27.378543853760 2.039000034332 185 185 185
25.682863235474 27.378543853760 2.106999874115 184 184 184
25.312009811401 27.122436523438 2.088999748230 197 197 197
25.683885574341 27.316051483154 1.973999977112 117 117 117
25.683885574341 27.316051483154 2.039999961853 179 179 179
25.683885574341 27.316051483154 2.106999874115 183 183 183
25.313034057617 27.059944152832 2.085999965668 192 192 192
25.748426437378 27.192092895508 1.973000049591 137 137 137
25.748426437378 27.192092895508 2.039999961853 177 177 177
25.748426437378 27.192092895508 2.106999874115 183 183 183
25.314056396484 26.997451782227 2.086999893188 194 194 194
25.749450683594 27.129602432251 1.974999904633 136 136 136
25.749450683594 27.129602432251 2.044000148773 181 181 181
25.749450683594 27.129602432251 2.111000061035 185 185 185
25.315080642700 26.934961318970 2.084000110626 194 194 194
25.687980651855 27.066085815430 1.974999904633 153 153 153
25.687980651855 27.066085815430 2.044000148773 164 164 164
25.687980651855 27.066085815430 2.106999874115 181 181 181
25.254636764526 26.808954238892 2.082999706268 193 193 193
25.690029144287 26.941102981567 1.975999832153 173 173 173
25.690029144287 26.941102981567 2.045000076294 170 170 170
25.690029144287 26.941102981567 2.107999801636 165 165 165
25.318151473999 26.747486114502 2.078999996185 188 188 188
25.752521514893 26.942127227783 1.980000019073 160 160 160
25.752521514893 26.942127227783 2.046999931335 160 160 160
25.753545761108 26.879634857178 2.110000133514 165 165 165
25.257707595825 26.621479034424 2.078000068665 137 137 137
25.754570007324 26.817144393921 1.980000019073 174 174 174
25.754570007324 26.817144393921 2.047999858856 168 168 168
25.754570007324 26.817144393921 2.111999988556 153 153 153
25.258731842041 26.558986663818 2.075999736786 190 190 190
25.755592346191 26.754652023315 1.982999801636 176 176 176
25.755592346191 26.754652023315 2.049999713898 159 159 159
25.694124221802 26.691135406494 2.101999759674 214 214 214
25.323270797729 26.435028076172 2.073999881744 201 201 201
25.694124221802 26.691135406494 1.983999729156 173 173 173
25.756616592407 26.692159652710 2.052000045776 146 146 146
25.633682250977 26.565130233765 2.092000007629 224 224 224
25.261802673340 26.371511459351 2.074999809265 200 200 200
25.758665084839 26.567176818848 1.986000061035 169 169 169
25.821155548096 26.568201065063 2.055999755859 151 151 151
25.262826919556 26.309020996094 1.998000144958 188 188 188
25.262826919556 26.309020996094 2.073999881744 198 198 198
25.759687423706 26.504686355591 1.987999916077 167 167 167
25.759687423706 26.504686355591 2.055999755859 168 168 168
25.264873504639 26.184038162231 1.993000030518 186 186 186
25.202381134033 26.183013916016 2.072000026703 199 199 199
25.760711669922 26.442193984985 1.988999843597 157 157 157
25.760711669922 26.442193984985 2.058000087738 149 149 149
25.265897750854 26.121545791626 2.002999782562 194 194 194
25.265897750854 26.121545791626 2.072000026703 199 199 199
25.762760162354 26.317211151123 1.993000030518 159 159 159
25.762760162354 26.317211151123 2.059000015259 145 145 145
25.266921997070 26.059053421021 2.000000000000 198 198 198
25.266921997070 26.059053421021 2.072000026703 199 199 199
25.825250625610 26.318235397339 1.993999958038 154 154 154
25.825250625610 26.318235397339 2.059000015259 172 172 172
25.206476211548 25.933046340942 1.995999813080 198 198 198
25.206476211548 25.933046340942 2.067999839783 200 200 200
25.764806747437 26.192228317261 1.993999958038 155 155 155
25.764806747437 26.192228317261 2.060999870300 178 178 178
25.269992828369 25.871580123901 1.993000030518 197 197 197
25.269992828369 25.871580123901 2.068999767303 199 199 199
25.765830993652 26.129735946655 1.994999885559 167 167 167
25.765830993652 26.129735946655 2.060999870300 176 176 176
25.271017074585 25.809087753296 1.992000102997 194 194 194
25.271017074585 25.809087753296 2.065000057220 193 193 193
25.766855239868 26.067243576050 1.993999958038 164 164 164
25.766855239868 26.067243576050 2.059999942780 173 173 173
25.210571289063 25.683080673218 1.989999771118 198 198 198
25.210571289063 25.683080673218 2.064000129700 190 190 190
25.831392288208 25.943284988403 1.934999942780 34 34 34
25.831392288208 25.943284988403 1.994999885559 157 157 157
25.831392288208 25.943284988403 2.064000129700 168 168 168
25.211595535278 25.620588302612 1.993000030518 168 168 168
25.211595535278 25.620588302612 2.061999797821 159 159 159
25.832416534424 25.880794525146 1.934999942780 77 77 77
25.832416534424 25.880794525146 1.998000144958 157 157 157
25.832416534424 25.880794525146 2.062999725342 167 167 167
25.212619781494 25.558097839355 1.986000061035 191 191 191
25.212619781494 25.558097839355 2.059000015259 178 178 178
25.770950317383 25.817277908325 1.935999870300 95 95 95
25.770950317383 25.817277908325 1.999000072479 147 147 147
25.770950317383 25.817277908325 2.066999912262 152 152 152
25.214666366577 25.433113098145 1.986999988556 117 117 117
25.214666366577 25.433113098145 2.061999797821 119 119 119
25.772996902466 25.692295074463 1.940000057220 98 98 98
25.835487365723 25.693319320679 2.000999927521 152 152 152
25.835487365723 25.693319320679 2.065000057220 172 172 172
25.215690612793 25.370622634888 1.985000133514 119 119 119
25.215690612793 25.370622634888 2.060999870300 112 112 112
25.836511611938 25.630826950073 1.936999797821 118 118 118
25.836511611938 25.630826950073 2.003999710083 149 149 149
25.836511611938 25.630826950073 2.068999767303 169 169 169
25.154224395752 25.307106018066 1.986999988556 118 118 118
25.154224395752 25.307106018066 2.060999870300 118 118 118
25.837535858154 25.568336486816 1.939000129700 123 123 123
25.837535858154 25.568336486816 2.003999710083 146 146 146
25.837535858154 25.568336486816 2.067999839783 163 163 163
25.218761444092 25.183147430420 1.985000133514 113 113 113
25.218761444092 25.183147430420 2.059999942780 118 118 118
25.838560104370 25.505844116211 1.940000057220 131 131 131
25.838560104370 25.505844116211 2.006999969482 124 124 124
25.838560104370 25.505844116211 2.072000026703 125 125 125
25.219785690308 25.120655059814 1.982999801636 118 118 118
25.219785690308 25.120655059814 2.059000015259 122 122 122
25.468729019165 25.187242507935 1.474999904633 113 113 113
25.468729019165 25.187242507935 1.546999931335 119 119 119
25.468729019165 25.187242507935 1.618000030518 113 113 113
25.468729019165 25.187242507935 1.689000129700 116 116 116
25.468729019165 25.187242507935 1.760999679565 116 116 116
25.840606689453 25.380861282349 1.940999984741 130 130 130
25.840606689453 25.380861282349 2.006999969482 125 125 125
25.840606689453 25.380861282349 2.072999954224 125 125 125
25.406236648560 25.186220169067 2.039999961853 117 117 117
25.406236648560 25.186220169067 2.105999946594 121 121 121
25.593711853027 25.189291000366 1.447000026703 133 133 133
25.593711853027 25.189291000366 1.522999763489 122 122 122
25.593711853027 25.189291000366 1.592999935150 115 115 115
25.593711853027 25.189291000366 1.661999702454 115 115 115
25.593711853027 25.189291000366 1.730000019073 119 119 119
25.593711853027 25.189291000366 1.802000045776 117 117 117
25.841630935669 25.318368911743 1.940999984741 130 130 130
25.841630935669 25.318368911743 2.006999969482 123 123 123
25.841630935669 25.318368911743 2.073999881744 125 125 125
25.531219482422 25.188266754150 2.072000026703 118 118 118
25.532243728638 25.125774383545 2.130000114441 126 126 126
25.345794677734 25.060213088989 2.165999889374 52 52 52
25.533267974854 25.063283920288 1.188999891281 121 121 121
25.533267974854 25.063283920288 1.258999824524 135 135 135
25.533267974854 25.063283920288 1.351999759674 138 138 138
25.656204223633 25.190315246582 1.485000133514 160 160 160
25.656204223633 25.190315246582 1.553999900818 166 166 166
25.656204223633 25.190315246582 1.621999740601 168 168 168
25.656204223633 25.190315246582 1.692999839783 168 168 168
25.656204223633 25.190315246582 1.763000011444 167 167 167
25.656204223633 25.190315246582 1.829999923706 167 167 167
25.842655181885 25.255878448486 1.941999912262 129 129 129
25.842655181885 25.255878448486 2.009999752045 118 118 118
25.842655181885 25.255878448486 2.073999881744 127 127 127
25.656204223633 25.190315246582 2.098000049591 156 156 156
25.594736099243 25.126798629761 2.147999763489 127 127 127
25.410331726074 24.936254501343 2.165999889374 51 51 51
25.596784591675 25.001815795898 1.148999929428 130 130 130
25.596784591675 25.001815795898 1.221999883652 130 130 130
25.596784591675 25.001815795898 1.297999858856 129 129 129
25.658252716064 25.065332412720 1.387000083923 137 137 137
25.720743179321 25.066354751587 1.490999698639 152 152 152
25.720743179321 25.066354751587 1.556999683380 157 157 157
25.720743179321 25.066354751587 1.628999710083 152 152 152
25.720743179321 25.066354751587 1.698999881744 150 150 150
25.720743179321 25.066354751587 1.769000053406 152 152 152
25.720743179321 25.066354751587 1.837999820709 149 149 149
25.843677520752 25.193386077881 1.942999839783 136 136 136
25.843677520752 25.193386077881 2.008999824524 126 126 126
25.843677520752 25.193386077881 2.074999809265 128 128 128
25.720743179321 25.066354751587 2.105000019073 158 158 158
25.658252716064 25.065332412720 2.148999691010 118 118 118
25.162414550781 24.807172775269 2.125999927521 57 57 57
25.597806930542 24.939325332642 1.162999868393 132 132 132
25.597806930542 24.939325332642 1.233999967575 136 136 136
25.597806930542 24.939325332642 1.306999921799 135 135 135
25.660299301147 24.940349578857 1.387000083923 147 147 147
25.721767425537 25.003862380981 1.493999958038 148 148 148
25.721767425537 25.003862380981 1.558000087738 149 149 149
25.721767425537 25.003862380981 1.631000041962 120 120 120
25.721767425537 25.003862380981 1.697999954224 155 155 155
25.721767425537 25.003862380981 1.768000125885 155 155 155
25.721767425537 25.003862380981 1.841000080109 123 123 123
25.845726013184 25.068403244019 1.942999839783 132 132 132
25.908218383789 25.069427490234 2.009999752045 133 133 133
25.845726013184 25.068403244019 2.072999954224 135 135 135
25.721767425537 25.003862380981 2.104000091553 156 156 156
25.660299301147 24.940349578857 2.151999950409 103 103 103
25.164461135864 24.682189941406 2.125000000000 70 70 70
25.598831176758 24.876832962036 1.371999740601 186 186 186
25.722789764404 24.941371917725 1.495999813080 143 143 143
25.722789764404 24.941371917725 1.556999683380 153 153 153
25.722789764404 24.941371917725 1.627999782562 154 154 154
25.722789764404 24.941371917725 1.698999881744 153 153 153
25.722789764404 24.941371917725 1.764999866486 154 154 154
25.722789764404 24.941371917725 1.837999820709 150 150 150
25.846750259399 25.005910873413 1.942999839783 143 143 143
25.846750259399 25.005910873413 2.007999897003 148 148 148
25.846750259399 25.005910873413 2.073999881744 142 142 142
25.722789764404 24.941371917725 2.105000019073 157 157 157
25.598831176758 24.876832962036 2.150000095367 83 83 83
25.041526794434 24.555160522461 2.092999935150 82 82 82
25.662347793579 24.815364837646 1.486999988556 153 153 153
25.723814010620 24.878879547119 1.562999725342 150 150 150
25.662347793579 24.815364837646 1.627999782562 157 157 157
25.723814010620 24.878879547119 1.699999809265 149 149 149
25.662347793579 24.815364837646 1.765999794006 154 154 154
25.662347793579 24.815364837646 1.832999706268 154 154 154
25.847772598267 24.943420410156 1.940000057220 150 150 150
25.847772598267 24.943420410156 2.008999824524 157 157 157
25.847772598267 24.943420410156 2.073999881744 142 142 142
25.662347793579 24.815364837646 2.105000019073 154 154 154
25.600879669189 24.751850128174 2.135999679565 118 118 118
25.043573379517 24.430177688599 2.094999790192 129 129 129
25.725862503052 24.753896713257 1.490999698639 146 146 146
25.725862503052 24.753896713257 1.560999870300 151 151 151
25.725862503052 24.753896713257 1.630000114441 148 148 148
25.725862503052 24.753896713257 1.697999954224 149 149 149
25.725862503052 24.753896713257 1.769000053406 149 149 149
25.725862503052 24.753896713257 1.835999965668 148 148 148
25.848796844482 24.880928039551 1.953000068665 139 139 139
25.848796844482 24.880928039551 2.018000125885 139 139 139
25.848796844482 24.880928039551 2.081999778748 132 132 132
25.725862503052 24.753896713257 2.099999904633 138 138 138
25.044597625732 24.367685317993 2.026999950409 135 135 135
25.044597625732 24.367685317993 2.093999862671 139 139 139
25.912313461304 24.819459915161 1.949999809265 159 159 159
25.912313461304 24.819459915161 2.018000125885 160 160 160
25.912313461304 24.819459915161 2.080999851227 128 128 128
25.108112335205 24.306219100952 1.948999881744 138 138 138
25.108112335205 24.306219100952 2.023999691010 135 135 135
25.045621871948 24.305194854736 2.092999935150 141 141 141
25.975830078125 24.757991790771 1.907000064850 102 102 102
25.914360046387 24.694477081299 1.961999893188 147 147 147
25.914360046387 24.694477081299 2.028999805450 148 148 148
24.985177993774 24.179185867310 1.854000091553 60 60 60
25.109136581421 24.243726730347 1.948999881744 134 134 134
25.109136581421 24.243726730347 2.026000022888 137 137 137
25.047670364380 24.180210113525 2.091000080109 133 133 133
25.976852416992 24.695499420166 1.913000106812 119 119 119
25.976852416992 24.695499420166 1.973000049591 154 154 154
25.915384292603 24.631986618042 2.032999992371 157 157 157
25.048692703247 24.117719650269 1.940000057220 63 63 63
25.048692703247 24.117719650269 2.016999721527 73 73 73
