11.352055549622 11.165433883667 42.279003143311 217 217 217
11.385778427124 11.145718574524 42.250003814697 227 227 227
11.783306121826 10.971226692200 42.300998687744 223 223 223
11.783306121826 10.971226692200 42.264003753662 222 222 222
11.783306121826 10.971226692200 42.228000640869 220 220 220
11.783306121826 10.971226692200 42.190998077393 224 224 224
11.766891479492 10.977203369141 42.150997161865 91 91 91
11.365611076355 11.457958221436 42.308002471924 182 182 182
11.381134033203 11.459742546082 42.270999908447 225 225 225
11.713003158569 11.309158325195 42.310001373291 225 225 225
11.745833396912 11.297204971313 42.282001495361 222 222 222
11.745833396912 11.297204971313 42.246997833252 214 214 214
11.745833396912 11.297204971313 42.210002899170 220 220 220
11.745833396912 11.297204971313 42.174999237061 193 193 193
11.409319877625 11.761813163757 42.302997589111 195 195 195
11.476765632629 11.722382545471 42.282001495361 226 226 226
11.725666999817 11.609444618225 42.299999237061 217 217 217
11.725666999817 11.609444618225 42.265003204346 218 218 218
11.725666999817 11.609444618225 42.228000640869 216 216 216
11.725666999817 11.609444618225 42.191997528076 216 216 216
11.405569076538 12.068076133728 42.329998016357 91 91 91
11.421984672546 12.062099456787 42.297000885010 194 194 194
11.669101715088 11.964683532715 42.310001373291 222 222 222
11.688193321228 11.935422897339 42.281002044678 218 218 218
11.688193321228 11.935422897339 42.244998931885 210 210 210
11.688193321228 11.935422897339 42.209003448486 215 215 215
11.687301635742 11.943183898926 42.172000885010 160 160 160
11.451063156128 12.356408119202 42.322002410889 146 146 146
11.533138275146 12.326523780823 42.303997039795 208 208 208
11.666242599487 12.263185501099 42.298000335693 223 223 223
11.666242599487 12.263185501099 42.263004302979 223 223 223
11.668026924133 12.247662544250 42.227001190186 223 223 223
11.668026924133 12.247662544250 42.190998077393 212 212 212
11.480141639709 12.650716781616 42.319004058838 176 176 176
11.613246917725 12.587378501892 42.315998077393 212 212 212
11.630553245544 12.573640823364 42.283000946045 223 223 223
11.613246917725 12.587378501892 42.243999481201 223 223 223
11.614138603210 12.579617500305 42.209003448486 222 222 222
11.614138603210 12.579617500305 42.173999786377 115 115 115
11.558465957642 12.927095413208 42.326000213623 162 162 162
11.608602523804 12.901402473450 42.301998138428 220 220 220
11.608602523804 12.901402473450 42.265003204346 220 220 220
11.610386848450 12.885880470276 42.230998992920 220 220 220
11.608602523804 12.901402473450 42.194004058838 208 208 208
11.503684997559 13.266812324524 42.338001251221 89 89 89
11.588436126709 13.213643074036 42.322002410889 203 203 203
11.588436126709 13.213643074036 42.286998748779 210 210 210
11.588436126709 13.213643074036 42.251003265381 221 221 221
11.588436126709 13.213643074036 42.215000152588 204 204 204
11.588436126709 13.213643074036 42.177997589111 103 103 103
12.131446838379 8.353231430054 42.136997222900 89 89 89
12.116815567017 8.343686103821 42.171001434326 85 85 85
12.116815567017 8.343686103821 42.203998565674 87 87 87
12.116815567017 8.343686103821 42.239002227783 90 90 90
12.116815567017 8.343686103821 42.274997711182 96 96 96
12.116815567017 8.343686103821 42.311000823975 85 85 85
12.109496116638 8.680994987488 42.120998382568 133 133 133
12.109496116638 8.680994987488 42.157001495361 143 143 143
12.109496116638 8.680994987488 42.192996978760 146 146 146
12.093973159790 8.679209709167 42.225002288818 144 144 144
12.093973159790 8.679209709167 42.259998321533 151 151 151
12.093973159790 8.679209709167 42.294002532959 147 147 147
12.093973159790 8.679209709167 42.329998016357 143 143 143
11.970500946045 8.932391166687 42.143001556396 150 150 150
11.970500946045 8.932391166687 42.177997589111 166 166 166
11.955870628357 8.922844886780 42.213001251221 170 170 170
11.970500946045 8.932391166687 42.250003814697 169 169 169
11.970500946045 8.932391166687 42.285999298096 163 163 163
11.985131263733 8.941936492920 42.325000762939 35 35 35
11.642200469971 9.051929473877 41.573001861572 213 213 213
11.772091865540 9.153364181519 41.659000396729 141 141 141
11.772091865540 9.153364181519 41.698001861572 147 147 147
11.772091865540 9.153364181519 41.737003326416 136 136 136
11.757461547852 9.143818855286 41.771999359131 158 158 158
11.757461547852 9.143818855286 41.811000823975 159 159 159
11.757461547852 9.143818855286 41.849002838135 158 158 158
11.772091865540 9.153364181519 41.889003753662 164 164 164
11.772091865540 9.153364181519 41.925998687744 168 168 168
11.757461547852 9.143818855286 41.961002349854 152 152 152
11.742830276489 9.134272575378 41.996997833252 154 154 154
11.772091865540 9.153364181519 42.041004180908 152 152 152
11.772091865540 9.153364181519 42.077999114990 145 145 145
11.888243675232 9.237492561340 42.148998260498 145 145 145
11.888243675232 9.237492561340 42.186000823975 156 156 156
11.888243675232 9.237492561340 42.221004486084 159 159 159
11.888243675232 9.237492561340 42.256999969482 155 155 155
11.888243675232 9.237492561340 42.293003082275 148 148 148
11.814198493958 9.197524070740 42.313999176025 149 149 149
11.757461547852 9.143818855286 42.333003997803 162 162 162
11.714461326599 9.107419967651 42.358997344971 113 113 113
11.452004432678 8.927832603455 42.340999603271 132 132 132
11.074286460876 8.656357765198 42.298000335693 125 125 125
11.074286460876 8.656357765198 42.338001251221 15 15 15
11.575467109680 9.358816146851 41.619998931885 225 225 225
11.618465423584 9.395214080811 41.679000854492 153 153 153
11.618465423584 9.395214080811 41.757999420166 154 154 154
11.619358062744 9.387453079224 41.791004180908 153 153 153
11.619358062744 9.387453079224 41.830997467041 150 150 150
11.604726791382 9.377906799316 41.867000579834 156 156 156
11.604726791382 9.377906799316 41.906002044678 150 150 150
11.604726791382 9.377906799316 41.944004058838 153 153 153
11.604726791382 9.377906799316 41.982997894287 152 152 152
11.604726791382 9.377906799316 42.018001556396 153 153 153
11.807770729065 9.527071952820 42.116001129150 148 148 148
11.881815910339 9.567038536072 42.173000335693 148 148 148
11.881815910339 9.567038536072 42.210002899170 144 144 144
11.881815910339 9.567038536072 42.243999481201 152 152 152
11.896446228027 9.576585769653 42.283000946045 151 151 151
11.852554321289 9.547947883606 42.311000823975 143 143 143
11.590097427368 9.368361473083 42.283000946045 151 151 151
11.575467109680 9.358816146851 42.319004058838 153 153 153
11.546205520630 9.339724540710 42.349002838135 134 134 134
11.415422439575 9.246049880981 42.360004425049 71 71 71
11.858079910278 9.910325050354 42.161998748779 198 198 198
11.842557907104 9.908539772034 42.196002960205 226 226 226
11.842557907104 9.908539772034 42.231998443604 226 226 226
11.843450546265 9.900778770447 42.267002105713 227 227 227
11.843450546265 9.900778770447 42.302997589111 220 220 220
11.262688636780 9.480138778687 42.194004058838 161 161 161
11.247166633606 9.478354454041 42.230998992920 139 139 139
11.233428001404 9.461047172546 42.269001007080 134 134 134
11.233428001404 9.461047172546 42.308002471924 90 90 90
11.806869506836 10.218995094299 42.141002655029 21 21 21
11.820606231689 10.236303329468 42.180004119873 222 222 222
11.820606231689 10.236303329468 42.216999053955 226 226 226
11.820606231689 10.236303329468 42.254001617432 226 226 226
11.820606231689 10.236303329468 42.287998199463 226 226 226
11.762084960938 10.198119163513 42.309001922607 128 128 128
11.298368453979 9.853846549988 42.229000091553 168 168 168
11.269107818604 9.834754943848 42.263004302979 157 157 157
11.238953590393 9.823423385620 42.298000335693 165 165 165
11.225215911865 9.806117057800 42.176998138428 164 164 164
11.814179420471 10.565850257874 42.163997650146 194 194 194
11.813286781311 10.573611259460 42.201000213623 223 223 223
11.798656463623 10.564065933228 42.233997344971 224 224 224
11.798656463623 10.564065933228 42.270000457764 227 227 227
11.798656463623 10.564065933228 42.306003570557 223 223 223
11.275525093079 10.189370155334 42.213001251221 220 220 220
11.275525093079 10.189370155334 42.253002166748 223 223 223
11.275525093079 10.189370155334 42.291004180908 205 205 205
11.790444374084 10.909135818481 42.184001922607 225 225 225
11.774921417236 10.907351493835 42.217998504639 208 208 208
11.774921417236 10.907351493835 42.254001617432 220 220 220
11.774921417236 10.907351493835 42.288997650146 226 226 226
11.296573638916 10.553530693054 42.204998016357 209 209 209
11.295681953430 10.561293601990 42.243999481201 220 220 220
11.281051635742 10.551746368408 42.282001495361 191 191 191
11.266421318054 10.542201042175 42.315998077393 60 60 60
11.737447738647 11.233328819275 42.166004180908 186 186 186
11.737447738647 11.233328819275 42.201999664307 224 224 224
11.737447738647 11.233328819275 42.238002777100 221 221 221
11.737447738647 11.233328819275 42.271999359131 224 224 224
11.737447738647 11.233328819275 42.307003021240 227 227 227
11.331360816956 10.935000419617 42.240001678467 221 221 221
11.315838813782 10.933216094971 42.278003692627 205 205 205
11.331360816956 10.935000419617 42.316997528076 146 146 146
11.715497016907 11.561091423035 42.185001373291 221 221 221
11.730128288269 11.570637702942 42.222003936768 219 219 219
11.715497016907 11.561091423035 42.256999969482 223 223 223
11.715497016907 11.561091423035 42.291004180908 223 223 223
11.424671173096 11.354651451111 42.255001068115 223 223 223
11.336887359619 11.297377586365 42.273998260498 209 209 209
11.352410316467 11.299161911011 42.312999725342 169 169 169
11.619502067566 11.848887443542 42.152004241943 211 211 211
11.678915977478 11.879308700562 42.201999664307 219 219 219
11.693547248840 11.888854026794 42.240001678467 216 216 216
11.678915977478 11.879308700562 42.273998260498 210 210 210
11.678915977478 11.879308700562 42.306003570557 224 224 224
11.404504776001 11.666892051697 42.272998809814 218 218 218
11.404504776001 11.666892051697 42.308002471924 184 184 184
11.640550613403 12.213047981262 42.184001922607 216 216 216
11.656073570251 12.214832305908 42.221004486084 225 225 225
11.656073570251 12.214832305908 42.256000518799 226 226 226
11.656073570251 12.214832305908 42.292003631592 226 226 226
11.509767532349 12.119374275208 42.292003631592 223 223 223
11.421984672546 12.062099456787 42.309001922607 191 191 191
11.603076934814 12.539026260376 42.163997650146 48 48 48
11.633230209351 12.550355911255 42.204998016357 225 225 225
11.633230209351 12.550355911255 42.240001678467 226 226 226
11.633230209351 12.550355911255 42.274997711182 226 226 226
11.618599891663 12.540810585022 42.309001922607 222 222 222
11.459447860718 12.420284271240 42.302997589111 186 186 186
11.610386848450 12.885880470276 42.188999176025 201 201 201
11.595756530762 12.876334190369 42.222003936768 223 223 223
11.610386848450 12.885880470276 42.258998870850 226 226 226
11.610386848450 12.885880470276 42.295001983643 222 222 222
11.581126213074 12.866788864136 42.323001861572 179 179 179
11.465866088867 12.774899482727 42.330997467041 17 17 17
11.588436126709 13.213643074036 42.209003448486 205 205 205
11.588436126709 13.213643074036 42.243999481201 222 222 222
11.588436126709 13.213643074036 42.278003692627 214 214 214
11.588436126709 13.213643074036 42.313999176025 216 216 216
11.514391899109 13.173675537109 42.327999114990 136 136 136
11.412869453430 13.099093437195 42.343997955322 149 149 149
11.412869453430 13.099093437195 42.379001617432 161 161 161
11.412869453430 13.099093437195 42.416004180908 162 162 162
11.412869453430 13.099093437195 42.451999664307 147 147 147
11.427500724792 13.108638763428 42.491001129150 31 31 31
11.517778396606 13.417846679688 42.227001190186 55 55 55
11.518671035767 13.410085678101 42.261997222900 66 66 66
11.518671035767 13.410085678101 42.297000885010 76 76 76
11.518671035767 13.410085678101 42.331996917725 91 91 91
11.312950134277 13.284205436707 42.358997344971 70 70 70
11.312950134277 13.284205436707 42.395999908447 94 94 94
11.327581405640 13.293750762939 42.434001922607 74 74 74
11.313842773438 13.276443481445 42.466999053955 59 59 59
11.572021484375 13.219619750977 42.222003936768 205 205 205
11.572021484375 13.219619750977 42.257999420166 222 222 222
11.586651802063 13.229165077209 42.294002532959 223 223 223
11.572021484375 13.219619750977 42.328998565674 220 220 220
11.542760848999 13.200528144836 42.354999542236 168 168 168
11.566850662231 12.990970611572 42.196002960205 121 121 121
11.582372665405 12.992754936218 42.235004425049 220 220 220
11.582372665405 12.992754936218 42.270999908447 224 224 224
11.597003936768 13.002301216125 42.307003021240 211 211 211
11.582372665405 12.992754936218 42.341999053955 210 210 210
11.508328437805 12.952788352966 42.358997344971 116 116 116
11.591833114624 12.773652076721 42.212001800537 210 210 210
11.591833114624 12.773652076721 42.246997833252 226 226 226
11.591833114624 12.773652076721 42.284000396729 226 226 226
11.607355117798 12.775436401367 42.321002960205 226 226 226
11.504941940308 12.708615303040 42.334003448486 201 201 201
11.477464675903 12.674001693726 42.355998992920 91 91 91
11.616815567017 12.556333541870 42.194004058838 116 116 116
11.616815567017 12.556333541870 42.229000091553 225 225 225
11.603076934814 12.539026260376 42.264003753662 227 227 227
11.616815567017 12.556333541870 42.301998138428 227 227 227
11.603076934814 12.539026260376 42.334003448486 225 225 225
11.444817543030 12.410737037659 42.327999114990 203 203 203
11.643582344055 12.323492050171 42.216999053955 224 224 224
11.643582344055 12.323492050171 42.251003265381 225 225 225
11.643582344055 12.323492050171 42.286998748779 226 226 226
11.645366668701 12.307969093323 42.322002410889 227 227 227
11.440538406372 12.174326896667 42.308002471924 210 210 210
11.397539138794 12.137928962708 42.336002349854 167 167 167
11.671241760254 12.082888603210 42.201999664307 204 204 204
11.671241760254 12.082888603210 42.239002227783 219 219 219
11.671241760254 12.082888603210 42.274997711182 225 225 225
11.671241760254 12.082888603210 42.309001922607 224 224 224
11.598088264465 12.035159111023 42.327999114990 227 227 227
11.395044326782 11.885995864868 42.313999176025 196 196 196
11.395044326782 11.885995864868 42.349002838135 89 89 89
11.666961669922 11.846478462219 42.178997039795 108 108 108
11.680700302124 11.863785743713 42.222003936768 222 222 222
11.680700302124 11.863785743713 42.256000518799 216 216 216
11.680700302124 11.863785743713 42.293003082275 221 221 221
11.680700302124 11.863785743713 42.327999114990 226 226 226
11.377027511597 11.632277488708 42.286998748779 225 225 225
11.377027511597 11.632277488708 42.322002410889 190 190 190
11.706575393677 11.638705253601 42.201999664307 203 203 203
11.706575393677 11.638705253601 42.238002777100 223 223 223
11.691052436829 11.636920928955 42.271999359131 223 223 223
11.691052436829 11.636920928955 42.307003021240 226 226 226
11.663575172424 11.602307319641 42.330997467041 232 232 232
11.342596054077 11.384537696838 42.291004180908 220 220 220
11.342596054077 11.384537696838 42.328998565674 191 191 191
11.600774765015 11.327713012695 42.142002105713 246 246 246
11.716033935547 11.419602394104 42.216999053955 225 225 225
11.716033935547 11.419602394104 42.252002716064 223 223 223
11.716033935547 11.419602394104 42.286998748779 223 223 223
11.716033935547 11.419602394104 42.323001861572 225 225 225
11.339208602905 11.140364646912 42.264003753662 225 225 225
11.308162689209 11.136795997620 42.296001434326 218 218 218
11.309947967529 11.121273040771 42.331996917725 175 175 175
11.742801666260 11.186760902405 42.201000213623 220 220 220
11.742801666260 11.186760902405 42.235004425049 225 225 225
11.742801666260 11.186760902405 42.271999359131 225 225 225
11.742801666260 11.186760902405 42.307003021240 227 227 227
11.728170394897 11.177215576172 42.339000701904 206 206 206
11.321192741394 10.886647224426 42.272998809814 137 137 137
11.307454109192 10.869339942932 42.307003021240 189 189 189
11.739414215088 10.942589759827 42.174999237061 205 205 205
11.768675804138 10.961680412292 42.221004486084 224 224 224
11.768675804138 10.961680412292 42.256999969482 223 223 223
11.769567489624 10.953919410706 42.289997100830 226 226 226
11.769567489624 10.953919410706 42.325000762939 226 226 226
11.289436340332 10.615622520447 42.244998931885 223 223 223
11.273914337158 10.613838195801 42.282001495361 222 222 222
11.273914337158 10.613838195801 42.321002960205 191 191 191
11.794549942017 10.736600875854 42.205997467041 220 220 220
11.794549942017 10.736600875854 42.242000579834 225 225 225
11.779919624329 10.727054595947 42.274997711182 228 228 228
11.779919624329 10.727054595947 42.311000823975 228 228 228
11.243050575256 10.335051536560 42.213001251221 208 208 208
11.256788253784 10.352358818054 42.256999969482 224 224 224
11.256788253784 10.352358818054 42.297000885010 207 207 207
11.256788253784 10.352358818054 42.334003448486 136 136 136
11.804902076721 10.509736061096 42.187000274658 177 177 177
11.804902076721 10.509736061096 42.222003936768 224 224 224
11.804902076721 10.509736061096 42.256999969482 227 227 227
11.804902076721 10.509736061096 42.293003082275 226 226 226
11.805793762207 10.501975059509 42.326999664307 226 226 226
11.268032073975 10.117733001709 42.231998443604 201 201 201
11.253402709961 10.108187675476 42.269001007080 218 218 218
11.268924713135 10.109972000122 42.307003021240 215 215 215
11.815253257751 10.282871246338 42.200000762939 222 222 222
11.815253257751 10.282871246338 42.236003875732 227 227 227
11.830776214600 10.284655570984 42.271999359131 225 225 225
11.816145896912 10.275110244751 42.306003570557 227 227 227
11.786885261536 10.256017684937 42.333003997803 231 231 231
11.277492523193 9.898630142212 42.245998382568 172 172 172
11.262862205505 9.889084815979 42.282001495361 159 159 159
11.233600616455 9.869992256165 42.315998077393 194 194 194
11.825605392456 10.056006431580 42.174999237061 169 169 169
11.825605392456 10.056006431580 42.213001251221 227 227 227
11.825605392456 10.056006431580 42.247997283936 226 226 226
11.825605392456 10.056006431580 42.284000396729 228 228 228
11.825605392456 10.056006431580 42.319004058838 227 227 227
11.244844436646 9.635366439819 42.209003448486 135 135 135
11.230215072632 9.625820159912 42.246997833252 138 138 138
11.230215072632 9.625820159912 42.286998748779 130 130 130
11.215583801270 9.616274833679 42.324001312256 120 120 120
11.852373123169 9.823164939880 42.192996978760 222 222 222
11.852373123169 9.823164939880 42.229999542236 226 226 226
11.852373123169 9.823164939880 42.264003753662 228 228 228
11.852373123169 9.823164939880 42.299999237061 227 227 227
11.808480262756 9.794528007507 42.326999664307 238 238 238
11.212197303772 9.372102737427 42.219997406006 137 137 137
11.226827621460 9.381649017334 42.261997222900 126 126 126
11.226827621460 9.381649017334 42.301998138428 134 134 134
11.198458671570 9.354796409607 42.335002899170 23 23 23
11.601158142090 9.408952713013 41.681999206543 147 147 147
11.587420463562 9.391645431519 41.707000732422 140 140 140
11.602050781250 9.401191711426 41.754001617432 139 139 139
11.615789413452 9.418498039246 41.803997039795 144 144 144
11.630419731140 9.428044319153 41.847003936768 149 149 149
11.630419731140 9.428044319153 41.883998870850 154 154 154
11.615789413452 9.418498039246 41.921001434326 155 155 155
11.630419731140 9.428044319153 41.960002899170 153 153 153
11.630419731140 9.428044319153 41.997997283936 158 158 158
11.630419731140 9.428044319153 42.035999298096 150 150 150
11.615789413452 9.418498039246 42.074001312256 153 153 153
11.864508628845 9.580777168274 42.174999237061 141 141 141
11.864508628845 9.580777168274 42.213001251221 145 145 145
11.864508628845 9.580777168274 42.247997283936 147 147 147
11.864508628845 9.580777168274 42.284999847412 151 151 151
11.864508628845 9.580777168274 42.321002960205 148 148 148
11.660573959351 9.439373970032 42.308002471924 146 146 146
11.616681098938 9.410737037659 42.331996917725 156 156 156
11.602942466736 9.393429756165 42.365001678467 150 150 150
11.472160339355 9.299756050110 42.376003265381 107 107 107
11.860229492188 9.344367027283 41.744998931885 163 163 163
11.773338317871 9.279330253601 41.749004364014 125 125 125
11.758708953857 9.269784927368 41.785999298096 151 151 151
11.816338539124 9.315730094910 41.881000518799 156 156 156
11.758708953857 9.269784927368 41.936000823975 179 179 179
11.744077682495 9.260239601135 41.969997406006 164 164 164
11.744077682495 9.260239601135 42.008998870850 162 162 162
11.744077682495 9.260239601135 42.046001434326 150 150 150
11.744077682495 9.260239601135 42.083003997803 121 121 121
11.801707267761 9.306183815002 42.140003204346 155 155 155
11.875752449036 9.346151351929 42.192996978760 153 153 153
11.875752449036 9.346151351929 42.228000640869 155 155 155
11.875752449036 9.346151351929 42.266002655029 150 150 150
11.875752449036 9.346151351929 42.301998138428 149 149 149
11.846490859985 9.327059745789 42.333003997803 137 137 137
11.744077682495 9.260239601135 42.341999053955 163 163 163
11.715708732605 9.233386039734 42.374004364014 152 152 152
11.599556922913 9.149258613586 42.381000518799 98 98 98
11.366359710693 8.988763809204 42.369998931885 115 115 115
11.017011642456 8.744139671326 42.334003448486 39 39 39
11.725168228149 9.014283180237 41.780002593994 154 154 154
11.769952774048 9.035159111023 41.869998931885 165 165 165
11.769952774048 9.035159111023 41.908000946045 166 166 166
11.769952774048 9.035159111023 41.944004058838 166 166 166
11.754428863525 9.033374786377 41.981998443604 165 165 165
11.769952774048 9.035159111023 42.020000457764 163 163 163
11.754428863525 9.033374786377 42.056003570557 170 170 170
11.754428863525 9.033374786377 42.093997955322 168 168 168
11.871473312378 9.109741210938 42.166004180908 147 147 147
11.857735633850 9.092433929443 42.201000213623 171 171 171
11.857735633850 9.092433929443 42.237003326416 175 175 175
11.857735633850 9.092433929443 42.271999359131 172 172 172
11.871473312378 9.109741210938 42.312999725342 162 162 162
11.756214141846 9.017851829529 42.316997528076 162 162 162
11.740691184998 9.016067504883 42.351001739502 161 161 161
11.057516098022 8.528606414795 42.229000091553 125 125 125
11.116039276123 8.566789627075 42.283000946045 129 129 129
11.086777687073 8.547698020935 42.317996978760 121 121 121
11.057516098022 8.528606414795 42.354999542236 40 40 40
11.710537910461 9.004736900330 41.656002044678 196 196 196
11.739798545837 9.023829460144 41.706001281738 147 147 147
11.725168228149 9.014283180237 41.815998077393 147 147 147
11.968715667725 8.947913169861 42.168003082275 142 142 142
11.970500946045 8.932391166687 42.200000762939 170 170 170
11.970500946045 8.932391166687 42.237003326416 176 176 176
11.970500946045 8.932391166687 42.271999359131 172 172 172
11.970500946045 8.932391166687 42.308002471924 172 172 172
11.968715667725 8.947913169861 42.347003936768 94 94 94
12.023852348328 8.741924285889 42.157001495361 117 117 117
11.993698120117 8.730594635010 42.185001373291 150 150 150
11.993698120117 8.730594635010 42.221004486084 146 146 146
12.009221076965 8.732378959656 42.259998321533 145 145 145
12.009221076965 8.732378959656 42.294002532959 148 148 148
12.009221076965 8.732378959656 42.329998016357 139 139 139
12.092725753784 8.553242683411 42.117000579834 63 63 63
12.092725753784 8.553242683411 42.152004241943 135 135 135
12.092725753784 8.553242683411 42.186000823975 145 145 145
12.092725753784 8.553242683411 42.221004486084 142 142 142
12.092725753784 8.553242683411 42.258998870850 140 140 140
12.092725753784 8.553242683411 42.293003082275 143 143 143
12.078095436096 8.543697357178 42.326000213623 149 149 149
12.063465118408 8.534152030945 42.357997894287 126 126 126
11.406979560852 13.287150382996 42.491001129150 59 59 59
11.406979560852 13.287150382996 42.461002349854 140 140 140
11.406979560852 13.287150382996 42.430004119873 143 143 143
11.422502517700 13.288934707642 42.398998260498 146 146 146
11.438025474548 13.290719032288 42.370998382568 100 100 100
11.531162261963 13.301425933838 42.355998992920 172 172 172
11.578621864319 13.299017906189 42.335002899170 211 211 211
11.578621864319 13.299017906189 42.303997039795 216 216 216
11.578621864319 13.299017906189 42.272998809814 222 222 222
11.578621864319 13.299017906189 42.243000030518 215 215 215
11.593253135681 13.308564186096 42.215000152588 137 137 137
11.479422569275 13.067423820496 42.360004425049 24 24 24
11.588973999023 13.072153091431 42.349002838135 207 207 207
11.588973999023 13.072153091431 42.320003509521 223 223 223
11.588973999023 13.072153091431 42.288997650146 228 228 228
11.573451042175 13.070368766785 42.255001068115 227 227 227
11.588973999023 13.072153091431 42.227001190186 220 220 220
11.588973999023 13.072153091431 42.194004058838 27 27 27
11.520818710327 12.844128608704 42.353000640869 177 177 177
11.600217819214 12.837527275085 42.336002349854 221 221 221
11.600217819214 12.837527275085 42.305004119873 228 228 228
11.600217819214 12.837527275085 42.272998809814 225 225 225
11.600217819214 12.837527275085 42.243999481201 227 227 227
11.614848136902 12.847073554993 42.215000152588 204 204 204
11.453557968140 12.608341217041 42.353000640869 130 130 130
11.563108444214 12.613071441650 42.343997955322 199 199 199
11.594154357910 12.616640090942 42.320003509521 233 233 233
11.609678268433 12.618424415588 42.291004180908 227 227 227
11.594154357910 12.616640090942 42.257999420166 230 230 230
11.594154357910 12.616640090942 42.228000640869 228 228 228
11.609678268433 12.618424415588 42.200000762939 116 116 116
11.417340278625 12.376123428345 42.357997894287 56 56 56
11.448386192322 12.379693031311 42.330997467041 212 212 212
11.620921134949 12.383798599243 42.334003448486 226 226 226
11.620921134949 12.383798599243 42.302997589111 230 230 230
11.620921134949 12.383798599243 42.271999359131 226 226 226
11.619136810303 12.399321556091 42.240001678467 229 229 229
11.620921134949 12.383798599243 42.212001800537 200 200 200
11.363817214966 12.157644271851 42.354999542236 25 25 25
11.426800727844 12.157019615173 42.335002899170 190 190 190
11.614857673645 12.162911415100 42.336002349854 229 229 229
11.645011901855 12.174241065979 42.312000274658 231 231 231
11.659642219543 12.183786392212 42.284000396729 222 222 222
11.645011901855 12.174241065979 42.250003814697 223 223 223
11.645011901855 12.174241065979 42.218997955322 223 223 223
11.659642219543 12.183786392212 42.189998626709 35 35 35
11.389691352844 11.932563781738 42.339000701904 192 192 192
11.451783180237 11.939701080322 42.316997528076 228 228 228
11.669101715088 11.964683532715 42.324001312256 232 232 232
11.669101715088 11.964683532715 42.294002532959 226 226 226
11.685516357422 11.958706855774 42.266002655029 215 215 215
11.669101715088 11.964683532715 42.231998443604 223 223 223
11.685516357422 11.958706855774 42.204998016357 191 191 191
11.385413169861 11.696152687073 42.346004486084 154 154 154
11.385413169861 11.696152687073 42.314998626709 206 206 206
11.649299621582 11.726489067078 42.334003448486 225 225 225
11.695868492126 11.731842041016 42.310001373291 225 225 225
11.695868492126 11.731842041016 42.282001495361 221 221 221
11.695868492126 11.731842041016 42.250003814697 219 219 219
11.695868492126 11.731842041016 42.217998504639 222 222 222
11.711391448975 11.733626365662 42.189998626709 115 115 115
11.365611076355 11.457958221436 42.328998565674 191 191 191
11.363826751709 11.473481178284 42.295001983643 226 226 226
11.706219673157 11.504978179932 42.330997467041 222 222 222
11.706219673157 11.504978179932 42.299999237061 227 227 227
11.722635269165 11.499000549316 42.270000457764 222 222 222
11.722635269165 11.499000549316 42.239002227783 219 219 219
11.706219673157 11.504978179932 42.208003997803 218 218 218
11.312979698181 11.231717109680 42.337001800537 187 187 187
11.327610015869 11.241263389587 42.305004119873 223 223 223
11.638957977295 11.269190788269 42.327999114990 246 246 246
11.732094764709 11.279897689819 42.317996978760 227 227 227
11.732094764709 11.279897689819 42.284999847412 227 227 227
11.732094764709 11.279897689819 42.256000518799 222 222 222
11.732094764709 11.279897689819 42.223003387451 227 227 227
11.748509407043 11.273920059204 42.197002410889 180 180 180
11.322439193726 11.012614250183 42.344997406006 171 171 171
11.322439193726 11.012614250183 42.312000274658 212 212 212
11.353485107422 11.016182899475 42.287998199463 231 231 231
11.743338584900 11.045271873474 42.326999664307 235 235 235
11.757968902588 11.054817199707 42.298000335693 230 230 230
11.757968902588 11.054817199707 42.267002105713 231 231 231
11.757968902588 11.054817199707 42.236003875732 228 228 228
11.758861541748 11.047056198120 42.206996917725 219 219 219
11.269806861877 10.786372184753 42.347003936768 118 118 118
11.316375732422 10.791726112366 42.315998077393 201 201 201
11.316375732422 10.791726112366 42.284000396729 217 217 217
11.752798080444 10.826169013977 42.334003448486 225 225 225
11.768320083618 10.827953338623 42.308002471924 221 221 221
11.768320083618 10.827953338623 42.275997161865 232 232 232
11.782951354980 10.837498664856 42.246997833252 218 218 218
11.782951354980 10.837498664856 42.215000152588 220 220 220
11.612200737000 10.817869186401 42.147998809814 14 14 14
11.279267311096 10.567269325256 42.324001312256 190 190 190
11.279267311096 10.567269325256 42.288997650146 230 230 230
11.295681953430 10.561293601990 42.257999420166 220 220 220
11.777779579163 10.608849525452 42.317996978760 238 238 238
11.793302536011 10.610633850098 42.291004180908 226 226 226
11.793302536011 10.610633850098 42.258998870850 226 226 226
11.793302536011 10.610633850098 42.228000640869 226 226 226
11.808825492859 10.612418174744 42.198001861572 214 214 214
11.259465217590 10.329074859619 42.337001800537 167 167 167
11.274988174438 10.330859184265 42.305004119873 209 209 209
11.259465217590 10.329074859619 42.269001007080 230 230 230
11.742455482483 10.368869781494 42.326000213623 4 4 4
11.820069313049 10.377792358398 42.307003021240 229 229 229
11.820069313049 10.377792358398 42.277004241943 227 227 227
11.804546356201 10.376008033752 42.242000579834 237 237 237
11.820069313049 10.377792358398 42.215000152588 225 225 225
11.820069313049 10.377792358398 42.185001373291 154 154 154
11.268924713135 10.109972000122 42.322002410889 214 214 214
11.268924713135 10.109972000122 42.285999298096 226 226 226
11.285340309143 10.103994369507 42.256000518799 215 215 215
11.830421447754 10.150928497314 42.326999664307 228 228 228
11.830421447754 10.150928497314 42.295001983643 227 227 227
11.830421447754 10.150928497314 42.264003753662 231 231 231
11.815791130066 10.141381263733 42.231998443604 231 231 231
11.830421447754 10.150928497314 42.203998565674 223 223 223
11.248231887817 9.879538536072 42.333003997803 175 175 175
11.249123573303 9.871777534485 42.300998687744 182 182 182
11.295691490173 9.877130508423 42.271999359131 174 174 174
11.809727668762 9.920494079590 42.337001800537 217 217 217
11.825250625610 9.922278404236 42.311000823975 227 227 227
11.825250625610 9.922278404236 42.279003143311 235 235 235
11.825250625610 9.922278404236 42.249004364014 224 224 224
11.825250625610 9.922278404236 42.215999603271 228 228 228
11.856295585632 9.925848007202 42.188999176025 190 190 190
11.212015151978 9.647319793701 42.339000701904 155 155 155
11.243060112000 9.650888442993 42.309001922607 172 172 172
11.243060112000 9.650888442993 42.274997711182 170 170 170
11.850233078003 9.704959869385 42.351001739502 158 158 158
11.864863395691 9.714505195618 42.323001861572 177 177 177
11.865756034851 9.706744194031 42.293003082275 170 170 170
11.865756034851 9.706744194031 42.261997222900 181 181 181
11.865756034851 9.706744194031 42.230998992920 183 183 183
11.865756034851 9.706744194031 42.199001312256 175 175 175
11.221474647522 9.428216934204 42.348003387451 31 31 31
11.221474647522 9.428216934204 42.316997528076 172 172 172
11.221474647522 9.428216934204 42.281002044678 170 170 170
11.252520561218 9.431785583496 42.249004364014 165 165 165
11.875215530396 9.487640380859 42.333003997803 175 175 175
11.875215530396 9.487640380859 42.301998138428 174 174 174
11.876107215881 9.479879379272 42.271999359131 183 183 183
11.875215530396 9.487640380859 42.239002227783 175 175 175
11.876107215881 9.479879379272 42.209003448486 185 185 185
11.876107215881 9.479879379272 42.176998138428 153 153 153
12.093425750732 9.504861831665 42.105998992920 188 188 188
11.378486633301 9.430538177490 41.755001068115 153 153 153
11.456100463867 9.439460754395 41.736003875732 179 179 179
11.402576446533 9.220981597900 42.394001007080 49 49 49
11.558696746826 9.231064796448 42.383998870850 105 105 105
11.729447364807 9.250693321228 42.382999420166 150 150 150
11.744970321655 9.252477645874 42.354000091553 174 174 174
11.869152069092 9.266753196716 42.342998504639 181 181 181
11.884675025940 9.268537521362 42.315998077393 182 182 182
11.901089668274 9.262560844421 42.285999298096 180 180 180
11.884675025940 9.268537521362 42.253002166748 183 183 183
11.884675025940 9.268537521362 42.222003936768 184 184 184
11.886459350586 9.253014564514 42.190998077393 175 175 175
11.791538238525 9.257830619812 42.138004302979 175 175 175
11.776015281677 9.256046295166 42.102001190186 173 173 173
11.760493278503 9.254261970520 42.065998077393 177 177 177
11.745862007141 9.244716644287 42.031002044678 180 180 180
11.744970321655 9.252477645874 41.996997833252 182 182 182
11.745862007141 9.244716644287 41.965999603271 189 189 189
11.760493278503 9.254261970520 41.935001373291 205 205 205
11.745862007141 9.244716644287 41.899997711182 188 188 188
11.745862007141 9.244716644287 41.867000579834 186 186 186
11.745862007141 9.244716644287 41.834003448486 182 182 182
11.715708732605 9.233386039734 41.792003631592 166 166 166
11.745862007141 9.244716644287 41.732997894287 144 144 144
11.684663772583 9.229817390442 41.639999389648 147 147 147
11.684663772583 9.229817390442 41.604999542236 160 160 160
11.684663772583 9.229817390442 41.569999694824 151 151 151
11.715708732605 9.233386039734 41.756000518799 145 145 145
11.622571945190 9.222679138184 41.520000457764 142 142 142
11.653617858887 9.226247787476 41.491001129150 135 135 135
11.304269790649 8.981625556946 42.360004425049 86 86 86
11.647554397583 9.005360603333 42.384998321533 100 100 100
11.756214141846 9.017851829529 42.368999481201 168 168 168
11.756214141846 9.017851829529 42.337001800537 171 171 171
11.895918846130 9.033911705017 42.331996917725 157 157 157
11.926964759827 9.037480354309 42.307003021240 147 147 147
11.926964759827 9.037480354309 42.275997161865 152 152 152
11.912333488464 9.027935028076 42.243000030518 163 163 163
11.926964759827 9.037480354309 42.214000701904 151 151 151
11.912333488464 9.027935028076 42.180004119873 149 149 149
11.818305015564 9.024989128113 42.129001617432 171 171 171
11.771737098694 9.019636154175 42.079998016357 175 175 175
11.756214141846 9.017851829529 42.046001434326 174 174 174
11.771737098694 9.019636154175 42.014003753662 171 171 171
11.771737098694 9.019636154175 41.980998992920 172 172 172
11.756214141846 9.017851829529 41.948001861572 169 169 169
11.771737098694 9.019636154175 41.916004180908 177 177 177
11.756214141846 9.017851829529 41.881000518799 175 175 175
11.771737098694 9.019636154175 41.850002288818 173 173 173
11.771737098694 9.019636154175 41.816997528076 175 175 175
11.771737098694 9.019636154175 41.783000946045 172 172 172
11.772628784180 9.011875152588 41.749004364014 173 173 173
11.771737098694 9.019636154175 41.715000152588 172 172 172
11.771737098694 9.019636154175 41.687000274658 173 173 173
11.725168228149 9.014283180237 41.632999420166 16 16 16
11.066256523132 8.726209640503 42.340000152588 122 122 122
11.097302436829 8.729778289795 42.311000823975 167 167 167
11.112824440002 8.731562614441 42.275997161865 168 168 168
11.112824440002 8.731562614441 42.240001678467 171 171 171
11.098194122314 8.722017288208 42.202999114990 166 166 166
11.984776496887 8.808208465576 42.334003448486 164 164 164
11.984776496887 8.808208465576 42.305004119873 183 183 183
12.000299453735 8.809992790222 42.274997711182 182 182 182
11.984776496887 8.808208465576 42.242000579834 182 182 182
11.984776496887 8.808208465576 42.212001800537 181 181 181
11.984776496887 8.808208465576 42.181003570557 177 177 177
11.953731536865 8.804638862610 42.142002105713 178 178 178
11.076607704163 8.499345779419 42.355998992920 94 94 94
11.092130661011 8.501130104065 42.322002410889 145 145 145
11.107653617859 8.502914428711 42.289997100830 166 166 166
11.123176574707 8.504698753357 42.255001068115 166 166 166
11.123176574707 8.504698753357 42.218997955322 166 166 166
12.073635101318 8.582504272461 42.364002227783 152 152 152
12.089157104492 8.584288597107 42.338001251221 170 170 170
12.088264465332 8.592049598694 42.306003570557 170 170 170
12.089157104492 8.584288597107 42.277004241943 169 169 169
12.089157104492 8.584288597107 42.246997833252 170 170 170
12.104680061340 8.586072921753 42.216999053955 167 167 167
12.104680061340 8.586072921753 42.187000274658 165 165 165
12.089157104492 8.584288597107 42.155002593994 167 167 167
12.104680061340 8.586072921753 42.125003814697 63 63 63
11.522239685059 13.379039764404 42.353000640869 164 164 164
11.555068969727 13.367086410522 42.320003509521 172 172 172
11.554177284241 13.374847412109 42.284000396729 200 200 200
11.524024009705 13.363517761230 42.245998382568 204 204 204
11.524024009705 13.363517761230 42.211002349854 130 130 130
11.414116859436 13.225059509277 42.515003204346 153 153 153
11.415009498596 13.217298507690 42.479999542236 170 170 170
11.414116859436 13.225059509277 42.441997528076 167 167 167
11.415901184082 13.209536552429 42.409000396729 168 168 168
11.416793823242 13.201775550842 42.374004364014 154 154 154
11.514391899109 13.173675537109 42.355998992920 152 152 152
11.597358703613 13.136029243469 42.338001251221 216 216 216
11.597358703613 13.136029243469 42.301998138428 205 205 205
11.597358703613 13.136029243469 42.265003204346 210 210 210
11.597358703613 13.136029243469 42.230998992920 214 214 214
11.573988914490 12.928879737854 42.347003936768 173 173 173
11.606818199158 12.916925430298 42.317996978760 219 219 219
11.591295242310 12.915141105652 42.280002593994 224 224 224
11.606818199158 12.916925430298 42.245998382568 222 222 222
11.606818199158 12.916925430298 42.212001800537 185 185 185
11.467650413513 12.759376525879 42.341999053955 171 171 171
11.601647377014 12.688277244568 42.338001251221 212 212 212
11.600755691528 12.696038246155 42.301998138428 223 223 223
11.618062019348 12.682299613953 42.269001007080 223 223 223
11.601647377014 12.688277244568 42.231998443604 216 216 216
11.585232734680 12.694253921509 42.189998626709 98 98 98
11.444280624390 12.552227973938 42.354000091553 90 90 90
11.509940147400 12.528319358826 42.333003997803 197 197 197
11.627522468567 12.463196754456 42.326000213623 224 224 224
11.611106872559 12.469173431396 42.286998748779 222 222 222
11.627522468567 12.463196754456 42.253002166748 223 223 223
11.627522468567 12.463196754456 42.216999053955 215 215 215
11.452847480774 12.340886116028 42.330997467041 202 202 202
11.651612281799 12.253639221191 42.338001251221 219 219 219
11.668026924133 12.247662544250 42.305004119873 224 224 224
11.652504920959 12.245878219604 42.267002105713 222 222 222
11.652504920959 12.245878219604 42.231998443604 223 223 223
11.652504920959 12.245878219604 42.197002410889 125 125 125
11.428585052490 12.141497612000 42.336002349854 185 185 185
11.544382095337 12.091897010803 42.324001312256 224 224 224
11.677486419678 12.028558731079 42.316997528076 213 213 213
11.677486419678 12.028558731079 42.281002044678 210 210 210
11.677486419678 12.028558731079 42.245998382568 206 206 206
11.677486419678 12.028558731079 42.210002899170 204 204 204
11.404321670532 11.942110061646 42.340999603271 176 176 176
11.405214309692 11.934348106384 42.306003570557 224 224 224
11.686945915222 11.809455871582 42.330997467041 220 220 220
11.686945915222 11.809455871582 42.296001434326 214 214 214
11.686945915222 11.809455871582 42.259998321533 211 211 211
11.686945915222 11.809455871582 42.222003936768 208 208 208
11.686945915222 11.809455871582 42.187000274658 88 88 88
11.379167556763 11.750482559204 42.350002288818 107 107 107
11.397367477417 11.728983879089 42.316997528076 198 198 198
11.563301086426 11.653691291809 42.319004058838 227 227 227
11.712821006775 11.584376335144 42.314998626709 220 220 220
11.712821006775 11.584376335144 42.279003143311 220 220 220
11.712821006775 11.584376335144 42.243000030518 217 217 217
11.712821006775 11.584376335144 42.206996917725 209 209 209
11.373104095459 11.529595375061 42.331996917725 192 192 192
11.373104095459 11.529595375061 42.294002532959 224 224 224
11.721387863159 11.373034477234 42.335002899170 222 222 222
11.738695144653 11.359295845032 42.305004119873 221 221 221
11.738695144653 11.359295845032 42.269001007080 215 215 215
11.723172187805 11.357511520386 42.230998992920 219 219 219
11.723172187805 11.357511520386 42.196002960205 188 188 188
11.334211349487 11.320661544800 42.346004486084 148 148 148
11.350625991821 11.314684867859 42.309001922607 207 207 207
11.398978233337 11.304514884949 42.280002593994 228 228 228
11.749046325684 11.132431030273 42.325000762939 224 224 224
11.749046325684 11.132431030273 42.288997650146 222 222 222
11.749046325684 11.132431030273 42.254001617432 222 222 222
11.749046325684 11.132431030273 42.216999053955 223 223 223
11.732631683350 11.138408660889 42.177997589111 99 99 99
11.309055328369 11.129034996033 42.351001739502 42 42 42
11.311732292175 11.105750083923 42.317996978760 196 196 196
11.311732292175 11.105750083923 42.279003143311 226 226 226
11.741198539734 10.927066802979 42.334003448486 229 229 229
11.789551734924 10.916896820068 42.305004119873 222 222 222
11.774921417236 10.907351493835 42.268001556396 223 223 223
11.774921417236 10.907351493835 42.231998443604 219 219 219
11.789551734924 10.916896820068 42.198001861572 199 199 199
11.333145141602 10.919477462769 42.325000762939 196 196 196
11.302100181580 10.915908813477 42.284999847412 159 159 159
11.748874664307 10.723484992981 42.343997955322 155 155 155
11.782596588135 10.703770637512 42.315998077393 224 224 224
11.798119544983 10.705554962158 42.283000946045 223 223 223
11.815426826477 10.691816329956 42.246997833252 222 222 222
11.815426826477 10.691816329956 42.211002349854 218 218 218
11.293359756470 10.718305587769 42.334003448486 171 171 171
11.309775352478 10.712327957153 42.296001434326 219 219 219
11.309775352478 10.712327957153 42.257999420166 223 223 223
11.792055130005 10.484667778015 42.329998016357 226 226 226
11.808470726013 10.478690147400 42.298000335693 225 225 225
11.807578086853 10.486452102661 42.260997772217 224 224 224
11.808470726013 10.478690147400 42.225002288818 223 223 223
11.808470726013 10.478690147400 42.188999176025 186 186 186
11.252682685852 10.524893760681 42.344997406006 20 20 20
11.286405563354 10.505178451538 42.312000274658 195 195 195
11.270882606506 10.503394126892 42.271999359131 224 224 224
11.270882606506 10.503394126892 42.231998443604 224 224 224
11.817930221558 10.259587287903 42.316997528076 225 225 225
11.834344863892 10.253610610962 42.283000946045 225 225 225
11.834344863892 10.253610610962 42.245998382568 223 223 223
11.834344863892 10.253610610962 42.211002349854 223 223 223
11.751378059387 10.291255950928 42.154003143311 143 143 143
11.280342102051 10.284291267395 42.330997467041 172 172 172
11.280342102051 10.284291267395 42.292003631592 214 214 214
11.280342102051 10.284291267395 42.252002716064 206 206 206
11.778144836426 10.058414459229 42.326999664307 240 240 240
11.843804359436 10.034507751465 42.302997589111 225 225 225
11.843804359436 10.034507751465 42.268001556396 222 222 222
11.844696998596 10.026745796204 42.231998443604 225 225 225
11.844696998596 10.026745796204 42.195003509521 217 217 217
11.208618164063 10.087310791016 42.337001800537 64 64 64
11.256971359253 10.077141761780 42.307003021240 214 214 214
11.272493362427 10.078926086426 42.268001556396 228 228 228
11.272493362427 10.078926086426 42.229000091553 216 216 216
11.853264808655 9.815403938293 42.321002960205 224 224 224
11.869679450989 9.809427261353 42.285999298096 224 224 224
11.869679450989 9.809427261353 42.250003814697 223 223 223
11.870571136475 9.801666259766 42.215999603271 223 223 223
11.839526176453 9.798096656799 42.175998687744 159 159 159
11.249123573303 9.871777534485 42.319004058838 193 193 193
11.281953811646 9.859823226929 42.284000396729 155 155 155
11.298368453979 9.853846549988 42.246997833252 163 163 163
11.863616943359 9.588539123535 42.336002349854 143 143 143
11.863616943359 9.588539123535 42.300998687744 150 150 150
11.864508628845 9.580777168274 42.265003204346 152 152 152
11.863616943359 9.588539123535 42.228000640869 151 151 151
11.864508628845 9.580777168274 42.192996978760 148 148 148
11.863616943359 9.588539123535 42.154003143311 22 22 22
11.225753784180 9.664627075195 42.326000213623 151 151 151
11.256798744202 9.668195724487 42.289997100830 143 143 143
11.241275787354 9.666411399841 42.247997283936 150 150 150
11.822046279907 9.402889251709 42.337001800537 170 170 170
11.872183799744 9.377197265625 42.312000274658 148 148 148
11.887706756592 9.378981590271 42.278003692627 149 149 149
11.872183799744 9.377197265625 42.239002227783 149 149 149
11.888598442078 9.371219635010 42.204998016357 144 144 144
11.838460922241 9.396912574768 42.158000946045 222 222 222
11.557621955872 9.514043807983 41.968997955322 24 24 24
11.609543800354 9.472827911377 41.948001861572 23 23 23
11.657896995544 9.462658882141 41.919002532959 23 23 23
11.675203323364 9.448921203613 41.889003753662 251 251 251
11.707141876221 9.444727897644 41.856998443604 230 230 230
11.723556518555 9.438751220703 41.826000213623 212 212 212
11.740863800049 9.425012588501 41.791004180908 182 182 182
11.758170127869 9.411273956299 41.757999420166 175 175 175
11.758170127869 9.411273956299 41.719997406006 163 163 163
11.773693084717 9.413058280945 41.683002471924 166 166 166
11.465023040771 9.361846923828 42.385997772217 64 64 64
11.648263931274 9.272816658020 42.383998870850 99 99 99
11.732123374939 9.227409362793 42.368999481201 161 161 161
11.764061927795 9.223217010498 42.335002899170 156 156 156
11.880750656128 9.165855407715 42.325000762939 144 144 144
11.864335060120 9.171832084656 42.285999298096 154 154 154
11.866120338440 9.156310081482 42.251003265381 149 149 149
11.866120338440 9.156310081482 42.214000701904 158 158 158
11.864335060120 9.171832084656 42.175998687744 146 146 146
11.764953613281 9.215455055237 42.112003326416 155 155 155
11.764953613281 9.215455055237 42.074001312256 167 167 167
11.749431610107 9.213670730591 42.034000396729 168 168 168
11.764061927795 9.223217010498 41.996997833252 166 166 166
11.764953613281 9.215455055237 41.959003448486 175 175 175
11.765846252441 9.207694053650 41.923999786377 181 181 181
11.764953613281 9.215455055237 41.883998870850 171 171 171
11.749431610107 9.213670730591 41.840000152588 165 165 165
11.701077461243 9.223840713501 41.793003082275 163 163 163
11.700185775757 9.231601715088 41.751003265381 142 142 142
11.701077461243 9.223840713501 41.714000701904 144 144 144
11.717493057251 9.217864036560 41.678001403809 150 150 150
11.617218017578 9.269248008728 41.600002288818 136 136 136
11.541033744812 9.111074447632 42.379001617432 106 106 106
11.738906860352 9.031590461731 42.379001617432 139 139 139
11.756214141846 9.017851829529 42.348003387451 166 166 166
11.756214141846 9.017851829529 42.311000823975 167 167 167
11.974069595337 8.901345252991 42.326000213623 150 150 150
