38.394947052002 28.102725982666 5.194000244141 113 113 113
38.395172119141 28.211261749268 5.260009765625 121 121 121
38.396331787109 28.228694915771 5.320007324219 129 129 129
38.387271881104 28.197780609131 5.376007080078 132 132 132
38.387271881104 28.197780609131 5.434005737305 131 131 131
38.396331787109 28.228694915771 5.495010375977 126 126 126
38.389595031738 28.232643127441 5.555999755859 114 114 114
38.386337280273 28.288887023926 5.620010375977 103 103 103
38.380756378174 28.310268402100 5.682006835938 114 114 114
38.380756378174 28.310268402100 5.740997314453 94 94 94
38.389595031738 28.232643127441 5.791000366211 121 121 121
38.389595031738 28.232643127441 5.850997924805 99 99 99
38.389595031738 28.232643127441 5.908004760742 103 103 103
38.403072357178 28.224742889404 5.966003417969 78 78 78
38.385173797607 28.271453857422 6.033004760742 9 9 9
38.146011352539 28.465965270996 5.889999389648 20 20 20
38.156948089600 28.314666748047 5.927001953125 17 17 17
38.398689270020 27.738311767578 5.761001586914 31 31 31
38.384048461914 27.728782653809 5.701004028320 177 177 177
38.384048461914 27.728782653809 5.643005371094 198 198 198
38.369407653809 27.719253540039 5.583999633789 201 201 201
38.369407653809 27.719253540039 5.527008056641 134 134 134
38.340126037598 27.700191497803 5.126998901367 101 101 101
38.340126037598 27.700191497803 5.070007324219 205 205 205
38.325485229492 27.690666198730 5.013000488281 183 183 183
38.325485229492 27.690666198730 4.957000732422 78 78 78
38.365440368652 27.975131988525 5.639007568359 43 43 43
38.358699798584 27.979084014893 5.581008911133 192 192 192
38.380081176758 27.984664916992 5.524002075195 201 201 201
38.365440368652 27.975131988525 5.464004516602 203 203 203
38.365440368652 27.975131988525 5.404998779297 192 192 192
38.386821746826 27.980712890625 5.290008544922 48 48 48
38.365440368652 27.975131988525 5.230010986328 193 193 193
38.350799560547 27.965606689453 5.171005249023 201 201 201
38.336158752441 27.956073760986 5.111999511719 194 194 194
38.336158752441 27.956073760986 5.054000854492 183 183 183
38.460025787354 28.028362274170 4.652999877930 86 86 86
38.474666595459 28.037891387939 4.595001220703 138 138 138
38.458866119385 28.010929107666 4.536010742188 146 146 146
38.452125549316 28.014881134033 4.477996826172 126 126 126
38.452125549316 28.014881134033 4.419006347656 127 127 127
38.452125549316 28.014881134033 4.361007690430 143 143 143
38.458866119385 28.010929107666 4.303009033203 137 137 137
38.458866119385 28.010929107666 4.244003295898 137 137 137
38.458866119385 28.010929107666 4.186004638672 112 112 112
38.209480285645 28.157096862793 5.971008300781 79 79 79
38.238761901855 28.176158905029 5.914001464844 114 114 114
38.268043518066 28.195217132568 5.860000610352 102 102 102
38.225280761719 28.184059143066 5.794006347656 126 126 126
38.268043518066 28.195217132568 5.740005493164 118 118 118
38.238761901855 28.176158905029 5.677001953125 145 145 145
38.268043518066 28.195217132568 5.622009277344 160 160 160
38.274787902832 28.191268920898 5.561996459961 144 144 144
38.333351135254 28.229385375977 5.509002685547 114 114 114
38.333351135254 28.229385375977 5.451004028320 174 174 174
38.340091705322 28.225433349609 5.389999389648 172 172 172
38.333351135254 28.229385375977 5.330001831055 165 165 165
38.340091705322 28.225433349609 5.270996093750 165 165 165
38.340091705322 28.225433349609 5.210998535156 162 162 162
38.333351135254 28.229385375977 5.151000976563 107 107 107
38.333351135254 28.229385375977 5.092010498047 114 114 114
38.325447082520 28.215904235840 5.031997680664 109 109 109
38.333351135254 28.229385375977 4.973007202148 114 114 114
38.325447082520 28.215904235840 4.914001464844 115 115 115
38.325447082520 28.215904235840 4.855010986328 124 124 124
38.325447082520 28.215904235840 4.794998168945 128 128 128
38.310806274414 28.206375122070 4.736007690430 135 135 135
38.325447082520 28.215904235840 4.677001953125 135 135 135
38.361473083496 28.231014251709 4.619003295898 162 162 162
38.361473083496 28.231014251709 4.559005737305 170 170 170
38.361473083496 28.231014251709 4.500000000000 160 160 160
38.296165466309 28.196846008301 4.440002441406 158 158 158
38.353569030762 28.217533111572 4.380996704102 170 170 170
38.325447082520 28.215904235840 4.322006225586 170 170 170
38.317550659180 28.202426910400 4.263000488281 152 152 152
38.324287414551 28.198478698730 4.204010009766 156 156 156
38.340091705322 28.225433349609 4.143997192383 155 155 155
38.324287414551 28.198478698730 4.085006713867 145 145 145
38.340091705322 28.225433349609 4.025009155273 169 169 169
38.324287414551 28.198478698730 3.967010498047 145 145 145
38.317550659180 28.202426910400 3.908996582031 126 126 126
38.302906036377 28.192893981934 3.850006103516 123 123 123
38.324287414551 28.198478698730 3.790008544922 121 121 121
38.302906036377 28.192893981934 3.731002807617 121 121 121
38.324287414551 28.198478698730 3.671997070313 128 128 128
38.324287414551 28.198478698730 3.611999511719 133 133 133
38.324287414551 28.198478698730 3.553009033203 129 129 129
38.302906036377 28.192893981934 3.495010375977 123 123 123
38.368209838867 28.227066040039 3.428009033203 108 108 108
38.302906036377 28.192893981934 3.315002441406 123 123 123
38.295005798340 28.179412841797 3.257003784180 126 126 126
38.295005798340 28.179412841797 3.197006225586 123 123 123
38.288269042969 28.183364868164 3.138000488281 122 122 122
38.287105560303 28.165931701660 2.597000122070 96 96 96
38.367050170898 28.209632873535 2.393005371094 254 254 254
38.367050170898 28.209632873535 2.337005615234 226 226 226
38.316387176514 28.184997558594 2.281997680664 217 217 217
38.324287414551 28.198478698730 3.371002197266 117 117 117
38.221317291260 28.439941406250 5.914001464844 107 107 107
38.366565704346 28.517807006836 5.567001342773 135 135 135
38.366565704346 28.517807006836 5.505996704102 159 159 159
38.366565704346 28.517807006836 5.444000244141 155 155 155
38.365406036377 28.500373840332 5.382003784180 167 167 167
38.358665466309 28.504325866699 5.320007324219 75 75 75
38.365406036377 28.500373840332 5.259002685547 164 164 164
38.358665466309 28.504325866699 5.197006225586 163 163 163
38.358665466309 28.504325866699 5.136001586914 153 153 153
38.358665466309 28.504325866699 5.074005126953 131 131 131
38.473472595215 28.545703887939 4.587997436523 124 124 124
38.489273071289 28.572662353516 4.527008056641 146 146 146
38.496013641357 28.568710327148 4.464996337891 147 147 147
38.496013641357 28.568710327148 4.402999877930 142 142 142
38.496013641357 28.568710327148 4.342010498047 153 153 153
38.473472595215 28.545703887939 4.279998779297 99 99 99
38.413261413574 28.798328399658 5.695999145508 158 158 158
38.390720367432 28.775314331055 5.630996704102 192 192 192
38.413261413574 28.798328399658 5.569000244141 166 166 166
38.405357360840 28.784847259521 5.505004882813 142 142 142
38.383979797363 28.779266357422 5.125000000000 134 134 134
38.397460937500 28.771366119385 5.063003540039 158 158 158
38.397460937500 28.771366119385 5.000000000000 162 162 162
38.397460937500 28.771366119385 4.936996459961 158 158 158
38.491630554199 28.082283020020 4.057998657227 20 20 20
38.491630554199 28.082283020020 4.109008789063 79 79 79
38.483726501465 28.068801879883 4.160003662109 92 92 92
38.490470886230 28.064849853516 4.210006713867 111 111 111
38.490470886230 28.064849853516 4.260009765625 120 120 120
38.483726501465 28.068801879883 4.311004638672 114 114 114
38.490470886230 28.064849853516 4.361007690430 101 101 101
38.467926025391 28.041843414307 4.411010742188 97 97 97
38.461189270020 28.045791625977 4.460998535156 107 107 107
38.483726501465 28.068801879883 4.512008666992 99 99 99
38.483726501465 28.068801879883 4.563003540039 103 103 103
38.492790222168 28.099716186523 4.613998413086 105 105 105
38.328033447266 27.834060668945 4.945007324219 73 73 73
38.343833923340 27.861019134521 4.995010375977 115 115 115
38.366378784180 27.884033203125 5.048004150391 123 123 123
38.366378784180 27.884033203125 5.097000122070 153 153 153
38.375434875488 27.914939880371 5.150009155273 142 142 142
38.397979736328 27.937950134277 5.204010009766 86 86 86
38.399139404297 27.955379486084 5.406005859375 110 110 110
38.399139404297 27.955379486084 5.456008911133 172 172 172
38.391239166260 27.941902160645 5.505004882813 161 161 161
38.399139404297 27.955379486084 5.557998657227 123 123 123
38.391239166260 27.941902160645 5.606002807617 117 117 117
38.285011291504 28.239608764648 2.283004760742 138 138 138
38.285011291504 28.239608764648 2.335998535156 142 142 142
38.285011291504 28.239608764648 2.389007568359 145 145 145
38.306388854980 28.245185852051 2.439010620117 148 148 148
38.299652099609 28.249137878418 2.490997314453 136 136 136
38.306388854980 28.245185852051 2.546005249023 141 141 141
38.299652099609 28.249137878418 2.596008300781 146 146 146
38.299652099609 28.249137878418 3.013000488281 152 152 152
38.306388854980 28.245185852051 3.066009521484 155 155 155
38.306388854980 28.245185852051 3.117996215820 159 159 159
38.299652099609 28.249137878418 3.167999267578 164 164 164
38.315452575684 28.276100158691 3.218002319336 166 166 166
38.292911529541 28.253089904785 3.270004272461 153 153 153
38.292911529541 28.253089904785 3.322006225586 159 159 159
38.292911529541 28.253089904785 3.373001098633 159 159 159
38.308712005615 28.280052185059 3.423995971680 166 166 166
38.308712005615 28.280052185059 3.475006103516 163 163 163
38.308712005615 28.280052185059 3.526000976563 163 163 163
38.292911529541 28.253089904785 3.577011108398 172 172 172
38.308712005615 28.280052185059 3.628005981445 174 174 174
38.292911529541 28.253089904785 3.680007934570 173 173 173
38.294071197510 28.270519256592 3.730010986328 176 176 176
38.294071197510 28.270519256592 3.781005859375 169 169 169
38.308712005615 28.280052185059 3.832000732422 172 172 172
38.308712005615 28.280052185059 3.883010864258 168 168 168
38.294071197510 28.270519256592 3.934005737305 176 176 176
38.308712005615 28.280052185059 3.985000610352 178 178 178
38.308712005615 28.280052185059 4.036010742188 170 170 170
38.308712005615 28.280052185059 4.087005615234 174 174 174
38.308712005615 28.280052185059 4.137008666992 168 168 168
38.308712005615 28.280052185059 4.188003540039 175 175 175
38.308712005615 28.280052185059 4.238998413086 176 176 176
38.294071197510 28.270519256592 4.290008544922 170 170 170
38.294071197510 28.270519256592 4.341003417969 172 172 172
38.294071197510 28.270519256592 4.391998291016 167 167 167
38.294071197510 28.270519256592 4.443008422852 167 167 167
38.294071197510 28.270519256592 4.494003295898 173 173 173
38.308712005615 28.280052185059 4.544998168945 165 165 165
38.294071197510 28.270519256592 4.595001220703 161 161 161
38.301971435547 28.284000396729 4.647003173828 171 171 171
38.294071197510 28.270519256592 4.697998046875 168 168 168
38.301971435547 28.284000396729 4.749008178711 165 165 165
38.294071197510 28.270519256592 4.800003051758 167 167 167
38.294071197510 28.270519256592 4.850997924805 166 166 166
38.295230865479 28.287952423096 4.902008056641 160 160 160
38.301971435547 28.284000396729 4.954010009766 156 156 156
38.303131103516 28.301429748535 5.005004882813 156 156 156
38.295230865479 28.287952423096 5.055999755859 147 147 147
38.294071197510 28.270519256592 5.106002807617 145 145 145
38.301971435547 28.284000396729 5.158996582031 155 155 155
38.295230865479 28.287952423096 5.210006713867 159 159 159
38.295230865479 28.287952423096 5.262008666992 154 154 154
38.303131103516 28.301429748535 5.314010620117 159 159 159
38.295230865479 28.287952423096 5.365997314453 157 157 157
38.303131103516 28.301429748535 5.417999267578 153 153 153
38.303131103516 28.301429748535 5.470001220703 158 158 158
38.272689819336 28.264938354492 5.518005371094 184 184 184
38.295230865479 28.287952423096 5.572006225586 161 161 161
38.294071197510 28.270519256592 5.623001098633 150 150 150
38.263626098633 28.234031677246 5.669006347656 157 157 157
38.272689819336 28.264938354492 5.725997924805 109 109 109
38.263626098633 28.234031677246 5.768997192383 138 138 138
38.263626098633 28.234031677246 5.820999145508 108 108 108
38.263626098633 28.234031677246 5.878005981445 107 107 107
38.225280761719 28.184059143066 5.914001464844 84 84 84
38.263626098633 28.234031677246 5.979003906250 67 67 67
38.317962646484 28.944736480713 5.647003173828 44 44 44
38.332603454590 28.954265594482 5.585006713867 86 86 86
38.316802978516 28.927307128906 5.074005126953 119 119 119
38.320770263672 28.671424865723 5.647003173828 125 125 125
38.320770263672 28.671424865723 5.585006713867 170 170 170
38.320770263672 28.671424865723 5.522003173828 191 191 191
38.320770263672 28.671424865723 5.460998535156 179 179 179
38.291488647461 28.652366638184 5.393997192383 16 16 16
38.298229217529 28.648414611816 5.272003173828 124 124 124
38.298229217529 28.648414611816 5.210006713867 160 160 160
38.298229217529 28.648414611816 5.148010253906 161 161 161
38.298229217529 28.648414611816 5.087005615234 161 161 161
38.319610595703 28.653991699219 5.026000976563 43 43 43
38.391654968262 28.684211730957 4.533004760742 62 62 62
38.419776916504 28.685840606689 4.471008300781 101 101 101
38.406295776367 28.693740844727 4.408996582031 18 18 18
38.142307281494 28.305137634277 6.042999267578 70 70 70
38.054458618164 28.247959136963 5.968002319336 85 85 85
38.142307281494 28.305137634277 5.921997070313 108 108 108
38.113021850586 28.286079406738 5.857009887695 115 115 115
38.126502990723 28.278175354004 5.800003051758 140 140 140
38.227828979492 28.327457427979 5.753997802734 137 137 137
38.178329467773 28.320247650146 5.689010620117 129 129 129
38.185070037842 28.316295623779 5.628997802734 130 130 130
38.185070037842 28.316295623779 5.568008422852 144 144 144
38.170425415039 28.306766510010 5.508010864258 134 134 134
38.185070037842 28.316295623779 5.447998046875 151 151 151
38.185070037842 28.316295623779 5.389007568359 134 134 134
38.169265747070 28.289337158203 5.329010009766 134 134 134
38.169265747070 28.289337158203 5.270004272461 149 149 149
38.185070037842 28.316295623779 5.210998535156 138 138 138
38.191810607910 28.312347412109 5.152008056641 129 129 129
38.191810607910 28.312347412109 5.092010498047 129 129 129
38.191810607910 28.312347412109 5.033004760742 134 134 134
38.191810607910 28.312347412109 4.973999023438 139 139 139
38.191810607910 28.312347412109 4.914001464844 138 138 138
38.191810607910 28.312347412109 4.855010986328 144 144 144
38.191810607910 28.312347412109 4.796005249023 142 142 142
38.191810607910 28.312347412109 4.736007690430 152 152 152
38.191810607910 28.312347412109 4.677001953125 157 157 157
38.191810607910 28.312347412109 4.617996215820 154 154 154
38.191810607910 28.312347412109 4.559005737305 154 154 154
38.205291748047 28.304443359375 4.500000000000 157 157 157
38.191810607910 28.312347412109 4.441009521484 157 157 157
38.191810607910 28.312347412109 4.382003784180 162 162 162
38.191810607910 28.312347412109 4.322998046875 155 155 155
38.190647125244 28.294914245605 4.264007568359 161 161 161
38.212028503418 28.300495147705 4.204010009766 159 159 159
38.190647125244 28.294914245605 4.145004272461 161 161 161
38.212028503418 28.300495147705 4.085998535156 164 164 164
38.212028503418 28.300495147705 4.026000976563 162 162 162
38.212028503418 28.300495147705 3.967010498047 164 164 164
38.212028503418 28.300495147705 3.908004760742 161 161 161
38.212028503418 28.300495147705 3.848999023438 162 162 162
38.212028503418 28.300495147705 3.789001464844 170 170 170
38.189487457275 28.277484893799 3.731002807617 164 164 164
38.210868835449 28.283061981201 3.671005249023 165 165 165
38.210868835449 28.283061981201 3.611007690430 166 166 166
38.189487457275 28.277484893799 3.552001953125 167 167 167
38.254791259766 28.311653137207 3.427001953125 128 128 128
38.196228027344 28.273536682129 2.651000976563 132 132 132
38.202964782715 28.269584655762 2.589996337891 127 127 127
38.196228027344 28.273536682129 2.527999877930 126 126 126
38.202964782715 28.269584655762 2.469009399414 141 141 141
38.180427551270 28.246574401855 2.408996582031 138 138 138
38.187164306641 28.242622375488 2.348999023438 132 132 132
38.180427551270 28.246574401855 2.291000366211 138 138 138
38.254791259766 28.311653137207 3.367004394531 135 135 135
38.254791259766 28.311653137207 3.305999755859 122 122 122
38.274559020996 28.082733154297 5.583007812500 193 193 193
38.274559020996 28.082733154297 5.524002075195 197 197 197
38.281303405762 28.078784942627 5.464004516602 199 199 199
38.281303405762 28.078784942627 5.406005859375 197 197 197
38.295944213867 28.088310241699 5.348999023438 93 93 93
38.281303405762 28.078784942627 5.290008544922 201 201 201
38.281303405762 28.078784942627 5.230010986328 201 201 201
38.281303405762 28.078784942627 5.171997070313 203 203 203
38.252021789551 28.059722900391 5.111999511719 170 170 170
38.389366149902 28.124107360840 4.708999633789 7 7 7
38.396110534668 28.120159149170 4.650009155273 148 148 148
38.389366149902 28.124107360840 4.591003417969 146 146 146
38.345443725586 28.095520019531 4.531997680664 126 126 126
38.345443725586 28.095520019531 4.473999023438 126 126 126
38.360084533691 28.105049133301 4.415008544922 120 120 120
38.389366149902 28.124107360840 4.356002807617 168 168 168
38.396110534668 28.120159149170 4.296997070313 151 151 151
38.396110534668 28.120159149170 4.238006591797 147 147 147
38.360084533691 28.105049133301 4.180007934570 138 138 138
38.396110534668 28.120159149170 4.121002197266 111 111 111
38.306648254395 27.828479766846 5.760009765625 179 179 179
38.305488586426 27.811050415039 5.702011108398 196 196 196
38.305488586426 27.811050415039 5.645004272461 198 198 198
38.298748016357 27.814998626709 5.585998535156 192 192 192
38.305488586426 27.811050415039 5.529006958008 110 110 110
38.276206970215 27.791992187500 5.184005737305 100 100 100
38.276206970215 27.791992187500 5.126007080078 200 200 200
38.246925354004 27.772930145264 5.069000244141 199 199 199
38.246925354004 27.772930145264 5.012008666992 183 183 183
38.246925354004 27.772930145264 4.955001831055 126 126 126
38.316802978516 28.927307128906 5.072998046875 25 25 25
38.041427612305 28.472930908203 5.917007446289 10 10 10
38.220863342285 28.222869873047 2.270004272461 111 111 111
38.252471923828 28.276790618896 2.995010375977 95 95 95
38.236667633057 28.249832153320 3.055007934570 109 109 109
38.236667633057 28.249832153320 3.107009887695 114 114 114
38.236667633057 28.249832153320 3.158004760742 113 113 113
38.229927062988 28.253784179688 3.208999633789 115 115 115
38.236667633057 28.249832153320 3.262008666992 115 115 115
38.251308441162 28.259361267090 3.309997558594 96 96 96
38.236667633057 28.249832153320 3.416000366211 114 114 114
38.236667633057 28.249832153320 3.467010498047 120 120 120
38.229927062988 28.253784179688 3.516998291016 118 118 118
38.229927062988 28.253784179688 3.568008422852 127 127 127
38.229927062988 28.253784179688 3.619003295898 122 122 122
38.229927062988 28.253784179688 3.669998168945 128 128 128
38.229927062988 28.253784179688 3.722000122070 128 128 128
38.229927062988 28.253784179688 3.772003173828 125 125 125
38.229927062988 28.253784179688 3.822998046875 125 125 125
38.229927062988 28.253784179688 3.874008178711 121 121 121
38.251308441162 28.259361267090 3.925003051758 131 131 131
38.252471923828 28.276790618896 3.975997924805 136 136 136
38.252471923828 28.276790618896 4.027008056641 135 135 135
38.252471923828 28.276790618896 4.077011108398 144 144 144
38.252471923828 28.276790618896 4.128997802734 143 143 143
38.252471923828 28.276790618896 4.179000854492 167 167 167
38.252471923828 28.276790618896 4.230010986328 168 168 168
38.251308441162 28.259361267090 4.281005859375 160 160 160
38.252471923828 28.276790618896 4.332000732422 156 156 156
38.252471923828 28.276790618896 4.383010864258 156 156 156
38.252471923828 28.276790618896 4.434005737305 157 157 157
38.251308441162 28.259361267090 4.485000610352 156 156 156
38.252471923828 28.276790618896 4.537002563477 156 156 156
38.252471923828 28.276790618896 4.587997436523 156 156 156
38.252471923828 28.276790618896 4.639007568359 154 154 154
38.252471923828 28.276790618896 4.690002441406 152 152 152
38.252471923828 28.276790618896 4.740997314453 152 152 152
38.252471923828 28.276790618896 4.792007446289 150 150 150
38.252471923828 28.276790618896 4.843002319336 149 149 149
38.252471923828 28.276790618896 4.895004272461 147 147 147
38.252471923828 28.276790618896 4.947006225586 148 148 148
38.252471923828 28.276790618896 4.997009277344 138 138 138
38.252471923828 28.276790618896 5.048995971680 130 130 130
38.252471923828 28.276790618896 5.100006103516 136 136 136
38.252471923828 28.276790618896 5.151000976563 127 127 127
38.252471923828 28.276790618896 5.203002929688 133 133 133
38.252471923828 28.276790618896 5.255996704102 139 139 139
38.252471923828 28.276790618896 5.305999755859 138 138 138
38.252471923828 28.276790618896 5.358001708984 140 140 140
38.252471923828 28.276790618896 5.410003662109 142 142 142
38.252471923828 28.276790618896 5.462997436523 143 143 143
38.252471923828 28.276790618896 5.514007568359 137 137 137
38.252471923828 28.276790618896 5.568008422852 131 131 131
38.252471923828 28.276790618896 5.619003295898 140 140 140
38.236667633057 28.249832153320 5.664001464844 147 147 147
38.220863342285 28.222869873047 5.714004516602 150 150 150
38.214126586914 28.226821899414 5.763000488281 122 122 122
38.198322296143 28.199863433838 5.811996459961 126 126 126
38.220863342285 28.222869873047 5.871002197266 101 101 101
38.205062866211 28.195911407471 5.915008544922 108 108 108
38.197162628174 28.182430267334 5.964004516602 78 78 78
38.220863342285 28.222869873047 6.029006958008 19 19 19
38.229927062988 28.253784179688 3.363998413086 101 101 101
38.526718139648 28.188495635986 4.208999633789 13 13 13
38.555999755859 28.207557678223 4.260009765625 13 13 13
38.400299072266 27.972812652588 4.360000610352 79 79 79
38.400299072266 27.972812652588 4.410003662109 91 91 91
38.400299072266 27.972812652588 4.460006713867 119 119 119
38.384498596191 27.945854187012 4.509002685547 99 99 99
38.400299072266 27.972812652588 4.559997558594 85 85 85
38.407043457031 27.968860626221 4.609008789063 52 52 52
38.258083343506 27.730171203613 4.988006591797 79 79 79
38.258083343506 27.730171203613 5.035003662109 120 120 120
38.258083343506 27.730171203613 5.085006713867 148 148 148
38.273887634277 27.757129669189 5.137008666992 104 104 104
38.335933685303 27.847537994385 5.497009277344 25 25 25
38.312229156494 27.807098388672 5.539001464844 129 129 129
38.312229156494 27.807098388672 5.589004516602 149 149 149
38.312229156494 27.807098388672 5.639007568359 135 135 135
38.312229156494 27.807098388672 5.690002441406 134 134 134
38.297588348389 27.797569274902 5.738006591797 95 95 95
38.084903717041 28.284446716309 5.824005126953 41 41 41
38.085353851318 28.501518249512 5.914001464844 36 36 36
38.080482482910 28.323261260986 5.949005126953 109 109 109
38.327774047852 28.250766754150 4.042999267578 11 11 11
38.335670471191 28.264247894287 4.100997924805 117 117 117
38.331253051758 28.303058624268 4.158004760742 87 87 87
38.340316772461 28.333969116211 4.216003417969 121 121 121
38.334735870361 28.355350494385 4.275009155273 78 78 78
38.325447082520 28.215904235840 4.337005615234 136 136 136
38.344509124756 28.186626434326 4.395996093750 157 157 157
38.328704833984 28.159664154053 4.454010009766 112 112 112
38.337547302246 28.082038879395 4.512008666992 54 54 54
38.344734191895 28.295158386230 4.570999145508 124 124 124
38.352600097656 28.833881378174 4.947006225586 16 16 16
38.352600097656 28.833881378174 5.009002685547 33 33 33
38.352600097656 28.833881378174 5.070999145508 37 37 37
38.337959289551 28.824352264404 5.132003784180 29 29 29
38.321289062500 27.838012695313 5.527999877930 10 10 10
38.309906005859 27.772239685059 5.579010009766 59 59 59
38.327804565430 27.725524902344 5.630996704102 77 77 77
38.317810058594 27.785717010498 5.693008422852 77 77 77
38.323616027832 27.872871398926 5.762008666992 111 111 111
38.322189331055 28.272148132324 5.873001098633 74 74 74
38.340538024902 28.442504882813 5.955001831055 127 127 127
38.331031799316 28.194526672363 5.982009887695 59 59 59
38.585281372070 28.226612091064 4.244003295898 11 11 11
38.592697143555 28.548267364502 4.480010986328 10 10 10
38.578090667725 28.013496398926 4.540008544922 14 14 14
38.657550811768 28.365367889404 4.542999267578 21 21 21
38.349151611328 28.256347656250 4.109008789063 166 166 166
38.349151611328 28.256347656250 4.167999267578 106 106 106
38.343574523926 28.277725219727 4.227005004883 94 94 94
38.351699829102 28.399742126465 4.283004760742 87 87 87
38.340091705322 28.225433349609 4.345001220703 142 142 142
38.346603393555 28.112953186035 4.404998779297 169 169 169
38.346603393555 28.112953186035 4.462997436523 114 114 114
38.351024627686 28.074138641357 4.520996093750 74 74 74
38.342411041260 28.260299682617 4.580001831055 96 96 96
38.327804565430 27.725524902344 5.583999633789 18 18 18
38.327804565430 27.725524902344 5.639999389648 56 56 56
38.338027954102 27.773864746094 5.699996948242 55 55 55
38.346153259277 27.895881652832 5.772003173828 113 113 113
38.356342315674 28.469467163086 5.908004760742 81 81 81
38.343574523926 28.277725219727 5.943008422852 114 114 114
38.355892181396 28.252395629883 5.997009277344 20 20 20
38.048171997070 28.468978881836 5.921005249023 57 57 57
38.027500152588 28.263763427734 5.953002929688 9 9 9
38.312454223633 27.915634155273 5.703002929688 144 144 144
38.312454223633 27.915634155273 5.645004272461 176 176 176
38.312454223633 27.915634155273 5.585998535156 184 184 184
38.312454223633 27.915634155273 5.529006958008 183 183 183
38.305717468262 27.919586181641 5.471008300781 128 128 128
38.298973083496 27.923538208008 5.238006591797 128 128 128
38.276432037354 27.900524139404 5.179000854492 186 186 186
38.276432037354 27.900524139404 5.122009277344 172 172 172
38.276432037354 27.900524139404 5.063003540039 164 164 164
38.276432037354 27.900524139404 5.005996704102 121 121 121
38.400299072266 27.972812652588 4.608001708984 101 101 101
38.393562316895 27.976760864258 4.550003051758 127 127 127
38.393562316895 27.976760864258 4.492004394531 135 135 135
38.393562316895 27.976760864258 4.434005737305 128 128 128
38.400299072266 27.972812652588 4.376007080078 96 96 96
38.198322296143 28.199863433838 5.999008178711 40 40 40
38.263626098633 28.234031677246 5.949996948242 122 122 122
38.351474761963 28.291206359863 5.904006958008 80 80 80
38.214126586914 28.226821899414 5.822998046875 93 93 93
38.263626098633 28.234031677246 5.770004272461 22 22 22
38.227607727051 28.218917846680 5.705001831055 24 24 24
38.286170959473 28.257038116455 5.533004760742 63 63 63
38.286170959473 28.257038116455 5.473999023438 174 174 174
38.286170959473 28.257038116455 5.414001464844 171 171 171
38.286170959473 28.257038116455 5.354003906250 167 167 167
38.286170959473 28.257038116455 5.294998168945 167 167 167
38.279430389404 28.260990142822 5.236007690430 169 169 169
38.279430389404 28.260990142822 5.176010131836 24 24 24
38.279430389404 28.260990142822 5.057006835938 10 10 10
38.263626098633 28.234031677246 4.998001098633 16 16 16
38.263626098633 28.234031677246 4.938003540039 32 32 32
38.263626098633 28.234031677246 4.878997802734 48 48 48
38.263626098633 28.234031677246 4.820007324219 71 71 71
38.263626098633 28.234031677246 4.761001586914 81 81 81
38.279430389404 28.260990142822 4.702011108398 97 97 97
38.308712005615 28.280052185059 4.643005371094 140 140 140
38.315452575684 28.276100158691 4.583999633789 158 158 158
38.315452575684 28.276100158691 4.525009155273 136 136 136
38.256889343262 28.237983703613 4.464996337891 135 135 135
38.279430389404 28.260990142822 4.406005859375 139 139 139
38.256889343262 28.237983703613 4.347000122070 137 137 137
38.264785766602 28.251457214355 4.288009643555 130 130 130
38.292911529541 28.253089904785 4.227996826172 131 131 131
38.292911529541 28.253089904785 4.169006347656 134 134 134
38.279430389404 28.260990142822 4.110000610352 119 119 119
38.294071197510 28.270519256592 4.050003051758 146 146 146
38.272689819336 28.264938354492 3.990997314453 123 123 123
38.256889343262 28.237983703613 3.934005737305 98 98 98
38.250148773193 28.241931915283 3.874008178711 102 102 102
38.243408203125 28.245880126953 3.816009521484 98 98 98
38.264785766602 28.251457214355 3.755004882813 100 100 100
38.250148773193 28.241931915283 3.697006225586 103 103 103
38.250148773193 28.241931915283 3.637008666992 114 114 114
38.250148773193 28.241931915283 3.578002929688 112 112 112
38.250148773193 28.241931915283 3.518005371094 115 115 115
38.264785766602 28.251457214355 3.457000732422 102 102 102
38.250148773193 28.241931915283 3.339996337891 117 117 117
38.250148773193 28.241931915283 3.279998779297 117 117 117
38.243408203125 28.245880126953 3.222000122070 112 112 112
38.243408203125 28.245880126953 3.162002563477 112 112 112
38.264785766602 28.251457214355 3.098007202148 73 73 73
38.236667633057 28.249832153320 2.679000854492 72 72 72
38.316612243652 28.293525695801 2.538009643555 7 7 7
38.308712005615 28.280052185059 2.482009887695 251 251 251
38.272689819336 28.264938354492 2.423995971680 227 227 227
38.251308441162 28.259361267090 2.369003295898 177 177 177
38.207386016846 28.230770111084 2.317001342773 137 137 137
38.192745208740 28.221240997314 2.260009765625 120 120 120
38.250148773193 28.241931915283 3.400009155273 103 103 103
38.128116607666 28.512680053711 5.945007324219 67 67 67
38.309387207031 28.605651855469 5.600997924805 141 141 141
38.331932067871 28.628662109375 5.541000366211 148 148 148
38.309387207031 28.605651855469 5.477996826172 146 146 146
38.302646636963 28.609603881836 5.416000366211 142 142 142
38.309387207031 28.605651855469 5.292007446289 134 134 134
38.302646636963 28.609603881836 5.231002807617 143 143 143
38.302646636963 28.609603881836 5.167999267578 145 145 145
38.309387207031 28.605651855469 5.107009887695 139 139 139
38.338668823242 28.624713897705 5.048004150391 11 11 11
38.411872863770 28.672359466553 4.555999755859 93 93 93
38.426513671875 28.681888580322 4.494003295898 98 98 98
38.426513671875 28.681888580322 4.432006835938 92 92 92
38.411872863770 28.672359466553 4.370010375977 6 6 6
38.346084594727 28.946365356445 5.667999267578 28 28 28
38.332603454590 28.954265594482 5.602005004883 98 98 98
38.332603454590 28.954265594482 5.092010498047 94 94 94
38.294555664063 27.962345123291 5.664001464844 92 92 92
38.301296234131 27.958396911621 5.615997314453 117 117 117
38.301296234131 27.958396911621 5.565002441406 149 149 149
38.294555664063 27.962345123291 5.514999389648 165 165 165
38.294555664063 27.962345123291 5.464996337891 123 123 123
38.310356140137 27.989307403564 5.417007446289 9 9 9
38.294555664063 27.962345123291 5.259002685547 88 88 88
38.287815093994 27.966297149658 5.210006713867 157 157 157
38.272014617920 27.939338684082 5.158004760742 138 138 138
38.278755187988 27.935386657715 5.106002807617 125 125 125
38.269691467285 27.904476165771 5.054000854492 110 110 110
38.247150421143 27.881465911865 5.001998901367 48 48 48
38.397270202637 28.137588500977 4.669998168945 104 104 104
38.405170440674 28.151069641113 4.620010375977 117 117 117
38.389366149902 28.124107360840 4.568008422852 95 95 95
38.357765197754 28.070186614990 4.514999389648 98 98 98
38.365665435791 28.083667755127 4.464996337891 86 86 86
38.373565673828 28.097148895264 4.415008544922 112 112 112
38.396110534668 28.120159149170 4.365005493164 130 130 130
38.389366149902 28.124107360840 4.314010620117 157 157 157
38.397270202637 28.137588500977 4.263000488281 105 105 105
38.397270202637 28.137588500977 4.212005615234 108 108 108
38.389366149902 28.124107360840 4.162002563477 108 108 108
38.397270202637 28.137588500977 4.111007690430 105 105 105
38.405170440674 28.151069641113 4.059005737305 68 68 68
38.083740234375 28.267021179199 5.984008789063 61 61 61
38.145790100098 28.357429504395 5.952011108398 117 117 117
38.177394866943 28.411350250244 5.911010742188 109 109 109
38.099544525146 28.293979644775 5.833007812500 102 102 102
38.123245239258 28.334419250488 5.788009643555 90 90 90
38.319610595703 28.653991699219 5.635009765625 90 90 90
38.320770263672 28.671424865723 5.583999633789 93 93 93
38.320770263672 28.671424865723 5.529006958008 124 124 124
38.320770263672 28.671424865723 5.475997924805 118 118 118
38.298229217529 28.648414611816 5.416000366211 37 37 37
38.295906066895 28.613552093506 5.251998901367 76 76 76
38.319610595703 28.653991699219 5.202011108398 96 96 96
38.298229217529 28.648414611816 5.148010253906 97 97 97
38.319610595703 28.653991699219 5.095001220703 97 97 97
38.319610595703 28.653991699219 5.042007446289 78 78 78
38.351215362549 28.707912445068 4.992996215820 8 8 8
38.180427551270 28.246574401855 2.246002197266 145 145 145
38.196228027344 28.273536682129 2.307006835938 149 149 149
38.196228027344 28.273536682129 2.367004394531 150 150 150
38.196228027344 28.273536682129 2.428009033203 143 143 143
38.189487457275 28.277484893799 2.904998779297 170 170 170
38.190647125244 28.294914245605 2.964004516602 162 162 162
38.190647125244 28.294914245605 3.083007812500 169 169 169
38.189487457275 28.277484893799 3.143005371094 164 164 164
38.189487457275 28.277484893799 3.202011108398 163 163 163
38.212028503418 28.300495147705 3.260009765625 168 168 168
38.205291748047 28.304443359375 3.319000244141 172 172 172
38.212028503418 28.300495147705 3.378005981445 173 173 173
38.210868835449 28.283061981201 3.438003540039 173 173 173
38.212028503418 28.300495147705 3.496002197266 169 169 169
38.212028503418 28.300495147705 3.555007934570 159 159 159
38.212028503418 28.300495147705 3.613998413086 169 169 169
38.205291748047 28.304443359375 3.671997070313 169 169 169
38.212028503418 28.300495147705 3.731002807617 172 172 172
38.205291748047 28.304443359375 3.789001464844 167 167 167
38.212028503418 28.300495147705 3.848007202148 173 173 173
38.205291748047 28.304443359375 3.906005859375 172 172 172
38.205291748047 28.304443359375 3.964004516602 173 173 173
38.212028503418 28.300495147705 4.024002075195 173 173 173
38.212028503418 28.300495147705 4.082000732422 168 168 168
38.205291748047 28.304443359375 4.139999389648 171 171 171
38.205291748047 28.304443359375 4.199005126953 178 178 178
38.212028503418 28.300495147705 4.257003784180 173 173 173
38.205291748047 28.304443359375 4.315002441406 175 175 175
38.205291748047 28.304443359375 4.374008178711 173 173 173
38.205291748047 28.304443359375 4.432006835938 176 176 176
38.205291748047 28.304443359375 4.490005493164 179 179 179
38.219932556152 28.313976287842 4.548995971680 169 169 169
38.212028503418 28.300495147705 4.607009887695 168 168 168
38.219932556152 28.313976287842 4.666000366211 176 176 176
38.221092224121 28.331405639648 4.723999023438 168 168 168
38.219932556152 28.313976287842 4.781997680664 168 168 168
38.219932556152 28.313976287842 4.841003417969 165 165 165
38.221092224121 28.331405639648 4.900009155273 168 168 168
38.219932556152 28.313976287842 4.958007812500 163 163 163
38.221092224121 28.331405639648 5.016998291016 153 153 153
38.221092224121 28.331405639648 5.076004028320 152 152 152
38.219932556152 28.313976287842 5.134002685547 152 152 152
38.219932556152 28.313976287842 5.193008422852 151 151 151
38.219932556152 28.313976287842 5.251007080078 214 214 214
38.221092224121 28.331405639648 5.311004638672 135 135 135
38.219932556152 28.313976287842 5.369003295898 135 135 135
38.221092224121 28.331405639648 5.429000854492 218 218 218
38.219932556152 28.313976287842 5.486999511719 135 135 135
38.209709167480 28.265632629395 5.542999267578 146 146 146
38.218769073486 28.296543121338 5.602996826172 166 166 166
38.223190307617 28.257732391357 5.658004760742 163 163 163
38.223190307617 28.257732391357 5.716003417969 147 147 147
38.222023010254 28.240303039551 5.774002075195 126 126 126
38.227607727051 28.218917846680 5.831008911133 109 109 109
38.209709167480 28.265632629395 5.895996093750 96 96 96
38.209480285645 28.157096862793 5.939010620117 71 71 71
38.232250213623 28.288642883301 6.014999389648 43 43 43
38.199710845947 28.325828552246 2.839996337891 119 119 119
38.189487457275 28.277484893799 3.025009155273 140 140 140
38.405620574951 28.368141174316 3.988006591797 17 17 17
38.388656616211 28.323745727539 4.048995971680 59 59 59
38.391914367676 28.267505645752 4.110000610352 152 152 152
38.394237518311 28.302368164063 4.167999267578 145 145 145
38.403297424316 28.333274841309 4.225997924805 149 149 149
38.414230346680 28.181980133057 4.289001464844 144 144 144
38.400753021240 28.189880371094 4.347000122070 164 164 164
38.402847290039 28.116207122803 4.406005859375 151 151 151
38.407264709473 28.077396392822 4.464004516602 122 122 122
38.409587860107 28.112258911133 4.522003173828 82 82 82
38.406555175781 28.277034759521 4.581008911133 100 100 100
38.414459228516 28.290515899658 5.828002929688 9 9 9
38.419326782227 28.468772888184 5.912002563477 101 101 101
38.403072357178 28.224742889404 5.939010620117 35 35 35
38.589698791504 28.187805175781 4.194000244141 14 14 14
38.598762512207 28.218711853027 4.251998901367 11 11 11
38.602954864502 28.071365356445 4.488998413086 22 22 22
38.604114532471 28.088798522949 4.548004150391 7 7 7
38.077453613281 28.488040924072 5.906997680664 19 19 19
38.373046875000 28.930564880371 5.611999511719 36 36 36
38.366306304932 28.934513092041 5.554000854492 12 12 12
38.357246398926 28.903602600098 5.055007934570 68 68 68
38.350502014160 28.907554626465 4.999008178711 27 27 27
38.201805114746 28.252151489258 6.018005371094 67 67 67
38.139759063721 28.161743164063 5.945999145508 75 75 75
38.187164306641 28.242622375488 5.910003662109 100 100 100
38.178100585938 28.211715698242 5.852996826172 95 95 95
38.178100585938 28.211715698242 5.802001953125 132 132 132
38.216445922852 28.261684417725 5.757003784180 112 112 112
38.201805114746 28.252151489258 5.701004028320 146 146 146
38.209709167480 28.265632629395 5.656005859375 144 144 144
38.209709167480 28.265632629395 5.602005004883 170 170 170
38.232250213623 28.288642883301 5.552001953125 156 156 156
38.232250213623 28.288642883301 5.500000000000 153 153 153
38.240150451660 28.302124023438 5.449996948242 144 144 144
38.218769073486 28.296543121338 5.398010253906 148 148 148
38.240150451660 28.302124023438 5.347000122070 144 144 144
38.240150451660 28.302124023438 5.294998168945 146 146 146
38.240150451660 28.302124023438 5.242996215820 148 148 148
38.240150451660 28.302124023438 5.191009521484 146 146 146
38.225509643555 28.292594909668 5.139007568359 140 140 140
38.225509643555 28.292594909668 5.087005615234 138 138 138
38.225509643555 28.292594909668 5.035003662109 141 141 141
38.225509643555 28.292594909668 4.985000610352 144 144 144
38.225509643555 28.292594909668 4.932998657227 153 153 153
38.238990783691 28.284690856934 4.882003784180 159 159 159
38.225509643555 28.292594909668 4.830001831055 157 157 157
38.225509643555 28.292594909668 4.779006958008 154 154 154
38.225509643555 28.292594909668 4.727996826172 164 164 164
38.238990783691 28.284690856934 4.677001953125 159 159 159
38.225509643555 28.292594909668 4.625000000000 160 160 160
38.225509643555 28.292594909668 4.574005126953 156 156 156
38.225509643555 28.292594909668 4.523010253906 161 161 161
38.225509643555 28.292594909668 4.472000122070 164 164 164
38.225509643555 28.292594909668 4.421005249023 165 165 165
38.225509643555 28.292594909668 4.370010375977 167 167 167
38.232250213623 28.288642883301 4.319000244141 161 161 161
38.232250213623 28.288642883301 4.268005371094 163 163 163
38.238990783691 28.284690856934 4.217010498047 166 166 166
38.232250213623 28.288642883301 4.166000366211 161 161 161
38.232250213623 28.288642883301 4.113998413086 159 159 159
38.232250213623 28.288642883301 4.063003540039 159 159 159
38.232250213623 28.288642883301 4.012008666992 160 160 160
38.232250213623 28.288642883301 3.960998535156 161 161 161
38.232250213623 28.288642883301 3.910003662109 159 159 159
38.232250213623 28.288642883301 3.859008789063 160 160 160
38.232250213623 28.288642883301 3.807998657227 160 160 160
38.232250213623 28.288642883301 3.757003784180 161 161 161
38.232250213623 28.288642883301 3.706008911133 164 164 164
38.232250213623 28.288642883301 3.654998779297 160 160 160
38.232250213623 28.288642883301 3.602996826172 164 164 164
38.232250213623 28.288642883301 3.552001953125 159 159 159
38.232250213623 28.288642883301 3.501007080078 153 153 153
38.232250213623 28.288642883301 3.449996948242 157 157 157
38.232250213623 28.288642883301 3.397003173828 153 153 153
38.216445922852 28.261684417725 3.348007202148 154 154 154
38.232250213623 28.288642883301 3.242996215820 163 163 163
38.232250213623 28.288642883301 3.193008422852 165 165 165
38.223190307617 28.257732391357 3.143005371094 162 162 162
38.231086730957 28.271209716797 3.089004516602 159 159 159
38.231086730957 28.271209716797 3.038009643555 155 155 155
38.216445922852 28.261684417725 2.621002197266 126 126 126
38.223190307617 28.257732391357 2.568008422852 125 125 125
38.231086730957 28.271209716797 2.514999389648 120 120 120
38.231086730957 28.271209716797 2.462005615234 120 120 120
38.223190307617 28.257732391357 2.411010742188 131 131 131
38.223190307617 28.257732391357 2.358001708984 130 130 130
38.200645446777 28.234722137451 2.309997558594 133 133 133
38.200645446777 28.234722137451 2.257003784180 136 136 136
38.232250213623 28.288642883301 3.294006347656 152 152 152
38.467216491699 28.241481781006 5.914001464844 23 23 23
38.310356140137 27.989307403564 5.602005004883 111 111 111
38.303619384766 27.993259429932 5.552001953125 118 118 118
38.303619384766 27.993259429932 5.501007080078 162 162 162
38.326160430908 28.016265869141 5.452011108398 146 146 146
38.326160430908 28.016265869141 5.402999877930 92 92 92
38.310356140137 27.989307403564 5.247009277344 103 103 103
38.310356140137 27.989307403564 5.195999145508 161 161 161
38.294555664063 27.962345123291 5.143997192383 122 122 122
38.294555664063 27.962345123291 5.093002319336 141 141 141
38.272014617920 27.939338684082 5.039001464844 101 101 101
38.427711486816 28.174079895020 4.654998779297 105 105 105
38.427711486816 28.174079895020 4.604003906250 105 105 105
38.405170440674 28.151069641113 4.552001953125 103 103 103
38.373565673828 28.097148895264 4.499008178711 103 103 103
38.365665435791 28.083667755127 4.447998046875 94 94 94
38.373565673828 28.097148895264 4.398010253906 104 104 104
38.411911010742 28.147121429443 4.348007202148 141 141 141
38.405170440674 28.151069641113 4.296997070313 123 123 123
38.411911010742 28.147121429443 4.246002197266 115 115 115
38.405170440674 28.151069641113 4.195007324219 91 91 91
38.411911010742 28.147121429443 4.145004272461 91 91 91
38.405170440674 28.151069641113 4.094009399414 111 111 111
38.419811248779 28.160598754883 4.042999267578 92 92 92
38.427711486816 28.174079895020 3.990997314453 12 12 12
38.599472045898 28.019073486328 4.525009155273 14 14 14
38.338188171387 28.932884216309 5.577011108398 78 78 78
38.359565734863 28.938465118408 5.066009521484 72 72 72
38.351215362549 28.707912445068 5.645004272461 144 144 144
38.336574554443 28.698387145996 5.582000732422 148 148 148
38.336574554443 28.698387145996 5.518997192383 192 192 192
38.351215362549 28.707912445068 5.457000732422 151 151 151
38.321929931641 28.688858032227 5.204010009766 134 134 134
38.343315124512 28.694435119629 5.143005371094 144 144 144
38.321929931641 28.688858032227 5.080001831055 142 142 142
38.321929931641 28.688858032227 5.018005371094 147 147 147
38.095127105713 28.332794189453 5.969009399414 68 68 68
38.144630432129 28.340000152588 5.915008544922 112 112 112
38.144630432129 28.340000152588 5.855010986328 85 85 85
38.131149291992 28.347900390625 5.792007446289 121 121 121
38.217834472656 28.387649536133 5.744003295898 20 20 20
38.327060699463 28.450405120850 5.514007568359 121 121 121
38.305679321289 28.444824218750 5.451004028320 148 148 148
38.305679321289 28.444824218750 5.391006469727 149 149 149
38.291038513184 28.435298919678 5.329010009766 146 146 146
38.297779083252 28.431346893311 5.266998291016 145 145 145
38.297779083252 28.431346893311 5.207000732422 144 144 144
38.305679321289 28.444824218750 5.147003173828 125 125 125
38.421646118164 28.503635406494 4.664001464844 60 60 60
38.436286926270 28.513160705566 4.602996826172 124 124 124
38.421646118164 28.503635406494 4.541000366211 123 123 123
38.356342315674 28.469467163086 4.479003906250 91 91 91
38.370983123779 28.478992462158 4.419006347656 89 89 89
38.407005310059 28.494102478027 4.357009887695 129 129 129
38.385627746582 28.488525390625 4.296997070313 133 133 133
38.385627746582 28.488525390625 4.235000610352 150 150 150
38.385627746582 28.488525390625 4.175003051758 140 140 140
38.407005310059 28.494102478027 4.111999511719 55 55 55
38.274787902832 28.191268920898 5.930999755859 97 97 97
38.434677124023 28.278663635254 5.899002075195 69 69 69
38.245506286621 28.172210693359 5.807006835938 52 52 52
38.281524658203 28.187316894531 5.514007568359 131 131 131
38.297328948975 28.214279174805 5.456008911133 174 174 174
38.281524658203 28.187316894531 5.395004272461 175 175 175
38.297328948975 28.214279174805 5.335998535156 174 174 174
38.297328948975 28.214279174805 5.277008056641 176 176 176
38.297328948975 28.214279174805 5.218002319336 176 176 176
38.297328948975 28.214279174805 5.158004760742 102 102 102
38.427936553955 28.282615661621 4.686996459961 17 17 17
38.427936553955 28.282615661621 4.626998901367 136 136 136
38.405395507813 28.259605407715 4.567001342773 152 152 152
38.426776885986 28.265182495117 4.507003784180 134 134 134
38.310806274414 28.206375122070 4.447006225586 145 145 145
38.297328948975 28.214279174805 4.388000488281 109 109 109
38.310806274414 28.206375122070 4.329010009766 108 108 108
38.340091705322 28.225433349609 4.268997192383 143 143 143
38.369369506836 28.244495391846 4.208999633789 104 104 104
38.369369506836 28.244495391846 4.149002075195 102 102 102
38.398654937744 28.263553619385 4.087997436523 108 108 108
38.405395507813 28.259605407715 4.027999877930 144 144 144
38.426776885986 28.265182495117 3.968002319336 78 78 78
38.310356140137 27.989307403564 5.645996093750 86 86 86
38.323837280273 27.981407165527 5.589996337891 176 176 176
38.310356140137 27.989307403564 5.529006958008 182 182 182
38.310356140137 27.989307403564 5.471008300781 185 185 185
38.310356140137 27.989307403564 5.413009643555 163 163 163
38.310356140137 27.989307403564 5.296005249023 11 11 11
38.310356140137 27.989307403564 5.236999511719 176 176 176
38.295715332031 27.979778289795 5.178009033203 188 188 188
38.295715332031 27.979778289795 5.120010375977 185 185 185
38.274337768555 27.974197387695 5.061004638672 164 164 164
38.426326751709 28.048114776611 4.660003662109 74 74 74
38.426326751709 28.048114776611 4.600997924805 131 131 131
38.426326751709 28.048114776611 4.542007446289 131 131 131
38.411685943604 28.038581848145 4.484008789063 109 109 109
38.411685943604 28.038581848145 4.425003051758 122 122 122
38.426326751709 28.048114776611 4.367004394531 135 135 135
38.411685943604 28.038581848145 4.307998657227 128 128 128
38.411685943604 28.038581848145 4.250000000000 126 126 126
38.411685943604 28.038581848145 4.191009521484 93 93 93
38.309906005859 27.772239685059 5.772003173828 13 13 13
38.332450866699 27.795246124268 5.716003417969 179 179 179
38.309906005859 27.772239685059 5.658004760742 176 176 176
38.309906005859 27.772239685059 5.600997924805 184 184 184
38.309906005859 27.772239685059 5.542999267578 164 164 164
38.288528442383 27.766658782959 5.141006469727 142 142 142
38.288528442383 27.766658782959 5.083007812500 184 184 184
38.280624389648 27.753177642822 5.026000976563 168 168 168
