22.577327728271 14.530507087708 46.430999755859 196 196 196
22.577327728271 14.530507087708 46.339019775391 194 194 194
22.577327728271 14.530507087708 46.247009277344 191 191 191
22.577327728271 14.530507087708 46.153015136719 206 206 206
22.577327728271 14.530507087708 46.062011718750 201 201 201
22.577327728271 14.530507087708 45.971008300781 188 188 188
22.712753295898 14.495997428894 45.515014648438 160 160 160
22.712753295898 14.495997428894 45.421997070313 173 173 173
22.712753295898 14.495997428894 45.330017089844 86 86 86
22.611837387085 14.665934562683 47.093017578125 21 21 21
22.611837387085 14.665934562683 46.805999755859 117 117 117
22.611837387085 14.665934562683 46.714019775391 186 186 186
22.611837387085 14.665934562683 46.619995117188 196 196 196
22.672910690308 14.679215431213 46.529022216797 190 190 190
22.672910690308 14.679215431213 46.434997558594 194 194 194
22.611837387085 14.665934562683 46.342010498047 191 191 191
22.611837387085 14.665934562683 46.248016357422 189 189 189
22.611837387085 14.665934562683 46.154998779297 197 197 197
22.672910690308 14.679215431213 46.065002441406 203 203 203
22.747264862061 14.631422996521 45.608001708984 173 173 173
22.747264862061 14.631422996521 45.515014648438 179 179 179
22.686191558838 14.618142127991 45.421997070313 180 180 180
22.747264862061 14.631422996521 45.329010009766 167 167 167
22.747264862061 14.631422996521 45.236022949219 154 154 154
22.747264862061 14.631422996521 45.143005371094 90 90 90
22.388776779175 14.809309959412 47.153015136719 100 100 100
22.598556518555 14.727005958557 47.098022460938 97 97 97
22.449850082397 14.822590827942 46.973022460938 90 90 90
22.524204254150 14.774798393250 46.890014648438 134 134 134
22.524204254150 14.774798393250 46.800018310547 54 54 54
22.646348953247 14.801360130310 46.723022460938 181 181 181
22.646348953247 14.801360130310 46.627014160156 188 188 188
22.646348953247 14.801360130310 46.533020019531 189 189 189
22.646348953247 14.801360130310 46.442016601563 207 207 207
22.646348953247 14.801360130310 46.348999023438 53 53 53
22.646348953247 14.801360130310 46.253997802734 203 203 203
22.646348953247 14.801360130310 46.162017822266 200 200 200
22.646348953247 14.801360130310 46.069000244141 57 57 57
22.781774520874 14.766848564148 45.611022949219 174 174 174
22.781774520874 14.766848564148 45.518005371094 164 164 164
22.646348953247 14.801360130310 45.424011230469 165 165 165
22.659629821777 14.740286827087 45.330993652344 133 133 133
22.720703125000 14.753567695618 45.236999511719 145 145 145
22.781774520874 14.766848564148 45.144012451172 168 168 168
22.781774520874 14.766848564148 45.050018310547 159 159 159
22.423288345337 14.944735527039 47.165008544922 119 119 119
22.484361648560 14.958016395569 47.082000732422 115 115 115
22.484361648560 14.958016395569 46.990997314453 138 138 138
22.571994781494 14.849152565002 46.917022705078 137 137 137
22.558713912964 14.910223960876 46.816009521484 114 114 114
22.619787216187 14.923504829407 46.723999023438 111 111 111
22.558713912964 14.910223960876 46.624023437500 142 142 142
22.619787216187 14.923504829407 46.536010742188 99 99 99
22.558713912964 14.910223960876 46.440002441406 118 118 118
22.558713912964 14.910223960876 46.347015380859 153 153 153
22.619787216187 14.923504829407 46.259002685547 115 115 115
22.619787216187 14.923504829407 46.162994384766 139 139 139
22.619787216187 14.923504829407 46.074005126953 98 98 98
22.619787216187 14.923504829407 45.981994628906 107 107 107
22.619787216187 14.923504829407 45.890014648438 120 120 120
22.619787216187 14.923504829407 45.796020507813 107 107 107
22.619787216187 14.923504829407 45.705017089844 104 104 104
22.619787216187 14.923504829407 45.611999511719 106 106 106
22.619787216187 14.923504829407 45.520019531250 115 115 115
22.619787216187 14.923504829407 45.428009033203 109 109 109
22.619787216187 14.923504829407 45.335998535156 113 113 113
22.619787216187 14.923504829407 45.244018554688 115 115 115
22.619787216187 14.923504829407 45.152008056641 100 100 100
22.619787216187 14.923504829407 45.059020996094 105 105 105
22.619787216187 14.923504829407 44.966003417969 117 117 117
22.619787216187 14.923504829407 44.873016357422 118 118 118
22.619787216187 14.923504829407 44.779998779297 118 118 118
22.619787216187 14.923504829407 44.688018798828 125 125 125
22.619787216187 14.923504829407 44.593994140625 122 122 122
22.680860519409 14.936785697937 44.499023437500 129 129 129
22.680860519409 14.936785697937 44.406005859375 134 134 134
22.680860519409 14.936785697937 44.311004638672 130 130 130
22.680860519409 14.936785697937 44.218017578125 120 120 120
22.680860519409 14.936785697937 44.122009277344 116 116 116
22.680860519409 14.936785697937 44.028015136719 117 117 117
22.457801818848 15.080163002014 47.095001220703 86 86 86
22.532154083252 15.032370567322 47.010009765625 13 13 13
22.667579650879 14.997859001160 46.744018554688 198 198 198
22.667579650879 14.997859001160 46.648010253906 198 198 198
22.667579650879 14.997859001160 46.553009033203 191 191 191
22.606506347656 14.984578132629 46.457000732422 191 191 191
22.667579650879 14.997859001160 46.365020751953 118 118 118
22.667579650879 14.997859001160 46.272003173828 213 213 213
22.667579650879 14.997859001160 46.178009033203 206 206 206
22.654300689697 15.058932304382 46.084014892578 187 187 187
22.864078521729 14.976628303528 45.623016357422 165 165 165
22.803005218506 14.963347434998 45.528015136719 176 176 176
22.803005218506 14.963347434998 45.433013916016 156 156 156
22.803005218506 14.963347434998 45.339019775391 133 133 133
22.803005218506 14.963347434998 45.244018554688 168 168 168
22.803005218506 14.963347434998 45.149017333984 159 159 159
22.789724349976 15.024418830872 45.054016113281 173 173 173
22.654300689697 15.058932304382 46.845001220703 119 119 119
22.654300689697 15.058932304382 46.752014160156 203 203 203
22.654300689697 15.058932304382 46.657012939453 202 202 202
22.654300689697 15.058932304382 46.563018798828 60 60 60
22.654300689697 15.058932304382 46.464996337891 191 191 191
22.654300689697 15.058932304382 46.372009277344 192 192 192
22.654300689697 15.058932304382 46.184020996094 210 210 210
22.654300689697 15.058932304382 46.089996337891 213 213 213
22.654300689697 15.058932304382 45.997009277344 98 98 98
22.850797653198 15.037701606750 45.628021240234 158 158 158
22.850797653198 15.037701606750 45.532012939453 171 171 171
22.850797653198 15.037701606750 45.437011718750 216 216 216
22.850797653198 15.037701606750 45.342010498047 155 155 155
22.789724349976 15.024418830872 45.247009277344 192 192 192
22.850797653198 15.037701606750 45.151000976563 70 70 70
22.688810348511 15.194355964661 46.855010986328 207 207 207
22.688810348511 15.194355964661 46.757995605469 204 204 204
22.688810348511 15.194355964661 46.664001464844 136 136 136
22.688810348511 15.194355964661 46.472015380859 181 181 181
22.688810348511 15.194355964661 46.376007080078 183 183 183
22.688810348511 15.194355964661 46.282012939453 191 191 191
22.688810348511 15.194355964661 46.190002441406 166 166 166
22.688810348511 15.194355964661 46.095001220703 207 207 207
22.688810348511 15.194355964661 46.000000000000 210 210 210
22.885307312012 15.173127174377 45.533996582031 175 175 175
22.885307312012 15.173127174377 45.438018798828 195 195 195
22.885307312012 15.173127174377 45.342010498047 75 75 75
22.662248611450 15.316502571106 46.954010009766 200 200 200
22.662248611450 15.316502571106 46.859008789063 206 206 206
22.662248611450 15.316502571106 46.761016845703 196 196 196
22.662248611450 15.316502571106 46.378021240234 194 194 194
22.662248611450 15.316502571106 46.283020019531 196 196 196
22.662248611450 15.316502571106 46.190002441406 140 140 140
22.662248611450 15.316502571106 46.096008300781 169 169 169
22.648967742920 15.377575874329 46.960021972656 131 131 131
22.648967742920 15.377575874329 46.860015869141 207 207 207
22.696760177612 15.451928138733 46.378997802734 138 138 138
22.696760177612 15.451928138733 46.282012939453 190 190 190
22.696760177612 15.451928138733 46.188995361328 82 82 82
22.970325469971 14.488045692444 45.488006591797 98 98 98
22.630451202393 14.286217689514 46.216003417969 16 16 16
22.630451202393 14.286217689514 46.305999755859 77 77 77
22.569377899170 14.272936820984 46.768005371094 20 20 20
22.569377899170 14.272936820984 46.861022949219 73 73 73
22.917201995850 14.732338905334 45.199005126953 116 116 116
22.821617126465 14.583630561829 45.486999511719 114 114 114
22.617170333862 14.347290992737 46.127014160156 16 16 16
22.617170333862 14.347290992737 46.220001220703 180 180 180
22.617170333862 14.347290992737 46.313018798828 183 183 183
22.617170333862 14.347290992737 46.407012939453 83 83 83
22.603889465332 14.408362388611 46.682006835938 14 14 14
22.603889465332 14.408362388611 46.776000976563 113 113 113
22.603889465332 14.408362388611 46.869995117188 124 124 124
22.747264862061 14.631422996521 45.203002929688 104 104 104
22.747264862061 14.631422996521 45.296997070313 102 102 102
22.747264862061 14.631422996521 45.391021728516 185 185 185
22.747264862061 14.631422996521 45.484008789063 175 175 175
22.747264862061 14.631422996521 45.578002929688 112 112 112
22.747264862061 14.631422996521 45.671997070313 17 17 17
22.577327728271 14.530507087708 46.035003662109 187 187 187
22.577327728271 14.530507087708 46.127014160156 115 115 115
22.577327728271 14.530507087708 46.220001220703 18 18 18
22.638399124146 14.543787956238 46.316009521484 169 169 169
22.638399124146 14.543787956238 46.408996582031 186 186 186
22.638399124146 14.543787956238 46.502014160156 81 81 81
22.577327728271 14.530507087708 46.686004638672 179 179 179
22.577327728271 14.530507087708 46.781005859375 118 118 118
22.768493652344 14.827919960022 45.006011962891 90 90 90
22.720703125000 14.753567695618 45.101013183594 132 132 132
22.720703125000 14.753567695618 45.196014404297 105 105 105
22.768493652344 14.827919960022 45.290008544922 97 97 97
22.720703125000 14.753567695618 45.384002685547 105 105 105
22.720703125000 14.753567695618 45.477996826172 105 105 105
22.768493652344 14.827919960022 45.574005126953 94 94 94
22.768493652344 14.827919960022 45.667999267578 77 77 77
22.598556518555 14.727005958557 46.125000000000 118 118 118
22.611837387085 14.665934562683 46.217010498047 119 119 119
22.672910690308 14.679215431213 46.315002441406 13 13 13
22.598556518555 14.727005958557 46.408020019531 173 173 173
22.598556518555 14.727005958557 46.501007080078 170 170 170
22.598556518555 14.727005958557 46.591003417969 125 125 125
22.598556518555 14.727005958557 46.686004638672 121 121 121
22.598556518555 14.727005958557 46.779998779297 75 75 75
22.755212783813 14.888993263245 47.111999511719 72 72 72
22.646348953247 14.801360130310 44.537994384766 10 10 10
22.646348953247 14.801360130310 44.631011962891 25 25 25
22.646348953247 14.801360130310 44.725006103516 44 44 44
22.646348953247 14.801360130310 44.817993164063 62 62 62
22.646348953247 14.801360130310 44.912017822266 67 67 67
22.707422256470 14.814640998840 45.001007080078 120 120 120
22.646348953247 14.801360130310 45.096008300781 103 103 103
22.646348953247 14.801360130310 45.188995361328 88 88 88
22.646348953247 14.801360130310 45.283020019531 100 100 100
22.646348953247 14.801360130310 45.375000000000 137 137 137
22.646348953247 14.801360130310 45.468994140625 131 131 131
22.646348953247 14.801360130310 45.562011718750 103 103 103
22.646348953247 14.801360130310 45.654998779297 91 91 91
22.633068084717 14.862433433533 45.747009277344 66 66 66
22.633068084717 14.862433433533 45.839019775391 61 61 61
22.585275650024 14.788079261780 45.930999755859 63 63 63
22.633068084717 14.862433433533 46.026000976563 57 57 57
22.633068084717 14.862433433533 46.118011474609 77 77 77
22.633068084717 14.862433433533 46.210998535156 111 111 111
22.633068084717 14.862433433533 46.304016113281 103 103 103
22.633068084717 14.862433433533 46.399017333984 72 72 72
22.633068084717 14.862433433533 46.493011474609 106 106 106
22.633068084717 14.862433433533 46.585998535156 110 110 110
22.633068084717 14.862433433533 46.682006835938 109 109 109
22.633068084717 14.862433433533 46.776000976563 85 85 85
22.537485122681 14.713726997375 46.852996826172 103 103 103
22.524204254150 14.774798393250 46.954010009766 93 93 93
22.463130950928 14.761517524719 47.039001464844 81 81 81
22.476411819458 14.700444221497 47.115997314453 113 113 113
22.633068084717 14.862433433533 43.584014892578 124 124 124
22.571994781494 14.849152565002 44.065002441406 130 130 130
22.633068084717 14.862433433533 44.158020019531 125 125 125
22.571994781494 14.849152565002 44.253997802734 118 118 118
22.571994781494 14.849152565002 44.348022460938 119 119 119
22.571994781494 14.849152565002 44.444000244141 119 119 119
22.571994781494 14.849152565002 44.536010742188 115 115 115
22.571994781494 14.849152565002 44.628997802734 114 114 114
22.571994781494 14.849152565002 44.723022460938 120 120 120
22.571994781494 14.849152565002 44.815002441406 121 121 121
22.571994781494 14.849152565002 44.907012939453 134 134 134
22.571994781494 14.849152565002 45.000000000000 131 131 131
22.571994781494 14.849152565002 45.092010498047 140 140 140
22.571994781494 14.849152565002 45.183013916016 130 130 130
22.571994781494 14.849152565002 45.276000976563 125 125 125
22.571994781494 14.849152565002 45.367004394531 127 127 127
22.510923385620 14.835871696472 45.459014892578 119 119 119
22.571994781494 14.849152565002 45.550994873047 122 122 122
22.571994781494 14.849152565002 45.641998291016 115 115 115
22.510923385620 14.835871696472 45.734008789063 114 114 114
22.510923385620 14.835871696472 45.826019287109 113 113 113
22.497642517090 14.896943092346 45.917022705078 105 105 105
22.497642517090 14.896943092346 46.009002685547 105 105 105
22.510923385620 14.835871696472 46.102020263672 103 103 103
22.497642517090 14.896943092346 46.192016601563 123 123 123
22.497642517090 14.896943092346 46.286010742188 103 103 103
22.497642517090 14.896943092346 46.378021240234 122 122 122
22.497642517090 14.896943092346 46.468994140625 127 127 127
22.497642517090 14.896943092346 46.565002441406 107 107 107
22.497642517090 14.896943092346 46.658020019531 130 130 130
22.497642517090 14.896943092346 46.751007080078 106 106 106
22.497642517090 14.896943092346 46.843017578125 91 91 91
22.558713912964 14.910223960876 46.947021484375 44 44 44
22.449850082397 14.822590827942 47.015014648438 111 111 111
22.388776779175 14.809309959412 47.102020263672 128 128 128
22.449850082397 14.822590827942 47.210998535156 84 84 84
22.702091217041 15.133284568787 46.019012451172 85 85 85
22.654300689697 15.058932304382 46.111999511719 123 123 123
22.654300689697 15.058932304382 46.205993652344 123 123 123
22.654300689697 15.058932304382 46.393005371094 122 122 122
22.654300689697 15.058932304382 46.489013671875 109 109 109
22.654300689697 15.058932304382 46.584014892578 14 14 14
22.654300689697 15.058932304382 46.682006835938 114 114 114
22.654300689697 15.058932304382 46.778015136719 115 115 115
22.423288345337 14.944735527039 47.009002685547 42 42 42
22.375495910645 14.870381355286 47.100006103516 89 89 89
22.675529479980 15.255429267883 46.016998291016 151 151 151
22.675529479980 15.255429267883 46.113006591797 123 123 123
22.675529479980 15.255429267883 46.300018310547 122 122 122
22.675529479980 15.255429267883 46.397003173828 114 114 114
22.675529479980 15.255429267883 46.492004394531 20 20 20
22.675529479980 15.255429267883 46.684997558594 22 22 22
22.675529479980 15.255429267883 46.782012939453 115 115 115
22.675529479980 15.255429267883 46.880004882813 113 113 113
22.648967742920 15.377575874329 46.209014892578 105 105 105
22.648967742920 15.377575874329 46.305999755859 194 194 194
22.648967742920 15.377575874329 46.399017333984 23 23 23
22.648967742920 15.377575874329 46.787994384766 55 55 55
22.648967742920 15.377575874329 46.891021728516 146 146 146
22.569377899170 14.272936820984 46.920013427734 190 190 190
22.569377899170 14.272936820984 46.835021972656 191 191 191
22.569377899170 14.272936820984 46.755004882813 193 193 193
22.569377899170 14.272936820984 46.352996826172 118 118 118
22.630451202393 14.286217689514 46.273010253906 213 213 213
22.630451202393 14.286217689514 46.192993164063 206 206 206
22.630451202393 14.286217689514 46.114013671875 115 115 115
22.603889465332 14.408362388611 46.847015380859 190 190 190
22.603889465332 14.408362388611 46.764007568359 194 194 194
22.603889465332 14.408362388611 46.683013916016 187 187 187
22.603889465332 14.408362388611 46.442993164063 99 99 99
22.603889465332 14.408362388611 46.359008789063 205 205 205
22.603889465332 14.408362388611 46.278015136719 209 209 209
22.603889465332 14.408362388611 46.197998046875 183 183 183
22.603889465332 14.408362388611 46.115997314453 185 185 185
22.603889465332 14.408362388611 46.037017822266 182 182 182
22.603889465332 14.408362388611 45.959014892578 159 159 159
22.712753295898 14.495997428894 45.486999511719 124 124 124
22.712753295898 14.495997428894 45.404998779297 87 87 87
22.625118255615 14.604861259460 46.769012451172 197 197 197
22.625118255615 14.604861259460 46.684997558594 206 206 206
22.638399124146 14.543787956238 46.605010986328 176 176 176
22.638399124146 14.543787956238 46.524993896484 55 55 55
22.638399124146 14.543787956238 46.442016601563 208 208 208
22.638399124146 14.543787956238 46.360015869141 189 189 189
22.638399124146 14.543787956238 46.279022216797 182 182 182
22.638399124146 14.543787956238 46.197998046875 187 187 187
22.638399124146 14.543787956238 46.117004394531 184 184 184
22.638399124146 14.543787956238 46.037017822266 188 188 188
22.747264862061 14.631422996521 45.644012451172 88 88 88
22.747264862061 14.631422996521 45.563995361328 155 155 155
22.747264862061 14.631422996521 45.483001708984 181 181 181
22.747264862061 14.631422996521 45.402008056641 178 178 178
22.747264862061 14.631422996521 45.322021484375 138 138 138
22.747264862061 14.631422996521 45.242004394531 153 153 153
22.747264862061 14.631422996521 45.161010742188 38 38 38
22.672910690308 14.679215431213 47.126007080078 102 102 102
22.598556518555 14.727005958557 46.768005371094 126 126 126
22.598556518555 14.727005958557 46.686004638672 193 193 193
22.598556518555 14.727005958557 46.602020263672 203 203 203
22.598556518555 14.727005958557 46.524017333984 193 193 193
22.598556518555 14.727005958557 46.441009521484 195 195 195
22.672910690308 14.679215431213 46.361022949219 187 187 187
22.598556518555 14.727005958557 46.277008056641 175 175 175
22.598556518555 14.727005958557 46.197021484375 183 183 183
22.672910690308 14.679215431213 46.115997314453 193 193 193
22.672910690308 14.679215431213 46.035003662109 12 12 12
22.781774520874 14.766848564148 45.643005371094 145 145 145
22.781774520874 14.766848564148 45.561004638672 147 147 147
22.720703125000 14.753567695618 45.477020263672 153 153 153
22.720703125000 14.753567695618 45.397003173828 134 134 134
22.781774520874 14.766848564148 45.317016601563 134 134 134
22.781774520874 14.766848564148 45.236022949219 142 142 142
22.720703125000 14.753567695618 45.154998779297 177 177 177
22.781774520874 14.766848564148 45.074005126953 151 151 151
22.781774520874 14.766848564148 44.993011474609 46 46 46
22.388776779175 14.809309959412 47.134002685547 126 126 126
22.510923385620 14.835871696472 47.074005126953 91 91 91
22.449850082397 14.822590827942 46.981018066406 119 119 119
22.524204254150 14.774798393250 46.917022705078 151 151 151
22.524204254150 14.774798393250 46.828002929688 147 147 147
22.633068084717 14.862433433533 46.766021728516 118 118 118
22.633068084717 14.862433433533 46.682006835938 123 123 123
22.633068084717 14.862433433533 46.598999023438 125 125 125
22.633068084717 14.862433433533 46.516021728516 117 117 117
22.633068084717 14.862433433533 46.434020996094 127 127 127
22.633068084717 14.862433433533 46.352996826172 127 127 127
22.633068084717 14.862433433533 46.272003173828 138 138 138
22.633068084717 14.862433433533 46.191009521484 131 131 131
22.633068084717 14.862433433533 46.109008789063 123 123 123
22.633068084717 14.862433433533 46.029022216797 125 125 125
22.633068084717 14.862433433533 45.947998046875 128 128 128
22.633068084717 14.862433433533 45.867004394531 134 134 134
22.633068084717 14.862433433533 45.787994384766 136 136 136
22.633068084717 14.862433433533 45.707000732422 139 139 139
22.633068084717 14.862433433533 45.626007080078 136 136 136
22.633068084717 14.862433433533 45.546997070313 147 147 147
22.633068084717 14.862433433533 45.466003417969 144 144 144
22.633068084717 14.862433433533 45.386016845703 140 140 140
22.633068084717 14.862433433533 45.305999755859 135 135 135
22.633068084717 14.862433433533 45.227020263672 136 136 136
22.633068084717 14.862433433533 45.145996093750 156 156 156
22.633068084717 14.862433433533 45.067016601563 138 138 138
22.633068084717 14.862433433533 44.986022949219 146 146 146
22.633068084717 14.862433433533 44.906005859375 147 147 147
22.633068084717 14.862433433533 44.826019287109 152 152 152
22.633068084717 14.862433433533 44.744995117188 156 156 156
22.633068084717 14.862433433533 44.665008544922 149 149 149
22.646348953247 14.801360130310 44.584014892578 147 147 147
22.646348953247 14.801360130310 44.503021240234 152 152 152
22.707422256470 14.814640998840 44.335998535156 127 127 127
22.646348953247 14.801360130310 44.259002685547 154 154 154
22.633068084717 14.862433433533 44.179016113281 154 154 154
22.646348953247 14.801360130310 44.095001220703 149 149 149
22.646348953247 14.801360130310 43.593017578125 155 155 155
22.646348953247 14.801360130310 43.509002685547 143 143 143
22.707422256470 14.814640998840 44.417999267578 118 118 118
22.707422256470 14.814640998840 43.671020507813 131 131 131
22.375495910645 14.870381355286 47.130004882813 127 127 127
22.484361648560 14.958016395569 47.071014404297 91 91 91
22.484361648560 14.958016395569 46.975006103516 111 111 111
22.619787216187 14.923504829407 46.929016113281 82 82 82
22.667579650879 14.997859001160 46.688995361328 187 187 187
22.606506347656 14.984578132629 46.602020263672 196 196 196
22.667579650879 14.997859001160 46.520996093750 195 195 195
22.667579650879 14.997859001160 46.438018798828 194 194 194
22.606506347656 14.984578132629 46.352996826172 11 11 11
22.667579650879 14.997859001160 46.273010253906 191 191 191
22.667579650879 14.997859001160 46.192016601563 198 198 198
22.667579650879 14.997859001160 46.111022949219 180 180 180
22.484361648560 14.958016395569 45.773010253906 12 12 12
22.789724349976 15.024418830872 45.632019042969 144 144 144
22.789724349976 15.024418830872 45.549011230469 142 142 142
22.741931915283 14.950066566467 45.463012695313 142 142 142
22.667579650879 14.997859001160 45.382019042969 135 135 135
22.667579650879 14.997859001160 45.300994873047 164 164 164
22.789724349976 15.024418830872 45.221008300781 175 175 175
22.789724349976 15.024418830872 45.139007568359 155 155 155
22.789724349976 15.024418830872 45.055999755859 167 167 167
22.593227386475 15.045651435852 47.101013183594 75 75 75
22.654300689697 15.058932304382 46.774993896484 188 188 188
22.654300689697 15.058932304382 46.692016601563 184 184 184
22.654300689697 15.058932304382 46.606994628906 190 190 190
22.654300689697 15.058932304382 46.523010253906 198 198 198
22.654300689697 15.058932304382 46.438018798828 195 195 195
22.654300689697 15.058932304382 46.356994628906 195 195 195
22.715370178223 15.072213172913 46.277008056641 76 76 76
22.654300689697 15.058932304382 46.192993164063 199 199 199
22.654300689697 15.058932304382 46.111022949219 199 199 199
22.654300689697 15.058932304382 46.029022216797 165 165 165
22.837516784668 15.098774909973 45.632995605469 80 80 80
22.898590087891 15.112053871155 45.550994873047 161 161 161
22.837516784668 15.098774909973 45.466003417969 191 191 191
22.837516784668 15.098774909973 45.382019042969 166 166 166
22.837516784668 15.098774909973 45.300018310547 144 144 144
22.837516784668 15.098774909973 45.216003417969 90 90 90
22.688810348511 15.194355964661 46.867004394531 183 183 183
22.688810348511 15.194355964661 46.781005859375 181 181 181
22.688810348511 15.194355964661 46.697021484375 187 187 187
22.688810348511 15.194355964661 46.444000244141 196 196 196
22.688810348511 15.194355964661 46.359008789063 197 197 197
22.688810348511 15.194355964661 46.277008056641 188 188 188
22.688810348511 15.194355964661 46.196014404297 107 107 107
22.688810348511 15.194355964661 46.115020751953 196 196 196
22.688810348511 15.194355964661 46.031005859375 214 214 214
22.688810348511 15.194355964661 45.951019287109 131 131 131
22.662248611450 15.316502571106 46.966003417969 170 170 170
22.662248611450 15.316502571106 46.878021240234 183 183 183
22.662248611450 15.316502571106 46.792022705078 211 211 211
22.662248611450 15.316502571106 46.368011474609 193 193 193
22.662248611450 15.316502571106 46.286010742188 202 202 202
22.662248611450 15.316502571106 46.201019287109 189 189 189
22.662248611450 15.316502571106 46.119995117188 71 71 71
22.696760177612 15.451928138733 46.805023193359 81 81 81
22.696760177612 15.451928138733 46.295013427734 187 187 187
22.670198440552 15.574074745178 46.878021240234 37 37 37
22.670198440552 15.574074745178 46.794006347656 54 54 54
22.683479309082 15.513001441956 46.305999755859 189 189 189
22.683479309082 15.513001441956 46.225006103516 89 89 89
22.648967742920 15.377575874329 46.964019775391 181 181 181
22.648967742920 15.377575874329 46.878997802734 180 180 180
22.648967742920 15.377575874329 46.796020507813 216 216 216
22.648967742920 15.377575874329 46.386993408203 175 175 175
22.648967742920 15.377575874329 46.308013916016 207 207 207
22.648967742920 15.377575874329 46.227996826172 196 196 196
22.648967742920 15.377575874329 46.149017333984 74 74 74
22.675529479980 15.255429267883 46.877014160156 182 182 182
22.675529479980 15.255429267883 46.795013427734 189 189 189
22.675529479980 15.255429267883 46.710998535156 181 181 181
22.675529479980 15.255429267883 46.386993408203 194 194 194
22.675529479980 15.255429267883 46.308013916016 198 198 198
22.675529479980 15.255429267883 46.231018066406 183 183 183
22.662248611450 15.316502571106 46.152008056641 92 92 92
22.675529479980 15.255429267883 46.072021484375 194 194 194
22.662248611450 15.316502571106 45.993011474609 184 184 184
22.688810348511 15.194355964661 46.876007080078 49 49 49
22.688810348511 15.194355964661 46.792022705078 183 183 183
22.688810348511 15.194355964661 46.710021972656 185 185 185
22.688810348511 15.194355964661 46.630004882813 171 171 171
22.688810348511 15.194355964661 46.468017578125 192 192 192
22.688810348511 15.194355964661 46.386016845703 191 191 191
22.688810348511 15.194355964661 46.308013916016 194 194 194
22.688810348511 15.194355964661 46.152008056641 199 199 199
22.688810348511 15.194355964661 46.072021484375 195 195 195
22.688810348511 15.194355964661 45.994995117188 197 197 197
22.872028350830 15.234198570251 45.455017089844 85 85 85
22.579944610596 15.106722831726 47.095001220703 73 73 73
22.654300689697 15.058932304382 46.787017822266 179 179 179
22.654300689697 15.058932304382 46.705993652344 186 186 186
22.593227386475 15.045651435852 46.623016357422 187 187 187
22.654300689697 15.058932304382 46.542999267578 186 186 186
22.593227386475 15.045651435852 46.463012695313 196 196 196
22.593227386475 15.045651435852 46.382995605469 193 193 193
22.654300689697 15.058932304382 46.307006835938 49 49 49
22.654300689697 15.058932304382 46.227996826172 196 196 196
22.654300689697 15.058932304382 46.149993896484 194 194 194
22.654300689697 15.058932304382 46.071014404297 195 195 195
22.824237823486 15.159846305847 45.615997314453 117 117 117
22.885307312012 15.173127174377 45.537017822266 165 165 165
22.837516784668 15.098774909973 45.454010009766 199 199 199
22.776443481445 15.085492134094 45.375000000000 189 189 189
22.885307312012 15.173127174377 45.296997070313 148 148 148
22.776443481445 15.085492134094 45.217010498047 147 147 147
22.348934173584 14.992527961731 47.110015869141 125 125 125
22.532154083252 15.032370567322 47.072021484375 84 84 84
22.423288345337 14.944735527039 46.970001220703 112 112 112
22.532154083252 15.032370567322 46.924011230469 32 32 32
22.593227386475 15.045651435852 46.697998046875 186 186 186
22.593227386475 15.045651435852 46.617004394531 190 190 190
22.593227386475 15.045651435852 46.537017822266 196 196 196
22.593227386475 15.045651435852 46.457000732422 196 196 196
22.593227386475 15.045651435852 46.378997802734 117 117 117
22.593227386475 15.045651435852 46.302001953125 185 185 185
22.593227386475 15.045651435852 46.223022460938 195 195 195
22.654300689697 15.058932304382 46.145996093750 197 197 197
22.654300689697 15.058932304382 46.067993164063 39 39 39
22.532154083252 15.032370567322 45.744018554688 20 20 20
22.715370178223 15.072213172913 45.606018066406 141 141 141
22.850797653198 15.037701606750 45.533996582031 158 158 158
22.654300689697 15.058932304382 45.449005126953 150 150 150
22.654300689697 15.058932304382 45.372009277344 156 156 156
22.654300689697 15.058932304382 45.295013427734 178 178 178
22.789724349976 15.024418830872 45.218017578125 175 175 175
22.789724349976 15.024418830872 45.140014648438 145 145 145
22.850797653198 15.037701606750 45.061004638672 148 148 148
22.375495910645 14.870381355286 47.100006103516 137 137 137
22.497642517090 14.896943092346 47.048004150391 124 124 124
22.436569213867 14.883664131165 46.962005615234 134 134 134
22.571994781494 14.849152565002 46.916015625000 155 155 155
22.510923385620 14.835871696472 46.832000732422 119 119 119
22.619787216187 14.923504829407 46.760009765625 111 111 111
22.619787216187 14.923504829407 46.680023193359 105 105 105
22.558713912964 14.910223960876 46.598999023438 111 111 111
22.619787216187 14.923504829407 46.522003173828 122 122 122
22.619787216187 14.923504829407 46.445007324219 123 123 123
22.619787216187 14.923504829407 46.365020751953 128 128 128
22.619787216187 14.923504829407 46.290008544922 134 134 134
22.619787216187 14.923504829407 46.210998535156 129 129 129
22.619787216187 14.923504829407 46.134002685547 127 127 127
22.619787216187 14.923504829407 46.057006835938 129 129 129
22.619787216187 14.923504829407 45.981018066406 137 137 137
22.619787216187 14.923504829407 45.904022216797 135 135 135
22.619787216187 14.923504829407 45.826019287109 147 147 147
22.619787216187 14.923504829407 45.750000000000 143 143 143
22.619787216187 14.923504829407 45.674011230469 158 158 158
22.619787216187 14.923504829407 45.598022460938 146 146 146
22.619787216187 14.923504829407 45.520996093750 151 151 151
22.619787216187 14.923504829407 45.444000244141 149 149 149
22.619787216187 14.923504829407 45.369018554688 127 127 127
22.619787216187 14.923504829407 45.292022705078 140 140 140
22.619787216187 14.923504829407 45.216003417969 141 141 141
22.619787216187 14.923504829407 45.140014648438 153 153 153
22.619787216187 14.923504829407 45.063995361328 140 140 140
22.619787216187 14.923504829407 44.988006591797 147 147 147
22.619787216187 14.923504829407 44.911010742188 146 146 146
22.619787216187 14.923504829407 44.835021972656 149 149 149
22.619787216187 14.923504829407 44.757995605469 150 150 150
22.619787216187 14.923504829407 44.680999755859 147 147 147
22.619787216187 14.923504829407 44.604003906250 147 147 147
22.619787216187 14.923504829407 44.527008056641 150 150 150
22.619787216187 14.923504829407 44.449005126953 152 152 152
22.619787216187 14.923504829407 44.372009277344 162 162 162
22.619787216187 14.923504829407 44.295013427734 149 149 149
22.619787216187 14.923504829407 44.216003417969 153 153 153
22.619787216187 14.923504829407 44.136993408203 147 147 147
22.619787216187 14.923504829407 44.059997558594 147 147 147
22.619787216187 14.923504829407 43.579010009766 154 154 154
22.402057647705 14.748236656189 47.111022949219 101 101 101
22.707422256470 14.814640998840 47.113006591797 98 98 98
22.524204254150 14.774798393250 46.983001708984 86 86 86
22.585275650024 14.788079261780 46.761016845703 12 12 12
22.585275650024 14.788079261780 46.677001953125 196 196 196
22.585275650024 14.788079261780 46.598022460938 193 193 193
22.585275650024 14.788079261780 46.519012451172 191 191 191
22.585275650024 14.788079261780 46.442016601563 204 204 204
22.585275650024 14.788079261780 46.363006591797 158 158 158
22.585275650024 14.788079261780 46.285003662109 188 188 188
22.585275650024 14.788079261780 46.207000732422 180 180 180
22.585275650024 14.788079261780 46.130004882813 189 189 189
22.768493652344 14.827919960022 45.602996826172 165 165 165
22.768493652344 14.827919960022 45.524993896484 156 156 156
22.646348953247 14.801360130310 45.442993164063 163 163 163
22.707422256470 14.814640998840 45.368011474609 136 136 136
22.768493652344 14.827919960022 45.291015625000 123 123 123
22.768493652344 14.827919960022 45.214019775391 143 143 143
22.768493652344 14.827919960022 45.136016845703 160 160 160
22.768493652344 14.827919960022 45.059020996094 158 158 158
22.768493652344 14.827919960022 44.981994628906 108 108 108
22.672910690308 14.679215431213 47.083007812500 16 16 16
22.611837387085 14.665934562683 46.744995117188 193 193 193
22.611837387085 14.665934562683 46.664001464844 208 208 208
22.611837387085 14.665934562683 46.587005615234 196 196 196
22.611837387085 14.665934562683 46.511016845703 195 195 195
22.611837387085 14.665934562683 46.433013916016 203 203 203
22.611837387085 14.665934562683 46.355010986328 205 205 205
22.672910690308 14.679215431213 46.282012939453 18 18 18
22.611837387085 14.665934562683 46.199005126953 185 185 185
22.611837387085 14.665934562683 46.122009277344 182 182 182
22.611837387085 14.665934562683 46.044006347656 183 183 183
22.733983993530 14.692496299744 45.596008300781 160 160 160
22.672910690308 14.679215431213 45.516998291016 179 179 179
22.672910690308 14.679215431213 45.438995361328 126 126 126
22.672910690308 14.679215431213 45.364013671875 137 137 137
22.672910690308 14.679215431213 45.287017822266 178 178 178
22.672910690308 14.679215431213 45.210998535156 146 146 146
22.672910690308 14.679215431213 45.134002685547 146 146 146
22.564046859741 14.591580390930 46.813018798828 191 191 191
22.564046859741 14.591580390930 46.734008789063 199 199 199
22.564046859741 14.591580390930 46.656005859375 202 202 202
22.625118255615 14.604861259460 46.425018310547 201 201 201
22.625118255615 14.604861259460 46.348022460938 196 196 196
22.625118255615 14.604861259460 46.270996093750 207 207 207
22.638399124146 14.543787956238 46.195007324219 52 52 52
22.625118255615 14.604861259460 46.115020751953 184 184 184
22.625118255615 14.604861259460 46.039001464844 199 199 199
22.638399124146 14.543787956238 45.964019775391 187 187 187
22.699472427368 14.557068824768 45.591003417969 136 136 136
22.699472427368 14.557068824768 45.514007568359 160 160 160
22.699472427368 14.557068824768 45.438018798828 159 159 159
22.699472427368 14.557068824768 45.361022949219 154 154 154
22.699472427368 14.557068824768 45.285003662109 86 86 86
22.590608596802 14.469435691833 46.885009765625 190 190 190
22.590608596802 14.469435691833 46.804016113281 190 190 190
22.590608596802 14.469435691833 46.727020263672 190 190 190
22.603889465332 14.408362388611 46.421997070313 36 36 36
22.603889465332 14.408362388611 46.343017578125 209 209 209
22.603889465332 14.408362388611 46.265014648438 195 195 195
22.603889465332 14.408362388611 46.188018798828 194 194 194
22.603889465332 14.408362388611 46.111022949219 163 163 163
22.603889465332 14.408362388611 46.036010742188 173 173 173
22.569377899170 14.272936820984 46.958007812500 141 141 141
22.569377899170 14.272936820984 46.878021240234 192 192 192
22.569377899170 14.272936820984 46.800018310547 192 192 192
22.569377899170 14.272936820984 46.721008300781 117 117 117
22.569377899170 14.272936820984 46.339019775391 165 165 165
22.569377899170 14.272936820984 46.261993408203 196 196 196
22.569377899170 14.272936820984 46.184997558594 201 201 201
22.569377899170 14.272936820984 46.110015869141 84 84 84
22.569377899170 14.272936820984 46.795013427734 136 136 136
22.630451202393 14.286217689514 46.261993408203 54 54 54
22.622406005859 15.499720573425 46.277008056641 54 54 54
22.609125137329 15.560793876648 46.833007812500 22 22 22
22.648967742920 15.377575874329 46.180999755859 70 70 70
22.648967742920 15.377575874329 46.272003173828 122 122 122
22.648967742920 15.377575874329 46.364013671875 127 127 127
22.635686874390 15.438649177551 46.825012207031 190 190 190
22.635686874390 15.438649177551 46.917022705078 110 110 110
22.675529479980 15.255429267883 45.998016357422 141 141 141
22.675529479980 15.255429267883 46.088012695313 118 118 118
22.675529479980 15.255429267883 46.175994873047 79 79 79
22.675529479980 15.255429267883 46.266998291016 108 108 108
22.627738952637 15.181077003479 46.355010986328 127 127 127
22.675529479980 15.255429267883 46.447021484375 130 130 130
22.675529479980 15.255429267883 46.723022460938 110 110 110
22.675529479980 15.255429267883 46.813995361328 114 114 114
22.675529479980 15.255429267883 46.908996582031 90 90 90
22.335655212402 15.053601264954 47.100006103516 45 45 45
22.641017913818 15.120003700256 46.084014892578 120 120 120
22.641017913818 15.120003700256 46.173004150391 125 125 125
22.641017913818 15.120003700256 46.261016845703 45 45 45
22.593227386475 15.045651435852 46.348999023438 126 126 126
22.593227386475 15.045651435852 46.438995361328 124 124 124
22.641017913818 15.120003700256 46.529998779297 119 119 119
22.641017913818 15.120003700256 46.624023437500 110 110 110
22.641017913818 15.120003700256 46.714019775391 117 117 117
22.641017913818 15.120003700256 46.803009033203 104 104 104
22.423288345337 14.944735527039 47.020019531250 56 56 56
22.362215042114 14.931454658508 47.092010498047 106 106 106
22.510923385620 14.835871696472 44.054016113281 135 135 135
22.558713912964 14.910223960876 44.143005371094 131 131 131
22.510923385620 14.835871696472 44.234008789063 124 124 124
22.558713912964 14.910223960876 44.322021484375 128 128 128
22.558713912964 14.910223960876 44.410003662109 133 133 133
22.558713912964 14.910223960876 44.499023437500 133 133 133
22.558713912964 14.910223960876 44.585998535156 126 126 126
22.497642517090 14.896943092346 44.675994873047 118 118 118
22.497642517090 14.896943092346 44.764007568359 122 122 122
22.497642517090 14.896943092346 44.850006103516 120 120 120
22.558713912964 14.910223960876 44.936004638672 127 127 127
22.497642517090 14.896943092346 45.024993896484 123 123 123
22.497642517090 14.896943092346 45.111999511719 119 119 119
22.558713912964 14.910223960876 45.197998046875 116 116 116
22.497642517090 14.896943092346 45.285003662109 123 123 123
22.497642517090 14.896943092346 45.371002197266 117 117 117
22.497642517090 14.896943092346 45.458007812500 116 116 116
22.497642517090 14.896943092346 45.545013427734 118 118 118
22.484361648560 14.958016395569 45.631011962891 114 114 114
22.484361648560 14.958016395569 45.718017578125 112 112 112
22.484361648560 14.958016395569 45.805023193359 111 111 111
22.484361648560 14.958016395569 45.891021728516 107 107 107
22.497642517090 14.896943092346 45.977996826172 106 106 106
22.484361648560 14.958016395569 46.066009521484 109 109 109
22.497642517090 14.896943092346 46.152008056641 106 106 106
22.484361648560 14.958016395569 46.240997314453 108 108 108
22.484361648560 14.958016395569 46.328002929688 115 115 115
22.484361648560 14.958016395569 46.415008544922 117 117 117
22.484361648560 14.958016395569 46.503021240234 123 123 123
22.484361648560 14.958016395569 46.592010498047 113 113 113
22.497642517090 14.896943092346 46.679016113281 117 117 117
22.484361648560 14.958016395569 46.770996093750 99 99 99
22.497642517090 14.896943092346 46.856018066406 105 105 105
22.436569213867 14.883664131165 46.934020996094 81 81 81
22.388776779175 14.809309959412 47.016021728516 105 105 105
22.388776779175 14.809309959412 47.095001220703 124 124 124
22.436569213867 14.883664131165 47.203002929688 89 89 89
22.633068084717 14.862433433533 44.040008544922 81 81 81
22.633068084717 14.862433433533 44.132995605469 83 83 83
22.633068084717 14.862433433533 44.312011718750 86 86 86
22.633068084717 14.862433433533 44.403015136719 92 92 92
22.633068084717 14.862433433533 44.492004394531 86 86 86
22.633068084717 14.862433433533 44.579010009766 86 86 86
22.633068084717 14.862433433533 44.669006347656 91 91 91
22.633068084717 14.862433433533 44.759002685547 90 90 90
22.633068084717 14.862433433533 44.846008300781 93 93 93
22.633068084717 14.862433433533 44.934997558594 85 85 85
22.619787216187 14.923504829407 45.020019531250 132 132 132
22.619787216187 14.923504829407 45.109008789063 124 124 124
22.633068084717 14.862433433533 45.197998046875 109 109 109
22.633068084717 14.862433433533 45.286010742188 118 118 118
22.633068084717 14.862433433533 45.373016357422 122 122 122
22.633068084717 14.862433433533 45.460998535156 138 138 138
22.633068084717 14.862433433533 45.549011230469 135 135 135
22.633068084717 14.862433433533 45.636016845703 133 133 133
22.571994781494 14.849152565002 45.723999023438 121 121 121
22.571994781494 14.849152565002 45.811004638672 125 125 125
22.571994781494 14.849152565002 45.899993896484 128 128 128
22.571994781494 14.849152565002 45.986999511719 118 118 118
22.571994781494 14.849152565002 46.074005126953 120 120 120
22.571994781494 14.849152565002 46.162994384766 116 116 116
22.571994781494 14.849152565002 46.251007080078 123 123 123
22.571994781494 14.849152565002 46.339019775391 120 120 120
22.571994781494 14.849152565002 46.427001953125 115 115 115
22.571994781494 14.849152565002 46.519012451172 116 116 116
22.571994781494 14.849152565002 46.606994628906 108 108 108
22.571994781494 14.849152565002 46.695007324219 104 104 104
22.571994781494 14.849152565002 46.786010742188 106 106 106
22.510923385620 14.835871696472 46.855010986328 124 124 124
22.510923385620 14.835871696472 46.949005126953 106 106 106
22.449850082397 14.822590827942 47.033020019531 85 85 85
22.402057647705 14.748236656189 47.106018066406 117 117 117
22.510923385620 14.835871696472 47.223022460938 14 14 14
22.633068084717 14.862433433533 44.220001220703 73 73 73
22.755212783813 14.888993263245 45.018005371094 121 121 121
22.707422256470 14.814640998840 45.110015869141 89 89 89
22.707422256470 14.814640998840 45.199005126953 90 90 90
22.755212783813 14.888993263245 45.287017822266 114 114 114
22.646348953247 14.801360130310 45.377014160156 135 135 135
22.755212783813 14.888993263245 45.464996337891 141 141 141
22.741931915283 14.950066566467 45.555023193359 165 165 165
22.741931915283 14.950066566467 45.645019531250 104 104 104
22.537485122681 14.713726997375 46.076019287109 90 90 90
22.585275650024 14.788079261780 46.165008544922 125 125 125
22.585275650024 14.788079261780 46.253021240234 114 114 114
22.585275650024 14.788079261780 46.433013916016 161 161 161
22.585275650024 14.788079261780 46.518005371094 120 120 120
22.585275650024 14.788079261780 46.608001708984 130 130 130
22.585275650024 14.788079261780 46.697021484375 128 128 128
22.585275650024 14.788079261780 46.972015380859 27 27 27
22.741931915283 14.950066566467 47.106994628906 86 86 86
22.537485122681 14.713726997375 47.131011962891 99 99 99
22.720703125000 14.753567695618 45.024993896484 40 40 40
22.720703125000 14.753567695618 45.114013671875 108 108 108
22.720703125000 14.753567695618 45.203002929688 155 155 155
22.672910690308 14.679215431213 45.292022705078 184 184 184
22.672910690308 14.679215431213 45.380004882813 109 109 109
22.672910690308 14.679215431213 45.468017578125 101 101 101
22.720703125000 14.753567695618 45.557006835938 137 137 137
22.720703125000 14.753567695618 45.647003173828 98 98 98
22.611837387085 14.665934562683 45.988006591797 44 44 44
22.611837387085 14.665934562683 46.076019287109 113 113 113
22.611837387085 14.665934562683 46.164001464844 118 118 118
22.611837387085 14.665934562683 46.253021240234 22 22 22
22.611837387085 14.665934562683 46.342010498047 162 162 162
22.611837387085 14.665934562683 46.430023193359 172 172 172
22.611837387085 14.665934562683 46.519012451172 107 107 107
22.611837387085 14.665934562683 46.605010986328 129 129 129
22.611837387085 14.665934562683 46.694000244141 156 156 156
22.550765991211 14.652653694153 46.782012939453 123 123 123
22.707422256470 14.814640998840 47.102996826172 66 66 66
22.795055389404 14.705777168274 45.201019287109 116 116 116
22.699472427368 14.557068824768 45.295013427734 76 76 76
22.699472427368 14.557068824768 45.382995605469 98 98 98
22.699472427368 14.557068824768 45.471008300781 109 109 109
22.699472427368 14.557068824768 45.558013916016 114 114 114
22.686191558838 14.618142127991 45.647003173828 19 19 19
22.577327728271 14.530507087708 45.990020751953 177 177 177
22.577327728271 14.530507087708 46.075012207031 119 119 119
22.577327728271 14.530507087708 46.164001464844 62 62 62
22.577327728271 14.530507087708 46.250000000000 126 126 126
22.577327728271 14.530507087708 46.339019775391 153 153 153
22.577327728271 14.530507087708 46.427001953125 144 144 144
22.577327728271 14.530507087708 46.688018798828 143 143 143
22.577327728271 14.530507087708 46.776000976563 130 130 130
22.577327728271 14.530507087708 46.865020751953 114 114 114
22.917201995850 14.732338905334 45.200012207031 119 119 119
22.760545730591 14.570349693298 45.473022460938 119 119 119
22.821617126465 14.583630561829 45.563995361328 31 31 31
22.603889465332 14.408362388611 46.161010742188 118 118 118
22.603889465332 14.408362388611 46.249023437500 155 155 155
22.603889465332 14.408362388611 46.335998535156 162 162 162
22.542816162109 14.395081520081 46.768005371094 118 118 118
22.542816162109 14.395081520081 46.856018066406 115 115 115
22.542816162109 14.395081520081 46.945007324219 84 84 84
22.834897994995 14.522557258606 45.473022460938 100 100 100
22.943763732910 14.610192298889 45.565002441406 15 15 15
22.569377899170 14.272936820984 46.244018554688 31 31 31
22.556097030640 14.334008216858 46.847015380859 17 17 17
22.683479309082 15.513001441956 46.861022949219 14 14 14
22.683479309082 15.513001441956 46.296997070313 91 91 91
22.696760177612 15.451928138733 46.954010009766 165 165 165
22.635686874390 15.438649177551 46.858001708984 213 213 213
22.696760177612 15.451928138733 46.769012451172 52 52 52
22.635686874390 15.438649177551 46.391021728516 54 54 54
22.696760177612 15.451928138733 46.300994873047 213 213 213
22.696760177612 15.451928138733 46.209014892578 191 191 191
22.662248611450 15.316502571106 46.953002929688 201 201 201
22.662248611450 15.316502571106 46.859008789063 204 204 204
22.662248611450 15.316502571106 46.766021728516 207 207 207
22.648967742920 15.377575874329 46.395996093750 194 194 194
22.648967742920 15.377575874329 46.303009033203 197 197 197
22.648967742920 15.377575874329 46.213012695313 193 193 193
22.710041046143 15.390856742859 46.123016357422 159 159 159
22.675529479980 15.255429267883 46.856994628906 208 208 208
22.675529479980 15.255429267883 46.765014648438 207 207 207
22.675529479980 15.255429267883 46.673004150391 139 139 139
22.675529479980 15.255429267883 46.489013671875 13 13 13
22.675529479980 15.255429267883 46.394012451172 195 195 195
22.675529479980 15.255429267883 46.303009033203 201 201 201
22.675529479980 15.255429267883 46.213012695313 65 65 65
22.675529479980 15.255429267883 46.123016357422 215 215 215
22.675529479980 15.255429267883 46.032012939453 218 218 218
22.675529479980 15.255429267883 45.942016601563 119 119 119
22.872028350830 15.234198570251 45.490020751953 191 191 191
22.933101654053 15.247479438782 45.397003173828 110 110 110
22.688810348511 15.194355964661 46.851013183594 205 205 205
22.688810348511 15.194355964661 46.759002685547 208 208 208
22.688810348511 15.194355964661 46.667999267578 205 205 205
22.688810348511 15.194355964661 46.483001708984 194 194 194
