20.195608139038 35.136520385742 3.759002685547 105 105 105
20.191303253174 35.119590759277 3.704010009766 113 113 113
20.191303253174 35.119590759277 3.650009155273 111 111 111
20.195608139038 35.136520385742 3.597000122070 109 109 109
20.195608139038 35.136520385742 3.542999267578 114 114 114
20.201519012451 35.131412506104 3.490005493164 114 114 114
20.195608139038 35.136520385742 3.436004638672 118 118 118
20.191303253174 35.119590759277 3.380996704102 103 103 103
20.195608139038 35.136520385742 3.274002075195 105 105 105
20.191303253174 35.119590759277 3.219009399414 103 103 103
20.191303253174 35.119590759277 3.165008544922 99 99 99
20.175174713135 35.112876892090 3.109008789063 101 101 101
20.191303253174 35.119590759277 3.055999755859 100 100 100
20.175174713135 35.112876892090 2.615997314453 88 88 88
20.175174713135 35.112876892090 2.559997558594 94 94 94
20.186996459961 35.102661132813 2.505996704102 93 93 93
20.175174713135 35.112876892090 2.449005126953 91 91 91
20.186996459961 35.102661132813 2.393997192383 100 100 100
20.175174713135 35.112876892090 2.337005615234 96 96 96
20.175174713135 35.112876892090 3.326004028320 94 94 94
20.235555648804 35.576999664307 5.613006591797 13 13 13
20.193080902100 35.551753997803 5.564010620117 132 132 132
20.209209442139 35.558464050293 5.511001586914 130 130 130
20.193080902100 35.551753997803 5.458007812500 174 174 174
20.193080902100 35.551753997803 5.406005859375 159 159 159
20.204902648926 35.541534423828 5.355010986328 91 91 91
20.193080902100 35.551753997803 5.091003417969 117 117 117
20.209209442139 35.558464050293 5.039001464844 174 174 174
20.219427108765 35.570285797119 4.986007690430 138 138 138
20.209209442139 35.558464050293 4.934997558594 108 108 108
20.209209442139 35.558464050293 4.883010864258 100 100 100
20.076383590698 35.404785156250 4.580001831055 81 81 81
20.092512130737 35.411499023438 4.527008056641 85 85 85
20.076383590698 35.404785156250 4.475006103516 86 86 86
20.076383590698 35.404785156250 4.421997070313 96 96 96
20.076383590698 35.404785156250 4.369003295898 84 84 84
20.076383590698 35.404785156250 4.316009521484 108 108 108
20.076383590698 35.404785156250 4.263000488281 96 96 96
20.045730590820 35.369323730469 4.210998535156 77 77 77
19.988733291626 35.315326690674 4.156997680664 66 66 66
20.393363952637 35.006904602051 5.842010498047 99 99 99
20.426212310791 35.164382934570 5.880996704102 37 37 37
20.190708160400 34.975536346436 2.664001464844 224 224 224
20.190708160400 34.975536346436 2.729003906250 232 232 232
20.207935333252 35.043258666992 2.803009033203 116 116 116
20.178886413574 34.985755920410 2.919998168945 232 232 232
20.211143493652 34.999179840088 2.984008789063 220 220 220
20.178886413574 34.985755920410 3.046005249023 215 215 215
20.203628540039 35.026329040527 3.113006591797 172 172 172
20.210636138916 35.082225799561 3.180999755859 122 122 122
20.210636138916 35.082225799561 3.244003295898 124 124 124
20.210636138916 35.082225799561 3.305007934570 129 129 129
20.210636138916 35.082225799561 3.367004394531 125 125 125
20.210636138916 35.082225799561 3.429000854492 129 129 129
20.210636138916 35.082225799561 3.490005493164 134 134 134
20.204727172852 35.087333679199 3.553009033203 139 139 139
20.204727172852 35.087333679199 3.613998413086 143 143 143
20.204727172852 35.087333679199 3.675003051758 149 149 149
20.204727172852 35.087333679199 3.736999511719 144 144 144
20.204727172852 35.087333679199 3.798004150391 140 140 140
20.198814392090 35.092441558838 3.859008789063 148 148 148
20.204727172852 35.087333679199 3.919998168945 139 139 139
20.198814392090 35.092441558838 3.982009887695 134 134 134
20.213338851929 35.121196746826 4.042999267578 138 138 138
20.198814392090 35.092441558838 4.104003906250 139 139 139
20.198814392090 35.092441558838 4.165008544922 142 142 142
20.186996459961 35.102661132813 4.225997924805 145 145 145
20.186996459961 35.102661132813 4.288009643555 131 131 131
20.192905426025 35.097553253174 4.348007202148 134 134 134
20.186996459961 35.102661132813 4.410003662109 135 135 135
20.186996459961 35.102661132813 4.471008300781 143 143 143
20.186996459961 35.102661132813 4.531997680664 133 133 133
20.186996459961 35.102661132813 4.593002319336 133 133 133
20.186996459961 35.102661132813 4.654006958008 138 138 138
20.186996459961 35.102661132813 4.714996337891 133 133 133
20.186996459961 35.102661132813 4.776000976563 124 124 124
20.191303253174 35.119590759277 4.835998535156 126 126 126
20.186996459961 35.102661132813 4.898010253906 135 135 135
20.191303253174 35.119590759277 4.958007812500 120 120 120
20.186996459961 35.102661132813 5.020004272461 118 118 118
20.191303253174 35.119590759277 5.081008911133 106 106 106
20.191303253174 35.119590759277 5.141998291016 123 123 123
20.195608139038 35.136520385742 5.203002929688 113 113 113
20.195608139038 35.136520385742 5.263000488281 90 90 90
20.195608139038 35.136520385742 5.324996948242 91 91 91
20.183786392212 35.146739959717 5.385009765625 90 90 90
20.195608139038 35.136520385742 5.447998046875 58 58 58
20.195608139038 35.136520385742 5.509002685547 76 76 76
20.189697265625 35.141628265381 5.570007324219 83 83 83
20.189697265625 35.141628265381 5.632003784180 63 63 63
20.183786392212 35.146739959717 5.692001342773 61 61 61
20.206924438477 35.209350585938 5.748001098633 88 88 88
20.188093185425 35.163665771484 5.814010620117 64 64 64
20.218240737915 35.282180786133 5.859008789063 100 100 100
20.206924438477 35.209350585938 5.932998657227 66 66 66
20.196617126465 34.970428466797 2.598007202148 160 160 160
19.988140106201 35.171272277832 4.070007324219 59 59 59
19.986536026001 35.193309783936 4.132003784180 89 89 89
19.992446899414 35.188201904297 4.194000244141 24 24 24
19.991939544678 35.271247863770 4.318008422852 48 48 48
20.027999877930 35.384651184082 4.378997802734 69 69 69
20.027999877930 35.384651184082 4.439010620117 101 101 101
20.015079498291 35.333858489990 4.500000000000 52 52 52
20.222789764404 34.534759521484 5.518005371094 80 80 80
20.202354431152 34.511116027832 5.059005737305 63 63 63
20.202354431152 34.511116027832 4.994003295898 92 92 92
20.222877502441 34.761859893799 5.595001220703 166 166 166
20.239006042480 34.768573760986 5.529998779297 182 182 182
20.200838088989 34.760257720947 5.467010498047 195 195 195
20.222877502441 34.761859893799 5.401000976563 178 178 178
20.206748962402 34.755149841309 5.143997192383 182 182 182
20.206748962402 34.755149841309 5.080001831055 200 200 200
20.206748962402 34.755149841309 5.016006469727 198 198 198
20.200838088989 34.760257720947 4.952011108398 181 181 181
20.481014251709 35.096366882324 5.885009765625 60 60 60
20.340167999268 35.052879333496 5.842010498047 35 35 35
20.410591125488 35.074623107910 5.768005371094 54 54 54
20.384246826172 35.056087493896 5.708999633789 28 28 28
20.243398666382 35.012603759766 5.411010742188 182 182 182
20.243398666382 35.012603759766 5.348007202148 178 178 178
20.243398666382 35.012603759766 5.285003662109 182 182 182
20.221361160278 35.011001586914 5.223007202148 189 189 189
20.221361160278 35.011001586914 5.160003662109 192 192 192
20.211143493652 34.999179840088 5.097000122070 195 195 195
20.038040161133 34.942268371582 4.595001220703 131 131 131
20.026218414307 34.952484130859 4.531005859375 132 132 132
20.102552413940 34.969120025635 4.467010498047 109 109 109
20.114374160767 34.958904266357 4.402999877930 100 100 100
20.054168701172 34.948982238770 4.339004516602 123 123 123
20.064386367798 34.960803985596 4.275009155273 150 150 150
20.064386367798 34.960803985596 4.210998535156 139 139 139
20.064386367798 34.960803985596 4.147003173828 149 149 149
20.376817703247 35.310337066650 5.900009155273 44 44 44
20.350473403931 35.291801452637 5.839996337891 83 83 83
20.306396484375 35.288597106934 5.723007202148 16 16 16
20.241882324219 35.261741638184 5.419006347656 181 181 181
20.241882324219 35.261741638184 5.358001708984 197 197 197
20.241882324219 35.261741638184 5.296005249023 186 186 186
20.241882324219 35.261741638184 5.233001708984 191 191 191
20.241882324219 35.261741638184 5.171997070313 186 186 186
20.241882324219 35.261741638184 5.110000610352 181 181 181
20.235971450806 35.266853332520 5.048995971680 59 59 59
20.068778991699 35.204833984375 4.620010375977 117 117 117
20.068778991699 35.204833984375 4.557006835938 144 144 144
20.062870025635 35.209941864014 4.494003295898 144 144 144
20.171459197998 35.240001678467 4.432006835938 159 159 159
20.155330657959 35.233291625977 4.370010375977 146 146 146
20.171459197998 35.240001678467 4.307998657227 137 137 137
20.183280944824 35.229785919189 4.246002197266 160 160 160
20.068778991699 35.204833984375 4.182006835938 131 131 131
20.068778991699 35.204833984375 4.119003295898 115 115 115
20.074691772461 35.199726104736 4.055999755859 122 122 122
20.074691772461 35.199726104736 3.992996215820 139 139 139
20.068778991699 35.204833984375 3.930007934570 58 58 58
20.240365982056 35.510883331299 5.551010131836 181 181 181
20.240365982056 35.510883331299 5.488998413086 211 211 211
20.240365982056 35.510883331299 5.428009033203 196 196 196
20.240365982056 35.510883331299 5.367996215820 196 196 196
20.214019775391 35.492347717285 5.307998657227 69 69 69
20.240365982056 35.510883331299 5.125000000000 186 186 186
20.240365982056 35.510883331299 5.064010620117 178 178 178
20.240365982056 35.510883331299 5.003997802734 192 192 192
20.240365982056 35.510883331299 4.943008422852 182 182 182
20.105430603027 35.462287902832 4.583007812500 65 65 65
20.105430603027 35.462287902832 4.522003173828 135 135 135
20.105430603027 35.462287902832 4.460006713867 140 140 140
20.105430603027 35.462287902832 4.399002075195 139 139 139
20.117252349854 35.452072143555 4.337997436523 138 138 138
20.105430603027 35.462287902832 4.277008056641 99 99 99
20.218416213989 35.736381530762 5.621002197266 21 21 21
20.224327087402 35.731269836426 5.559997558594 180 180 180
20.224327087402 35.731269836426 5.499008178711 196 196 196
20.224327087402 35.731269836426 5.440002441406 129 129 129
20.224327087402 35.731269836426 5.024002075195 69 69 69
20.224327087402 35.731269836426 4.964996337891 181 181 181
20.224327087402 35.731269836426 4.906005859375 116 116 116
19.904293060303 35.181785583496 4.138000488281 20 20 20
19.916110992432 35.171569824219 4.199996948242 20 20 20
19.935537338257 35.361305236816 4.447006225586 11 11 11
19.937141418457 35.339263916016 4.508010864258 16 16 16
20.111671447754 34.919937133789 2.660003662109 191 191 191
20.132106781006 34.943576812744 2.727005004883 211 211 211
20.132106781006 34.943576812744 2.790008544922 224 224 224
20.126195907593 34.948684692383 2.855010986328 240 240 240
20.146125793457 35.055374145508 3.059997558594 28 28 28
20.140214920044 35.060485839844 3.928009033203 9 9 9
20.094444274902 34.852214813232 4.169006347656 37 37 37
20.100355148315 34.847106933594 4.232009887695 81 81 81
20.147224426270 35.116382598877 4.298004150391 144 144 144
20.151531219482 35.133312225342 4.360000610352 160 160 160
20.128393173218 35.070701599121 4.421005249023 94 94 94
20.099849700928 34.930152893066 4.483001708984 26 26 26
20.134304046631 35.065593719482 4.544006347656 77 77 77
20.245773315430 35.588821411133 4.830001831055 12 12 12
20.231248855591 35.560070037842 4.889999389648 69 69 69
20.235555648804 35.576999664307 4.947998046875 82 82 82
20.235555648804 35.576999664307 5.005996704102 102 102 102
20.216722488403 35.531318664551 5.068008422852 45 45 45
20.211318969727 35.453380584717 5.371002197266 26 26 26
20.208110809326 35.497459411621 5.426010131836 82 82 82
20.231248855591 35.560070037842 5.479003906250 124 124 124
20.229644775391 35.582107543945 5.535003662109 108 108 108
20.229644775391 35.582107543945 5.595001220703 106 106 106
20.238258361816 35.615966796875 5.650009155273 44 44 44
20.139709472656 35.143527984619 5.893997192383 59 59 59
20.378334045410 35.061199188232 5.119003295898 114 114 114
20.384246826172 35.056087493896 5.179000854492 107 107 107
20.378334045410 35.061199188232 5.240005493164 70 70 70
20.374027252197 35.044265747070 5.302001953125 115 115 115
20.369720458984 35.027336120605 5.363998413086 115 115 115
20.374027252197 35.044265747070 5.423995971680 10 10 10
20.385343551636 35.117095947266 5.477996826172 111 111 111
20.374027252197 35.044265747070 5.546005249023 98 98 98
20.372425079346 35.066307067871 5.606002807617 100 100 100
20.389650344849 35.134025573730 5.660003662109 11 11 11
20.395561218262 35.128917694092 5.720001220703 75 75 75
20.389650344849 35.134025573730 5.779006958008 80 80 80
20.385343551636 35.117095947266 5.843002319336 95 95 95
20.400966644287 35.206855773926 5.891006469727 80 80 80
20.389650344849 35.134025573730 5.962005615234 56 56 56
20.213008880615 35.658443450928 5.608001708984 74 74 74
20.218921661377 35.653331756592 5.553009033203 129 129 129
20.218921661377 35.653331756592 5.501007080078 141 141 141
20.202793121338 35.646621704102 5.452011108398 12 12 12
20.224830627441 35.648223876953 5.038009643555 39 39 39
20.235048294067 35.660045623779 4.985000610352 96 96 96
20.202793121338 35.646621704102 4.936004638672 82 82 82
19.932834625244 35.322334289551 4.541000366211 11 11 11
19.973703384399 35.369621276855 4.486999511719 17 17 17
20.235971450806 35.266853332520 5.891006469727 52 52 52
20.082710266113 35.089530944824 5.880004882813 13 13 13
20.231664657593 35.249923706055 5.464004516602 119 119 119
20.217140197754 35.221172332764 5.413009643555 141 141 141
20.227359771729 35.232994079590 5.358001708984 150 150 150
20.227359771729 35.232994079590 5.305007934570 134 134 134
20.231664657593 35.249923706055 5.251007080078 133 133 133
20.227359771729 35.232994079590 5.197998046875 160 160 160
20.233268737793 35.227886199951 5.145004272461 153 153 153
20.227359771729 35.232994079590 5.092010498047 145 145 145
20.241882324219 35.261741638184 5.036010742188 23 23 23
20.063880920410 35.043849945068 4.626998901367 86 86 86
20.080009460449 35.050563812256 4.572006225586 130 130 130
20.069789886475 35.038742065430 4.518997192383 93 93 93
20.090225219727 35.062385559082 4.462997436523 104 104 104
20.131095886230 35.109672546387 4.408004760742 90 90 90
20.161746978760 35.145133972168 4.354003906250 115 115 115
20.151531219482 35.133312225342 4.300003051758 103 103 103
20.084316253662 35.067493438721 4.247009277344 114 114 114
20.116571426392 35.080917358398 4.193008422852 36 36 36
20.116571426392 35.080917358398 4.139999389648 35 35 35
20.069789886475 35.038742065430 4.085006713867 58 58 58
20.049356460571 35.015098571777 4.029998779297 123 123 123
20.049356460571 35.015098571777 3.975997924805 76 76 76
20.169261932373 35.117984771729 3.119003295898 10 10 10
20.169261932373 35.117984771729 3.064010620117 31 31 31
20.046653747559 34.976127624512 2.484008789063 165 165 165
20.042346954346 34.959197998047 2.423004150391 162 162 162
20.046653747559 34.976127624512 2.371002197266 153 153 153
20.072999954224 34.994663238525 2.320999145508 138 138 138
20.046653747559 34.976127624512 2.654006958008 170 170 170
20.475101470947 35.101474761963 5.913009643555 74 74 74
20.399274826050 35.001792907715 5.880996704102 108 108 108
20.440143585205 35.049079895020 5.818008422852 25 25 25
20.413799285889 35.030544281006 5.766006469727 84 84 84
20.337970733643 34.930866241455 5.514007568359 114 114 114
20.256231307983 34.836296081543 5.477005004883 104 104 104
20.229885101318 34.817760467529 5.423995971680 109 109 109
20.215362548828 34.789009094238 5.372009277344 103 103 103
20.235795974731 34.812652587891 5.314010620117 56 56 56
20.209449768066 34.794116973877 5.263000488281 46 46 46
20.215362548828 34.789009094238 5.208007812500 126 126 126
20.209449768066 34.794116973877 5.152008056641 122 122 122
20.205142974854 34.777187347412 5.098007202148 125 125 125
20.189016342163 34.770473480225 5.044006347656 122 122 122
20.180402755737 34.736614227295 4.990997314453 17 17 17
20.213008880615 35.658443450928 5.598007202148 159 159 159
20.224830627441 35.648223876953 5.536010742188 197 197 197
20.202793121338 35.646621704102 5.479003906250 144 144 144
20.240959167480 35.654937744141 5.061004638672 10 10 10
20.230743408203 35.643115997314 5.003005981445 182 182 182
20.224830627441 35.648223876953 4.944000244141 144 144 144
20.254297256470 35.395580291748 5.591003417969 82 82 82
20.216129302979 35.387264251709 5.531997680664 204 204 204
20.232257843018 35.393978118896 5.470001220703 207 207 207
20.216129302979 35.387264251709 5.410003662109 187 187 187
20.216129302979 35.387264251709 5.350006103516 182 182 182
20.244079589844 35.383758544922 5.166000366211 187 187 187
20.232257843018 35.393978118896 5.106002807617 188 188 188
20.232257843018 35.393978118896 5.046005249023 192 192 192
20.232257843018 35.393978118896 4.986007690430 181 181 181
20.103233337402 35.340274810791 4.626007080078 66 66 66
20.109146118164 35.335166931152 4.565002441406 135 135 135
20.103233337402 35.340274810791 4.503997802734 138 138 138
20.098926544189 35.323345184326 4.442001342773 142 142 142
20.098926544189 35.323345184326 4.380996704102 132 132 132
20.098926544189 35.323345184326 4.320007324219 143 143 143
20.098926544189 35.323345184326 4.259002685547 111 111 111
20.380531311035 35.183212280273 5.942001342773 58 58 58
20.418697357178 35.191528320313 5.875000000000 85 85 85
20.326236724854 35.168182373047 5.824996948242 24 24 24
20.348276138306 35.169788360596 5.761001586914 64 64 64
20.326236724854 35.168182373047 5.701004028320 49 49 49
20.354187011719 35.164680480957 5.637008666992 75 75 75
20.239685058594 35.139728546143 5.462997436523 40 40 40
20.219249725342 35.116085052490 5.402999877930 196 196 196
20.245595932007 35.134620666504 5.339996337891 186 186 186
20.219249725342 35.116085052490 5.279006958008 180 180 180
20.245595932007 35.134620666504 5.216003417969 178 178 178
20.219249725342 35.116085052490 5.154998779297 181 181 181
20.225160598755 35.110977172852 5.094009399414 50 50 50
20.245595932007 35.134620666504 5.031005859375 13 13 13
20.213338851929 35.121196746826 4.970001220703 19 19 19
20.213338851929 35.121196746826 4.908996582031 34 34 34
20.241289138794 35.117691040039 4.846008300781 46 46 46
20.241289138794 35.117691040039 4.785003662109 54 54 54
20.213338851929 35.121196746826 4.723007202148 64 64 64
20.181083679199 35.107769012451 4.662002563477 97 97 97
20.132699966431 35.087631225586 4.600997924805 137 137 137
20.154739379883 35.089233398438 4.539001464844 131 131 131
20.181083679199 35.107769012451 4.475997924805 128 128 128
20.213338851929 35.121196746826 4.415008544922 145 145 145
20.181083679199 35.107769012451 4.352996826172 138 138 138
20.192905426025 35.097553253174 4.291000366211 155 155 155
20.160650253296 35.084129333496 4.227996826172 127 127 127
20.160650253296 35.084129333496 4.166000366211 91 91 91
20.176776885986 35.090839385986 4.105010986328 92 92 92
20.138610839844 35.082523345947 4.040008544922 134 134 134
20.160650253296 35.084129333496 3.979003906250 131 131 131
20.209033966064 35.104263305664 3.919998168945 72 72 72
20.198814392090 35.092441558838 3.857009887695 84 84 84
20.192905426025 35.097553253174 3.796005249023 77 77 77
20.198814392090 35.092441558838 3.733001708984 91 91 91
20.176776885986 35.090839385986 3.669006347656 87 87 87
20.085918426514 35.045455932617 2.708999633789 205 205 205
20.085918426514 35.045455932617 2.643997192383 173 173 173
20.107959747314 35.047058105469 2.583007812500 165 165 165
20.107959747314 35.047058105469 2.520004272461 152 152 152
20.107959747314 35.047058105469 2.455001831055 136 136 136
20.124086380005 35.053771972656 2.393005371094 127 127 127
20.140214920044 35.060485839844 2.330001831055 118 118 118
20.182685852051 35.085731506348 3.608001708984 64 64 64
20.452470779419 34.955818176270 5.932998657227 15 15 15
20.426124572754 34.937282562256 5.873001098633 37 37 37
20.230985641479 34.878768920898 5.516998291016 113 113 113
20.230985641479 34.878768920898 5.454010009766 180 180 180
20.220767974854 34.866947174072 5.391998291016 177 177 177
20.226676940918 34.861839294434 5.328002929688 185 185 185
20.220767974854 34.866947174072 5.264999389648 182 182 182
20.198728561401 34.865341186523 5.203002929688 190 190 190
20.220767974854 34.866947174072 5.139007568359 194 194 194
20.188510894775 34.853523254395 5.078002929688 227 227 227
19.989063262939 34.778076171875 4.637008666992 171 171 171
20.027229309082 34.786392211914 4.572998046875 129 129 129
20.027229309082 34.786392211914 4.508010864258 120 120 120
20.027229309082 34.786392211914 4.444000244141 115 115 115
20.027229309082 34.786392211914 4.380004882813 130 130 130
20.033138275146 34.781284332275 4.316009521484 132 132 132
20.033138275146 34.781284332275 4.251998901367 183 183 183
20.212066650391 34.605987548828 5.636001586914 175 175 175
20.228195190430 34.612697601318 5.570999145508 180 180 180
20.228195190430 34.612697601318 5.505996704102 200 200 200
20.212066650391 34.605987548828 5.442001342773 147 147 147
20.212066650391 34.605987548828 5.184005737305 54 54 54
20.195938110352 34.599273681641 5.119003295898 193 193 193
20.195938110352 34.599273681641 5.055007934570 190 190 190
20.195938110352 34.599273681641 4.990997314453 203 203 203
20.201848983765 34.594161987305 4.926010131836 128 128 128
20.331554412842 35.019020080566 3.952011108398 15 15 15
20.337465286255 35.013912200928 4.013000488281 45 45 45
20.331554412842 35.019020080566 4.074005126953 71 71 71
20.331554412842 35.019020080566 4.135009765625 81 81 81
20.331554412842 35.019020080566 4.195999145508 98 98 98
20.346078872681 35.047775268555 4.257003784180 99 99 99
20.346078872681 35.047775268555 4.318008422852 99 99 99
20.346078872681 35.047775268555 4.378997802734 110 110 110
20.346078872681 35.047775268555 4.440002441406 103 103 103
20.334257125854 35.057991027832 4.500000000000 115 115 115
20.334257125854 35.057991027832 4.561004638672 201 201 201
20.328346252441 35.063098907471 4.622009277344 165 165 165
20.334257125854 35.057991027832 4.682998657227 116 116 116
20.335861206055 35.035949707031 4.744003295898 129 129 129
20.340167999268 35.052879333496 4.804000854492 133 133 133
20.340167999268 35.052879333496 4.865005493164 144 144 144
20.340167999268 35.052879333496 4.926010131836 150 150 150
20.340167999268 35.052879333496 4.986999511719 143 143 143
20.340167999268 35.052879333496 5.048004150391 140 140 140
20.334257125854 35.057991027832 5.109008789063 128 128 128
20.328346252441 35.063098907471 5.169998168945 163 163 163
20.334257125854 35.057991027832 5.231002807617 143 143 143
20.328346252441 35.063098907471 5.291000366211 148 148 148
20.340167999268 35.052879333496 5.354003906250 134 134 134
20.334257125854 35.057991027832 5.414001464844 149 149 149
20.328346252441 35.063098907471 5.475006103516 144 144 144
20.334257125854 35.057991027832 5.537002563477 148 148 148
20.331047058105 35.102066040039 5.593002319336 160 160 160
20.360095977783 35.159568786621 5.649002075195 150 150 150
20.349878311157 35.147750854492 5.710998535156 99 99 99
20.354187011719 35.164680480957 5.770996093750 106 106 106
20.349878311157 35.147750854492 5.833999633789 108 108 108
20.371414184570 35.232398986816 5.880996704102 101 101 101
20.358493804932 35.181610107422 5.951004028320 97 97 97
20.034328460693 35.069393157959 4.042007446289 24 24 24
20.057464599609 35.132003784180 4.105010986328 74 74 74
20.045642852783 35.142223358154 4.167999267578 87 87 87
20.042942047119 35.103256225586 4.227996826172 21 21 21
20.045642852783 35.142223358154 4.291000366211 10 10 10
20.065572738647 35.248912811279 4.352996826172 60 60 60
20.089807510376 35.372531890869 4.414001464844 90 90 90
20.091411590576 35.350494384766 4.473999023438 97 97 97
20.084403991699 35.294593811035 4.535003662109 52 52 52
20.225997924805 34.490684509277 4.865005493164 5 5 5
20.231906890869 34.485572814941 4.921997070313 99 99 99
20.211473464966 34.461929321289 4.980010986328 123 123 123
20.211473464966 34.461929321289 5.036010742188 136 136 136
20.225997924805 34.490684509277 5.091003417969 46 46 46
20.252342224121 34.509216308594 5.481002807617 80 80 80
20.236213684082 34.502506256104 5.541000366211 123 123 123
20.230304718018 34.507614135742 5.596008300781 117 117 117
20.246433258057 34.514328002930 5.650009155273 87 87 87
20.158956527710 34.879066467285 2.395004272461 169 169 169
20.191213607788 34.892490386963 2.458007812500 190 190 190
20.205738067627 34.921241760254 3.076004028320 1 1 1
20.281566619873 35.020919799805 3.251998901367 106 106 106
20.287475585938 35.015811920166 3.305007934570 95 95 95
20.287475585938 35.015811920166 3.414001464844 92 92 92
20.287475585938 35.015811920166 3.467010498047 100 100 100
20.287475585938 35.015811920166 3.520996093750 109 109 109
20.302000045776 35.044563293457 3.574996948242 115 115 115
20.291782379150 35.032741546631 3.628005981445 120 120 120
20.291782379150 35.032741546631 3.682006835938 122 122 122
20.291782379150 35.032741546631 3.735000610352 122 122 122
20.302000045776 35.044563293457 3.789001464844 117 117 117
20.302000045776 35.044563293457 3.842010498047 119 119 119
20.291782379150 35.032741546631 3.895004272461 113 113 113
20.318128585815 35.051277160645 3.949005126953 114 114 114
20.296089172363 35.049674987793 4.001998901367 119 119 119
20.302000045776 35.044563293457 4.055007934570 116 116 116
20.302000045776 35.044563293457 4.108001708984 111 111 111
20.302000045776 35.044563293457 4.161010742188 114 114 114
20.296089172363 35.049674987793 4.214004516602 114 114 114
20.318128585815 35.051277160645 4.266998291016 119 119 119
20.318128585815 35.051277160645 4.320007324219 117 117 117
20.296089172363 35.049674987793 4.373001098633 119 119 119
20.312217712402 35.056385040283 4.426010131836 121 121 121
20.316524505615 35.073318481445 4.479003906250 113 113 113
20.316524505615 35.073318481445 4.531997680664 116 116 116
20.316524505615 35.073318481445 4.583999633789 153 153 153
20.312217712402 35.056385040283 4.638000488281 120 120 120
20.316524505615 35.073318481445 4.691009521484 111 111 111
20.316524505615 35.073318481445 4.744003295898 114 114 114
20.312217712402 35.056385040283 4.798004150391 119 119 119
20.290178298950 35.054782867432 4.850997924805 108 108 108
20.316524505615 35.073318481445 4.904006958008 116 116 116
20.316524505615 35.073318481445 4.957000732422 109 109 109
20.316524505615 35.073318481445 5.010009765625 115 115 115
20.316524505615 35.073318481445 5.064010620117 112 112 112
20.316524505615 35.073318481445 5.115997314453 113 113 113
20.316524505615 35.073318481445 5.169006347656 116 116 116
20.316524505615 35.073318481445 5.223999023438 112 112 112
20.316524505615 35.073318481445 5.277008056641 114 114 114
20.284267425537 35.059890747070 5.332000732422 110 110 110
20.316524505615 35.073318481445 5.385009765625 116 116 116
20.310613632202 35.078422546387 5.438003540039 112 112 112
20.316524505615 35.073318481445 5.490005493164 116 116 116
20.357395172119 35.120601654053 5.538009643555 146 146 146
20.325138092041 35.107177734375 5.593002319336 138 138 138
20.388046264648 35.156066894531 5.637008666992 140 140 140
20.357395172119 35.120601654053 5.699996948242 95 95 95
20.388046264648 35.156066894531 5.744003295898 109 109 109
20.388046264648 35.156066894531 5.798995971680 92 92 92
20.392353057861 35.172996520996 5.848007202148 122 122 122
20.406875610352 35.201747894287 5.897003173828 87 87 87
20.377828598022 35.144245147705 5.962005615234 79 79 79
20.281566619873 35.020919799805 3.361007690430 88 88 88
20.018793106079 35.206733703613 4.177001953125 53 53 53
20.094619750977 35.306415557861 4.230010986328 73 73 73
20.115055084229 35.330059051514 4.283004760742 98 98 98
20.115055084229 35.330059051514 4.335006713867 117 117 117
20.109146118164 35.335166931152 4.388000488281 92 92 92
20.115055084229 35.330059051514 4.441009521484 102 102 102
20.125272750854 35.341880798340 4.492996215820 94 94 94
20.109146118164 35.335166931152 4.546005249023 97 97 97
20.115055084229 35.330059051514 4.598999023438 75 75 75
20.258098602295 35.495559692383 4.899002075195 115 115 115
20.241970062256 35.488845825195 4.951004028320 124 124 124
20.258098602295 35.495559692383 5.001998901367 140 140 140
20.241970062256 35.488845825195 5.055007934570 164 164 164
20.241970062256 35.488845825195 5.106002807617 103 103 103
20.211318969727 35.453380584717 5.372009277344 73 73 73
20.237663269043 35.471916198730 5.419998168945 165 165 165
20.241970062256 35.488845825195 5.472000122070 167 167 167
20.241970062256 35.488845825195 5.524002075195 144 144 144
20.252187728882 35.500667572021 5.574996948242 154 154 154
20.246276855469 35.505775451660 5.624008178711 32 32 32
20.243728637695 34.475357055664 5.694000244141 140 140 140
20.231906890869 34.485572814941 5.630004882813 198 198 198
20.231906890869 34.485572814941 5.564010620117 202 202 202
20.248035430908 34.492286682129 5.497009277344 128 128 128
20.199651718140 34.472148895264 5.109008789063 182 182 182
20.199651718140 34.472148895264 5.044006347656 220 220 220
20.199651718140 34.472148895264 4.979003906250 215 215 215
20.225997924805 34.490684509277 4.914001464844 179 179 179
20.233093261719 34.773681640625 5.554000854492 171 171 171
20.233093261719 34.773681640625 5.490005493164 199 199 199
20.233093261719 34.773681640625 5.427001953125 197 197 197
20.265350341797 34.787109375000 5.361999511719 197 197 197
20.227184295654 34.778793334961 5.300003051758 36 36 36
20.233093261719 34.773681640625 5.236007690430 205 205 205
20.227184295654 34.778793334961 5.173004150391 209 209 209
20.227184295654 34.778793334961 5.109008789063 216 216 216
20.227184295654 34.778793334961 5.046005249023 173 173 173
20.037952423096 34.715167999268 4.604003906250 103 103 103
20.037952423096 34.715167999268 4.540008544922 144 144 144
20.021823883057 34.708457946777 4.475006103516 140 140 140
20.021823883057 34.708457946777 4.411010742188 140 140 140
20.037952423096 34.715167999268 4.346008300781 134 134 134
20.411689758301 35.135631561279 5.956008911133 88 88 88
20.488021850586 35.152263641357 5.884002685547 97 97 97
20.401472091675 35.123809814453 5.835998535156 85 85 85
20.411689758301 35.135631561279 5.772003173828 103 103 103
20.353088378906 35.103672027588 5.718002319336 108 108 108
20.395561218262 35.128917694092 5.650009155273 140 140 140
20.331047058105 35.102066040039 5.598007202148 122 122 122
20.363304138184 35.115493774414 5.529998779297 145 145 145
20.276754379272 35.087036132813 5.477005004883 101 101 101
20.260625839233 35.080326080322 5.417999267578 186 186 186
20.254714965820 35.085433959961 5.355010986328 184 184 184
20.254714965820 35.085433959961 5.292999267578 172 172 172
20.254714965820 35.085433959961 5.232009887695 176 176 176
20.254714965820 35.085433959961 5.169006347656 176 176 176
20.254714965820 35.085433959961 5.107009887695 107 107 107
20.254714965820 35.085433959961 5.046005249023 119 119 119
20.248804092407 35.090541839600 4.984008789063 104 104 104
20.248804092407 35.090541839600 4.923004150391 104 104 104
20.248804092407 35.090541839600 4.861007690430 107 107 107
20.248804092407 35.090541839600 4.798995971680 103 103 103
20.254714965820 35.085433959961 4.736999511719 102 102 102
20.248804092407 35.090541839600 4.676010131836 109 109 109
20.190202713013 35.058582305908 4.615005493164 142 142 142
20.190202713013 35.058582305908 4.553009033203 152 152 152
20.190202713013 35.058582305908 4.490997314453 151 151 151
20.248804092407 35.090541839600 4.429000854492 162 162 162
20.178380966187 35.068801879883 4.367004394531 151 151 151
20.222457885742 35.072010040283 4.305999755859 168 168 168
20.210636138916 35.082225799561 4.244003295898 145 145 145
20.222457885742 35.072010040283 4.182006835938 109 109 109
20.210636138916 35.082225799561 4.120010375977 107 107 107
20.178380966187 35.068801879883 4.055999755859 139 139 139
20.178380966187 35.068801879883 3.994003295898 139 139 139
20.194507598877 35.075515747070 3.932998657227 89 89 89
20.210636138916 35.082225799561 3.872009277344 96 96 96
20.210636138916 35.082225799561 3.809997558594 91 91 91
20.194507598877 35.075515747070 3.747009277344 102 102 102
20.210636138916 35.082225799561 3.684997558594 94 94 94
20.194507598877 35.075515747070 3.623001098633 83 83 83
20.057968139648 35.048957824707 2.654998779297 251 251 251
20.057968139648 35.048957824707 2.589996337891 215 215 215
20.069789886475 35.038742065430 2.527999877930 203 203 203
20.041841506958 35.042247772217 2.458999633789 183 183 183
20.057968139648 35.048957824707 2.397003173828 186 186 186
20.041841506958 35.042247772217 2.329010009766 179 179 179
20.037534713745 35.025314331055 2.714996337891 238 238 238
20.249990463257 35.378650665283 5.609008789063 59 59 59
20.244079589844 35.383758544922 5.546997070313 222 222 222
20.260208129883 35.390472412109 5.485000610352 229 229 229
20.244079589844 35.383758544922 5.427001953125 220 220 220
20.244079589844 35.383758544922 5.365005493164 198 198 198
20.244079589844 35.383758544922 5.184005737305 128 128 128
20.244079589844 35.383758544922 5.123001098633 201 201 201
20.244079589844 35.383758544922 5.063003540039 203 203 203
20.244079589844 35.383758544922 5.003005981445 208 208 208
20.244079589844 35.383758544922 4.943008422852 177 177 177
20.103233337402 35.340274810791 4.583999633789 99 99 99
20.129579544067 35.358810424805 4.523010253906 146 146 146
20.129579544067 35.358810424805 4.462005615234 148 148 148
20.129579544067 35.358810424805 4.401000976563 148 148 148
20.107540130615 35.357204437256 4.339996337891 123 123 123
19.911893844604 35.381736755371 4.447998046875 29 29 29
19.891460418701 35.358093261719 4.503005981445 17 17 17
20.203891754150 35.707630157471 4.944000244141 79 79 79
20.215713500977 35.697410583496 4.994003295898 52 52 52
20.199584960938 35.690700531006 5.458007812500 142 142 142
20.199584960938 35.690700531006 5.510009765625 139 139 139
20.203891754150 35.707630157471 5.561004638672 95 95 95
20.033821105957 35.152439117432 3.938003540039 52 52 52
20.060167312622 35.170974731445 3.992996215820 100 100 100
20.060167312622 35.170974731445 4.046005249023 104 104 104
20.048345565796 35.181190490723 4.100006103516 110 110 110
20.060167312622 35.170974731445 4.152999877930 104 104 104
20.060167312622 35.170974731445 4.207000732422 113 113 113
20.101036071777 35.218261718750 4.260009765625 155 155 155
20.060167312622 35.170974731445 4.314010620117 113 113 113
20.115560531616 35.247009277344 4.365997314453 90 90 90
20.115560531616 35.247009277344 4.419006347656 79 79 79
20.101036071777 35.218261718750 4.472000122070 79 79 79
20.060167312622 35.170974731445 4.527008056641 118 118 118
20.060167312622 35.170974731445 4.581008911133 89 89 89
20.223644256592 35.360115051270 4.988998413086 132 132 132
20.203208923340 35.336475372314 5.042999267578 167 167 167
20.223644256592 35.360115051270 5.095001220703 168 168 168
20.229557037354 35.355007171631 5.148010253906 163 163 163
20.203208923340 35.336475372314 5.199996948242 80 80 80
20.187082290649 35.329761505127 5.255996704102 103 103 103
20.209121704102 35.331363677979 5.307998657227 173 173 173
20.203208923340 35.336475372314 5.360000610352 178 178 178
20.209121704102 35.331363677979 5.414001464844 153 153 153
20.229557037354 35.355007171631 5.464996337891 137 137 137
20.164363861084 34.957000732422 2.378997802734 167 167 167
20.184799194336 34.980644226074 2.440002441406 184 184 184
20.180492401123 34.963714599609 2.492004394531 184 184 184
20.174579620361 34.968826293945 3.046005249023 2 2 2
20.252014160156 35.046463012695 3.113006591797 106 106 106
20.256320953369 35.063396453857 3.169998168945 88 88 88
20.256320953369 35.063396453857 3.223999023438 95 95 95
20.266536712646 35.075218200684 3.277999877930 92 92 92
20.256320953369 35.063396453857 3.385009765625 95 95 95
20.278356552124 35.064998626709 3.439010620117 89 89 89
20.256320953369 35.063396453857 3.492004394531 100 100 100
20.256320953369 35.063396453857 3.544998168945 95 95 95
20.266536712646 35.075218200684 3.598999023438 102 102 102
20.278356552124 35.064998626709 3.652999877930 97 97 97
20.278356552124 35.064998626709 3.706008911133 107 107 107
20.266536712646 35.075218200684 3.759002685547 101 101 101
20.278356552124 35.064998626709 3.813003540039 107 107 107
20.272447586060 35.070106506348 3.865997314453 113 113 113
20.272447586060 35.070106506348 3.919006347656 121 121 121
20.272447586060 35.070106506348 3.972000122070 119 119 119
20.272447586060 35.070106506348 4.025009155273 119 119 119
20.272447586060 35.070106506348 4.078002929688 123 123 123
20.272447586060 35.070106506348 4.130996704102 127 127 127
20.292882919312 35.093750000000 4.184005737305 121 121 121
20.272447586060 35.070106506348 4.236999511719 123 123 123
20.292882919312 35.093750000000 4.290008544922 117 117 117
20.272447586060 35.070106506348 4.343002319336 120 120 120
20.272447586060 35.070106506348 4.395996093750 126 126 126
20.276754379272 35.087036132813 4.449005126953 113 113 113
20.292882919312 35.093750000000 4.501998901367 134 134 134
20.313316345215 35.117393493652 4.553009033203 170 170 170
20.292882919312 35.093750000000 4.608001708984 127 127 127
20.286972045898 35.098861694336 4.660003662109 122 122 122
20.292882919312 35.093750000000 4.714004516602 122 122 122
20.292882919312 35.093750000000 4.766998291016 122 122 122
20.292882919312 35.093750000000 4.820007324219 110 110 110
20.292882919312 35.093750000000 4.873001098633 110 110 110
20.309009552002 35.100463867188 4.926010131836 113 113 113
20.292882919312 35.093750000000 4.980010986328 117 117 117
20.292882919312 35.093750000000 5.033004760742 116 116 116
20.309009552002 35.100463867188 5.085006713867 109 109 109
20.313316345215 35.117393493652 5.137008666992 128 128 128
20.309009552002 35.100463867188 5.192001342773 119 119 119
20.309009552002 35.100463867188 5.246002197266 114 114 114
20.309009552002 35.100463867188 5.298995971680 122 122 122
20.313316345215 35.117393493652 5.350997924805 132 132 132
20.313316345215 35.117393493652 5.404998779297 120 120 120
20.333751678467 35.141036987305 5.453002929688 151 151 151
20.327842712402 35.146144866943 5.505996704102 152 152 152
20.313316345215 35.117393493652 5.564010620117 127 127 127
20.349878311157 35.147750854492 5.611999511719 119 119 119
20.313316345215 35.117393493652 5.671005249023 92 92 92
20.380531311035 35.183212280273 5.712997436523 109 109 109
20.354187011719 35.164680480957 5.768005371094 96 96 96
20.390747070313 35.195034027100 5.817001342773 128 128 128
20.427310943604 35.225391387939 5.863006591797 81 81 81
20.354187011719 35.164680480957 5.930999755859 76 76 76
20.278356552124 35.064998626709 3.332000732422 78 78 78
20.162076950073 34.607887268066 4.884002685547 96 96 96
20.166383743286 34.624816894531 4.938003540039 142 142 142
20.172294616699 34.619705200195 4.995010375977 140 140 140
20.166383743286 34.624816894531 5.050003051758 135 135 135
20.198638916016 34.638240814209 5.104003906250 107 107 107
20.213165283203 34.666992187500 5.380004882813 52 52 52
20.213165283203 34.666992187500 5.436996459961 165 165 165
20.208858489990 34.650062561035 5.494003295898 156 156 156
20.208858489990 34.650062561035 5.550003051758 122 122 122
20.219074249268 34.661884307861 5.604003906250 108 108 108
20.222129821777 35.609256744385 5.673004150391 68 68 68
20.238258361816 35.615966796875 5.611999511719 224 224 224
20.222129821777 35.609256744385 5.553009033203 228 228 228
20.222129821777 35.609256744385 5.494003295898 222 222 222
20.210308074951 35.619476318359 5.434005737305 210 210 210
20.238258361816 35.615966796875 5.074996948242 50 50 50
20.238258361816 35.615966796875 5.014999389648 206 206 206
20.222129821777 35.609256744385 4.956008911133 206 206 206
20.222129821777 35.609256744385 4.897003173828 221 221 221
20.222129821777 35.609256744385 4.837997436523 175 175 175
20.226346969604 35.399085998535 5.539001464844 174 174 174
20.226346969604 35.399085998535 5.477996826172 232 232 232
20.226346969604 35.399085998535 5.416000366211 216 216 216
20.226346969604 35.399085998535 5.356002807617 211 211 211
20.226346969604 35.399085998535 5.296005249023 127 127 127
20.226346969604 35.399085998535 5.173995971680 175 175 175
20.226346969604 35.399085998535 5.113006591797 211 211 211
20.226346969604 35.399085998535 5.053009033203 202 202 202
20.220438003540 35.404193878174 4.992996215820 207 207 207
20.220438003540 35.404193878174 4.932006835938 116 116 116
20.085502624512 35.355602264404 4.570999145508 149 149 149
20.085502624512 35.355602264404 4.510009765625 149 149 149
20.091411590576 35.350494384766 4.449005126953 158 158 158
20.091411590576 35.350494384766 4.388000488281 149 149 149
20.085502624512 35.355602264404 4.327011108398 150 150 150
20.085502624512 35.355602264404 4.266006469727 149 149 149
20.091411590576 35.350494384766 4.204010009766 100 100 100
20.397758483887 35.250934600830 5.880996704102 75 75 75
20.148321151733 35.177391052246 5.856002807617 49 49 49
20.305295944214 35.227588653564 5.770004272461 26 26 26
20.230567932129 35.188915252686 5.408004760742 211 211 211
20.230567932129 35.188915252686 5.347000122070 216 216 216
20.224655151367 35.194023132324 5.286010742188 210 210 210
20.230567932129 35.188915252686 5.223007202148 208 208 208
20.230567932129 35.188915252686 5.162002563477 205 205 205
20.234874725342 35.205844879150 5.100006103516 201 201 201
20.077899932861 35.155647277832 4.611007690430 145 145 145
20.071989059448 35.160758972168 4.548995971680 154 154 154
20.077899932861 35.155647277832 4.486007690430 154 154 154
20.174667358398 35.195922851563 4.423995971680 178 178 178
20.116065979004 35.163963317871 4.361999511719 133 133 133
20.116065979004 35.163963317871 4.300003051758 130 130 130
20.174667358398 35.195922851563 4.238998413086 181 181 181
20.071989059448 35.160758972168 4.175003051758 140 140 140
20.077899932861 35.155647277832 4.111999511719 125 125 125
20.071989059448 35.160758972168 4.050003051758 153 153 153
20.071989059448 35.160758972168 3.986999511719 156 156 156
20.045642852783 35.142223358154 3.923995971680 13 13 13
20.428321838379 35.059299468994 5.941009521484 79 79 79
20.492835998535 35.086147308350 5.869003295898 95 95 95
20.396064758301 35.045871734619 5.822006225586 89 89 89
20.422412872314 35.064407348633 5.755004882813 98 98 98
20.396064758301 35.045871734619 5.511001586914 146 146 146
20.239091873169 34.995674133301 5.401000976563 196 196 196
20.217052459717 34.994071960449 5.339004516602 201 201 201
20.239091873169 34.995674133301 5.276000976563 201 201 201
20.239091873169 34.995674133301 5.212997436523 202 202 202
20.217052459717 34.994071960449 5.152008056641 210 210 210
20.200925827026 34.987358093262 5.089996337891 163 163 163
20.070295333862 34.955696105957 4.652999877930 13 13 13
20.054168701172 34.948982238770 4.589996337891 143 143 143
20.082117080688 34.945480346680 4.527008056641 147 147 147
20.092334747314 34.957298278809 4.462997436523 105 105 105
20.217052459717 34.994071960449 4.401000976563 153 153 153
20.146629333496 34.972328186035 4.337997436523 130 130 130
20.162757873535 34.979042053223 4.275009155273 183 183 183
20.092334747314 34.957298278809 4.210006713867 181 181 181
20.043952941895 34.937160491943 4.145004272461 163 163 163
20.043952941895 34.937160491943 4.082000732422 157 157 157
20.021911621094 34.935558319092 4.018005371094 165 165 165
20.076206207275 34.950584411621 3.956008911133 11 11 11
20.221271514893 34.783897399902 5.583007812500 69 69 69
20.221271514893 34.783897399902 5.518005371094 203 203 203
20.221271514893 34.783897399902 5.453002929688 198 198 198
20.221271514893 34.783897399902 5.389999389648 201 201 201
20.221271514893 34.783897399902 5.324996948242 141 141 141
20.215362548828 34.789009094238 5.199996948242 193 193 193
20.209449768066 34.794116973877 5.136001586914 215 215 215
20.221271514893 34.783897399902 5.070999145508 213 213 213
20.215362548828 34.789009094238 5.008010864258 207 207 207
20.026130676270 34.725387573242 4.499008178711 93 93 93
20.004093170166 34.723781585693 4.434997558594 105 105 105
20.004093170166 34.723781585693 4.370010375977 92 92 92
20.225490570068 34.573730468750 5.693008422852 124 124 124
20.219579696655 34.578838348389 5.628997802734 205 205 205
20.219579696655 34.578838348389 5.563003540039 194 194 194
20.219579696655 34.578838348389 5.499008178711 194 194 194
20.219579696655 34.578838348389 5.434005737305 5 5 5
20.193233489990 34.560302734375 5.109008789063 125 125 125
20.193233489990 34.560302734375 5.044006347656 217 217 217
20.193233489990 34.560302734375 4.980010986328 212 212 212
20.181415557861 34.570522308350 4.915008544922 220 220 220
20.181415557861 34.570522308350 4.850006103516 64 64 64
19.827957153320 35.165153503418 4.202011108398 14 14 14
19.866214752197 35.400569915771 4.449996948242 11 11 11
19.856500625610 35.305702209473 4.512008666992 15 15 15
20.010684967041 35.089828491211 3.929000854492 8 8 8
20.025207519531 35.118579864502 3.992004394531 40 40 40
20.032217025757 35.174480438232 4.055999755859 76 76 76
20.040832519531 35.208339691162 4.117996215820 91 91 91
20.039226531982 35.230377197266 4.180007934570 79 79 79
20.043533325195 35.247306823730 4.240997314453 88 88 88
20.053750991821 35.259128570557 4.302001953125 116 116 116
20.082294464111 35.399681091309 4.363998413086 111 111 111
20.086601257324 35.416610717773 4.423995971680 159 159 159
20.082294464111 35.399681091309 4.484008789063 133 133 133
20.056453704834 35.298095703125 4.544998168945 101 101 101
20.043533325195 35.247306823730 4.607009887695 55 55 55
20.211143493652 34.999179840088 2.591003417969 173 173 173
20.200925827026 34.987358093262 2.652999877930 199 199 199
20.205232620239 35.004287719727 2.718002319336 203 203 203
20.211143493652 34.999179840088 2.781005859375 199 199 199
20.219757080078 35.033039093018 2.846008300781 189 189 189
20.219757080078 35.033039093018 2.908996582031 179 179 179
20.213846206665 35.038146972656 2.975006103516 158 158 158
20.207935333252 35.043258666992 3.038009643555 149 149 149
20.212242126465 35.060188293457 3.100997924805 153 153 153
20.234279632568 35.061790466309 3.164001464844 134 134 134
20.228370666504 35.066898345947 3.227005004883 133 133 133
20.228370666504 35.066898345947 3.289001464844 144 144 144
20.228370666504 35.066898345947 3.350006103516 139 139 139
20.234279632568 35.061790466309 3.411010742188 143 143 143
20.234279632568 35.061790466309 3.472000122070 135 135 135
20.228370666504 35.066898345947 3.535003662109 143 143 143
20.228370666504 35.066898345947 3.596008300781 154 154 154
20.228370666504 35.066898345947 3.658004760742 158 158 158
20.228370666504 35.066898345947 3.719009399414 152 152 152
20.228370666504 35.066898345947 3.779998779297 147 147 147
20.228370666504 35.066898345947 3.842010498047 155 155 155
20.228370666504 35.066898345947 3.902999877930 144 144 144
20.222457885742 35.072010040283 3.964004516602 144 144 144
20.232677459717 35.083831787109 4.026000976563 143 143 143
20.228370666504 35.066898345947 4.085998535156 145 145 145
20.222457885742 35.072010040283 4.147003173828 151 151 151
20.222457885742 35.072010040283 4.208007812500 154 154 154
20.222457885742 35.072010040283 4.268997192383 146 146 146
20.222457885742 35.072010040283 4.330001831055 141 141 141
20.222457885742 35.072010040283 4.391006469727 141 141 141
20.232677459717 35.083831787109 4.452011108398 141 141 141
20.222457885742 35.072010040283 4.513000488281 143 143 143
20.232677459717 35.083831787109 4.574005126953 141 141 141
20.232677459717 35.083831787109 4.635009765625 154 154 154
20.232677459717 35.083831787109 4.695999145508 154 154 154
20.226764678955 35.088939666748 4.757003784180 143 143 143
20.232677459717 35.083831787109 4.818008422852 155 155 155
20.232677459717 35.083831787109 4.878997802734 150 150 150
20.226764678955 35.088939666748 4.940002441406 145 145 145
20.232677459717 35.083831787109 5.001007080078 148 148 148
20.226764678955 35.088939666748 5.061996459961 140 140 140
20.226764678955 35.088939666748 5.123001098633 141 141 141
20.226764678955 35.088939666748 5.184005737305 146 146 146
