7.894066810608 16.723819732666 46.069000244141 80 80 80
7.906115531921 16.785146713257 45.968017578125 9 9 9
7.562248229980 16.980094909668 45.355010986328 4 4 4
7.623575210571 16.968046188354 45.250000000000 32 32 32
7.918164253235 16.846473693848 46.697021484375 98 98 98
7.918164253235 16.846473693848 46.595001220703 117 117 117
7.918164253235 16.846473693848 46.490997314453 101 101 101
7.856837272644 16.858522415161 46.188018798828 34 34 34
7.856837272644 16.858522415161 46.083007812500 97 97 97
7.918164253235 16.846473693848 45.980010986328 91 91 91
7.918164253235 16.846473693848 45.877014160156 90 90 90
7.856837272644 16.858522415161 45.776000976563 33 33 33
7.709001541138 17.078651428223 45.470001220703 6 6 6
7.758279800415 17.005275726318 45.365997314453 108 108 108
7.758279800415 17.005275726318 45.261016845703 117 117 117
7.819606781006 16.993227005005 45.158020019531 106 106 106
7.819606781006 16.993227005005 45.054016113281 64 64 64
7.892984390259 17.042505264282 46.611999511719 30 30 30
7.892984390259 17.042505264282 46.509002685547 103 103 103
7.892984390259 17.042505264282 46.404022216797 103 103 103
7.892984390259 17.042505264282 46.200012207031 95 95 95
7.831655502319 17.054553985596 46.097015380859 99 99 99
7.892984390259 17.042505264282 45.993011474609 100 100 100
7.892984390259 17.042505264282 45.889007568359 99 99 99
7.733098983765 17.201307296753 45.479003906250 5 5 5
7.733098983765 17.201307296753 45.374023437500 100 100 100
7.855753898621 17.177209854126 45.270019531250 104 104 104
7.733098983765 17.201307296753 45.164001464844 99 99 99
7.794425964355 17.189258575439 45.059997558594 123 123 123
7.794425964355 17.189258575439 44.954010009766 87 87 87
7.794425964355 17.189258575439 44.848999023438 91 91 91
7.855753898621 17.177209854126 46.519012451172 11 11 11
7.855753898621 17.177209854126 46.417999267578 108 108 108
7.855753898621 17.177209854126 46.313018798828 104 104 104
7.867802619934 17.238536834717 46.210021972656 107 107 107
7.855753898621 17.177209854126 46.105010986328 114 114 114
7.867802619934 17.238536834717 46.002014160156 102 102 102
7.867802619934 17.238536834717 45.897003173828 25 25 25
7.818524360657 17.311914443970 45.481994628906 26 26 26
7.757196426392 17.323963165283 45.378021240234 117 117 117
7.867802619934 17.238536834717 45.274017333984 120 120 120
7.867802619934 17.238536834717 45.171020507813 120 120 120
7.879851341248 17.299865722656 45.066009521484 108 108 108
7.818524360657 17.311914443970 44.960998535156 118 118 118
7.818524360657 17.311914443970 44.856018066406 112 112 112
7.879851341248 17.299865722656 44.755004882813 79 79 79
7.879851341248 17.299865722656 44.649017333984 87 87 87
7.879851341248 17.299865722656 44.545013427734 82 82 82
7.879851341248 17.299865722656 44.441009521484 91 91 91
7.879851341248 17.299865722656 44.335998535156 91 91 91
7.879851341248 17.299865722656 44.230010986328 94 94 94
7.879851341248 17.299865722656 44.124023437500 94 94 94
7.879851341248 17.299865722656 44.018005371094 105 105 105
7.879851341248 17.299865722656 43.911010742188 108 108 108
7.879851341248 17.299865722656 43.805023193359 112 112 112
7.879851341248 17.299865722656 43.699005126953 112 112 112
7.879851341248 17.299865722656 43.591003417969 128 128 128
7.879851341248 17.299865722656 43.483001708984 119 119 119
7.879851341248 17.299865722656 43.369995117188 133 133 133
7.879851341248 17.299865722656 43.266998291016 148 148 148
7.879851341248 17.299865722656 43.160003662109 146 146 146
7.891901016235 17.361192703247 46.627014160156 135 135 135
7.891901016235 17.361192703247 46.520996093750 136 136 136
7.891901016235 17.361192703247 46.416015625000 127 127 127
7.891901016235 17.361192703247 46.312011718750 121 121 121
7.891901016235 17.361192703247 46.205993652344 118 118 118
7.891901016235 17.361192703247 46.102020263672 119 119 119
7.891901016235 17.361192703247 45.998016357422 120 120 120
7.879851341248 17.299865722656 45.894012451172 119 119 119
7.879851341248 17.299865722656 45.790008544922 126 126 126
7.879851341248 17.299865722656 45.687011718750 125 125 125
7.879851341248 17.299865722656 45.584014892578 129 129 129
7.941179275513 17.287817001343 45.481018066406 134 134 134
7.941179275513 17.287817001343 45.378021240234 134 134 134
7.941179275513 17.287817001343 45.274993896484 138 138 138
7.941179275513 17.287817001343 45.171997070313 134 134 134
7.941179275513 17.287817001343 45.069000244141 137 137 137
7.941179275513 17.287817001343 44.966003417969 131 131 131
7.941179275513 17.287817001343 44.863006591797 129 129 129
7.941179275513 17.287817001343 44.760009765625 130 130 130
7.941179275513 17.287817001343 44.656005859375 134 134 134
7.941179275513 17.287817001343 44.553009033203 134 134 134
7.941179275513 17.287817001343 44.449005126953 142 142 142
7.941179275513 17.287817001343 44.347015380859 138 138 138
7.941179275513 17.287817001343 44.240997314453 133 133 133
7.941179275513 17.287817001343 44.138000488281 130 130 130
7.941179275513 17.287817001343 44.033020019531 125 125 125
7.941179275513 17.287817001343 43.927001953125 117 117 117
7.941179275513 17.287817001343 43.821014404297 114 114 114
7.941179275513 17.287817001343 43.716003417969 112 112 112
7.941179275513 17.287817001343 43.609008789063 112 112 112
7.941179275513 17.287817001343 43.497009277344 133 133 133
7.965277671814 17.410470962524 43.384002685547 147 147 147
7.903949737549 17.422519683838 43.261016845703 176 176 176
7.903949737549 17.422519683838 43.154022216797 119 119 119
7.965277671814 17.410470962524 46.716003417969 10 10 10
7.805392265320 17.569272994995 46.536010742188 71 71 71
7.866720199585 17.557224273682 46.421997070313 102 102 102
7.805392265320 17.569272994995 46.321014404297 74 74 74
7.805392265320 17.569272994995 46.214996337891 105 105 105
7.805392265320 17.569272994995 46.110015869141 108 108 108
7.805392265320 17.569272994995 46.005004882813 103 103 103
7.805392265320 17.569272994995 45.899017333984 100 100 100
7.768162727356 17.703977584839 46.536010742188 91 91 91
7.768162727356 17.703977584839 46.428009033203 92 92 92
7.829490661621 17.691928863525 46.210998535156 55 55 55
7.829490661621 17.691928863525 46.106994628906 107 107 107
7.768162727356 17.703977584839 46.001007080078 104 104 104
7.768162727356 17.703977584839 45.895019531250 98 98 98
7.768162727356 17.703977584839 45.789001464844 116 116 116
7.768162727356 17.703977584839 43.209014892578 164 164 164
7.928047180176 17.545175552368 43.141998291016 158 158 158
7.718883514404 17.777353286743 46.644012451172 93 93 93
7.730932235718 17.838682174683 46.539001464844 88 88 88
7.718883514404 17.777353286743 46.104003906250 85 85 85
7.718883514404 17.777353286743 45.999023437500 108 108 108
7.718883514404 17.777353286743 45.891998291016 55 55 55
7.906115531921 16.785146713257 45.942993164063 213 213 213
7.906115531921 16.785146713257 46.044006347656 213 213 213
7.906115531921 16.785146713257 46.559997558594 213 213 213
7.906115531921 16.785146713257 46.664001464844 208 208 208
7.856837272644 16.858522415161 45.850006103516 215 215 215
7.856837272644 16.858522415161 45.954010009766 216 216 216
7.856837272644 16.858522415161 46.057006835938 217 217 217
7.856837272644 16.858522415161 46.160003662109 214 214 214
7.856837272644 16.858522415161 46.470001220703 213 213 213
7.856837272644 16.858522415161 46.575012207031 212 212 212
7.856837272644 16.858522415161 46.679016113281 164 164 164
7.807558059692 16.931900024414 45.136993408203 99 99 99
7.746231079102 16.943948745728 45.240997314453 195 195 195
7.746231079102 16.943948745728 45.345001220703 137 137 137
7.892984390259 17.042505264282 45.757995605469 147 147 147
7.892984390259 17.042505264282 45.861022949219 228 228 228
7.892984390259 17.042505264282 45.964019775391 227 227 227
7.892984390259 17.042505264282 46.067993164063 216 216 216
7.892984390259 17.042505264282 46.171997070313 219 219 219
7.892984390259 17.042505264282 46.378997802734 208 208 208
7.892984390259 17.042505264282 46.483001708984 212 212 212
7.892984390259 17.042505264282 46.588012695313 207 207 207
7.831655502319 17.054553985596 44.932006835938 99 99 99
7.831655502319 17.054553985596 45.037994384766 210 210 210
7.770328521729 17.066602706909 45.141021728516 163 163 163
7.831655502319 17.054553985596 45.246002197266 199 199 199
7.709001541138 17.078651428223 45.350006103516 207 207 207
7.709001541138 17.078651428223 45.455017089844 121 121 121
7.843705177307 17.115882873535 45.868011474609 226 226 226
7.843705177307 17.115882873535 45.971008300781 224 224 224
7.843705177307 17.115882873535 46.076995849609 219 219 219
7.843705177307 17.115882873535 46.180999755859 216 216 216
7.843705177307 17.115882873535 46.285003662109 213 213 213
7.843705177307 17.115882873535 46.390014648438 214 214 214
7.843705177307 17.115882873535 46.494018554688 212 212 212
7.794425964355 17.189258575439 44.824005126953 198 198 198
7.794425964355 17.189258575439 44.929016113281 195 195 195
7.794425964355 17.189258575439 45.033996582031 203 203 203
7.794425964355 17.189258575439 45.141021728516 175 175 175
7.867802619934 17.238536834717 45.246002197266 160 160 160
7.721050262451 17.139980316162 45.350006103516 202 202 202
7.721050262451 17.139980316162 45.455017089844 160 160 160
7.867802619934 17.238536834717 45.871002197266 97 97 97
7.867802619934 17.238536834717 45.975006103516 226 226 226
7.867802619934 17.238536834717 46.080017089844 216 216 216
7.867802619934 17.238536834717 46.184997558594 217 217 217
7.867802619934 17.238536834717 46.289001464844 215 215 215
7.867802619934 17.238536834717 46.394012451172 215 215 215
7.867802619934 17.238536834717 46.498016357422 76 76 76
7.879851341248 17.299865722656 43.348999023438 105 105 105
7.941179275513 17.287817001343 43.460021972656 110 110 110
7.891901016235 17.361192703247 43.559997558594 117 117 117
7.879851341248 17.299865722656 43.671997070313 112 112 112
7.879851341248 17.299865722656 43.779998779297 109 109 109
7.879851341248 17.299865722656 43.888000488281 112 112 112
7.941179275513 17.287817001343 43.996002197266 114 114 114
7.891901016235 17.361192703247 44.097015380859 106 106 106
7.891901016235 17.361192703247 44.201995849609 106 106 106
7.891901016235 17.361192703247 44.307006835938 104 104 104
7.891901016235 17.361192703247 44.412017822266 91 91 91
7.891901016235 17.361192703247 44.516998291016 105 105 105
7.891901016235 17.361192703247 44.619995117188 95 95 95
7.891901016235 17.361192703247 44.723999023438 101 101 101
7.891901016235 17.361192703247 44.829010009766 99 99 99
7.891901016235 17.361192703247 44.932006835938 100 100 100
7.891901016235 17.361192703247 45.037017822266 113 113 113
7.891901016235 17.361192703247 45.139007568359 116 116 116
7.891901016235 17.361192703247 45.244018554688 111 111 111
7.891901016235 17.361192703247 45.347015380859 107 107 107
7.891901016235 17.361192703247 45.451019287109 108 108 108
7.891901016235 17.361192703247 45.555023193359 98 98 98
7.891901016235 17.361192703247 45.658996582031 94 94 94
7.891901016235 17.361192703247 45.763000488281 100 100 100
7.891901016235 17.361192703247 45.865997314453 99 99 99
7.965277671814 17.410470962524 45.968017578125 224 224 224
7.891901016235 17.361192703247 46.076019287109 123 123 123
7.965277671814 17.410470962524 46.175018310547 215 215 215
7.891901016235 17.361192703247 46.283996582031 124 124 124
7.965277671814 17.410470962524 46.384002685547 215 215 215
7.903949737549 17.422519683838 46.490020751953 89 89 89
7.903949737549 17.422519683838 46.596008300781 100 100 100
7.903949737549 17.422519683838 46.701019287109 51 51 51
7.903949737549 17.422519683838 43.111999511719 162 162 162
7.757196426392 17.323963165283 43.186004638672 177 177 177
7.707918167114 17.397338867188 44.805999755859 205 205 205
7.707918167114 17.397338867188 44.912994384766 210 210 210
7.707918167114 17.397338867188 45.019012451172 200 200 200
7.781294822693 17.446617126465 45.128021240234 197 197 197
7.781294822693 17.446617126465 45.234008789063 189 189 189
7.634541511536 17.348060607910 45.339019775391 197 197 197
7.634541511536 17.348060607910 45.446014404297 188 188 188
7.781294822693 17.446617126465 45.970001220703 216 216 216
7.781294822693 17.446617126465 46.076019287109 215 215 215
7.842621803284 17.434568405151 46.180999755859 215 215 215
7.781294822693 17.446617126465 46.287994384766 214 214 214
7.781294822693 17.446617126465 46.395996093750 217 217 217
7.658638954163 17.470714569092 44.903015136719 201 201 201
7.658638954163 17.470714569092 45.010009765625 202 202 202
7.658638954163 17.470714569092 45.117004394531 208 208 208
7.719966888428 17.458665847778 45.225006103516 184 184 184
7.658638954163 17.470714569092 45.330993652344 201 201 201
7.658638954163 17.470714569092 45.438995361328 180 180 180
7.805392265320 17.569272994995 45.860015869141 214 214 214
7.805392265320 17.569272994995 45.966003417969 215 215 215
7.805392265320 17.569272994995 46.072998046875 216 216 216
7.805392265320 17.569272994995 46.179016113281 214 214 214
7.805392265320 17.569272994995 46.285003662109 214 214 214
7.793343544006 17.507946014404 46.394012451172 216 216 216
7.793343544006 17.507946014404 46.501007080078 215 215 215
7.817440986633 17.630599975586 43.283020019531 22 22 22
7.682737350464 17.593370437622 45.002014160156 150 150 150
7.682737350464 17.593370437622 45.110015869141 200 200 200
7.682737350464 17.593370437622 45.218017578125 212 212 212
7.609360694885 17.544092178345 45.326019287109 210 210 210
7.682737350464 17.593370437622 45.434020996094 146 146 146
7.817440986633 17.630599975586 45.858001708984 218 218 218
7.817440986633 17.630599975586 45.964019775391 216 216 216
7.817440986633 17.630599975586 46.070007324219 216 216 216
7.817440986633 17.630599975586 46.177001953125 216 216 216
7.829490661621 17.691928863525 46.393005371094 219 219 219
7.829490661621 17.691928863525 46.501007080078 217 217 217
7.645507812500 17.728075027466 45.213012695313 193 193 193
7.633458137512 17.666746139526 45.322021484375 137 137 137
7.768162727356 17.703977584839 45.750000000000 208 208 208
7.768162727356 17.703977584839 45.856994628906 216 216 216
7.768162727356 17.703977584839 45.963012695313 217 217 217
7.768162727356 17.703977584839 46.070007324219 216 216 216
7.768162727356 17.703977584839 46.177001953125 193 193 193
7.706834793091 17.716026306152 46.395996093750 208 208 208
7.706834793091 17.716026306152 46.503021240234 218 218 218
7.706834793091 17.716026306152 46.611999511719 215 215 215
7.718883514404 17.777353286743 45.860015869141 119 119 119
7.718883514404 17.777353286743 45.968017578125 216 216 216
7.718883514404 17.777353286743 46.076019287109 216 216 216
7.730932235718 17.838682174683 46.511016845703 218 218 218
7.718883514404 17.777353286743 46.619018554688 217 217 217
7.742981910706 17.900011062622 45.979003906250 158 158 158
7.681653976440 17.912059783936 46.524993896484 211 211 211
7.882018089294 16.662492752075 46.014007568359 86 86 86
7.882018089294 16.662492752075 46.552001953125 83 83 83
7.906115531921 16.785146713257 45.930023193359 176 176 176
7.906115531921 16.785146713257 46.019012451172 173 173 173
7.906115531921 16.785146713257 46.109008789063 173 173 173
7.906115531921 16.785146713257 46.471008300781 79 79 79
7.906115531921 16.785146713257 46.559997558594 182 182 182
7.906115531921 16.785146713257 46.652008056641 197 197 197
7.906115531921 16.785146713257 46.746002197266 16 16 16
7.807558059692 16.931900024414 45.128997802734 64 64 64
7.807558059692 16.931900024414 45.218994140625 156 156 156
7.807558059692 16.931900024414 45.309020996094 158 158 158
7.746231079102 16.943948745728 45.399993896484 76 76 76
7.795509338379 16.870571136475 45.753997802734 199 199 199
7.856837272644 16.858522415161 45.842010498047 178 178 178
7.856837272644 16.858522415161 45.932006835938 170 170 170
7.856837272644 16.858522415161 46.023010253906 179 179 179
7.856837272644 16.858522415161 46.111999511719 167 167 167
7.856837272644 16.858522415161 46.205017089844 111 111 111
7.856837272644 16.858522415161 46.386993408203 16 16 16
7.856837272644 16.858522415161 46.473999023438 178 178 178
7.856837272644 16.858522415161 46.566009521484 175 175 175
7.930213928223 16.907802581787 46.654998779297 100 100 100
7.770328521729 17.066602706909 44.942016601563 109 109 109
7.819606781006 16.993227005005 45.033996582031 133 133 133
7.770328521729 17.066602706909 45.123016357422 152 152 152
7.770328521729 17.066602706909 45.214019775391 147 147 147
7.770328521729 17.066602706909 45.305023193359 142 142 142
7.709001541138 17.078651428223 45.395996093750 162 162 162
7.892984390259 17.042505264282 45.841003417969 172 172 172
7.892984390259 17.042505264282 45.930023193359 168 168 168
7.892984390259 17.042505264282 46.022003173828 171 171 171
7.892984390259 17.042505264282 46.113006591797 172 172 172
7.892984390259 17.042505264282 46.204010009766 167 167 167
7.892984390259 17.042505264282 46.385009765625 180 180 180
7.892984390259 17.042505264282 46.477020263672 178 178 178
7.892984390259 17.042505264282 46.567993164063 156 156 156
7.794425964355 17.189258575439 44.842010498047 156 156 156
7.794425964355 17.189258575439 44.934020996094 152 152 152
7.721050262451 17.139980316162 45.024017333984 147 147 147
7.794425964355 17.189258575439 45.115997314453 131 131 131
7.721050262451 17.139980316162 45.207000732422 146 146 146
7.721050262451 17.139980316162 45.298004150391 154 154 154
7.721050262451 17.139980316162 45.390014648438 165 165 165
7.855753898621 17.177209854126 45.929016113281 172 172 172
7.843705177307 17.115882873535 46.020019531250 173 173 173
7.855753898621 17.177209854126 46.111999511719 175 175 175
7.855753898621 17.177209854126 46.203002929688 171 171 171
7.843705177307 17.115882873535 46.292022705078 176 176 176
7.843705177307 17.115882873535 46.386016845703 184 184 184
7.843705177307 17.115882873535 46.476013183594 174 174 174
7.879851341248 17.299865722656 43.188995361328 150 150 150
7.867802619934 17.238536834717 43.287017822266 123 123 123
7.879851341248 17.299865722656 43.378997802734 124 124 124
7.879851341248 17.299865722656 43.472015380859 136 136 136
7.879851341248 17.299865722656 43.563995361328 150 150 150
7.879851341248 17.299865722656 43.656005859375 145 145 145
7.879851341248 17.299865722656 43.748016357422 152 152 152
7.879851341248 17.299865722656 43.839019775391 151 151 151
7.879851341248 17.299865722656 43.933013916016 152 152 152
7.879851341248 17.299865722656 44.024993896484 154 154 154
7.879851341248 17.299865722656 44.117004394531 145 145 145
7.879851341248 17.299865722656 44.208007812500 153 153 153
7.879851341248 17.299865722656 44.299011230469 156 156 156
7.879851341248 17.299865722656 44.390014648438 144 144 144
7.879851341248 17.299865722656 44.480010986328 149 149 149
7.879851341248 17.299865722656 44.571014404297 150 150 150
7.879851341248 17.299865722656 44.661010742188 149 149 149
7.879851341248 17.299865722656 44.751007080078 144 144 144
7.879851341248 17.299865722656 44.841003417969 147 147 147
7.879851341248 17.299865722656 44.930023193359 148 148 148
7.879851341248 17.299865722656 45.020019531250 145 145 145
7.879851341248 17.299865722656 45.110015869141 147 147 147
7.879851341248 17.299865722656 45.200012207031 150 150 150
7.879851341248 17.299865722656 45.290008544922 147 147 147
7.879851341248 17.299865722656 45.380004882813 147 147 147
7.879851341248 17.299865722656 45.470001220703 148 148 148
7.879851341248 17.299865722656 45.559997558594 150 150 150
7.879851341248 17.299865722656 45.651000976563 143 143 143
7.879851341248 17.299865722656 45.740997314453 139 139 139
7.879851341248 17.299865722656 45.832000732422 137 137 137
7.879851341248 17.299865722656 45.923004150391 135 135 135
7.879851341248 17.299865722656 46.015014648438 143 143 143
7.879851341248 17.299865722656 46.106018066406 142 142 142
7.879851341248 17.299865722656 46.199005126953 137 137 137
7.879851341248 17.299865722656 46.287994384766 139 139 139
7.879851341248 17.299865722656 46.381011962891 136 136 136
7.879851341248 17.299865722656 46.475006103516 146 146 146
7.879851341248 17.299865722656 46.567993164063 147 147 147
7.818524360657 17.311914443970 46.662017822266 127 127 127
7.646590232849 17.409387588501 44.826019287109 72 72 72
7.646590232849 17.409387588501 44.919006347656 159 159 159
7.646590232849 17.409387588501 45.011016845703 160 160 160
7.646590232849 17.409387588501 45.104003906250 181 181 181
7.646590232849 17.409387588501 45.196014404297 141 141 141
7.646590232849 17.409387588501 45.287994384766 142 142 142
7.646590232849 17.409387588501 45.382019042969 169 169 169
7.781294822693 17.446617126465 45.925994873047 183 183 183
7.781294822693 17.446617126465 46.016998291016 181 181 181
7.781294822693 17.446617126465 46.111022949219 183 183 183
7.781294822693 17.446617126465 46.201995849609 181 181 181
7.781294822693 17.446617126465 46.295013427734 177 177 177
7.781294822693 17.446617126465 46.390014648438 167 167 167
7.781294822693 17.446617126465 46.484008789063 103 103 103
7.609360694885 17.544092178345 45.101013183594 145 145 145
7.609360694885 17.544092178345 45.195007324219 177 177 177
7.609360694885 17.544092178345 45.287994384766 200 200 200
7.609360694885 17.544092178345 45.382019042969 148 148 148
7.805392265320 17.569272994995 45.835998535156 184 184 184
7.793343544006 17.507946014404 45.929016113281 179 179 179
7.793343544006 17.507946014404 46.022003173828 179 179 179
7.793343544006 17.507946014404 46.114013671875 179 179 179
7.793343544006 17.507946014404 46.207000732422 174 174 174
7.793343544006 17.507946014404 46.303009033203 94 94 94
7.793343544006 17.507946014404 46.395019531250 170 170 170
7.793343544006 17.507946014404 46.490020751953 162 162 162
7.768162727356 17.703977584839 45.751007080078 171 171 171
7.768162727356 17.703977584839 45.843994140625 180 180 180
7.768162727356 17.703977584839 45.936004638672 181 181 181
7.768162727356 17.703977584839 46.029022216797 175 175 175
7.768162727356 17.703977584839 46.124023437500 176 176 176
7.768162727356 17.703977584839 46.407012939453 169 169 169
7.768162727356 17.703977584839 46.501007080078 160 160 160
7.768162727356 17.703977584839 46.598022460938 157 157 157
7.718883514404 17.777353286743 45.852996826172 74 74 74
7.718883514404 17.777353286743 45.946014404297 177 177 177
7.718883514404 17.777353286743 46.041015625000 175 175 175
7.706834793091 17.716026306152 46.516021728516 167 167 167
7.706834793091 17.716026306152 46.611999511719 161 161 161
7.742981910706 17.900011062622 46.621002197266 16 16 16
7.742981910706 17.900011062622 46.063018798828 29 29 29
7.706834793091 17.716026306152 46.609008789063 91 91 91
7.706834793091 17.716026306152 46.496002197266 92 92 92
7.706834793091 17.716026306152 46.161010742188 13 13 13
7.706834793091 17.716026306152 46.052001953125 107 107 107
7.706834793091 17.716026306152 45.941009521484 103 103 103
7.829490661621 17.691928863525 43.292999267578 84 84 84
7.768162727356 17.703977584839 46.595001220703 75 75 75
7.768162727356 17.703977584839 46.485015869141 92 92 92
7.768162727356 17.703977584839 46.373016357422 35 35 35
7.829490661621 17.691928863525 46.151000976563 100 100 100
7.768162727356 17.703977584839 46.042022705078 104 104 104
7.768162727356 17.703977584839 45.932006835938 97 97 97
7.768162727356 17.703977584839 45.822998046875 163 163 163
7.829490661621 17.691928863525 43.156005859375 141 141 141
7.965277671814 17.410470962524 46.665008544922 34 34 34
7.903949737549 17.422519683838 46.558013916016 14 14 14
7.793343544006 17.507946014404 46.470001220703 89 89 89
7.793343544006 17.507946014404 46.361999511719 93 93 93
7.842621803284 17.434568405151 46.246002197266 116 116 116
7.793343544006 17.507946014404 46.143005371094 106 106 106
7.793343544006 17.507946014404 46.033996582031 106 106 106
7.793343544006 17.507946014404 45.925018310547 106 106 106
7.732015609741 17.519994735718 45.817993164063 18 18 18
7.645507812500 17.728075027466 45.269012451172 83 83 83
7.879851341248 17.299865722656 46.671020507813 125 125 125
7.818524360657 17.311914443970 46.563995361328 125 125 125
7.879851341248 17.299865722656 46.454010009766 128 128 128
7.879851341248 17.299865722656 46.345001220703 121 121 121
7.879851341248 17.299865722656 46.236999511719 113 113 113
7.891901016235 17.361192703247 46.130004882813 120 120 120
7.891901016235 17.361192703247 46.022003173828 115 115 115
7.891901016235 17.361192703247 45.914001464844 120 120 120
7.891901016235 17.361192703247 45.808013916016 122 122 122
7.879851341248 17.299865722656 45.700012207031 120 120 120
7.879851341248 17.299865722656 45.593994140625 126 126 126
7.879851341248 17.299865722656 45.486999511719 133 133 133
7.879851341248 17.299865722656 45.380004882813 131 131 131
7.879851341248 17.299865722656 45.274017333984 133 133 133
7.879851341248 17.299865722656 45.167022705078 125 125 125
7.879851341248 17.299865722656 45.061004638672 122 122 122
7.879851341248 17.299865722656 44.954010009766 116 116 116
7.879851341248 17.299865722656 44.847015380859 126 126 126
7.879851341248 17.299865722656 44.740020751953 126 126 126
7.879851341248 17.299865722656 44.632995605469 127 127 127
7.941179275513 17.287817001343 44.526000976563 124 124 124
7.879851341248 17.299865722656 44.417022705078 137 137 137
7.941179275513 17.287817001343 44.311004638672 130 130 130
7.941179275513 17.287817001343 44.201995849609 127 127 127
7.879851341248 17.299865722656 44.093017578125 126 126 126
7.941179275513 17.287817001343 43.984008789063 119 119 119
7.941179275513 17.287817001343 43.875000000000 119 119 119
7.941179275513 17.287817001343 43.766021728516 118 118 118
7.941179275513 17.287817001343 43.656005859375 116 116 116
7.879851341248 17.299865722656 43.544006347656 125 125 125
7.879851341248 17.299865722656 43.430999755859 104 104 104
7.891901016235 17.361192703247 43.305999755859 150 150 150
7.891901016235 17.361192703247 43.190002441406 119 119 119
7.806474685669 17.250585556030 46.571014404297 7 7 7
7.867802619934 17.238536834717 46.457000732422 102 102 102
7.867802619934 17.238536834717 46.350006103516 122 122 122
7.867802619934 17.238536834717 46.240997314453 119 119 119
7.867802619934 17.238536834717 46.132019042969 109 109 109
7.867802619934 17.238536834717 46.024993896484 109 109 109
7.806474685669 17.250585556030 45.917999267578 89 89 89
7.867802619934 17.238536834717 45.809997558594 73 73 73
7.806474685669 17.250585556030 45.701995849609 81 81 81
7.806474685669 17.250585556030 45.595001220703 83 83 83
7.867802619934 17.238536834717 45.486999511719 85 85 85
7.806474685669 17.250585556030 45.378997802734 118 118 118
7.806474685669 17.250585556030 45.272003173828 119 119 119
7.806474685669 17.250585556030 45.164001464844 123 123 123
7.867802619934 17.238536834717 45.057006835938 109 109 109
7.806474685669 17.250585556030 44.947998046875 120 120 120
7.806474685669 17.250585556030 44.841003417969 123 123 123
7.806474685669 17.250585556030 44.733001708984 111 111 111
7.867802619934 17.238536834717 44.626007080078 119 119 119
7.806474685669 17.250585556030 44.516021728516 124 124 124
7.867802619934 17.238536834717 44.410003662109 117 117 117
7.867802619934 17.238536834717 44.300018310547 123 123 123
7.867802619934 17.238536834717 44.191009521484 128 128 128
7.867802619934 17.238536834717 44.082000732422 124 124 124
7.879851341248 17.299865722656 43.970001220703 130 130 130
7.879851341248 17.299865722656 43.861999511719 135 135 135
7.879851341248 17.299865722656 43.753021240234 135 135 135
7.879851341248 17.299865722656 43.640014648438 138 138 138
7.879851341248 17.299865722656 43.527008056641 143 143 143
7.879851341248 17.299865722656 43.417022705078 100 100 100
7.879851341248 17.299865722656 43.307006835938 143 143 143
7.879851341248 17.299865722656 43.196014404297 142 142 142
7.905033111572 17.103834152222 46.559997558594 18 18 18
7.843705177307 17.115882873535 46.455017089844 106 106 106
7.843705177307 17.115882873535 46.346008300781 111 111 111
7.855753898621 17.177209854126 46.242004394531 96 96 96
7.843705177307 17.115882873535 46.132995605469 97 97 97
7.843705177307 17.115882873535 46.024993896484 97 97 97
7.843705177307 17.115882873535 45.917999267578 102 102 102
7.683820724487 17.274682998657 45.380004882813 94 94 94
7.733098983765 17.201307296753 45.270996093750 97 97 97
7.794425964355 17.189258575439 45.164001464844 107 107 107
7.733098983765 17.201307296753 45.053009033203 100 100 100
7.733098983765 17.201307296753 44.944000244141 88 88 88
7.733098983765 17.201307296753 44.835021972656 92 92 92
7.819606781006 16.993227005005 46.561004638672 107 107 107
7.819606781006 16.993227005005 46.453002929688 107 107 107
7.819606781006 16.993227005005 46.240020751953 79 79 79
7.819606781006 16.993227005005 46.132019042969 95 95 95
7.819606781006 16.993227005005 46.024993896484 92 92 92
7.819606781006 16.993227005005 45.917022705078 101 101 101
7.819606781006 16.993227005005 45.811004638672 95 95 95
7.721050262451 17.139980316162 45.384002685547 109 109 109
7.770328521729 17.066602706909 45.276000976563 116 116 116
7.721050262451 17.139980316162 45.167022705078 112 112 112
7.831655502319 17.054553985596 45.061004638672 102 102 102
7.721050262451 17.139980316162 44.950012207031 88 88 88
7.721050262451 17.139980316162 44.839019775391 34 34 34
7.918164253235 16.846473693848 46.664001464844 142 142 142
7.856837272644 16.858522415161 46.558013916016 115 115 115
7.856837272644 16.858522415161 46.451019287109 53 53 53
7.856837272644 16.858522415161 46.131011962891 100 100 100
7.856837272644 16.858522415161 46.024017333984 96 96 96
7.856837272644 16.858522415161 45.917022705078 92 92 92
7.856837272644 16.858522415161 45.812011718750 118 118 118
7.684903144836 16.955997467041 45.385009765625 111 111 111
7.684903144836 16.955997467041 45.277008056641 114 114 114
7.746231079102 16.943948745728 45.169006347656 105 105 105
7.746231079102 16.943948745728 45.061004638672 60 60 60
7.906115531921 16.785146713257 46.662017822266 73 73 73
7.906115531921 16.785146713257 46.554016113281 92 92 92
7.906115531921 16.785146713257 46.130004882813 14 14 14
7.906115531921 16.785146713257 46.023010253906 140 140 140
7.906115531921 16.785146713257 45.917999267578 57 57 57
7.623575210571 16.968046188354 45.278015136719 47 47 47
7.562248229980 16.980094909668 45.276000976563 16 16 16
7.742981910706 17.900011062622 46.552001953125 57 57 57
7.706834793091 17.716026306152 45.863006591797 92 92 92
7.706834793091 17.716026306152 45.959014892578 183 183 183
7.706834793091 17.716026306152 46.055023193359 178 178 178
7.706834793091 17.716026306152 46.542999267578 167 167 167
7.706834793091 17.716026306152 46.643005371094 161 161 161
7.817440986633 17.630599975586 43.277008056641 189 189 189
7.768162727356 17.703977584839 45.759002685547 93 93 93
7.768162727356 17.703977584839 45.855010986328 184 184 184
7.768162727356 17.703977584839 45.951019287109 180 180 180
7.768162727356 17.703977584839 46.046997070313 183 183 183
7.768162727356 17.703977584839 46.141998291016 171 171 171
7.768162727356 17.703977584839 46.434997558594 170 170 170
7.768162727356 17.703977584839 46.532012939453 162 162 162
7.706834793091 17.716026306152 46.631011962891 144 144 144
7.621409416199 17.605419158936 45.183013916016 128 128 128
7.621409416199 17.605419158936 45.279022216797 180 180 180
7.805392265320 17.569272994995 45.750000000000 70 70 70
7.805392265320 17.569272994995 45.846008300781 189 189 189
7.805392265320 17.569272994995 45.941009521484 182 182 182
7.805392265320 17.569272994995 46.036010742188 185 185 185
7.805392265320 17.569272994995 46.131011962891 180 180 180
7.805392265320 17.569272994995 46.227020263672 157 157 157
7.805392265320 17.569272994995 46.326019287109 19 19 19
7.805392265320 17.569272994995 46.421997070313 169 169 169
7.805392265320 17.569272994995 46.520019531250 165 165 165
7.670688629150 17.532043457031 44.986022949219 135 135 135
7.670688629150 17.532043457031 45.080993652344 168 168 168
7.670688629150 17.532043457031 45.177001953125 165 165 165
7.670688629150 17.532043457031 45.272003173828 162 162 162
7.597311973572 17.482763290405 45.369018554688 170 170 170
7.781294822693 17.446617126465 45.837005615234 145 145 145
7.781294822693 17.446617126465 45.930999755859 183 183 183
7.781294822693 17.446617126465 46.027008056641 183 183 183
7.781294822693 17.446617126465 46.122009277344 181 181 181
7.781294822693 17.446617126465 46.217010498047 182 182 182
7.781294822693 17.446617126465 46.315002441406 177 177 177
7.781294822693 17.446617126465 46.410003662109 171 171 171
7.781294822693 17.446617126465 46.507019042969 138 138 138
7.695869445801 17.336011886597 44.791015625000 96 96 96
7.634541511536 17.348060607910 44.885009765625 162 162 162
7.634541511536 17.348060607910 44.981018066406 156 156 156
7.818524360657 17.311914443970 45.076995849609 163 163 163
7.757196426392 17.323963165283 45.171020507813 120 120 120
7.757196426392 17.323963165283 45.265014648438 130 130 130
7.634541511536 17.348060607910 45.361999511719 164 164 164
7.695869445801 17.336011886597 45.455993652344 94 94 94
7.818524360657 17.311914443970 45.544006347656 9 9 9
7.818524360657 17.311914443970 45.638000488281 22 22 22
7.818524360657 17.311914443970 45.731994628906 54 54 54
7.818524360657 17.311914443970 45.825012207031 68 68 68
7.757196426392 17.323963165283 45.921997070313 171 171 171
7.818524360657 17.311914443970 46.015014648438 177 177 177
7.757196426392 17.323963165283 46.111022949219 166 166 166
7.891901016235 17.361192703247 46.194000244141 197 197 197
7.818524360657 17.311914443970 46.296997070313 154 154 154
7.891901016235 17.361192703247 46.382019042969 192 192 192
7.891901016235 17.361192703247 46.479003906250 97 97 97
7.891901016235 17.361192703247 46.572998046875 102 102 102
7.891901016235 17.361192703247 46.667022705078 101 101 101
7.855753898621 17.177209854126 43.184997558594 145 145 145
7.855753898621 17.177209854126 43.285003662109 131 131 131
7.855753898621 17.177209854126 43.380004882813 129 129 129
7.855753898621 17.177209854126 43.476013183594 144 144 144
7.855753898621 17.177209854126 43.571014404297 154 154 154
7.867802619934 17.238536834717 43.664001464844 154 154 154
7.855753898621 17.177209854126 43.761993408203 151 151 151
7.855753898621 17.177209854126 43.856994628906 146 146 146
7.855753898621 17.177209854126 43.951995849609 151 151 151
7.867802619934 17.238536834717 44.046020507813 149 149 149
7.855753898621 17.177209854126 44.143005371094 143 143 143
7.855753898621 17.177209854126 44.235015869141 153 153 153
7.855753898621 17.177209854126 44.330017089844 150 150 150
7.855753898621 17.177209854126 44.423004150391 148 148 148
7.855753898621 17.177209854126 44.516998291016 147 147 147
7.867802619934 17.238536834717 44.610015869141 148 148 148
7.867802619934 17.238536834717 44.703002929688 148 148 148
7.867802619934 17.238536834717 44.796020507813 148 148 148
7.867802619934 17.238536834717 44.889007568359 158 158 158
7.867802619934 17.238536834717 44.981994628906 147 147 147
7.867802619934 17.238536834717 45.075012207031 148 148 148
7.867802619934 17.238536834717 45.167999267578 150 150 150
7.867802619934 17.238536834717 45.261016845703 155 155 155
7.867802619934 17.238536834717 45.354003906250 144 144 144
7.855753898621 17.177209854126 45.446014404297 148 148 148
7.867802619934 17.238536834717 45.539001464844 146 146 146
7.867802619934 17.238536834717 45.632995605469 142 142 142
7.867802619934 17.238536834717 45.726013183594 136 136 136
7.867802619934 17.238536834717 45.820007324219 134 134 134
7.867802619934 17.238536834717 45.914001464844 138 138 138
7.867802619934 17.238536834717 46.009002685547 143 143 143
7.867802619934 17.238536834717 46.102020263672 140 140 140
7.867802619934 17.238536834717 46.196014404297 135 135 135
7.867802619934 17.238536834717 46.292022705078 142 142 142
7.867802619934 17.238536834717 46.386016845703 139 139 139
7.867802619934 17.238536834717 46.483001708984 138 138 138
7.867802619934 17.238536834717 46.578002929688 132 132 132
7.867802619934 17.238536834717 46.674011230469 111 111 111
7.721050262451 17.139980316162 44.791015625000 137 137 137
7.721050262451 17.139980316162 44.885009765625 127 127 127
7.721050262451 17.139980316162 44.979003906250 145 145 145
7.721050262451 17.139980316162 45.072998046875 159 159 159
7.721050262451 17.139980316162 45.167022705078 140 140 140
7.721050262451 17.139980316162 45.261016845703 157 157 157
7.721050262451 17.139980316162 45.356018066406 153 153 153
7.721050262451 17.139980316162 45.451019287109 129 129 129
7.843705177307 17.115882873535 45.912994384766 175 175 175
7.843705177307 17.115882873535 46.006011962891 172 172 172
7.843705177307 17.115882873535 46.100006103516 177 177 177
7.855753898621 17.177209854126 46.195007324219 174 174 174
7.843705177307 17.115882873535 46.287994384766 176 176 176
7.843705177307 17.115882873535 46.384002685547 182 182 182
7.843705177307 17.115882873535 46.477020263672 174 174 174
7.770328521729 17.066602706909 44.888000488281 91 91 91
7.819606781006 16.993227005005 44.983001708984 120 120 120
7.758279800415 17.005275726318 45.076019287109 153 153 153
7.770328521729 17.066602706909 45.169006347656 137 137 137
7.758279800415 17.005275726318 45.261993408203 155 155 155
7.709001541138 17.078651428223 45.356994628906 168 168 168
7.709001541138 17.078651428223 45.451019287109 143 143 143
7.819606781006 16.993227005005 45.817993164063 150 150 150
7.892984390259 17.042505264282 45.910003662109 172 172 172
7.819606781006 16.993227005005 46.005004882813 173 173 173
7.819606781006 16.993227005005 46.098999023438 181 181 181
7.819606781006 16.993227005005 46.192016601563 170 170 170
7.819606781006 16.993227005005 46.287994384766 74 74 74
7.892984390259 17.042505264282 46.378997802734 184 184 184
7.892984390259 17.042505264282 46.473999023438 182 182 182
7.892984390259 17.042505264282 46.566009521484 97 97 97
7.746231079102 16.943948745728 45.079010009766 111 111 111
7.746231079102 16.943948745728 45.171997070313 158 158 158
7.746231079102 16.943948745728 45.266021728516 163 163 163
7.746231079102 16.943948745728 45.359008789063 158 158 158
7.795509338379 16.870571136475 45.817993164063 204 204 204
7.856837272644 16.858522415161 45.910003662109 176 176 176
7.795509338379 16.870571136475 46.005004882813 177 177 177
7.807558059692 16.931900024414 46.098999023438 173 173 173
7.795509338379 16.870571136475 46.192016601563 170 170 170
7.856837272644 16.858522415161 46.378021240234 121 121 121
7.795509338379 16.870571136475 46.473022460938 184 184 184
7.856837272644 16.858522415161 46.566009521484 179 179 179
7.844788551331 16.797195434570 45.817993164063 114 114 114
7.844788551331 16.797195434570 45.910003662109 174 174 174
7.844788551331 16.797195434570 46.003021240234 179 179 179
7.844788551331 16.797195434570 46.098022460938 171 171 171
7.844788551331 16.797195434570 46.467010498047 184 184 184
7.844788551331 16.797195434570 46.562011718750 183 183 183
7.844788551331 16.797195434570 46.658020019531 180 180 180
7.906115531921 16.785146713257 45.908996582031 134 134 134
7.906115531921 16.785146713257 46.002014160156 177 177 177
7.906115531921 16.785146713257 46.093017578125 162 162 162
7.894066810608 16.723819732666 46.559020996094 179 179 179
7.894066810608 16.723819732666 46.652008056641 180 180 180
7.742981910706 17.900011062622 46.040008544922 200 200 200
7.742981910706 17.900011062622 46.597015380859 174 174 174
7.718883514404 17.777353286743 45.929016113281 219 219 219
7.718883514404 17.777353286743 46.039001464844 218 218 218
7.730932235718 17.838682174683 46.481018066406 214 214 214
7.730932235718 17.838682174683 46.592010498047 218 218 218
7.730932235718 17.838682174683 46.703002929688 136 136 136
7.706834793091 17.716026306152 45.819000244141 175 175 175
7.706834793091 17.716026306152 45.928009033203 217 217 217
7.706834793091 17.716026306152 46.037017822266 217 217 217
7.706834793091 17.716026306152 46.145996093750 207 207 207
7.706834793091 17.716026306152 46.477996826172 218 218 218
7.706834793091 17.716026306152 46.589019775391 218 218 218
7.621409416199 17.605419158936 45.164001464844 183 183 183
7.621409416199 17.605419158936 45.274017333984 217 217 217
7.621409416199 17.605419158936 45.385009765625 113 113 113
7.768162727356 17.703977584839 45.710998535156 17 17 17
7.829490661621 17.691928863525 45.819000244141 217 217 217
7.768162727356 17.703977584839 45.928009033203 216 216 216
7.829490661621 17.691928863525 46.037017822266 217 217 217
7.829490661621 17.691928863525 46.145996093750 216 216 216
7.768162727356 17.703977584839 46.365997314453 141 141 141
7.768162727356 17.703977584839 46.476013183594 218 218 218
7.768162727356 17.703977584839 46.585998535156 216 216 216
7.670688629150 17.532043457031 44.947998046875 79 79 79
7.670688629150 17.532043457031 45.058013916016 206 206 206
7.670688629150 17.532043457031 45.167022705078 205 205 205
7.670688629150 17.532043457031 45.277008056641 208 208 208
7.670688629150 17.532043457031 45.386993408203 203 203 203
7.805392265320 17.569272994995 45.819000244141 217 217 217
7.805392265320 17.569272994995 45.928009033203 216 216 216
7.805392265320 17.569272994995 46.036010742188 217 217 217
7.805392265320 17.569272994995 46.145019531250 216 216 216
7.805392265320 17.569272994995 46.253997802734 203 203 203
7.805392265320 17.569272994995 46.365020751953 218 218 218
7.805392265320 17.569272994995 46.473999023438 219 219 219
7.805392265320 17.569272994995 46.580017089844 54 54 54
7.719966888428 17.458665847778 44.841003417969 128 128 128
7.646590232849 17.409387588501 44.950012207031 205 205 205
7.646590232849 17.409387588501 45.059020996094 205 205 205
7.646590232849 17.409387588501 45.169006347656 175 175 175
7.719966888428 17.458665847778 45.278015136719 175 175 175
7.646590232849 17.409387588501 45.386993408203 189 189 189
7.793343544006 17.507946014404 45.817016601563 32 32 32
7.793343544006 17.507946014404 45.925994873047 217 217 217
7.793343544006 17.507946014404 46.033996582031 216 216 216
7.793343544006 17.507946014404 46.141998291016 216 216 216
7.793343544006 17.507946014404 46.251007080078 214 214 214
7.793343544006 17.507946014404 46.361022949219 219 219 219
7.793343544006 17.507946014404 46.468994140625 217 217 217
7.903949737549 17.422519683838 43.105010986328 157 157 157
7.695869445801 17.336011886597 44.843017578125 209 209 209
7.695869445801 17.336011886597 44.951995849609 209 209 209
7.781294822693 17.446617126465 45.063995361328 183 183 183
7.707918167114 17.397338867188 45.170013427734 207 207 207
7.695869445801 17.336011886597 45.278015136719 199 199 199
7.695869445801 17.336011886597 45.386993408203 204 204 204
7.830573081970 17.373241424561 45.923004150391 215 215 215
7.830573081970 17.373241424561 46.031005859375 215 215 215
7.781294822693 17.446617126465 46.139007568359 215 215 215
7.830573081970 17.373241424561 46.247009277344 215 215 215
7.781294822693 17.446617126465 46.356018066406 215 215 215
7.781294822693 17.446617126465 46.464019775391 178 178 178
7.879851341248 17.299865722656 43.210998535156 151 151 151
7.879851341248 17.299865722656 43.339019775391 104 104 104
7.879851341248 17.299865722656 43.449005126953 105 105 105
7.891901016235 17.361192703247 43.558013916016 108 108 108
7.891901016235 17.361192703247 43.667999267578 108 108 108
7.891901016235 17.361192703247 43.778015136719 108 108 108
7.891901016235 17.361192703247 43.885009765625 106 106 106
7.891901016235 17.361192703247 43.996002197266 124 124 124
7.891901016235 17.361192703247 44.102020263672 112 112 112
7.891901016235 17.361192703247 44.209014892578 109 109 109
7.891901016235 17.361192703247 44.317993164063 110 110 110
7.891901016235 17.361192703247 44.425018310547 113 113 113
7.891901016235 17.361192703247 44.533996582031 122 122 122
7.891901016235 17.361192703247 44.640014648438 120 120 120
7.891901016235 17.361192703247 44.746002197266 122 122 122
7.891901016235 17.361192703247 44.852996826172 113 113 113
7.891901016235 17.361192703247 44.959014892578 120 120 120
7.891901016235 17.361192703247 45.066009521484 111 111 111
7.879851341248 17.299865722656 45.171020507813 125 125 125
7.818524360657 17.311914443970 45.277008056641 127 127 127
7.891901016235 17.361192703247 45.384002685547 116 116 116
7.891901016235 17.361192703247 45.490020751953 104 104 104
7.891901016235 17.361192703247 45.596008300781 111 111 111
7.891901016235 17.361192703247 45.701995849609 102 102 102
7.891901016235 17.361192703247 45.809020996094 97 97 97
7.891901016235 17.361192703247 45.915008544922 99 99 99
7.891901016235 17.361192703247 46.020996093750 126 126 126
7.891901016235 17.361192703247 46.126007080078 131 131 131
7.965277671814 17.410470962524 46.231018066406 216 216 216
7.891901016235 17.361192703247 46.341003417969 114 114 114
7.891901016235 17.361192703247 46.447021484375 97 97 97
7.891901016235 17.361192703247 46.555023193359 100 100 100
7.891901016235 17.361192703247 46.662994384766 95 95 95
7.794425964355 17.189258575439 44.843994140625 206 206 206
7.794425964355 17.189258575439 44.951019287109 191 191 191
7.794425964355 17.189258575439 45.061004638672 199 199 199
7.794425964355 17.189258575439 45.167022705078 165 165 165
7.794425964355 17.189258575439 45.274017333984 185 185 185
7.721050262451 17.139980316162 45.382019042969 196 196 196
7.855753898621 17.177209854126 45.915008544922 216 216 216
7.855753898621 17.177209854126 46.022003173828 218 218 218
7.855753898621 17.177209854126 46.128997802734 216 216 216
7.855753898621 17.177209854126 46.236022949219 215 215 215
7.855753898621 17.177209854126 46.343017578125 215 215 215
7.855753898621 17.177209854126 46.451019287109 213 213 213
7.770328521729 17.066602706909 44.947998046875 131 131 131
7.831655502319 17.054553985596 45.057006835938 206 206 206
7.770328521729 17.066602706909 45.162017822266 190 190 190
7.831655502319 17.054553985596 45.270019531250 190 190 190
7.709001541138 17.078651428223 45.377014160156 202 202 202
7.843705177307 17.115882873535 45.908020019531 220 220 220
7.843705177307 17.115882873535 46.014007568359 222 222 222
7.843705177307 17.115882873535 46.121002197266 217 217 217
7.843705177307 17.115882873535 46.229003906250 217 217 217
7.843705177307 17.115882873535 46.335021972656 215 215 215
7.843705177307 17.115882873535 46.442016601563 215 215 215
7.843705177307 17.115882873535 46.549011230469 120 120 120
7.807558059692 16.931900024414 45.160003662109 149 149 149
7.746231079102 16.943948745728 45.266021728516 204 204 204
7.746231079102 16.943948745728 45.373016357422 174 174 174
7.892984390259 17.042505264282 45.796020507813 213 213 213
7.892984390259 17.042505264282 45.902008056641 218 218 218
7.892984390259 17.042505264282 46.007995605469 219 219 219
7.892984390259 17.042505264282 46.115020751953 217 217 217
7.892984390259 17.042505264282 46.221008300781 216 216 216
7.892984390259 17.042505264282 46.326995849609 19 19 19
7.892984390259 17.042505264282 46.434997558594 216 216 216
7.892984390259 17.042505264282 46.542022705078 213 213 213
7.930213928223 16.907802581787 45.792022705078 216 216 216
7.930213928223 16.907802581787 45.898010253906 221 221 221
7.930213928223 16.907802581787 46.003997802734 215 215 215
7.868885993958 16.919851303101 46.110015869141 217 217 217
7.868885993958 16.919851303101 46.216003417969 121 121 121
7.930213928223 16.907802581787 46.428009033203 210 210 210
7.930213928223 16.907802581787 46.535003662109 213 213 213
7.868885993958 16.919851303101 46.643005371094 192 192 192
7.918164253235 16.846473693848 45.897003173828 211 211 211
7.918164253235 16.846473693848 46.002014160156 216 216 216
7.918164253235 16.846473693848 46.108001708984 215 215 215
7.918164253235 16.846473693848 46.529998779297 214 214 214
7.918164253235 16.846473693848 46.636993408203 213 213 213
7.894066810608 16.723819732666 45.897003173828 109 109 109
7.906115531921 16.785146713257 46.003021240234 215 215 215
7.894066810608 16.723819732666 46.106994628906 175 175 175
7.906115531921 16.785146713257 46.529998779297 209 209 209
