23.137680053711 44.510784149170 5.322006225586 219 219 219
23.137680053711 44.510784149170 5.363998413086 221 221 221
23.124374389648 44.522102355957 5.406997680664 215 215 215
23.109199523926 44.525833129883 5.451004028320 220 220 220
23.124374389648 44.522102355957 5.492996215820 210 210 210
23.109199523926 44.525833129883 5.537002563477 144 144 144
23.087684631348 44.700073242188 2.475997924805 119 119 119
23.085815429688 44.692485809326 2.518997192383 119 119 119
23.083953857422 44.684902191162 2.561004638672 115 115 115
23.085815429688 44.692485809326 2.740997314453 39 39 39
23.085815429688 44.692485809326 2.787002563477 22 22 22
22.972145080566 44.688255310059 4.077011108398 90 90 90
22.972145080566 44.688255310059 4.119003295898 151 151 151
22.972145080566 44.688255310059 4.163009643555 163 163 163
22.972145080566 44.688255310059 4.206008911133 171 171 171
22.972145080566 44.688255310059 4.249008178711 159 159 159
22.958839416504 44.699573516846 4.292007446289 167 167 167
22.956970214844 44.691986083984 4.335006713867 168 168 168
23.091415405273 44.715248107910 4.378005981445 181 181 181
22.992912292480 44.707286834717 4.421005249023 163 163 163
23.008087158203 44.703556060791 4.462997436523 170 170 170
22.960700988770 44.707160949707 4.507003784180 173 173 173
23.062934875488 44.730297088623 4.546997070313 176 176 176
22.958839416504 44.699573516846 4.593002319336 197 197 197
22.956970214844 44.691986083984 4.637008666992 184 184 184
22.958839416504 44.699573516846 4.680007934570 184 184 184
22.958839416504 44.699573516846 4.723007202148 167 167 167
22.958839416504 44.699573516846 4.766006469727 113 113 113
23.112182617188 44.734275817871 5.182006835938 212 212 212
23.129219055176 44.738132476807 5.223999023438 220 220 220
23.129219055176 44.738132476807 5.266006469727 218 218 218
23.100738525391 44.753181457520 5.311004638672 219 219 219
23.131088256836 44.745719909668 5.352005004883 224 224 224
23.131088256836 44.745719909668 5.393997192383 227 227 227
23.132949829102 44.753303527832 5.436004638672 219 219 219
23.131088256836 44.745719909668 5.480010986328 228 228 228
23.132949829102 44.753303527832 5.523010253906 219 219 219
23.119644165039 44.764621734619 5.566009521484 87 87 87
22.948509216309 44.919334411621 4.395004272461 99 99 99
22.933338165283 44.923065185547 4.439010620117 166 166 166
22.916297912598 44.919208526611 4.483001708984 184 184 184
22.933338165283 44.923065185547 4.526000976563 185 185 185
22.918163299561 44.926795959473 4.570007324219 189 189 189
22.920028686523 44.934383392334 4.613998413086 188 188 188
22.918163299561 44.926795959473 4.658004760742 189 189 189
22.920028686523 44.934383392334 4.701004028320 143 143 143
23.105587005615 44.969207763672 5.035003662109 211 211 211
23.124492645264 44.980651855469 5.077011108398 225 225 225
23.122627258301 44.973064422607 5.121002197266 223 223 223
23.122627258301 44.973064422607 5.164001464844 222 222 222
23.122627258301 44.973064422607 5.206008911133 223 223 223
23.122627258301 44.973064422607 5.250000000000 198 198 198
23.124492645264 44.980651855469 5.464996337891 210 210 210
23.124492645264 44.980651855469 5.508010864258 228 228 228
23.124492645264 44.980651855469 5.551010131836 221 221 221
23.124492645264 44.980651855469 5.595001220703 231 231 231
23.113048553467 44.999553680420 5.639007568359 223 223 223
23.113048553467 44.999553680420 5.684005737305 199 199 199
23.083820343018 45.207870483398 5.020004272461 159 159 159
23.085685729980 45.215457916260 5.061996459961 214 214 214
23.085685729980 45.215457916260 5.106002807617 204 204 204
23.119762420654 45.223171234131 5.585998535156 193 193 193
23.119762420654 45.223171234131 5.628005981445 208 208 208
23.121627807617 45.230754852295 5.671005249023 130 130 130
23.170024871826 43.987941741943 5.688003540039 81 81 81
23.170024871826 43.987941741943 5.643005371094 129 129 129
23.170024871826 43.987941741943 5.600997924805 102 102 102
23.154853820801 43.991672515869 5.135009765625 83 83 83
23.168159484863 43.980354309082 5.091003417969 123 123 123
23.154853820801 43.991672515869 5.051010131836 81 81 81
22.831489562988 44.312538146973 4.645996093750 30 30 30
22.871414184570 44.278583526611 4.600006103516 41 41 41
23.210563659668 44.283691406250 5.667999267578 18 18 18
23.182083129883 44.298736572266 5.628997802734 158 158 158
23.168777465820 44.310054779053 5.589996337891 160 160 160
23.182083129883 44.298736572266 5.544006347656 159 159 159
23.180217742920 44.291152954102 5.501998901367 163 163 163
23.168777465820 44.310054779053 5.458999633789 158 158 158
23.168777465820 44.310054779053 5.417999267578 130 130 130
23.180217742920 44.291152954102 5.286010742188 146 146 146
23.180217742920 44.291152954102 5.244003295898 156 156 156
23.180217742920 44.291152954102 5.201004028320 154 154 154
23.180217742920 44.291152954102 5.158996582031 159 159 159
23.168777465820 44.310054779053 5.117004394531 157 157 157
23.180217742920 44.291152954102 5.072006225586 102 102 102
23.064182281494 44.408180236816 4.742996215820 146 146 146
23.064182281494 44.408180236816 4.699005126953 135 135 135
23.064182281494 44.408180236816 4.656005859375 134 134 134
23.104103088379 44.374229431152 4.611999511719 135 135 135
23.104103088379 44.374229431152 4.569000244141 142 142 142
23.104103088379 44.374229431152 4.527008056641 117 117 117
23.077487945557 44.396862030029 4.484008789063 125 125 125
23.077487945557 44.396862030029 4.441009521484 152 152 152
23.077487945557 44.396862030029 4.398010253906 130 130 130
23.115547180176 44.355323791504 4.356002807617 138 138 138
23.102237701416 44.366641998291 4.313003540039 129 129 129
23.077487945557 44.396862030029 4.270004272461 122 122 122
23.049007415771 44.411911010742 4.225997924805 85 85 85
23.049007415771 44.411911010742 4.182998657227 27 27 27
23.218894958496 44.579315185547 5.702011108398 137 137 137
23.215160369873 44.564140319824 5.656005859375 131 131 131
23.218894958496 44.579315185547 5.613998413086 144 144 144
23.218894958496 44.579315185547 5.570007324219 137 137 137
23.218894958496 44.579315185547 5.527008056641 139 139 139
23.218894958496 44.579315185547 5.484008789063 137 137 137
23.218894958496 44.579315185547 5.440002441406 141 141 141
23.215160369873 44.564140319824 5.395996093750 140 140 140
23.218894958496 44.579315185547 5.354003906250 138 138 138
23.218894958496 44.579315185547 5.311004638672 140 140 140
23.218894958496 44.579315185547 5.268005371094 144 144 144
23.190414428711 44.594364166260 5.227005004883 144 144 144
23.218894958496 44.579315185547 5.182006835938 144 144 144
23.218894958496 44.579315185547 5.139007568359 140 140 140
23.218894958496 44.579315185547 5.097000122070 141 141 141
23.218894958496 44.579315185547 5.055007934570 144 144 144
23.218894958496 44.579315185547 5.012008666992 141 141 141
23.218894958496 44.579315185547 4.970001220703 151 151 151
23.190414428711 44.594364166260 4.927001953125 153 153 153
23.218894958496 44.579315185547 4.884002685547 165 165 165
23.218894958496 44.579315185547 4.842010498047 164 164 164
23.218894958496 44.579315185547 4.798995971680 167 167 167
23.218894958496 44.579315185547 4.757003784180 174 174 174
23.218894958496 44.579315185547 4.714996337891 173 173 173
23.190414428711 44.594364166260 4.673004150391 168 168 168
23.218894958496 44.579315185547 4.630004882813 166 166 166
23.218894958496 44.579315185547 4.587997436523 166 166 166
23.190414428711 44.594364166260 4.544998168945 166 166 166
23.190414428711 44.594364166260 4.503005981445 172 172 172
23.190414428711 44.594364166260 4.460998535156 168 168 168
23.190414428711 44.594364166260 4.417999267578 172 172 172
23.190414428711 44.594364166260 4.376007080078 174 174 174
23.190414428711 44.594364166260 4.333999633789 169 169 169
23.190414428711 44.594364166260 4.291000366211 170 170 170
23.218894958496 44.579315185547 4.249008178711 173 173 173
23.190414428711 44.594364166260 4.207000732422 169 169 169
23.190414428711 44.594364166260 4.164001464844 171 171 171
23.190414428711 44.594364166260 4.122009277344 164 164 164
23.190414428711 44.594364166260 4.079010009766 167 167 167
23.190414428711 44.594364166260 4.037002563477 172 172 172
23.188545227051 44.586776733398 3.994003295898 168 168 168
23.188545227051 44.586776733398 3.952011108398 169 169 169
23.192276000977 44.601947784424 3.908004760742 168 168 168
23.188545227051 44.586776733398 3.865997314453 172 172 172
23.188545227051 44.586776733398 3.824005126953 168 168 168
23.188545227051 44.586776733398 3.781005859375 168 168 168
23.192276000977 44.601947784424 3.738006591797 166 166 166
23.188545227051 44.586776733398 3.695007324219 166 166 166
23.188545227051 44.586776733398 3.652999877930 166 166 166
23.192276000977 44.601947784424 3.609008789063 165 165 165
23.192276000977 44.601947784424 3.566009521484 162 162 162
23.192276000977 44.601947784424 3.523010253906 161 161 161
23.188545227051 44.586776733398 3.481002807617 163 163 163
23.188545227051 44.586776733398 3.438003540039 160 160 160
23.192276000977 44.601947784424 3.393997192383 160 160 160
23.192276000977 44.601947784424 3.350006103516 160 160 160
23.192276000977 44.601947784424 3.305999755859 162 162 162
23.192276000977 44.601947784424 3.263000488281 154 154 154
23.192276000977 44.601947784424 3.219009399414 160 160 160
23.192276000977 44.601947784424 3.176010131836 160 160 160
23.192276000977 44.601947784424 3.133010864258 158 158 158
23.175239562988 44.598094940186 3.087005615234 159 159 159
23.192276000977 44.601947784424 3.044998168945 160 160 160
23.175239562988 44.598094940186 3.000000000000 149 149 149
23.192276000977 44.601947784424 2.957000732422 154 154 154
23.175239562988 44.598094940186 2.911010742188 156 156 156
23.161933898926 44.609409332275 2.865005493164 157 157 157
23.175239562988 44.598094940186 2.822998046875 156 156 156
23.161933898926 44.609409332275 2.776000976563 153 153 153
23.161933898926 44.609409332275 2.732009887695 152 152 152
23.175239562988 44.598094940186 2.688003540039 151 151 151
23.175239562988 44.598094940186 2.643997192383 152 152 152
23.175239562988 44.598094940186 2.600006103516 154 154 154
23.175239562988 44.598094940186 2.554000854492 153 153 153
23.161933898926 44.609409332275 2.507003784180 147 147 147
23.149242401123 44.950428009033 5.663009643555 133 133 133
23.179588317871 44.942966461182 5.617004394531 146 146 146
23.179588317871 44.942966461182 5.572998046875 144 144 144
23.179588317871 44.942966461182 5.527999877930 146 146 146
23.177722930908 44.935382843018 5.483001708984 145 145 145
23.179588317871 44.942966461182 5.440002441406 107 107 107
23.177722930908 44.935382843018 5.264999389648 105 105 105
23.149242401123 44.950428009033 5.223007202148 158 158 158
23.149242401123 44.950428009033 5.179000854492 153 153 153
23.149242401123 44.950428009033 5.136001586914 157 157 157
23.149242401123 44.950428009033 5.091003417969 154 154 154
23.149242401123 44.950428009033 5.048995971680 142 142 142
23.093894958496 45.052536010742 4.998001098633 211 211 211
23.093894958496 45.052536010742 5.041000366211 223 223 223
23.076858520508 45.048679351807 5.085006713867 222 222 222
23.076858520508 45.048679351807 5.128005981445 224 224 224
23.095764160156 45.060123443604 5.169998168945 220 220 220
23.076858520508 45.048679351807 5.214996337891 187 187 187
23.076858520508 45.048679351807 5.518005371094 90 90 90
23.112800598145 45.063976287842 5.559005737305 217 217 217
23.095764160156 45.060123443604 5.602996826172 226 226 226
23.095764160156 45.060123443604 5.648010253906 218 218 218
23.095764160156 45.060123443604 5.691009521484 232 232 232
23.095764160156 45.060123443604 5.735000610352 220 220 220
23.095764160156 45.060123443604 5.779998779297 92 92 92
22.939682006836 44.752555847168 4.165008544922 95 95 95
22.937816619873 44.744968414307 4.208007812500 162 162 162
22.937816619873 44.744968414307 4.251007080078 162 162 162
22.937816619873 44.744968414307 4.294006347656 170 170 170
22.922645568848 44.748699188232 4.337997436523 180 180 180
22.922645568848 44.748699188232 4.380996704102 172 172 172
22.939682006836 44.752555847168 4.423995971680 194 194 194
22.939682006836 44.752555847168 4.467010498047 185 185 185
22.973762512207 44.760265350342 4.510009765625 144 144 144
22.975624084473 44.767852783203 4.553009033203 163 163 163
22.975624084473 44.767852783203 4.596008300781 165 165 165
22.973762512207 44.760265350342 4.639007568359 175 175 175
22.905605316162 44.744842529297 4.684005737305 186 186 186
22.922645568848 44.748699188232 4.727005004883 183 183 183
22.922645568848 44.748699188232 4.770996093750 178 178 178
23.096759796143 44.802429199219 5.143997192383 206 206 206
23.096759796143 44.802429199219 5.186004638672 219 219 219
23.096759796143 44.802429199219 5.230010986328 218 218 218
23.096759796143 44.802429199219 5.272003173828 216 216 216
23.096759796143 44.802429199219 5.316009521484 216 216 216
23.096759796143 44.802429199219 5.358001708984 199 199 199
23.113800048828 44.806285858154 5.399002075195 214 214 214
23.098625183105 44.810016632080 5.443008422852 231 231 231
23.098625183105 44.810016632080 5.486007690430 218 218 218
23.098625183105 44.810016632080 5.529006958008 226 226 226
23.113800048828 44.806285858154 5.572006225586 219 219 219
23.113800048828 44.806285858154 5.615005493164 199 199 199
23.092163085938 44.521976470947 2.786010742188 16 16 16
23.092163085938 44.521976470947 2.830001831055 28 28 28
23.092163085938 44.521976470947 2.875000000000 48 48 48
23.094028472900 44.529563903809 2.919006347656 64 64 64
23.092163085938 44.521976470947 2.960998535156 76 76 76
23.076988220215 44.525707244873 3.003005981445 85 85 85
23.094028472900 44.529563903809 3.050003051758 95 95 95
23.092163085938 44.521976470947 3.092010498047 96 96 96
23.111064910889 44.533420562744 3.137008666992 113 113 113
23.094028472900 44.529563903809 3.179000854492 119 119 119
23.111064910889 44.533420562744 3.223999023438 117 117 117
23.094028472900 44.529563903809 3.264999389648 128 128 128
23.094028472900 44.529563903809 3.307998657227 121 121 121
23.111064910889 44.533420562744 3.352996826172 124 124 124
23.111064910889 44.533420562744 3.395004272461 131 131 131
23.094028472900 44.529563903809 3.436004638672 138 138 138
23.111064910889 44.533420562744 3.481002807617 135 135 135
23.111064910889 44.533420562744 3.522003173828 125 125 125
23.094028472900 44.529563903809 3.564010620117 135 135 135
23.094028472900 44.529563903809 3.606002807617 138 138 138
23.094028472900 44.529563903809 3.648010253906 139 139 139
23.094028472900 44.529563903809 3.690002441406 136 136 136
23.111064910889 44.533420562744 3.734008789063 137 137 137
23.111064910889 44.533420562744 3.776000976563 145 145 145
23.111064910889 44.533420562744 3.818008422852 141 141 141
23.111064910889 44.533420562744 3.861007690430 143 143 143
23.111064910889 44.533420562744 3.902008056641 142 142 142
23.111064910889 44.533420562744 3.944000244141 141 141 141
23.111064910889 44.533420562744 3.986007690430 132 132 132
23.112930297852 44.541007995605 4.027999877930 145 145 145
23.111064910889 44.533420562744 4.070007324219 151 151 151
23.111064910889 44.533420562744 4.111007690430 160 160 160
23.092163085938 44.521976470947 4.152999877930 185 185 185
23.094028472900 44.529563903809 4.195007324219 173 173 173
23.111064910889 44.533420562744 4.236999511719 177 177 177
23.111064910889 44.533420562744 4.277999877930 191 191 191
23.114795684814 44.548595428467 4.320007324219 172 172 172
23.131835937500 44.552448272705 4.361999511719 176 176 176
23.164047241211 44.552574157715 4.404006958008 179 179 179
23.147006988525 44.548717498779 4.445007324219 181 181 181
23.164047241211 44.552574157715 4.486999511719 179 179 179
23.164047241211 44.552574157715 4.527999877930 173 173 173
23.179218292236 44.548843383789 4.569000244141 179 179 179
23.164047241211 44.552574157715 4.611007690430 187 187 187
23.164047241211 44.552574157715 4.652008056641 185 185 185
23.164047241211 44.552574157715 4.694000244141 185 185 185
23.164047241211 44.552574157715 4.735000610352 187 187 187
23.164047241211 44.552574157715 4.777008056641 183 183 183
23.164047241211 44.552574157715 4.818008422852 183 183 183
23.179218292236 44.548843383789 4.860000610352 174 174 174
23.164047241211 44.552574157715 4.902008056641 176 176 176
23.148872375488 44.556304931641 4.944000244141 162 162 162
23.164047241211 44.552574157715 4.985000610352 157 157 157
23.148872375488 44.556304931641 5.027999877930 154 154 154
23.148872375488 44.556304931641 5.070007324219 154 154 154
23.150737762451 44.563892364502 5.110000610352 142 142 142
23.150737762451 44.563892364502 5.152999877930 157 157 157
23.150737762451 44.563892364502 5.195007324219 149 149 149
23.148872375488 44.556304931641 5.238006591797 149 149 149
23.201854705811 44.575458526611 5.273010253906 202 202 202
23.215160369873 44.564140319824 5.313003540039 213 213 213
23.131835937500 44.552448272705 5.365005493164 150 150 150
23.148872375488 44.556304931641 5.406997680664 142 142 142
23.218894958496 44.579315185547 5.438003540039 207 207 207
23.218894958496 44.579315185547 5.480010986328 219 219 219
23.150737762451 44.563892364502 5.531005859375 140 140 140
23.150737762451 44.563892364502 5.574996948242 133 133 133
23.152603149414 44.571479797363 5.615005493164 133 133 133
23.150737762451 44.563892364502 5.658996582031 138 138 138
23.184814453125 44.571601867676 5.695999145508 117 117 117
23.201854705811 44.575458526611 5.736999511719 55 55 55
23.026870727539 44.256450653076 4.427001953125 74 74 74
23.011699676514 44.260181427002 4.469009399414 176 176 176
23.028739929199 44.264038085938 4.511001586914 189 189 189
23.026870727539 44.256450653076 4.553009033203 188 188 188
23.026870727539 44.256450653076 4.595001220703 189 189 189
23.026870727539 44.256450653076 4.636001586914 197 197 197
23.026870727539 44.256450653076 4.678009033203 197 197 197
23.009834289551 44.252593994141 4.721008300781 98 98 98
23.098754882813 44.287044525146 5.091003417969 184 184 184
23.113929748535 44.283313751221 5.130996704102 218 218 218
23.098754882813 44.287044525146 5.173995971680 224 224 224
23.098754882813 44.287044525146 5.214996337891 220 220 220
23.115795135498 44.290901184082 5.257003784180 225 225 225
23.098754882813 44.287044525146 5.298995971680 215 215 215
23.115795135498 44.290901184082 5.341003417969 62 62 62
23.098754882813 44.287044525146 5.427001953125 100 100 100
23.098754882813 44.287044525146 5.469009399414 209 209 209
23.098754882813 44.287044525146 5.511001586914 217 217 217
23.098754882813 44.287044525146 5.552001953125 206 206 206
23.098754882813 44.287044525146 5.596008300781 214 214 214
23.115795135498 44.290901184082 5.637008666992 205 205 205
23.098754882813 44.287044525146 5.680007934570 127 127 127
23.082717895508 44.025497436523 4.984008789063 95 95 95
23.111198425293 44.010448455811 5.024002075195 195 195 195
23.111198425293 44.010448455811 5.066009521484 216 216 216
23.111198425293 44.010448455811 5.107009887695 222 222 222
23.111198425293 44.010448455811 5.148010253906 221 221 221
23.113063812256 44.018035888672 5.188003540039 65 65 65
23.084583282471 44.033084869385 5.608001708984 197 197 197
23.099754333496 44.029354095459 5.649002075195 212 212 212
23.099754333496 44.029354095459 5.692001342773 213 213 213
23.099754333496 44.029354095459 5.733001708984 198 198 198
23.084583282471 44.033084869385 5.777999877930 110 110 110
23.112300872803 45.192821502686 5.677001953125 155 155 155
23.112300872803 45.192821502686 5.636001586914 189 189 189
23.095260620117 45.188968658447 5.600997924805 107 107 107
23.095260620117 45.188968658447 5.134002685547 183 183 183
23.095260620117 45.188968658447 5.096008300781 193 193 193
23.095260620117 45.188968658447 5.057998657227 162 162 162
23.105838775635 44.904785156250 5.680007934570 139 139 139
23.103973388672 44.897197723389 5.639999389648 192 192 192
23.103973388672 44.897197723389 5.600997924805 196 196 196
23.103973388672 44.897197723389 5.561004638672 195 195 195
23.102108001709 44.889614105225 5.524002075195 195 195 195
23.103973388672 44.897197723389 5.485000610352 198 198 198
23.103973388672 44.897197723389 5.445999145508 176 176 176
23.102108001709 44.889614105225 5.333007812500 58 58 58
23.102108001709 44.889614105225 5.294998168945 205 205 205
23.100242614746 44.882026672363 5.255996704102 212 212 212
23.100242614746 44.882026672363 5.218002319336 211 211 211
23.100242614746 44.882026672363 5.180007934570 209 209 209
23.100242614746 44.882026672363 5.143005371094 210 210 210
23.102108001709 44.889614105225 5.104003906250 202 202 202
23.102108001709 44.889614105225 5.066009521484 75 75 75
22.887817382813 44.934257507324 4.669006347656 126 126 126
22.887817382813 44.934257507324 4.630996704102 156 156 156
22.887817382813 44.934257507324 4.593002319336 172 172 172
22.901126861572 44.922939300537 4.554000854492 161 161 161
22.901126861572 44.922939300537 4.514999389648 135 135 135
22.901126861572 44.922939300537 4.477005004883 78 78 78
23.215160369873 44.564140319824 5.732009887695 87 87 87
23.201854705811 44.575458526611 5.699005126953 124 124 124
23.213294982910 44.556556701660 5.660003662109 117 117 117
23.213294982910 44.556556701660 5.623001098633 112 112 112
23.213294982910 44.556556701660 5.583999633789 117 117 117
23.213294982910 44.556556701660 5.546005249023 123 123 123
23.213294982910 44.556556701660 5.507003784180 131 131 131
23.228469848633 44.552825927734 5.467010498047 185 185 185
23.196258544922 44.552700042725 5.434997558594 120 120 120
23.184814453125 44.571601867676 5.398010253906 109 109 109
23.184814453125 44.571601867676 5.361999511719 116 116 116
23.213294982910 44.556556701660 5.320007324219 166 166 166
23.213294982910 44.556556701660 5.283004760742 163 163 163
23.169643402100 44.575332641602 5.253005981445 105 105 105
23.184814453125 44.571601867676 5.212997436523 103 103 103
23.182949066162 44.564018249512 5.178009033203 113 113 113
23.182949066162 44.564018249512 5.141006469727 117 117 117
23.152603149414 44.571479797363 5.105010986328 110 110 110
23.152603149414 44.571479797363 5.068008422852 114 114 114
23.150737762451 44.563892364502 5.031997680664 117 117 117
23.150737762451 44.563892364502 4.995010375977 132 132 132
23.154468536377 44.579063415527 4.960006713867 147 147 147
23.150737762451 44.563892364502 4.921997070313 148 148 148
23.150737762451 44.563892364502 4.885009765625 155 155 155
23.137432098389 44.575210571289 4.850006103516 154 154 154
23.120391845703 44.571353912354 4.814010620117 166 166 166
23.150737762451 44.563892364502 4.775009155273 164 164 164
23.137432098389 44.575210571289 4.740005493164 169 169 169
23.137432098389 44.575210571289 4.703002929688 163 163 163
23.120391845703 44.571353912354 4.667007446289 168 168 168
23.148872375488 44.556304931641 4.628997802734 154 154 154
23.120391845703 44.571353912354 4.594009399414 159 159 159
23.120391845703 44.571353912354 4.557006835938 160 160 160
23.120391845703 44.571353912354 4.520996093750 162 162 162
23.120391845703 44.571353912354 4.484008789063 156 156 156
23.120391845703 44.571353912354 4.447998046875 168 168 168
23.120391845703 44.571353912354 4.411010742188 171 171 171
23.120391845703 44.571353912354 4.375000000000 169 169 169
23.120391845703 44.571353912354 4.339004516602 168 168 168
23.120391845703 44.571353912354 4.302001953125 163 163 163
23.120391845703 44.571353912354 4.266006469727 167 167 167
23.120391845703 44.571353912354 4.229003906250 159 159 159
23.120391845703 44.571353912354 4.193008422852 160 160 160
23.118526458740 44.563766479492 4.156005859375 165 165 165
23.118526458740 44.563766479492 4.120010375977 165 165 165
23.118526458740 44.563766479492 4.083007812500 164 164 164
23.103355407715 44.567497253418 4.046005249023 170 170 170
23.118526458740 44.563766479492 4.010009765625 157 157 157
23.118526458740 44.563766479492 3.973999023438 163 163 163
23.118526458740 44.563766479492 3.936996459961 171 171 171
23.118526458740 44.563766479492 3.901000976563 173 173 173
23.116661071777 44.556179046631 3.863998413086 177 177 177
23.116661071777 44.556179046631 3.827011108398 175 175 175
23.116661071777 44.556179046631 3.790008544922 179 179 179
23.116661071777 44.556179046631 3.753997802734 173 173 173
23.116661071777 44.556179046631 3.717010498047 174 174 174
23.116661071777 44.556179046631 3.680007934570 174 174 174
23.118526458740 44.563766479492 3.643997192383 174 174 174
23.114795684814 44.548595428467 3.606002807617 180 180 180
23.116661071777 44.556179046631 3.570007324219 173 173 173
23.114795684814 44.548595428467 3.531997680664 175 175 175
23.114795684814 44.548595428467 3.496002197266 173 173 173
23.114795684814 44.548595428467 3.458999633789 176 176 176
23.114795684814 44.548595428467 3.421005249023 175 175 175
23.114795684814 44.548595428467 3.384002685547 177 177 177
23.114795684814 44.548595428467 3.347000122070 174 174 174
23.114795684814 44.548595428467 3.309997558594 171 171 171
23.114795684814 44.548595428467 3.272003173828 167 167 167
23.114795684814 44.548595428467 3.236007690430 163 163 163
23.086315155029 44.563640594482 3.195999145508 166 166 166
23.099624633789 44.552326202393 3.158996582031 161 161 161
23.099624633789 44.552326202393 3.121002197266 163 163 163
23.114795684814 44.548595428467 3.085006713867 150 150 150
23.099624633789 44.552326202393 3.046997070313 152 152 152
23.099624633789 44.552326202393 3.008010864258 140 140 140
23.082584381104 44.548469543457 2.970001220703 138 138 138
23.099624633789 44.552326202393 2.932998657227 141 141 141
23.082584381104 44.548469543457 2.893005371094 148 148 148
23.099624633789 44.552326202393 2.856002807617 147 147 147
23.054103851318 44.563518524170 2.811004638672 205 205 205
23.037067413330 44.559661865234 2.766006469727 219 219 219
23.099624633789 44.552326202393 2.740997314453 132 132 132
23.082584381104 44.548469543457 2.702011108398 134 134 134
23.082584381104 44.548469543457 2.664001464844 134 134 134
23.082584381104 44.548469543457 2.624008178711 136 136 136
23.082584381104 44.548469543457 2.585006713867 130 130 130
23.082584381104 44.548469543457 2.542999267578 126 126 126
23.082584381104 44.548469543457 2.503997802734 123 123 123
23.109333038330 44.002864837646 5.730010986328 175 175 175
23.109333038330 44.002864837646 5.692001342773 215 215 215
23.109333038330 44.002864837646 5.654006958008 220 220 220
23.107467651367 43.995277404785 5.617004394531 190 190 190
23.107467651367 43.995277404785 5.171005249023 118 118 118
23.105602264404 43.987689971924 5.133010864258 204 204 204
23.105602264404 43.987689971924 5.096008300781 205 205 205
23.105602264404 43.987689971924 5.059997558594 173 173 173
23.094146728516 44.988113403320 5.738006591797 94 94 94
23.094146728516 44.988113403320 5.693008422852 140 140 140
23.094146728516 44.988113403320 5.649002075195 142 142 142
23.105587005615 44.969207763672 5.602996826172 142 142 142
23.094146728516 44.988113403320 5.559997558594 144 144 144
23.080837249756 44.999427795410 5.518997192383 192 192 192
23.094146728516 44.988113403320 5.253997802734 109 109 109
23.063800811768 44.995574951172 5.212005615234 156 156 156
23.063800811768 44.995574951172 5.167999267578 152 152 152
23.094146728516 44.988113403320 5.123001098633 158 158 158
23.094146728516 44.988113403320 5.080001831055 152 152 152
23.063800811768 44.995574951172 5.037002563477 135 135 135
23.182949066162 44.564018249512 5.723999023438 131 131 131
23.152603149414 44.571479797363 5.682998657227 129 129 129
23.181083679199 44.556430816650 5.638000488281 130 130 130
23.152603149414 44.571479797363 5.597000122070 128 128 128
23.181083679199 44.556430816650 5.553009033203 136 136 136
23.181083679199 44.556430816650 5.510009765625 131 131 131
23.181083679199 44.556430816650 5.467010498047 129 129 129
23.181083679199 44.556430816650 5.423995971680 132 132 132
23.150737762451 44.563892364502 5.383010864258 132 132 132
23.150737762451 44.563892364502 5.341003417969 130 130 130
23.150737762451 44.563892364502 5.298995971680 129 129 129
23.150737762451 44.563892364502 5.255996704102 132 132 132
23.150737762451 44.563892364502 5.212997436523 126 126 126
23.150737762451 44.563892364502 5.169998168945 126 126 126
23.150737762451 44.563892364502 5.128005981445 123 123 123
23.150737762451 44.563892364502 5.085998535156 132 132 132
23.150737762451 44.563892364502 5.044006347656 121 121 121
23.150737762451 44.563892364502 5.001998901367 135 135 135
23.150737762451 44.563892364502 4.960006713867 141 141 141
23.150737762451 44.563892364502 4.917007446289 147 147 147
23.150737762451 44.563892364502 4.875000000000 149 149 149
23.154468536377 44.579063415527 4.833007812500 153 153 153
23.154468536377 44.579063415527 4.791000366211 157 157 157
23.154468536377 44.579063415527 4.749008178711 158 158 158
23.154468536377 44.579063415527 4.707000732422 160 160 160
23.137432098389 44.575210571289 4.665008544922 155 155 155
23.137432098389 44.575210571289 4.623001098633 150 150 150
23.137432098389 44.575210571289 4.580001831055 153 153 153
23.137432098389 44.575210571289 4.538009643555 156 156 156
23.137432098389 44.575210571289 4.496002197266 153 153 153
23.148872375488 44.556304931641 4.454010009766 159 159 159
23.137432098389 44.575210571289 4.412002563477 160 160 160
23.137432098389 44.575210571289 4.370010375977 157 157 157
23.137432098389 44.575210571289 4.328002929688 159 159 159
23.137432098389 44.575210571289 4.286010742188 159 159 159
23.122257232666 44.578941345215 4.242996215820 157 157 157
23.137432098389 44.575210571289 4.201004028320 159 159 159
23.120391845703 44.571353912354 4.158996582031 157 157 157
23.120391845703 44.571353912354 4.117004394531 156 156 156
23.122257232666 44.578941345215 4.074005126953 165 165 165
23.120391845703 44.571353912354 4.031997680664 161 161 161
23.122257232666 44.578941345215 3.988998413086 163 163 163
23.122257232666 44.578941345215 3.947006225586 166 166 166
23.122257232666 44.578941345215 3.904006958008 169 169 169
23.120391845703 44.571353912354 3.861999511719 167 167 167
23.122257232666 44.578941345215 3.819000244141 165 165 165
23.122257232666 44.578941345215 3.777008056641 160 160 160
23.122257232666 44.578941345215 3.734008789063 165 165 165
23.122257232666 44.578941345215 3.692001342773 164 164 164
23.122257232666 44.578941345215 3.649002075195 164 164 164
23.122257232666 44.578941345215 3.605010986328 158 158 158
23.122257232666 44.578941345215 3.563003540039 151 151 151
23.108951568604 44.590255737305 3.518997192383 159 159 159
23.122257232666 44.578941345215 3.475997924805 159 159 159
23.122257232666 44.578941345215 3.432998657227 157 157 157
23.091911315918 44.586402893066 3.389007568359 155 155 155
23.122257232666 44.578941345215 3.347000122070 157 157 157
23.120391845703 44.571353912354 3.303009033203 149 149 149
23.091911315918 44.586402893066 3.258010864258 147 147 147
23.091911315918 44.586402893066 3.214996337891 152 152 152
23.120391845703 44.571353912354 3.173004150391 147 147 147
23.120391845703 44.571353912354 3.130004882813 145 145 145
23.120391845703 44.571353912354 3.085998535156 146 146 146
23.120391845703 44.571353912354 3.041000366211 141 141 141
23.090045928955 44.578815460205 2.996002197266 137 137 137
23.090045928955 44.578815460205 2.952011108398 138 138 138
23.120391845703 44.571353912354 2.911010742188 144 144 144
23.120391845703 44.571353912354 2.867004394531 148 148 148
23.103355407715 44.567497253418 2.820999145508 150 150 150
23.090045928955 44.578815460205 2.775009155273 148 148 148
23.090045928955 44.578815460205 2.730010986328 143 143 143
23.090045928955 44.578815460205 2.684997558594 149 149 149
23.090045928955 44.578815460205 2.639999389648 140 140 140
23.088180541992 44.571228027344 2.594009399414 149 149 149
23.103355407715 44.567497253418 2.552001953125 139 139 139
23.088180541992 44.571228027344 2.503005981445 131 131 131
23.112064361572 44.275730133057 5.665008544922 144 144 144
23.098754882813 44.287044525146 5.625000000000 158 158 158
23.098754882813 44.287044525146 5.580001831055 157 157 157
23.098754882813 44.287044525146 5.538009643555 163 163 163
23.085449218750 44.298362731934 5.496002197266 156 156 156
23.098754882813 44.287044525146 5.452011108398 140 140 140
23.081718444824 44.283191680908 5.324996948242 104 104 104
23.108333587646 44.260555267334 5.277999877930 152 152 152
23.112064361572 44.275730133057 5.236999511719 156 156 156
23.110198974609 44.268142700195 5.195007324219 155 155 155
23.110198974609 44.268142700195 5.152999877930 156 156 156
23.081718444824 44.283191680908 5.111007690430 145 145 145
23.003738403320 44.358680725098 4.779998779297 106 106 106
23.005603790283 44.366268157959 4.738006591797 137 137 137
23.005603790283 44.366268157959 4.695007324219 135 135 135
23.003738403320 44.358680725098 4.652008056641 131 131 131
23.030353546143 44.336044311523 4.608001708984 137 137 137
23.000007629395 44.343505859375 4.566009521484 137 137 137
23.003738403320 44.358680725098 4.523010253906 133 133 133
23.001873016357 44.351093292236 4.481002807617 143 143 143
23.003738403320 44.358680725098 4.438003540039 149 149 149
23.028488159180 44.328460693359 4.395004272461 124 124 124
23.000007629395 44.343505859375 4.352996826172 130 130 130
23.000007629395 44.343505859375 4.309997558594 105 105 105
22.988563537598 44.362411499023 4.266998291016 51 51 51
23.094406127930 43.942173004150 5.634002685547 39 39 39
23.079235076904 43.945903778076 5.126998901367 13 13 13
23.112564086914 44.146881103516 5.048995971680 209 209 209
23.112564086914 44.146881103516 5.091003417969 224 224 224
23.112564086914 44.146881103516 5.132003784180 216 216 216
23.114429473877 44.154468536377 5.173995971680 222 222 222
23.112564086914 44.146881103516 5.216003417969 218 218 218
23.112564086914 44.146881103516 5.258010864258 206 206 206
23.099254608154 44.158199310303 5.511001586914 167 167 167
23.099254608154 44.158199310303 5.553009033203 203 203 203
23.116294860840 44.162055969238 5.594009399414 213 213 213
23.099254608154 44.158199310303 5.638000488281 204 204 204
23.099254608154 44.158199310303 5.680007934570 208 208 208
23.116294860840 44.162055969238 5.722000122070 198 198 198
23.116294860840 44.162055969238 5.764007568359 43 43 43
23.050872802734 44.419498443604 4.031005859375 61 61 61
23.052738189697 44.427085876465 4.072998046875 46 46 46
23.052738189697 44.427085876465 4.115005493164 51 51 51
23.018661499023 44.419372558594 4.156005859375 82 82 82
22.986450195313 44.419246673584 4.197998046875 151 151 151
22.999755859375 44.407932281494 4.240005493164 155 155 155
22.986450195313 44.419246673584 4.283004760742 176 176 176
22.999755859375 44.407932281494 4.324996948242 173 173 173
23.018661499023 44.419372558594 4.367004394531 196 196 196
23.037567138672 44.430816650391 4.410003662109 176 176 176
22.986450195313 44.419246673584 4.452011108398 178 178 178
22.999755859375 44.407932281494 4.494003295898 160 160 160
23.037567138672 44.430816650391 4.536010742188 157 157 157
23.092411041260 44.457553863525 4.576004028320 163 163 163
23.037567138672 44.430816650391 4.620010375977 161 161 161
22.986450195313 44.419246673584 4.664001464844 186 186 186
22.986450195313 44.419246673584 4.707000732422 180 180 180
22.986450195313 44.419246673584 4.749008178711 181 181 181
22.986450195313 44.419246673584 4.792007446289 85 85 85
23.109451293945 44.461410522461 5.205001831055 170 170 170
23.111316680908 44.468997955322 5.246002197266 216 216 216
23.111316680908 44.468997955322 5.288009643555 216 216 216
23.111316680908 44.468997955322 5.331008911133 214 214 214
23.109451293945 44.461410522461 5.374008178711 218 218 218
23.111316680908 44.468997955322 5.416000366211 213 213 213
23.109451293945 44.461410522461 5.460006713867 208 208 208
23.109451293945 44.461410522461 5.501998901367 213 213 213
23.109451293945 44.461410522461 5.544006347656 203 203 203
23.090545654297 44.449970245361 5.591003417969 32 32 32
22.960700988770 44.707160949707 4.128005981445 32 32 32
22.943664550781 44.703304290771 4.169998168945 164 164 164
22.928489685059 44.707035064697 4.212997436523 171 171 171
22.943664550781 44.703304290771 4.257003784180 164 164 164
22.928489685059 44.707035064697 4.300003051758 171 171 171
22.943664550781 44.703304290771 4.343002319336 173 173 173
22.943664550781 44.703304290771 4.386001586914 183 183 183
22.960700988770 44.707160949707 4.429000854492 193 193 193
22.928489685059 44.707035064697 4.472000122070 176 176 176
22.962570190430 44.714748382568 4.514999389648 142 142 142
22.996643066406 44.722457885742 4.557006835938 138 138 138
22.979606628418 44.718601226807 4.600997924805 165 165 165
22.962570190430 44.714748382568 4.643997192383 179 179 179
22.928489685059 44.707035064697 4.688003540039 184 184 184
22.928489685059 44.707035064697 4.732009887695 179 179 179
22.943664550781 44.703304290771 4.775009155273 170 170 170
23.100738525391 44.753181457520 5.149002075195 141 141 141
23.100738525391 44.753181457520 5.191009521484 215 215 215
23.100738525391 44.753181457520 5.233001708984 219 219 219
23.100738525391 44.753181457520 5.276000976563 216 216 216
23.098876953125 44.745594024658 5.320007324219 218 218 218
23.100738525391 44.753181457520 5.363006591797 210 210 210
23.102607727051 44.760765075684 5.402999877930 216 216 216
23.100738525391 44.753181457520 5.447006225586 227 227 227
23.102607727051 44.760765075684 5.488998413086 214 214 214
23.100738525391 44.753181457520 5.533996582031 223 223 223
23.102607727051 44.760765075684 5.576004028320 216 216 216
23.102607727051 44.760765075684 5.617996215820 152 152 152
23.090164184570 45.037361145020 5.005004882813 207 207 207
23.090164184570 45.037361145020 5.048004150391 222 222 222
23.074993133545 45.041091918945 5.091003417969 219 219 219
23.090164184570 45.037361145020 5.134002685547 220 220 220
23.090164184570 45.037361145020 5.177001953125 215 215 215
23.090164184570 45.037361145020 5.220001220703 187 187 187
23.074993133545 45.041091918945 5.526000976563 45 45 45
23.109069824219 45.048805236816 5.566009521484 216 216 216
23.109069824219 45.048805236816 5.610000610352 224 224 224
23.107204437256 45.041217803955 5.654998779297 215 215 215
23.107204437256 45.041217803955 5.699005126953 228 228 228
23.109069824219 45.048805236816 5.742004394531 218 218 218
23.107204437256 45.041217803955 5.787002563477 149 149 149
23.082584381104 44.548469543457 2.471008300781 161 161 161
23.080718994141 44.540882110596 2.510009765625 160 160 160
23.082584381104 44.548469543457 2.551010131836 159 159 159
23.082584381104 44.548469543457 2.589004516602 165 165 165
23.082584381104 44.548469543457 2.628005981445 172 172 172
23.082584381104 44.548469543457 2.667007446289 172 172 172
23.099624633789 44.552326202393 2.707000732422 167 167 167
23.082584381104 44.548469543457 2.742996215820 169 169 169
23.099624633789 44.552326202393 2.783004760742 171 171 171
23.099624633789 44.552326202393 2.820999145508 176 176 176
23.082584381104 44.548469543457 2.858001708984 176 176 176
23.099624633789 44.552326202393 2.899002075195 172 172 172
23.099624633789 44.552326202393 2.936004638672 172 172 172
23.099624633789 44.552326202393 2.975006103516 171 171 171
23.099624633789 44.552326202393 3.013000488281 169 169 169
23.099624633789 44.552326202393 3.051010131836 173 173 173
23.099624633789 44.552326202393 3.087997436523 172 172 172
23.099624633789 44.552326202393 3.124008178711 172 172 172
23.114795684814 44.548595428467 3.163009643555 174 174 174
23.099624633789 44.552326202393 3.199996948242 170 170 170
23.114795684814 44.548595428467 3.238006591797 165 165 165
23.114795684814 44.548595428467 3.276000976563 166 166 166
23.099624633789 44.552326202393 3.311996459961 163 163 163
23.114795684814 44.548595428467 3.350006103516 164 164 164
23.111064910889 44.533420562744 3.388000488281 167 167 167
23.112930297852 44.541007995605 3.425003051758 163 163 163
23.114795684814 44.548595428467 3.460998535156 163 163 163
23.114795684814 44.548595428467 3.498001098633 159 159 159
23.112930297852 44.541007995605 3.536010742188 160 160 160
23.112930297852 44.541007995605 3.572998046875 162 162 162
23.114795684814 44.548595428467 3.609008789063 166 166 166
23.116661071777 44.556179046631 3.645996093750 165 165 165
23.112930297852 44.541007995605 3.682998657227 169 169 169
23.112930297852 44.541007995605 3.719009399414 168 168 168
23.114795684814 44.548595428467 3.755004882813 171 171 171
23.116661071777 44.556179046631 3.792007446289 169 169 169
23.114795684814 44.548595428467 3.829010009766 165 165 165
23.116661071777 44.556179046631 3.865005493164 167 167 167
23.114795684814 44.548595428467 3.902008056641 169 169 169
23.116661071777 44.556179046631 3.938003540039 163 163 163
23.116661071777 44.556179046631 3.975006103516 162 162 162
23.114795684814 44.548595428467 4.012008666992 153 153 153
23.114795684814 44.548595428467 4.048004150391 161 161 161
23.131835937500 44.552448272705 4.085006713867 166 166 166
23.114795684814 44.548595428467 4.121002197266 157 157 157
23.114795684814 44.548595428467 4.156997680664 168 168 168
23.131835937500 44.552448272705 4.194000244141 157 157 157
23.114795684814 44.548595428467 4.230010986328 169 169 169
23.131835937500 44.552448272705 4.266998291016 170 170 170
23.118526458740 44.563766479492 4.303009033203 168 168 168
23.131835937500 44.552448272705 4.339004516602 175 175 175
23.131835937500 44.552448272705 4.375000000000 173 173 173
23.131835937500 44.552448272705 4.412002563477 172 172 172
23.131835937500 44.552448272705 4.447998046875 169 169 169
23.131835937500 44.552448272705 4.485000610352 166 166 166
23.131835937500 44.552448272705 4.520996093750 170 170 170
23.131835937500 44.552448272705 4.557006835938 166 166 166
23.131835937500 44.552448272705 4.594009399414 164 164 164
23.131835937500 44.552448272705 4.630004882813 165 165 165
23.148872375488 44.556304931641 4.666000366211 169 169 169
23.131835937500 44.552448272705 4.703002929688 169 169 169
23.148872375488 44.556304931641 4.738998413086 170 170 170
23.148872375488 44.556304931641 4.776000976563 165 165 165
23.148872375488 44.556304931641 4.811996459961 162 162 162
23.148872375488 44.556304931641 4.848999023438 157 157 157
23.164047241211 44.552574157715 4.885009765625 153 153 153
23.164047241211 44.552574157715 4.921005249023 140 140 140
23.164047241211 44.552574157715 4.958007812500 145 145 145
23.164047241211 44.552574157715 4.995010375977 129 129 129
23.164047241211 44.552574157715 5.031997680664 121 121 121
23.179218292236 44.548843383789 5.066009521484 118 118 118
23.164047241211 44.552574157715 5.105010986328 117 117 117
23.164047241211 44.552574157715 5.143005371094 121 121 121
23.179218292236 44.548843383789 5.178009033203 119 119 119
23.181083679199 44.556430816650 5.214004516602 115 115 115
23.181083679199 44.556430816650 5.251998901367 115 115 115
23.209564208984 44.541381835938 5.281005859375 176 176 176
23.209564208984 44.541381835938 5.319000244141 151 151 151
23.179218292236 44.548843383789 5.361007690430 117 117 117
23.179218292236 44.548843383789 5.398010253906 114 114 114
23.209564208984 44.541381835938 5.430007934570 158 158 158
23.211429595947 44.548969268799 5.466003417969 178 178 178
23.196258544922 44.552700042725 5.509002685547 120 120 120
23.196258544922 44.552700042725 5.546005249023 127 127 127
23.196258544922 44.552700042725 5.583999633789 123 123 123
23.196258544922 44.552700042725 5.623001098633 124 124 124
23.196258544922 44.552700042725 5.658996582031 127 127 127
23.179218292236 44.548843383789 5.699996948242 123 123 123
23.196258544922 44.552700042725 5.734008789063 56 56 56
23.103973388672 44.897197723389 5.063003540039 193 193 193
23.090663909912 44.908515930176 5.100997924805 211 211 211
23.103973388672 44.897197723389 5.139007568359 212 212 212
23.073627471924 44.904659271240 5.178009033203 211 211 211
23.090663909912 44.908515930176 5.214996337891 219 219 219
23.103973388672 44.897197723389 5.253005981445 208 208 208
23.105838775635 44.904785156250 5.289001464844 159 159 159
23.105838775635 44.904785156250 5.442001342773 152 152 152
23.105838775635 44.904785156250 5.481002807617 199 199 199
23.105838775635 44.904785156250 5.518997192383 200 200 200
23.105838775635 44.904785156250 5.557998657227 193 193 193
23.105838775635 44.904785156250 5.596008300781 198 198 198
23.105838775635 44.904785156250 5.635009765625 193 193 193
23.105838775635 44.904785156250 5.675003051758 174 174 174
23.077121734619 44.002738952637 5.803009033203 59 59 59
23.077121734619 44.002738952637 5.758010864258 131 131 131
23.105602264404 43.987689971924 5.714004516602 176 176 176
23.077121734619 44.002738952637 5.673004150391 175 175 175
23.105602264404 43.987689971924 5.628005981445 171 171 171
23.080852508545 44.017910003662 5.589996337891 71 71 71
23.092292785645 43.999008178711 5.164001464844 155 155 155
23.105602264404 43.987689971924 5.121002197266 206 206 206
23.105602264404 43.987689971924 5.079010009766 168 168 168
23.092292785645 43.999008178711 5.039001464844 161 161 161
23.092292785645 43.999008178711 4.996002197266 119 119 119
22.808853149414 44.285923004150 4.675003051758 34 34 34
22.850643157959 44.259555816650 4.630004882813 69 69 69
22.846912384033 44.244380950928 4.585998535156 60 60 60
23.105968475342 44.381816864014 5.617996215820 68 68 68
23.077487945557 44.396862030029 5.578002929688 172 172 172
23.077487945557 44.396862030029 5.536010742188 171 171 171
23.105968475342 44.381816864014 5.490005493164 174 174 174
23.077487945557 44.396862030029 5.447006225586 173 173 173
23.077487945557 44.396862030029 5.404998779297 160 160 160
23.105968475342 44.381816864014 5.361007690430 165 165 165
23.092658996582 44.393131256104 5.319000244141 163 163 163
23.105968475342 44.381816864014 5.276000976563 159 159 159
23.092658996582 44.393131256104 5.233001708984 161 161 161
23.092658996582 44.393131256104 5.191009521484 150 150 150
22.953739166260 44.547969818115 4.777008056641 140 140 140
22.967048645020 44.536651611328 4.732009887695 172 172 172
22.967048645020 44.536651611328 4.689010620117 143 143 143
22.953739166260 44.547969818115 4.645996093750 153 153 153
22.950008392334 44.532794952393 4.602996826172 143 143 143
22.976623535156 44.510162353516 4.559005737305 144 144 144
23.005104064941 44.495113372803 4.514999389648 148 148 148
23.029853820801 44.464893341064 4.472000122070 147 147 147
22.978488922119 44.517745971680 4.430007934570 124 124 124
22.953739166260 44.547969818115 4.386001586914 132 132 132
22.980354309082 44.525333404541 4.343002319336 101 101 101
23.006969451904 44.502700805664 4.301010131836 108 108 108
22.978488922119 44.517745971680 4.257003784180 93 93 93
22.967048645020 44.536651611328 4.212997436523 100 100 100
22.967048645020 44.536651611328 4.169998168945 133 133 133
22.980354309082 44.525333404541 4.126998901367 177 177 177
22.967048645020 44.536651611328 4.083007812500 16 16 16
23.075988769531 44.783401489258 5.650009155273 22 22 22
23.093029022217 44.787258148193 5.605010986328 156 156 156
23.093029022217 44.787258148193 5.561004638672 160 160 160
23.093029022217 44.787258148193 5.518005371094 154 154 154
23.093029022217 44.787258148193 5.473999023438 154 154 154
23.104469299316 44.768352508545 5.429000854492 159 159 159
23.093029022217 44.787258148193 5.343002319336 161 161 161
23.077857971191 44.790988922119 5.303009033203 166 166 166
23.077857971191 44.790988922119 5.258010864258 164 164 164
23.079719543457 44.798572540283 5.214996337891 169 169 169
23.093029022217 44.787258148193 5.171005249023 170 170 170
23.064548492432 44.802303314209 5.130004882813 133 133 133
23.112800598145 45.063976287842 4.962997436523 185 185 185
23.110935211182 45.056392669678 5.001007080078 209 209 209
23.112800598145 45.063976287842 5.039001464844 216 216 216
23.110935211182 45.056392669678 5.076004028320 209 209 209
23.110935211182 45.056392669678 5.115005493164 219 219 219
23.110935211182 45.056392669678 5.152008056641 211 211 211
23.112800598145 45.063976287842 5.192001342773 185 185 185
23.110935211182 45.056392669678 5.496002197266 185 185 185
