26.734375000000 10.406250000000 3.544002532959 145 145 145
26.734375000000 10.406250000000 3.587001800537 147 147 147
26.718750000000 10.390625000000 3.630001068115 149 149 149
26.734375000000 10.406250000000 3.671001434326 150 150 150
26.734375000000 10.406250000000 3.711002349854 152 152 152
26.734375000000 10.406250000000 3.753002166748 146 146 146
26.734375000000 10.406250000000 3.795001983643 140 140 140
26.703125000000 10.406250000000 3.837001800537 138 138 138
26.734375000000 10.406250000000 3.875000000000 145 145 145
26.703125000000 10.406250000000 3.919002532959 145 145 145
26.703125000000 10.406250000000 3.960002899170 144 144 144
26.703125000000 10.406250000000 4.001003265381 143 143 143
26.703125000000 10.406250000000 4.041000366211 143 143 143
26.703125000000 10.406250000000 4.080001831055 137 137 137
26.703125000000 10.406250000000 4.122001647949 144 144 144
26.703125000000 10.406250000000 4.162002563477 139 139 139
26.703125000000 10.406250000000 4.202003479004 140 140 140
26.703125000000 10.390625000000 4.244003295898 134 134 134
26.703125000000 10.406250000000 4.283000946045 137 137 137
26.703125000000 10.390625000000 4.325000762939 133 133 133
26.671875000000 10.390625000000 4.366001129150 133 133 133
26.703125000000 10.406250000000 4.404003143311 133 133 133
26.671875000000 10.390625000000 4.444000244141 134 134 134
26.671875000000 10.390625000000 4.484001159668 133 133 133
26.671875000000 10.375000000000 4.526000976563 149 149 149
26.671875000000 10.390625000000 4.563003540039 146 146 146
26.671875000000 10.375000000000 4.603000640869 145 145 145
26.671875000000 10.375000000000 4.642002105713 146 146 146
26.671875000000 10.390625000000 4.680000305176 140 140 140
26.671875000000 10.375000000000 4.720001220703 135 135 135
26.671875000000 10.390625000000 4.756999969482 130 130 130
26.671875000000 10.390625000000 4.796001434326 133 133 133
26.671875000000 10.390625000000 4.835002899170 128 128 128
26.671875000000 10.390625000000 4.874000549316 126 126 126
26.671875000000 10.375000000000 4.913002014160 124 124 124
26.671875000000 10.375000000000 4.951000213623 131 131 131
26.671875000000 10.375000000000 4.989002227783 131 131 131
26.671875000000 10.375000000000 5.028003692627 136 136 136
26.671875000000 10.375000000000 5.067001342773 140 140 140
26.671875000000 10.390625000000 5.105003356934 141 141 141
26.671875000000 10.390625000000 5.143001556396 143 143 143
26.671875000000 10.406250000000 5.181003570557 140 140 140
26.703125000000 10.406250000000 5.217998504639 135 135 135
26.671875000000 10.406250000000 5.256999969482 134 134 134
26.703125000000 10.406250000000 5.295001983643 135 135 135
26.703125000000 10.406250000000 5.333003997803 141 141 141
26.734375000000 10.437500000000 5.370998382568 139 139 139
26.734375000000 10.421875000000 5.409999847412 152 152 152
26.734375000000 10.437500000000 5.448001861572 132 132 132
26.765625000000 10.437500000000 5.486003875732 148 148 148
26.765625000000 10.453125000000 5.525005340576 163 163 163
26.765625000000 10.437500000000 5.563999176025 150 150 150
26.765625000000 10.437500000000 5.602001190186 166 166 166
26.671875000000 10.406250000000 5.639003753662 128 128 128
26.671875000000 10.390625000000 5.676998138428 117 117 117
26.671875000000 10.406250000000 5.715999603271 108 108 108
26.703125000000 10.406250000000 5.755001068115 96 96 96
26.734375000000 10.421875000000 5.794002532959 86 86 86
26.734375000000 10.437500000000 5.834003448486 71 71 71
26.765625000000 10.437500000000 5.873004913330 29 29 29
26.781250000000 10.468750000000 6.188999176025 175 175 175
26.796875000000 10.468750000000 6.229000091553 188 188 188
26.796875000000 10.468750000000 6.268001556396 186 186 186
26.781250000000 10.468750000000 6.306003570557 182 182 182
26.781250000000 10.468750000000 6.346004486084 183 183 183
26.796875000000 10.468750000000 6.387004852295 184 184 184
26.781250000000 10.468750000000 6.425998687744 180 180 180
26.781250000000 10.468750000000 6.465000152588 181 181 181
26.781250000000 10.468750000000 6.506000518799 180 180 180
26.781250000000 10.468750000000 6.546001434326 110 110 110
26.765625000000 10.765625000000 6.013004302979 173 173 173
26.765625000000 10.765625000000 6.050998687744 188 188 188
26.765625000000 10.765625000000 6.090999603271 186 186 186
26.765625000000 10.765625000000 6.130001068115 187 187 187
26.765625000000 10.765625000000 6.169002532959 188 188 188
26.781250000000 10.781250000000 6.209003448486 183 183 183
26.765625000000 10.765625000000 6.247005462646 84 84 84
26.781250000000 10.781250000000 6.485004425049 158 158 158
26.765625000000 10.765625000000 6.522998809814 186 186 186
26.765625000000 10.765625000000 6.562999725342 183 183 183
26.765625000000 10.781250000000 6.603000640869 182 182 182
26.765625000000 10.781250000000 6.643001556396 187 187 187
26.765625000000 10.781250000000 6.684001922607 182 182 182
26.765625000000 10.781250000000 6.724002838135 136 136 136
26.890625000000 9.875000000000 6.791004180908 57 57 57
26.890625000000 9.875000000000 6.745998382568 169 169 169
26.890625000000 9.875000000000 6.706005096436 182 182 182
26.890625000000 9.875000000000 6.667003631592 173 173 173
26.890625000000 9.875000000000 6.625003814697 173 173 173
26.890625000000 9.875000000000 6.583003997803 173 173 173
26.890625000000 9.875000000000 6.543003082275 144 144 144
26.859375000000 9.875000000000 6.175998687744 160 160 160
26.859375000000 9.875000000000 6.137004852295 178 178 178
26.875000000000 9.875000000000 6.097003936768 180 180 180
26.859375000000 9.875000000000 6.057003021240 187 187 187
26.859375000000 9.875000000000 6.016002655029 224 224 224
26.859375000000 9.875000000000 5.976001739502 171 171 171
26.890625000000 9.875000000000 5.937999725342 58 58 58
26.890625000000 10.203125000000 6.599002838135 18 18 18
26.875000000000 10.218750000000 6.555004119873 168 168 168
26.875000000000 10.218750000000 6.515003204346 174 174 174
26.859375000000 10.203125000000 6.474002838135 173 173 173
26.875000000000 10.218750000000 6.434001922607 173 173 173
26.875000000000 10.218750000000 6.394001007080 181 181 181
26.859375000000 10.218750000000 6.351001739502 170 170 170
26.859375000000 10.218750000000 6.311000823975 185 185 185
26.859375000000 10.218750000000 6.270999908447 179 179 179
26.859375000000 10.218750000000 6.230998992920 178 178 178
26.859375000000 10.203125000000 6.192005157471 179 179 179
26.859375000000 10.218750000000 6.151004791260 147 147 147
27.015625000000 10.125000000000 5.598003387451 49 49 49
27.015625000000 10.125000000000 5.557003021240 147 147 147
27.015625000000 10.125000000000 5.516002655029 158 158 158
27.015625000000 10.125000000000 5.476001739502 161 161 161
27.015625000000 10.125000000000 5.435001373291 153 153 153
27.015625000000 10.125000000000 5.394001007080 156 156 156
27.000000000000 10.109375000000 5.354000091553 150 150 150
26.984375000000 10.125000000000 5.312999725342 140 140 140
26.984375000000 10.125000000000 5.272998809814 146 146 146
26.968750000000 10.125000000000 5.233005523682 115 115 115
26.968750000000 10.125000000000 5.192001342773 36 36 36
26.828125000000 10.562500000000 6.567005157471 159 159 159
26.828125000000 10.546875000000 6.529003143311 182 182 182
26.828125000000 10.546875000000 6.488002777100 179 179 179
26.828125000000 10.546875000000 6.448001861572 185 185 185
26.828125000000 10.546875000000 6.408000946045 180 180 180
26.828125000000 10.546875000000 6.367000579834 177 177 177
26.828125000000 10.546875000000 6.327999114990 171 171 171
26.828125000000 10.531250000000 6.289005279541 174 174 174
26.828125000000 10.546875000000 6.248004913330 172 172 172
26.828125000000 10.546875000000 6.209003448486 175 175 175
26.828125000000 10.546875000000 6.168003082275 170 170 170
26.828125000000 10.531250000000 6.129001617432 68 68 68
26.953125000000 10.468750000000 5.617000579834 138 138 138
26.953125000000 10.468750000000 5.576000213623 146 146 146
26.953125000000 10.468750000000 5.535999298096 146 146 146
26.953125000000 10.468750000000 5.495998382568 147 147 147
26.953125000000 10.468750000000 5.454998016357 143 143 143
26.953125000000 10.468750000000 5.415004730225 141 141 141
26.953125000000 10.468750000000 5.375003814697 151 151 151
26.921875000000 10.484375000000 5.335002899170 147 147 147
26.890625000000 10.500000000000 5.296001434326 144 144 144
26.953125000000 10.468750000000 5.254001617432 163 163 163
26.953125000000 10.468750000000 5.214000701904 156 156 156
26.953125000000 10.468750000000 5.174003601074 150 150 150
26.921875000000 10.468750000000 5.134002685547 147 147 147
26.921875000000 10.468750000000 5.093002319336 151 151 151
26.921875000000 10.484375000000 5.054000854492 147 147 147
26.921875000000 10.484375000000 5.013999938965 129 129 129
26.921875000000 10.484375000000 4.973003387451 142 142 142
26.921875000000 10.484375000000 4.933002471924 15 15 15
26.796875000000 10.875000000000 6.750003814697 179 179 179
26.796875000000 10.875000000000 6.709003448486 183 183 183
26.796875000000 10.875000000000 6.668003082275 186 186 186
26.796875000000 10.875000000000 6.629001617432 188 188 188
26.796875000000 10.875000000000 6.587001800537 183 183 183
26.796875000000 10.875000000000 6.547000885010 177 177 177
26.796875000000 10.875000000000 6.187999725342 112 112 112
26.796875000000 10.875000000000 6.148998260498 170 170 170
26.796875000000 10.875000000000 6.109004974365 179 179 179
26.796875000000 10.875000000000 6.069004058838 177 177 177
26.796875000000 10.875000000000 6.030002593994 179 179 179
26.796875000000 10.875000000000 5.990001678467 171 171 171
26.781250000000 10.875000000000 5.950000762939 120 120 120
26.859375000000 9.859375000000 5.942005157471 205 205 205
26.859375000000 9.875000000000 5.977001190186 235 235 235
26.859375000000 9.875000000000 6.012004852295 231 231 231
26.875000000000 9.859375000000 6.047000885010 241 241 241
26.875000000000 9.859375000000 6.083003997803 3 3 3
26.875000000000 9.859375000000 6.118000030518 249 249 249
26.859375000000 9.875000000000 6.152004241943 236 236 236
26.859375000000 9.875000000000 6.187000274658 120 120 120
26.859375000000 9.875000000000 6.506999969482 175 175 175
26.859375000000 9.875000000000 6.542003631592 219 219 219
26.859375000000 9.875000000000 6.577999114990 225 225 225
26.859375000000 9.875000000000 6.613002777100 217 217 217
26.859375000000 9.875000000000 6.651004791260 224 224 224
26.859375000000 9.875000000000 6.687000274658 222 222 222
26.859375000000 9.875000000000 6.723003387451 213 213 213
26.953125000000 10.171875000000 5.129001617432 133 133 133
26.953125000000 10.171875000000 5.164001464844 181 181 181
26.953125000000 10.171875000000 5.199001312256 193 193 193
26.953125000000 10.171875000000 5.234004974365 197 197 197
26.953125000000 10.171875000000 5.268001556396 198 198 198
26.953125000000 10.171875000000 5.303005218506 178 178 178
26.953125000000 10.171875000000 5.338001251221 184 184 184
26.953125000000 10.187500000000 5.373004913330 177 177 177
26.921875000000 10.187500000000 5.407001495361 188 188 188
26.921875000000 10.187500000000 5.442005157471 187 187 187
26.953125000000 10.187500000000 5.478000640869 189 189 189
26.984375000000 10.187500000000 5.513004302979 196 196 196
26.984375000000 10.187500000000 5.548000335693 196 196 196
26.984375000000 10.187500000000 5.583003997803 190 190 190
27.000000000000 10.187500000000 5.618999481201 82 82 82
26.828125000000 10.187500000000 6.126003265381 206 206 206
26.828125000000 10.187500000000 6.160999298096 236 236 236
26.828125000000 10.187500000000 6.198001861572 239 239 239
26.828125000000 10.187500000000 6.230998992920 232 232 232
26.828125000000 10.187500000000 6.267002105713 235 235 235
26.828125000000 10.187500000000 6.300998687744 229 229 229
26.828125000000 10.187500000000 6.336002349854 220 220 220
26.828125000000 10.187500000000 6.372005462646 226 226 226
26.828125000000 10.187500000000 6.409000396729 224 224 224
26.828125000000 10.187500000000 6.444004058838 221 221 221
26.828125000000 10.187500000000 6.479000091553 223 223 223
26.828125000000 10.187500000000 6.514003753662 220 220 220
26.828125000000 10.187500000000 6.549999237061 205 205 205
26.703125000000 10.468750000000 3.086002349854 175 175 175
26.656250000000 10.468750000000 3.136001586914 164 164 164
26.640625000000 10.468750000000 3.177001953125 153 153 153
26.671875000000 10.468750000000 3.203002929688 115 115 115
26.703125000000 10.468750000000 3.234001159668 120 120 120
26.703125000000 10.468750000000 3.267002105713 139 139 139
26.671875000000 10.468750000000 3.316001892090 153 153 153
26.734375000000 10.468750000000 3.339000701904 137 137 137
26.734375000000 10.468750000000 3.377002716064 130 130 130
26.734375000000 10.468750000000 3.409000396729 137 137 137
26.734375000000 10.468750000000 3.448001861572 142 142 142
26.734375000000 10.468750000000 3.481002807617 147 147 147
26.734375000000 10.468750000000 3.520000457764 150 150 150
26.734375000000 10.468750000000 3.556003570557 151 151 151
26.734375000000 10.468750000000 3.592002868652 152 152 152
26.734375000000 10.468750000000 3.627002716064 152 152 152
26.734375000000 10.468750000000 3.664001464844 150 150 150
26.734375000000 10.468750000000 3.699001312256 149 149 149
26.734375000000 10.468750000000 3.735000610352 154 154 154
26.734375000000 10.468750000000 3.772003173828 158 158 158
26.765625000000 10.468750000000 3.805000305176 166 166 166
26.734375000000 10.468750000000 3.841003417969 172 172 172
26.765625000000 10.468750000000 3.869003295898 193 193 193
26.765625000000 10.468750000000 4.017002105713 132 132 132
26.765625000000 10.468750000000 4.053001403809 137 137 137
26.765625000000 10.468750000000 4.089000701904 121 121 121
26.734375000000 10.468750000000 4.125000000000 114 114 114
26.765625000000 10.468750000000 4.158000946045 113 113 113
26.734375000000 10.468750000000 4.195003509521 109 109 109
26.765625000000 10.468750000000 4.228000640869 104 104 104
26.750000000000 10.484375000000 4.263000488281 103 103 103
26.765625000000 10.468750000000 4.296001434326 104 104 104
26.750000000000 10.484375000000 4.332000732422 94 94 94
26.750000000000 10.484375000000 4.367000579834 94 94 94
26.750000000000 10.484375000000 4.402000427246 92 92 92
26.765625000000 10.468750000000 4.435001373291 86 86 86
26.750000000000 10.484375000000 4.469001770020 74 74 74
26.765625000000 10.468750000000 4.503002166748 41 41 41
26.890625000000 10.500000000000 4.938003540039 84 84 84
26.890625000000 10.500000000000 4.973003387451 194 194 194
26.875000000000 10.500000000000 5.008003234863 178 178 178
26.890625000000 10.500000000000 5.042003631592 201 201 201
26.890625000000 10.500000000000 5.076000213623 202 202 202
26.890625000000 10.500000000000 5.111000061035 202 202 202
26.890625000000 10.500000000000 5.145000457764 203 203 203
26.890625000000 10.500000000000 5.180000305176 191 191 191
26.875000000000 10.500000000000 5.215000152588 192 192 192
26.796875000000 10.500000000000 5.250003814697 177 177 177
26.843750000000 10.500000000000 5.283000946045 182 182 182
26.859375000000 10.500000000000 5.318004608154 186 186 186
26.859375000000 10.500000000000 5.352001190186 184 184 184
26.859375000000 10.500000000000 5.386005401611 174 174 174
26.796875000000 10.500000000000 5.419002532959 177 177 177
26.921875000000 10.500000000000 5.457004547119 183 183 183
26.921875000000 10.500000000000 5.491001129150 186 186 186
26.921875000000 10.500000000000 5.526004791260 181 181 181
26.921875000000 10.500000000000 5.561000823975 190 190 190
26.921875000000 10.500000000000 5.596004486084 189 189 189
26.921875000000 10.500000000000 5.631000518799 71 71 71
26.828125000000 10.500000000000 6.140003204346 179 179 179
26.796875000000 10.500000000000 6.172000885010 220 220 220
26.796875000000 10.500000000000 6.208003997803 227 227 227
26.828125000000 10.515625000000 6.243999481201 224 224 224
26.828125000000 10.515625000000 6.279003143311 227 227 227
26.828125000000 10.515625000000 6.312999725342 226 226 226
26.796875000000 10.515625000000 6.346004486084 215 215 215
26.828125000000 10.515625000000 6.382999420166 228 228 228
26.828125000000 10.515625000000 6.419002532959 227 227 227
26.796875000000 10.500000000000 6.452999114990 223 223 223
26.796875000000 10.515625000000 6.488002777100 223 223 223
26.796875000000 10.515625000000 6.523998260498 221 221 221
26.796875000000 10.515625000000 6.559001922607 129 129 129
26.796875000000 10.812500000000 5.949001312256 52 52 52
26.765625000000 10.812500000000 5.979000091553 222 222 222
26.765625000000 10.812500000000 6.015003204346 234 234 234
26.765625000000 10.812500000000 6.048999786377 231 231 231
26.765625000000 10.812500000000 6.083003997803 229 229 229
26.765625000000 10.812500000000 6.117000579834 232 232 232
26.765625000000 10.812500000000 6.152004241943 226 226 226
26.765625000000 10.812500000000 6.186000823975 212 212 212
26.765625000000 10.812500000000 6.503002166748 190 190 190
26.765625000000 10.812500000000 6.537998199463 222 222 222
26.765625000000 10.828125000000 6.572002410889 221 221 221
26.765625000000 10.828125000000 6.609004974365 221 221 221
26.765625000000 10.828125000000 6.644001007080 222 222 222
26.765625000000 10.828125000000 6.679004669189 222 222 222
26.765625000000 10.828125000000 6.715999603271 221 221 221
26.750000000000 10.828125000000 6.749004364014 123 123 123
26.796875000000 10.718750000000 6.695003509521 159 159 159
26.796875000000 10.718750000000 6.657001495361 186 186 186
26.796875000000 10.718750000000 6.615001678467 187 187 187
26.796875000000 10.718750000000 6.573001861572 189 189 189
26.796875000000 10.718750000000 6.534999847412 186 186 186
26.796875000000 10.718750000000 6.493999481201 187 187 187
26.796875000000 10.703125000000 6.454998016357 96 96 96
26.796875000000 10.703125000000 6.295001983643 120 120 120
26.796875000000 10.703125000000 6.255001068115 172 172 172
26.796875000000 10.703125000000 6.215000152588 179 179 179
26.796875000000 10.703125000000 6.174999237061 176 176 176
26.796875000000 10.703125000000 6.134998321533 180 180 180
26.796875000000 10.703125000000 6.095005035400 173 173 173
26.796875000000 10.703125000000 6.055004119873 108 108 108
26.921875000000 10.625000000000 5.623004913330 150 150 150
26.906250000000 10.625000000000 5.583003997803 153 153 153
26.906250000000 10.625000000000 5.543003082275 160 160 160
26.890625000000 10.625000000000 5.503002166748 147 147 147
26.875000000000 10.625000000000 5.463001251221 137 137 137
26.890625000000 10.625000000000 5.423000335693 127 127 127
26.906250000000 10.625000000000 5.381999969482 148 148 148
26.890625000000 10.625000000000 5.341999053955 152 152 152
26.875000000000 10.625000000000 5.301998138428 154 154 154
26.859375000000 10.656250000000 5.264003753662 177 177 177
26.859375000000 10.625000000000 5.223003387451 166 166 166
26.875000000000 10.625000000000 5.182003021240 143 143 143
26.875000000000 10.625000000000 5.142002105713 89 89 89
26.796875000000 10.406250000000 6.719005584717 152 152 152
26.796875000000 10.406250000000 6.678005218506 154 154 154
26.796875000000 10.390625000000 6.639003753662 153 153 153
26.796875000000 10.390625000000 6.598003387451 153 153 153
26.796875000000 10.406250000000 6.558002471924 158 158 158
26.796875000000 10.406250000000 6.517002105713 153 153 153
26.796875000000 10.390625000000 6.476001739502 152 152 152
26.796875000000 10.390625000000 6.437999725342 149 149 149
26.796875000000 10.390625000000 6.396999359131 161 161 161
26.796875000000 10.406250000000 6.355998992920 151 151 151
26.796875000000 10.390625000000 6.315998077393 141 141 141
26.796875000000 10.390625000000 6.278003692627 145 145 145
26.796875000000 10.375000000000 6.237003326416 146 146 146
26.796875000000 10.390625000000 6.197002410889 146 146 146
26.796875000000 10.390625000000 6.157001495361 147 147 147
26.796875000000 10.390625000000 6.117000579834 145 145 145
26.796875000000 10.390625000000 6.077999114990 147 147 147
26.796875000000 10.406250000000 6.036998748779 143 143 143
26.796875000000 10.406250000000 5.998004913330 152 152 152
26.796875000000 10.390625000000 5.959003448486 142 142 142
26.796875000000 10.390625000000 5.919002532959 150 150 150
26.796875000000 10.390625000000 5.879001617432 150 150 150
26.796875000000 10.390625000000 5.840000152588 154 154 154
26.796875000000 10.390625000000 5.800998687744 148 148 148
26.796875000000 10.390625000000 5.761005401611 148 148 148
26.796875000000 10.390625000000 5.722003936768 147 147 147
26.796875000000 10.390625000000 5.682003021240 152 152 152
26.796875000000 10.390625000000 5.643001556396 152 152 152
26.796875000000 10.390625000000 5.604000091553 155 155 155
26.796875000000 10.390625000000 5.563999176025 157 157 157
26.765625000000 10.390625000000 5.525005340576 154 154 154
26.765625000000 10.390625000000 5.486003875732 153 153 153
26.796875000000 10.390625000000 5.447002410889 150 150 150
26.796875000000 10.390625000000 5.407001495361 144 144 144
26.765625000000 10.375000000000 5.368000030518 139 139 139
26.765625000000 10.375000000000 5.328998565674 141 141 141
26.765625000000 10.390625000000 5.290004730225 135 135 135
26.765625000000 10.406250000000 5.251003265381 140 140 140
26.765625000000 10.390625000000 5.212001800537 132 132 132
26.765625000000 10.406250000000 5.173000335693 138 138 138
26.765625000000 10.390625000000 5.133003234863 142 142 142
26.734375000000 10.406250000000 5.095001220703 143 143 143
26.734375000000 10.406250000000 5.056003570557 139 139 139
26.734375000000 10.406250000000 5.017002105713 142 142 142
26.734375000000 10.406250000000 4.978000640869 139 139 139
26.734375000000 10.406250000000 4.938003540039 144 144 144
26.734375000000 10.406250000000 4.899002075195 142 142 142
26.734375000000 10.406250000000 4.861000061035 144 144 144
26.734375000000 10.406250000000 4.820003509521 142 142 142
26.734375000000 10.406250000000 4.782001495361 140 140 140
26.734375000000 10.406250000000 4.742000579834 141 141 141
26.734375000000 10.406250000000 4.704002380371 139 139 139
26.734375000000 10.406250000000 4.663002014160 148 148 148
26.703125000000 10.406250000000 4.626003265381 144 144 144
26.734375000000 10.406250000000 4.585002899170 141 141 141
26.703125000000 10.406250000000 4.548000335693 147 147 147
26.703125000000 10.406250000000 4.506999969482 133 133 133
26.703125000000 10.406250000000 4.467002868652 142 142 142
26.703125000000 10.406250000000 4.428001403809 141 141 141
26.703125000000 10.406250000000 4.387001037598 136 136 136
26.703125000000 10.406250000000 4.349002838135 141 141 141
26.671875000000 10.406250000000 4.311000823975 137 137 137
26.703125000000 10.406250000000 4.269001007080 142 142 142
26.671875000000 10.406250000000 4.231002807617 146 146 146
26.687500000000 10.406250000000 4.189002990723 142 142 142
26.687500000000 10.406250000000 4.150001525879 142 142 142
26.671875000000 10.406250000000 4.111000061035 140 140 140
26.671875000000 10.421875000000 4.072002410889 136 136 136
26.671875000000 10.421875000000 4.031002044678 136 136 136
26.671875000000 10.406250000000 3.989002227783 134 134 134
26.671875000000 10.406250000000 3.950000762939 135 135 135
26.671875000000 10.406250000000 3.908000946045 135 135 135
26.671875000000 10.406250000000 3.866001129150 137 137 137
26.671875000000 10.406250000000 3.826000213623 138 138 138
26.671875000000 10.406250000000 3.785003662109 138 138 138
26.671875000000 10.406250000000 3.744003295898 137 137 137
26.671875000000 10.406250000000 3.705001831055 143 143 143
26.671875000000 10.421875000000 3.665000915527 141 141 141
26.671875000000 10.406250000000 3.622001647949 135 135 135
26.671875000000 10.406250000000 3.578002929688 143 143 143
26.671875000000 10.406250000000 3.536003112793 146 146 146
26.671875000000 10.406250000000 3.497001647949 147 147 147
26.671875000000 10.406250000000 3.455001831055 153 153 153
26.671875000000 10.421875000000 3.414001464844 149 149 149
26.671875000000 10.406250000000 3.369003295898 162 162 162
26.671875000000 10.421875000000 3.328002929688 158 158 158
26.671875000000 10.406250000000 3.285003662109 144 144 144
26.671875000000 10.406250000000 3.245002746582 158 158 158
26.640625000000 10.437500000000 3.127002716064 169 169 169
26.671875000000 10.406250000000 3.144001007080 158 158 158
26.859375000000 10.062500000000 6.670001983643 153 153 153
26.859375000000 10.062500000000 6.629001617432 171 171 171
26.859375000000 10.062500000000 6.589000701904 173 173 173
26.859375000000 10.062500000000 6.548000335693 172 172 172
26.859375000000 10.062500000000 6.506999969482 176 176 176
26.859375000000 10.062500000000 6.466999053955 173 173 173
26.859375000000 10.046875000000 6.426998138428 18 18 18
26.859375000000 10.046875000000 6.305004119873 173 173 173
26.859375000000 10.062500000000 6.263004302979 176 176 176
26.859375000000 10.046875000000 6.225002288818 178 178 178
26.859375000000 10.062500000000 6.183002471924 178 178 178
26.859375000000 10.046875000000 6.144001007080 180 180 180
26.859375000000 10.046875000000 6.103000640869 177 177 177
26.859375000000 10.046875000000 6.063999176025 23 23 23
26.890625000000 9.734375000000 6.653003692627 92 92 92
26.859375000000 9.734375000000 6.124004364014 109 109 109
26.765625000000 10.890625000000 5.972003936768 138 138 138
26.765625000000 10.906250000000 6.012004852295 184 184 184
26.765625000000 10.890625000000 6.049999237061 179 179 179
26.734375000000 10.875000000000 6.089000701904 212 212 212
26.765625000000 10.890625000000 6.129001617432 211 211 211
26.765625000000 10.890625000000 6.168003082275 174 174 174
26.734375000000 10.875000000000 6.561000823975 41 41 41
26.765625000000 10.890625000000 6.601001739502 179 179 179
26.765625000000 10.890625000000 6.641002655029 184 184 184
26.765625000000 10.890625000000 6.682003021240 182 182 182
26.765625000000 10.890625000000 6.722003936768 190 190 190
26.765625000000 10.890625000000 6.763004302979 178 178 178
26.765625000000 10.890625000000 6.800998687744 80 80 80
26.828125000000 10.625000000000 5.173000335693 95 95 95
26.828125000000 10.625000000000 5.213001251221 168 168 168
26.828125000000 10.625000000000 5.252002716064 179 179 179
26.828125000000 10.625000000000 5.291004180908 180 180 180
26.859375000000 10.656250000000 5.328998565674 171 171 171
26.859375000000 10.656250000000 5.368999481201 176 176 176
26.859375000000 10.656250000000 5.408000946045 169 169 169
26.859375000000 10.640625000000 5.448001861572 169 169 169
26.859375000000 10.656250000000 5.487003326416 173 173 173
26.890625000000 10.656250000000 5.527004241943 176 176 176
26.859375000000 10.640625000000 5.565998077393 173 173 173
26.890625000000 10.656250000000 5.605998992920 168 168 168
26.796875000000 10.593750000000 6.113002777100 134 134 134
26.796875000000 10.593750000000 6.151004791260 186 186 186
26.796875000000 10.593750000000 6.192005157471 187 187 187
26.796875000000 10.593750000000 6.229999542236 185 185 185
26.796875000000 10.593750000000 6.270000457764 186 186 186
26.796875000000 10.593750000000 6.310001373291 185 185 185
26.796875000000 10.593750000000 6.349002838135 149 149 149
26.796875000000 10.593750000000 6.389003753662 30 30 30
26.796875000000 10.593750000000 6.426998138428 182 182 182
26.796875000000 10.593750000000 6.467998504639 187 187 187
26.796875000000 10.593750000000 6.506999969482 183 183 183
26.796875000000 10.593750000000 6.547000885010 187 187 187
26.796875000000 10.593750000000 6.587001800537 183 183 183
26.796875000000 10.593750000000 6.627002716064 176 176 176
26.890625000000 10.343750000000 4.953002929688 95 95 95
26.890625000000 10.343750000000 4.993000030518 166 166 166
26.890625000000 10.343750000000 5.033000946045 170 170 170
26.921875000000 10.359375000000 5.072002410889 171 171 171
26.921875000000 10.359375000000 5.111000061035 174 174 174
26.921875000000 10.359375000000 5.152000427246 175 175 175
26.921875000000 10.359375000000 5.191001892090 170 170 170
26.890625000000 10.343750000000 5.233005523682 170 170 170
26.796875000000 10.281250000000 5.276004791260 163 163 163
26.828125000000 10.296875000000 5.313999176025 149 149 149
26.859375000000 10.312500000000 5.352001190186 150 150 150
26.828125000000 10.296875000000 5.393001556396 150 150 150
26.765625000000 10.281250000000 5.433002471924 159 159 159
26.921875000000 10.375000000000 5.469005584717 172 172 172
26.921875000000 10.375000000000 5.508998870850 174 174 174
26.921875000000 10.375000000000 5.548999786377 170 170 170
26.921875000000 10.375000000000 5.589000701904 176 176 176
26.921875000000 10.375000000000 5.629001617432 175 175 175
26.796875000000 10.281250000000 5.979000091553 33 33 33
26.796875000000 10.281250000000 6.018001556396 61 61 61
26.796875000000 10.281250000000 6.058002471924 73 73 73
26.796875000000 10.281250000000 6.096004486084 87 87 87
26.796875000000 10.281250000000 6.136005401611 92 92 92
26.796875000000 10.281250000000 6.174999237061 97 97 97
26.796875000000 10.281250000000 6.214000701904 109 109 109
26.796875000000 10.281250000000 6.254001617432 170 170 170
26.796875000000 10.281250000000 6.294002532959 174 174 174
26.796875000000 10.281250000000 6.334003448486 168 168 168
26.796875000000 10.281250000000 6.374004364014 175 175 175
26.796875000000 10.281250000000 6.411998748779 168 168 168
26.796875000000 10.281250000000 6.452999114990 168 168 168
26.796875000000 10.281250000000 6.493000030518 166 166 166
26.796875000000 10.281250000000 6.532001495361 139 139 139
26.796875000000 10.281250000000 6.572002410889 128 128 128
26.796875000000 10.281250000000 6.611003875732 130 130 130
26.796875000000 10.281250000000 6.651004791260 135 135 135
26.796875000000 10.281250000000 6.693004608154 139 139 139
26.796875000000 10.281250000000 6.730998992920 117 117 117
26.984375000000 10.078125000000 5.289005279541 90 90 90
26.984375000000 10.093750000000 5.328998565674 161 161 161
26.984375000000 10.078125000000 5.368999481201 168 168 168
26.984375000000 10.093750000000 5.409000396729 172 172 172
26.984375000000 10.078125000000 5.450000762939 177 177 177
26.984375000000 10.093750000000 5.490001678467 185 185 185
26.984375000000 10.093750000000 5.530002593994 177 177 177
26.984375000000 10.093750000000 5.570003509521 162 162 162
26.984375000000 10.093750000000 5.610004425049 41 41 41
26.828125000000 10.000000000000 6.040004730225 56 56 56
26.828125000000 10.000000000000 6.079998016357 182 182 182
26.828125000000 10.000000000000 6.119998931885 190 190 190
26.828125000000 10.000000000000 6.159999847412 186 186 186
26.828125000000 10.000000000000 6.199001312256 189 189 189
26.828125000000 10.000000000000 6.239002227783 186 186 186
26.828125000000 10.000000000000 6.278003692627 178 178 178
26.828125000000 10.000000000000 6.479000091553 188 188 188
26.859375000000 10.015625000000 6.520000457764 191 191 191
26.859375000000 10.015625000000 6.560001373291 187 187 187
26.859375000000 10.015625000000 6.600002288818 189 189 189
26.859375000000 10.015625000000 6.641002655029 188 188 188
26.859375000000 10.015625000000 6.681003570557 180 180 180
26.890625000000 9.718750000000 6.626003265381 84 84 84
26.765625000000 10.875000000000 5.938999176025 141 141 141
26.734375000000 10.875000000000 5.972003936768 221 221 221
26.781250000000 10.875000000000 6.008998870850 240 240 240
26.765625000000 10.875000000000 6.042003631592 231 231 231
26.765625000000 10.875000000000 6.076999664307 233 233 233
26.765625000000 10.875000000000 6.112003326416 231 231 231
26.765625000000 10.875000000000 6.145000457764 230 230 230
26.734375000000 10.875000000000 6.178005218506 140 140 140
26.765625000000 10.875000000000 6.564998626709 208 208 208
26.765625000000 10.875000000000 6.601001739502 222 222 222
26.765625000000 10.875000000000 6.636005401611 220 220 220
26.765625000000 10.875000000000 6.673000335693 221 221 221
26.765625000000 10.875000000000 6.709003448486 228 228 228
26.765625000000 10.875000000000 6.743999481201 224 224 224
26.734375000000 10.875000000000 6.777004241943 177 177 177
26.859375000000 10.562500000000 5.036003112793 54 54 54
26.859375000000 10.562500000000 5.070003509521 142 142 142
26.875000000000 10.562500000000 5.104000091553 171 171 171
26.859375000000 10.562500000000 5.138999938965 171 171 171
26.828125000000 10.562500000000 5.174003601074 184 184 184
26.828125000000 10.562500000000 5.209003448486 181 181 181
26.859375000000 10.562500000000 5.243000030518 182 182 182
26.859375000000 10.562500000000 5.277004241943 191 191 191
26.890625000000 10.562500000000 5.311000823975 200 200 200
26.890625000000 10.562500000000 5.346004486084 164 164 164
26.859375000000 10.562500000000 5.380001068115 151 151 151
26.859375000000 10.562500000000 5.414005279541 179 179 179
26.828125000000 10.562500000000 5.448001861572 178 178 178
26.859375000000 10.562500000000 5.483005523682 183 183 183
26.875000000000 10.562500000000 5.518001556396 181 181 181
26.921875000000 10.562500000000 5.554004669189 184 184 184
26.921875000000 10.562500000000 5.589000701904 184 184 184
26.921875000000 10.562500000000 5.624004364014 184 184 184
26.796875000000 10.562500000000 6.131999969482 221 221 221
26.796875000000 10.562500000000 6.169002532959 228 228 228
26.796875000000 10.562500000000 6.204998016357 237 237 237
26.796875000000 10.562500000000 6.237003326416 224 224 224
26.796875000000 10.562500000000 6.271999359131 228 228 228
26.796875000000 10.562500000000 6.307003021240 225 225 225
26.796875000000 10.562500000000 6.340999603271 214 214 214
26.796875000000 10.562500000000 6.376003265381 199 199 199
26.781250000000 10.562500000000 6.409999847412 224 224 224
26.796875000000 10.562500000000 6.445003509521 224 224 224
26.796875000000 10.562500000000 6.480998992920 224 224 224
26.796875000000 10.562500000000 6.516002655029 222 222 222
26.796875000000 10.562500000000 6.551998138428 221 221 221
26.796875000000 10.562500000000 6.588001251221 218 218 218
26.796875000000 10.562500000000 6.625003814697 101 101 101
26.921875000000 10.250000000000 4.982002258301 83 83 83
26.921875000000 10.250000000000 5.017002105713 201 201 201
26.921875000000 10.250000000000 5.051002502441 209 209 209
26.921875000000 10.250000000000 5.086002349854 207 207 207
26.921875000000 10.250000000000 5.121002197266 206 206 206
26.921875000000 10.250000000000 5.155002593994 205 205 205
26.921875000000 10.250000000000 5.190002441406 196 196 196
26.921875000000 10.250000000000 5.225002288818 207 207 207
26.875000000000 10.250000000000 5.259998321533 203 203 203
26.921875000000 10.250000000000 5.294002532959 202 202 202
26.937500000000 10.250000000000 5.328998565674 179 179 179
26.921875000000 10.250000000000 5.364002227783 148 148 148
26.890625000000 10.250000000000 5.397998809814 160 160 160
26.843750000000 10.250000000000 5.431003570557 181 181 181
26.890625000000 10.250000000000 5.466999053955 184 184 184
26.937500000000 10.250000000000 5.503002166748 198 198 198
26.953125000000 10.250000000000 5.539005279541 196 196 196
26.953125000000 10.250000000000 5.574001312256 186 186 186
26.953125000000 10.250000000000 5.609004974365 185 185 185
26.953125000000 10.250000000000 5.644001007080 96 96 96
26.796875000000 10.250000000000 6.187000274658 184 184 184
26.796875000000 10.250000000000 6.222003936768 230 230 230
26.828125000000 10.250000000000 6.258998870850 241 241 241
26.796875000000 10.250000000000 6.291004180908 230 230 230
26.796875000000 10.250000000000 6.327999114990 230 230 230
26.796875000000 10.250000000000 6.362003326416 226 226 226
26.796875000000 10.250000000000 6.396999359131 229 229 229
26.828125000000 10.250000000000 6.434001922607 222 222 222
26.828125000000 10.250000000000 6.472003936768 224 224 224
26.828125000000 10.250000000000 6.506000518799 218 218 218
26.828125000000 10.250000000000 6.543003082275 151 151 151
26.828125000000 9.937500000000 6.001003265381 137 137 137
26.859375000000 9.937500000000 6.036998748779 240 240 240
26.859375000000 9.937500000000 6.072002410889 249 249 249
26.859375000000 9.937500000000 6.105998992920 244 244 244
26.859375000000 9.937500000000 6.141002655029 242 242 242
26.859375000000 9.937500000000 6.175998687744 243 243 243
26.859375000000 9.937500000000 6.211002349854 238 238 238
26.828125000000 9.937500000000 6.243999481201 201 201 201
26.859375000000 9.937500000000 6.493999481201 214 214 214
26.859375000000 9.937500000000 6.531002044678 224 224 224
26.859375000000 9.937500000000 6.567005157471 223 223 223
26.859375000000 9.937500000000 6.603000640869 220 220 220
26.859375000000 9.937500000000 6.639003753662 224 224 224
26.859375000000 9.937500000000 6.673999786377 217 217 217
26.859375000000 9.937500000000 6.709003448486 196 196 196
26.859375000000 9.906250000000 6.758998870850 97 97 97
26.859375000000 9.906250000000 6.715999603271 159 159 159
26.859375000000 9.906250000000 6.673999786377 162 162 162
26.859375000000 9.906250000000 6.633998870850 156 156 156
26.859375000000 9.906250000000 6.595005035400 161 161 161
26.859375000000 9.906250000000 6.553005218506 159 159 159
26.859375000000 9.906250000000 6.511005401611 103 103 103
26.859375000000 9.937500000000 6.226001739502 148 148 148
26.859375000000 9.921875000000 6.186000823975 165 165 165
26.859375000000 9.937500000000 6.145999908447 166 166 166
26.859375000000 9.937500000000 6.104999542236 168 168 168
26.859375000000 9.921875000000 6.065998077393 172 172 172
26.859375000000 9.937500000000 6.025005340576 160 160 160
26.890625000000 9.906250000000 5.988002777100 19 19 19
26.843750000000 10.218750000000 6.570003509521 113 113 113
26.828125000000 10.234375000000 6.527004241943 157 157 157
26.828125000000 10.234375000000 6.486003875732 165 165 165
26.828125000000 10.234375000000 6.447002410889 159 159 159
26.828125000000 10.234375000000 6.406002044678 167 167 167
26.828125000000 10.250000000000 6.365001678467 164 164 164
26.812500000000 10.250000000000 6.323001861572 172 172 172
26.812500000000 10.250000000000 6.283000946045 170 170 170
26.828125000000 10.250000000000 6.243000030518 166 166 166
26.828125000000 10.250000000000 6.203998565674 165 165 165
26.843750000000 10.218750000000 6.166004180908 36 36 36
26.984375000000 10.156250000000 5.609004974365 134 134 134
26.984375000000 10.156250000000 5.569004058838 144 144 144
26.984375000000 10.156250000000 5.528003692627 144 144 144
26.921875000000 10.187500000000 5.488002777100 135 135 135
26.859375000000 10.218750000000 5.448001861572 126 126 126
26.890625000000 10.218750000000 5.408000946045 125 125 125
26.953125000000 10.187500000000 5.366001129150 132 132 132
26.953125000000 10.171875000000 5.325000762939 139 139 139
26.953125000000 10.187500000000 5.284999847412 139 139 139
26.859375000000 10.234375000000 5.249004364014 140 140 140
26.937500000000 10.187500000000 5.205001831055 145 145 145
26.953125000000 10.187500000000 5.164001464844 137 137 137
26.921875000000 10.187500000000 5.125000000000 117 117 117
26.906250000000 10.187500000000 5.085002899170 49 49 49
26.609375000000 10.375000000000 4.953002929688 46 46 46
26.625000000000 10.375000000000 4.912002563477 34 34 34
26.734375000000 10.328125000000 3.221000671387 192 192 192
26.796875000000 10.531250000000 6.584003448486 146 146 146
26.828125000000 10.546875000000 6.544002532959 169 169 169
26.828125000000 10.546875000000 6.503002166748 168 168 168
26.796875000000 10.531250000000 6.462001800537 173 173 173
26.828125000000 10.546875000000 6.422000885010 169 169 169
26.828125000000 10.546875000000 6.381999969482 167 167 167
26.828125000000 10.531250000000 6.342998504639 156 156 156
26.828125000000 10.531250000000 6.303005218506 159 159 159
26.828125000000 10.546875000000 6.263004302979 160 160 160
26.828125000000 10.546875000000 6.223003387451 166 166 166
26.828125000000 10.546875000000 6.182003021240 162 162 162
26.796875000000 10.546875000000 6.142002105713 116 116 116
26.953125000000 10.484375000000 5.630001068115 137 137 137
26.953125000000 10.484375000000 5.589000701904 137 137 137
26.953125000000 10.484375000000 5.548999786377 142 142 142
26.921875000000 10.484375000000 5.507999420166 143 143 143
26.890625000000 10.515625000000 5.467998504639 126 126 126
26.859375000000 10.515625000000 5.428005218506 115 115 115
26.890625000000 10.500000000000 5.388004302979 127 127 127
26.921875000000 10.484375000000 5.347003936768 138 138 138
26.921875000000 10.500000000000 5.307003021240 148 148 148
26.921875000000 10.500000000000 5.267002105713 145 145 145
26.921875000000 10.500000000000 5.227001190186 152 152 152
26.921875000000 10.500000000000 5.187000274658 145 145 145
26.906250000000 10.500000000000 5.147003173828 139 139 139
26.921875000000 10.500000000000 5.106002807617 138 138 138
26.890625000000 10.500000000000 5.067001342773 138 138 138
26.890625000000 10.515625000000 5.027000427246 106 106 106
26.890625000000 10.531250000000 4.987003326416 106 106 106
26.765625000000 10.843750000000 6.762004852295 147 147 147
26.765625000000 10.843750000000 6.721004486084 171 171 171
26.781250000000 10.843750000000 6.681003570557 172 172 172
26.781250000000 10.843750000000 6.640003204346 170 170 170
26.765625000000 10.843750000000 6.598003387451 168 168 168
26.765625000000 10.843750000000 6.559001922607 169 169 169
26.796875000000 10.843750000000 6.520999908447 50 50 50
26.796875000000 10.843750000000 6.201000213623 139 139 139
26.781250000000 10.843750000000 6.159999847412 162 162 162
26.781250000000 10.843750000000 6.119998931885 167 167 167
26.765625000000 10.859375000000 6.078998565674 164 164 164
26.765625000000 10.843750000000 6.040004730225 167 167 167
26.765625000000 10.843750000000 6.000003814697 160 160 160
26.765625000000 10.843750000000 5.961002349854 90 90 90
26.859375000000 9.765625000000 6.042003631592 148 148 148
26.859375000000 9.765625000000 6.082004547119 191 191 191
26.859375000000 9.765625000000 6.120998382568 183 183 183
26.859375000000 9.781250000000 6.602001190186 185 185 185
26.859375000000 9.765625000000 6.643001556396 201 201 201
26.859375000000 9.765625000000 6.685001373291 167 167 167
26.859375000000 9.765625000000 6.725002288818 22 22 22
26.953125000000 10.125000000000 5.229999542236 118 118 118
26.953125000000 10.125000000000 5.270000457764 167 167 167
26.968750000000 10.125000000000 5.310001373291 160 160 160
26.968750000000 10.125000000000 5.350002288818 173 173 173
26.968750000000 10.125000000000 5.390003204346 172 172 172
26.953125000000 10.125000000000 5.430004119873 175 175 175
26.968750000000 10.125000000000 5.471004486084 174 174 174
26.968750000000 10.125000000000 5.511005401611 172 172 172
26.968750000000 10.125000000000 5.550998687744 171 171 171
26.968750000000 10.125000000000 5.590999603271 165 165 165
26.843750000000 10.062500000000 6.062000274658 118 118 118
26.828125000000 10.046875000000 6.100002288818 188 188 188
26.828125000000 10.046875000000 6.140003204346 194 194 194
26.828125000000 10.046875000000 6.180004119873 190 190 190
26.828125000000 10.046875000000 6.220005035400 197 197 197
26.828125000000 10.046875000000 6.258998870850 186 186 186
26.828125000000 10.046875000000 6.298999786377 160 160 160
26.828125000000 10.046875000000 6.418003082275 129 129 129
26.843750000000 10.062500000000 6.460002899170 192 192 192
26.843750000000 10.062500000000 6.500003814697 190 190 190
26.843750000000 10.062500000000 6.541004180908 189 189 189
26.843750000000 10.062500000000 6.581005096436 194 194 194
26.843750000000 10.062500000000 6.620998382568 190 190 190
26.843750000000 10.062500000000 6.661998748779 128 128 128
26.890625000000 10.390625000000 4.937000274658 78 78 78
26.890625000000 10.390625000000 4.976001739502 163 163 163
26.921875000000 10.406250000000 5.016002655029 169 169 169
26.921875000000 10.406250000000 5.056003570557 172 172 172
26.890625000000 10.375000000000 5.097000122070 169 169 169
26.890625000000 10.390625000000 5.136001586914 171 171 171
26.890625000000 10.375000000000 5.177001953125 172 172 172
26.859375000000 10.375000000000 5.216999053955 163 163 163
26.765625000000 10.312500000000 5.261005401611 161 161 161
26.796875000000 10.328125000000 5.298999786377 163 163 163
26.859375000000 10.359375000000 5.336002349854 164 164 164
26.828125000000 10.343750000000 5.376003265381 156 156 156
26.765625000000 10.312500000000 5.417003631592 162 162 162
26.828125000000 10.343750000000 5.454998016357 159 159 159
26.828125000000 10.343750000000 5.493999481201 167 167 167
26.828125000000 10.343750000000 5.533000946045 163 163 163
26.859375000000 10.359375000000 5.573001861572 166 166 166
26.859375000000 10.359375000000 5.612003326416 170 170 170
26.796875000000 10.328125000000 5.650005340576 115 115 115
26.796875000000 10.328125000000 5.688999176025 116 116 116
26.796875000000 10.312500000000 5.728000640869 124 124 124
26.796875000000 10.312500000000 5.767002105713 116 116 116
26.796875000000 10.312500000000 5.806003570557 121 121 121
26.796875000000 10.312500000000 5.845005035400 125 125 125
26.796875000000 10.328125000000 5.884998321533 122 122 122
26.796875000000 10.312500000000 5.923999786377 130 130 130
26.796875000000 10.312500000000 5.962001800537 134 134 134
26.796875000000 10.312500000000 6.002002716064 136 136 136
26.796875000000 10.328125000000 6.042003631592 139 139 139
26.796875000000 10.328125000000 6.081005096436 143 143 143
26.796875000000 10.312500000000 6.118999481201 143 143 143
26.796875000000 10.328125000000 6.159999847412 148 148 148
26.796875000000 10.328125000000 6.199001312256 150 150 150
26.796875000000 10.312500000000 6.237003326416 148 148 148
26.796875000000 10.312500000000 6.277004241943 149 149 149
26.796875000000 10.328125000000 6.317005157471 149 149 149
26.796875000000 10.312500000000 6.355998992920 145 145 145
26.796875000000 10.328125000000 6.397998809814 149 149 149
26.796875000000 10.312500000000 6.435001373291 151 151 151
26.796875000000 10.312500000000 6.474002838135 154 154 154
26.796875000000 10.312500000000 6.515003204346 153 153 153
26.796875000000 10.312500000000 6.554004669189 150 150 150
26.796875000000 10.312500000000 6.595005035400 157 157 157
26.796875000000 10.312500000000 6.634998321533 161 161 161
26.796875000000 10.328125000000 6.675998687744 156 156 156
26.796875000000 10.328125000000 6.715000152588 127 127 127
26.828125000000 10.656250000000 5.199001312256 128 128 128
26.828125000000 10.640625000000 5.239002227783 180 180 180
26.859375000000 10.656250000000 5.277004241943 180 180 180
26.859375000000 10.671875000000 5.315998077393 174 174 174
26.859375000000 10.671875000000 5.354999542236 176 176 176
26.859375000000 10.671875000000 5.395000457764 175 175 175
26.859375000000 10.656250000000 5.435001373291 172 172 172
26.859375000000 10.671875000000 5.474002838135 179 179 179
26.859375000000 10.671875000000 5.514003753662 177 177 177
26.859375000000 10.671875000000 5.553005218506 179 179 179
26.859375000000 10.671875000000 5.592998504639 167 167 167
26.796875000000 10.625000000000 6.101001739502 151 151 151
26.765625000000 10.625000000000 6.140003204346 190 190 190
26.765625000000 10.625000000000 6.179004669189 190 190 190
26.796875000000 10.625000000000 6.219005584717 186 186 186
26.765625000000 10.625000000000 6.257999420166 190 190 190
26.765625000000 10.625000000000 6.297000885010 185 185 185
26.765625000000 10.625000000000 6.337001800537 121 121 121
26.765625000000 10.625000000000 6.416004180908 181 181 181
26.765625000000 10.625000000000 6.454998016357 189 189 189
26.765625000000 10.625000000000 6.493999481201 184 184 184
26.765625000000 10.625000000000 6.534999847412 188 188 188
26.765625000000 10.625000000000 6.575000762939 188 188 188
26.765625000000 10.625000000000 6.615001678467 181 181 181
26.765625000000 10.890625000000 5.958003997803 150 150 150
26.765625000000 10.890625000000 5.997005462646 187 187 187
26.765625000000 10.890625000000 6.035999298096 183 183 183
26.765625000000 10.890625000000 6.076000213623 208 208 208
26.765625000000 10.890625000000 6.114002227783 214 214 214
26.765625000000 10.890625000000 6.153003692627 177 177 177
26.765625000000 10.890625000000 6.548000335693 78 78 78
26.765625000000 10.906250000000 6.589000701904 184 184 184
26.765625000000 10.906250000000 6.629001617432 190 190 190
