22.828969955444 24.683179855347 55.778999328613 249 249 249
22.832590103149 24.690103530884 55.831001281738 247 247 247
22.832590103149 24.690103530884 55.883003234863 250 250 250
22.828969955444 24.683179855347 55.935005187988 250 250 250
22.812284469604 24.921100616455 55.302009582520 172 172 172
22.798437118530 24.928339004517 55.355003356934 16 16 16
22.780971527100 24.928653717041 55.407997131348 27 27 27
22.798437118530 24.928339004517 55.459999084473 22 22 22
22.798437118530 24.928339004517 55.512001037598 15 15 15
22.815904617310 24.928024291992 55.564002990723 196 196 196
22.829751968384 24.920787811279 55.877998352051 242 242 242
22.829751968384 24.920787811279 55.931007385254 251 251 251
22.829751968384 24.920787811279 55.983009338379 249 249 249
22.829751968384 24.920787811279 56.036003112793 248 248 248
22.829751968384 24.920787811279 56.088996887207 220 220 220
22.775484085083 24.041168212891 56.028999328613 112 112 112
22.765256881714 24.055332183838 55.980003356934 118 118 118
22.765256881714 24.055332183838 55.929008483887 129 129 129
22.775484085083 24.041168212891 55.875999450684 119 119 119
22.775484085083 24.041168212891 55.825996398926 117 117 117
22.785713195801 24.027006149292 55.571006774902 98 98 98
22.795942306519 24.012844085693 55.519004821777 137 137 137
22.795942306519 24.012844085693 55.469001770020 132 132 132
22.785713195801 24.027006149292 55.418998718262 133 133 133
22.795942306519 24.012844085693 55.366996765137 123 123 123
22.663602828979 24.231880187988 54.918998718262 83 83 83
22.694286346436 24.189395904541 54.866996765137 90 90 90
22.684057235718 24.203557968140 54.816001892090 102 102 102
22.673830032349 24.217720031738 54.765007019043 88 88 88
22.684057235718 24.203557968140 54.713005065918 28 28 28
22.714742660522 24.161071777344 54.663002014160 52 52 52
22.694286346436 24.189395904541 54.611000061035 24 24 24
22.684057235718 24.203557968140 54.558998107910 39 39 39
22.653371810913 24.246044158936 54.506996154785 12 12 12
22.834798812866 24.424488067627 56.017005920410 147 147 147
22.838418960571 24.431411743164 55.968009948730 139 139 139
22.838418960571 24.431411743164 55.915000915527 142 142 142
22.834798812866 24.424488067627 55.862007141113 128 128 128
22.834798812866 24.424488067627 55.810997009277 145 145 145
22.838418960571 24.431411743164 55.760002136230 148 148 148
22.834798812866 24.424488067627 55.706001281738 142 142 142
22.838418960571 24.431411743164 55.657005310059 141 141 141
22.838418960571 24.431411743164 55.605003356934 148 148 148
22.834798812866 24.424488067627 55.553001403809 146 146 146
22.834798812866 24.424488067627 55.500999450684 143 143 143
22.834798812866 24.424488067627 55.450004577637 142 142 142
22.834798812866 24.424488067627 55.399009704590 148 148 148
22.838418960571 24.431411743164 55.347999572754 148 148 148
22.834798812866 24.424488067627 55.295997619629 143 143 143
22.834798812866 24.424488067627 55.245002746582 146 146 146
22.834798812866 24.424488067627 55.194007873535 140 140 140
22.834798812866 24.424488067627 55.142997741699 147 147 147
22.862493515015 24.410013198853 55.092002868652 140 140 140
22.852266311646 24.424175262451 55.041007995605 140 140 140
22.852266311646 24.424175262451 54.989997863770 139 139 139
22.862493515015 24.410013198853 54.937995910645 139 139 139
22.852266311646 24.424175262451 54.888008117676 135 135 135
22.862493515015 24.410013198853 54.836997985840 141 141 141
22.862493515015 24.410013198853 54.786003112793 143 143 143
22.862493515015 24.410013198853 54.735008239746 141 141 141
22.862493515015 24.410013198853 54.683998107910 144 144 144
22.862493515015 24.410013198853 54.633003234863 131 131 131
22.862493515015 24.410013198853 54.582008361816 134 134 134
22.862493515015 24.410013198853 54.530998229980 140 140 140
22.862493515015 24.410013198853 54.480003356934 140 140 140
22.862493515015 24.410013198853 54.428001403809 140 140 140
22.862493515015 24.410013198853 54.377998352051 136 136 136
22.852266311646 24.424175262451 54.325996398926 139 139 139
22.852266311646 24.424175262451 54.275001525879 136 136 136
22.866113662720 24.416936874390 54.224006652832 135 135 135
22.866113662720 24.416936874390 54.172996520996 140 140 140
22.866113662720 24.416936874390 54.122001647949 142 142 142
22.866113662720 24.416936874390 54.071006774902 139 139 139
22.866113662720 24.416936874390 54.019996643066 133 133 133
22.866113662720 24.416936874390 53.968009948730 128 128 128
22.866113662720 24.416936874390 53.916007995605 128 128 128
22.866113662720 24.416936874390 53.864997863770 133 133 133
22.866113662720 24.416936874390 53.814002990723 136 136 136
22.876340866089 24.402774810791 53.763008117676 129 129 129
22.876340866089 24.402774810791 53.711997985840 127 127 127
22.866113662720 24.416936874390 53.659004211426 134 134 134
22.866113662720 24.416936874390 53.607002258301 121 121 121
22.866113662720 24.416936874390 53.555000305176 121 121 121
22.866113662720 24.416936874390 53.502998352051 129 129 129
22.866113662720 24.416936874390 53.452003479004 125 125 125
22.866113662720 24.416936874390 53.399009704590 129 129 129
22.879961013794 24.409698486328 53.349006652832 132 132 132
22.879961013794 24.409698486328 53.295005798340 131 131 131
22.879961013794 24.409698486328 53.243003845215 130 130 130
22.869731903076 24.423860549927 53.187995910645 130 130 130
22.879961013794 24.409698486328 53.138999938965 126 126 126
22.879961013794 24.409698486328 53.084007263184 137 137 137
22.879961013794 24.409698486328 53.030998229980 124 124 124
22.879961013794 24.409698486328 52.978996276855 133 133 133
22.869731903076 24.423860549927 52.924003601074 132 132 132
22.879961013794 24.409698486328 52.873008728027 133 133 133
22.869731903076 24.423860549927 52.817008972168 134 134 134
22.879961013794 24.409698486328 52.767005920410 129 129 129
22.879961013794 24.409698486328 52.713005065918 125 125 125
22.876340866089 24.402774810791 52.662010192871 128 128 128
22.795448303223 24.956348419189 56.092002868652 16 16 16
22.791830062866 24.949424743652 56.037010192871 148 148 148
22.791830062866 24.949424743652 55.983009338379 136 136 136
22.791830062866 24.949424743652 55.929008483887 121 121 121
22.812284469604 24.921100616455 55.873008728027 114 114 114
22.802057266235 24.935262680054 55.821006774902 12 12 12
22.819524765015 24.934947967529 55.500999450684 48 48 48
22.795448303223 24.956348419189 55.450004577637 117 117 117
22.799066543579 24.963272094727 55.397010803223 111 111 111
22.799066543579 24.963272094727 55.344001770020 110 110 110
22.799066543579 24.963272094727 55.291007995605 108 108 108
22.806304931641 24.977119445801 55.263999938965 39 39 39
22.837617874146 24.969566345215 55.316001892090 8 8 8
22.809923171997 24.984043121338 55.368995666504 17 17 17
22.806304931641 24.977119445801 55.420997619629 16 16 16
22.809923171997 24.984043121338 55.474006652832 10 10 10
22.806304931641 24.977119445801 55.526008605957 191 191 191
22.841238021851 24.976490020752 55.892997741699 223 223 223
22.841238021851 24.976490020752 55.946006774902 251 251 251
22.841238021851 24.976490020752 55.999000549316 246 246 246
22.841238021851 24.976490020752 56.052009582520 231 231 231
22.841238021851 24.976490020752 56.103996276855 233 233 233
22.671773910522 24.686008453369 54.601005554199 41 41 41
22.685621261597 24.678771972656 54.653007507324 44 44 44
22.671773910522 24.686008453369 54.705009460449 54 54 54
22.703086853027 24.678455352783 54.758003234863 104 104 104
22.706705093384 24.685379028320 54.810005187988 151 151 151
22.724172592163 24.685066223145 54.862007141113 138 138 138
22.710325241089 24.692302703857 54.914009094238 124 124 124
22.682001113892 24.671848297119 54.967002868652 62 62 62
22.668153762817 24.679084777832 55.019004821777 61 61 61
22.828969955444 24.683179855347 55.429008483887 128 128 128
22.828969955444 24.683179855347 55.481010437012 1 1 1
22.828969955444 24.683179855347 55.532005310059 3 3 3
22.811502456665 24.683494567871 55.584007263184 3 3 3
22.811502456665 24.683494567871 55.636009216309 2 2 2
22.828969955444 24.683179855347 55.687004089355 217 217 217
22.832590103149 24.690103530884 55.737998962402 232 232 232
22.832590103149 24.690103530884 55.790000915527 249 249 249
22.836208343506 24.697027206421 55.840995788574 246 246 246
22.832590103149 24.690103530884 55.894004821777 250 250 250
22.832590103149 24.690103530884 55.944999694824 234 234 234
22.858875274658 24.403089523315 52.663002014160 161 161 161
22.827562332153 24.410640716553 52.711997985840 157 157 157
22.897426605225 24.409383773804 52.780006408691 125 125 125
22.897426605225 24.409383773804 52.834999084473 115 115 115
22.897426605225 24.409383773804 52.888008117676 115 115 115
22.879961013794 24.409698486328 52.937004089355 146 146 146
22.879961013794 24.409698486328 52.989997863770 150 150 150
22.879961013794 24.409698486328 53.041007995605 146 146 146
22.879961013794 24.409698486328 53.094001770020 150 150 150
22.897426605225 24.409383773804 53.149009704590 141 141 141
22.879961013794 24.409698486328 53.200004577637 123 123 123
22.897426605225 24.409383773804 53.256004333496 109 109 109
22.893808364868 24.402460098267 53.308006286621 130 130 130
22.897426605225 24.409383773804 53.359001159668 121 121 121
22.897426605225 24.409383773804 53.409996032715 124 124 124
22.897426605225 24.409383773804 53.463005065918 116 116 116
22.893808364868 24.402460098267 53.513999938965 123 123 123
22.897426605225 24.409383773804 53.564002990723 116 116 116
22.897426605225 24.409383773804 53.618003845215 126 126 126
22.897426605225 24.409383773804 53.668998718262 124 124 124
22.893808364868 24.402460098267 53.719001770020 125 125 125
22.897426605225 24.409383773804 53.769996643066 122 122 122
22.897426605225 24.409383773804 53.821998596191 126 126 126
22.893808364868 24.402460098267 53.872001647949 123 123 123
22.897426605225 24.409383773804 53.922004699707 128 128 128
22.897426605225 24.409383773804 53.972999572754 120 120 120
22.893808364868 24.402460098267 54.024009704590 124 124 124
22.897426605225 24.409383773804 54.073997497559 137 137 137
22.879961013794 24.409698486328 54.124000549316 144 144 144
22.879961013794 24.409698486328 54.175010681152 149 149 149
22.876340866089 24.402774810791 54.224006652832 143 143 143
22.879961013794 24.409698486328 54.276008605957 137 137 137
22.876340866089 24.402774810791 54.325996398926 136 136 136
22.876340866089 24.402774810791 54.375999450684 129 129 129
22.876340866089 24.402774810791 54.426002502441 124 124 124
22.872722625732 24.395851135254 54.476997375488 125 125 125
22.872722625732 24.395851135254 54.527000427246 130 130 130
22.858875274658 24.403089523315 54.577003479004 129 129 129
22.855257034302 24.396165847778 54.627006530762 148 148 148
22.872722625732 24.395851135254 54.678001403809 168 168 168
22.841409683228 24.403404235840 54.728004455566 151 151 151
22.855257034302 24.396165847778 54.778007507324 139 139 139
22.855257034302 24.396165847778 54.829002380371 146 146 146
22.855257034302 24.396165847778 54.879005432129 159 159 159
22.858875274658 24.403089523315 54.929008483887 146 146 146
22.841409683228 24.403404235840 54.980003356934 149 149 149
22.837789535522 24.396480560303 55.030006408691 143 143 143
22.841409683228 24.403404235840 55.080009460449 142 142 142
22.855257034302 24.396165847778 55.131004333496 129 129 129
22.855257034302 24.396165847778 55.181007385254 131 131 131
22.841409683228 24.403404235840 55.232002258301 130 130 130
22.851636886597 24.389242172241 55.282005310059 133 133 133
22.855257034302 24.396165847778 55.332008361816 129 129 129
22.855257034302 24.396165847778 55.381996154785 122 122 122
22.851636886597 24.389242172241 55.433006286621 124 124 124
22.841409683228 24.403404235840 55.484001159668 120 120 120
22.851636886597 24.389242172241 55.534004211426 126 126 126
22.837789535522 24.396480560303 55.586006164551 208 208 208
22.837789535522 24.396480560303 55.637001037598 213 213 213
22.837789535522 24.396480560303 55.687004089355 213 213 213
22.837789535522 24.396480560303 55.737998962402 214 214 214
22.837789535522 24.396480560303 55.790000915527 226 226 226
22.837789535522 24.396480560303 55.840995788574 224 224 224
22.837789535522 24.396480560303 55.890998840332 111 111 111
22.837789535522 24.396480560303 55.942008972168 111 111 111
22.851636886597 24.389242172241 55.991996765137 115 115 115
22.837789535522 24.396480560303 56.043998718262 104 104 104
22.682172775269 24.098758697510 54.750007629395 17 17 17
22.682172775269 24.098758697510 54.800010681152 48 48 48
22.682172775269 24.098758697510 54.851005554199 54 54 54
22.668325424194 24.105998992920 54.901008605957 52 52 52
22.668325424194 24.105998992920 54.952003479004 31 31 31
22.815294265747 24.117330551147 55.398002624512 197 197 197
22.815294265747 24.117330551147 55.448005676270 247 247 247
22.811674118042 24.110406875610 55.498008728027 246 246 246
22.815294265747 24.117330551147 55.547004699707 247 247 247
22.811674118042 24.110406875610 55.597999572754 246 246 246
22.815294265747 24.117330551147 55.646003723145 140 140 140
22.794208526611 24.110721588135 55.800010681152 186 186 186
22.811674118042 24.110406875610 55.847999572754 242 242 242
22.808055877686 24.103483200073 55.899009704590 244 244 244
22.794208526611 24.110721588135 55.950004577637 240 240 240
22.808055877686 24.103483200073 56.000007629395 238 238 238
22.811674118042 24.110406875610 56.049003601074 155 155 155
22.813257217407 23.809856414795 55.467002868652 146 146 146
22.821256637573 24.837074279785 56.050010681152 17 17 17
22.821256637573 24.837074279785 56.000999450684 180 180 180
22.821256637573 24.837074279785 55.956001281738 188 188 188
22.821256637573 24.837074279785 55.909004211426 181 181 181
22.831483840942 24.822912216187 55.861000061035 181 181 181
22.831483840942 24.822912216187 55.815010070801 170 170 170
22.831483840942 24.822912216187 55.769004821777 13 13 13
22.821256637573 24.837074279785 55.586997985840 161 161 161
22.803789138794 24.837388992310 55.541999816895 179 179 179
22.803789138794 24.837388992310 55.496009826660 175 175 175
22.803789138794 24.837388992310 55.450004577637 176 176 176
22.803789138794 24.837388992310 55.403999328613 176 176 176
22.807409286499 24.844312667847 55.359001159668 106 106 106
22.834798812866 24.424488067627 56.041007995605 140 140 140
22.838418960571 24.431411743164 55.996009826660 153 153 153
22.834798812866 24.424488067627 55.948997497559 148 148 148
22.852266311646 24.424175262451 55.903007507324 141 141 141
22.834798812866 24.424488067627 55.859001159668 139 139 139
22.834798812866 24.424488067627 55.814002990723 153 153 153
22.834798812866 24.424488067627 55.769004821777 160 160 160
22.834798812866 24.424488067627 55.724006652832 158 158 158
22.834798812866 24.424488067627 55.679008483887 153 153 153
22.834798812866 24.424488067627 55.635002136230 153 153 153
22.834798812866 24.424488067627 55.588996887207 151 151 151
22.834798812866 24.424488067627 55.545005798340 145 145 145
22.834798812866 24.424488067627 55.500999450684 151 151 151
22.834798812866 24.424488067627 55.455009460449 140 140 140
22.834798812866 24.424488067627 55.411003112793 145 145 145
22.834798812866 24.424488067627 55.366996765137 146 146 146
22.834798812866 24.424488067627 55.323005676270 148 148 148
22.834798812866 24.424488067627 55.278007507324 152 152 152
22.862493515015 24.410013198853 55.233009338379 147 147 147
22.834798812866 24.424488067627 55.190010070801 147 147 147
22.862493515015 24.410013198853 55.144996643066 140 140 140
22.834798812866 24.424488067627 55.101005554199 143 143 143
22.834798812866 24.424488067627 55.056999206543 152 152 152
22.862493515015 24.410013198853 55.012001037598 149 149 149
22.862493515015 24.410013198853 54.968009948730 149 149 149
22.834798812866 24.424488067627 54.924003601074 146 146 146
22.862493515015 24.410013198853 54.879997253418 155 155 155
22.862493515015 24.410013198853 54.836006164551 144 144 144
22.834798812866 24.424488067627 54.791999816895 140 140 140
22.862493515015 24.410013198853 54.748008728027 138 138 138
22.834798812866 24.424488067627 54.704002380371 160 160 160
22.862493515015 24.410013198853 54.659996032715 147 147 147
22.862493515015 24.410013198853 54.616004943848 129 129 129
22.862493515015 24.410013198853 54.571998596191 131 131 131
22.862493515015 24.410013198853 54.528007507324 128 128 128
22.862493515015 24.410013198853 54.485008239746 124 124 124
22.862493515015 24.410013198853 54.441001892090 126 126 126
22.862493515015 24.410013198853 54.397010803223 126 126 126
22.858875274658 24.403089523315 54.351997375488 136 136 136
22.858875274658 24.403089523315 54.308006286621 125 125 125
22.862493515015 24.410013198853 54.263999938965 140 140 140
22.862493515015 24.410013198853 54.220008850098 144 144 144
22.862493515015 24.410013198853 54.176002502441 148 148 148
22.862493515015 24.410013198853 54.131996154785 137 137 137
22.862493515015 24.410013198853 54.088005065918 136 136 136
22.872722625732 24.395851135254 54.043998718262 133 133 133
22.872722625732 24.395851135254 54.000007629395 127 127 127
22.862493515015 24.410013198853 53.955009460449 130 130 130
22.872722625732 24.395851135254 53.911003112793 127 127 127
22.858875274658 24.403089523315 53.864997863770 123 123 123
22.872722625732 24.395851135254 53.823005676270 135 135 135
22.862493515015 24.410013198853 53.778007507324 119 119 119
22.862493515015 24.410013198853 53.733009338379 123 123 123
22.862493515015 24.410013198853 53.687995910645 123 123 123
22.862493515015 24.410013198853 53.644004821777 118 118 118
22.862493515015 24.410013198853 53.599006652832 121 121 121
22.872722625732 24.395851135254 53.555000305176 120 120 120
22.876340866089 24.402774810791 53.511009216309 120 120 120
22.862493515015 24.410013198853 53.463996887207 117 117 117
22.872722625732 24.395851135254 53.420005798340 121 121 121
22.872722625732 24.395851135254 53.375007629395 120 120 120
22.872722625732 24.395851135254 53.330009460449 125 125 125
22.872722625732 24.395851135254 53.284004211426 125 125 125
22.872722625732 24.395851135254 53.239997863770 124 124 124
22.876340866089 24.402774810791 53.196006774902 123 123 123
22.872722625732 24.395851135254 53.149009704590 124 124 124
22.876340866089 24.402774810791 53.105003356934 125 125 125
22.858875274658 24.403089523315 53.054008483887 129 129 129
22.858875274658 24.403089523315 53.008003234863 154 154 154
22.858875274658 24.403089523315 52.961997985840 149 149 149
22.858875274658 24.403089523315 52.915000915527 144 144 144
22.872722625732 24.395851135254 52.871009826660 134 134 134
22.858875274658 24.403089523315 52.821998596191 139 139 139
22.858875274658 24.403089523315 52.777000427246 132 132 132
22.876340866089 24.402774810791 52.735008239746 125 125 125
22.876340866089 24.402774810791 52.689002990723 118 118 118
22.876340866089 24.402774810791 52.644996643066 114 114 114
22.803808212280 24.061626434326 56.086997985840 58 58 58
22.800188064575 24.054702758789 56.043998718262 182 182 182
22.800188064575 24.054702758789 55.999000549316 180 180 180
22.800188064575 24.054702758789 55.954002380371 183 183 183
22.800188064575 24.054702758789 55.909996032715 180 180 180
22.803808212280 24.061626434326 55.864006042480 186 186 186
22.800188064575 24.054702758789 55.821006774902 81 81 81
22.814035415649 24.047466278076 55.597999572754 150 150 150
22.814035415649 24.047466278076 55.554008483887 186 186 186
22.814035415649 24.047466278076 55.510002136230 184 184 184
22.814035415649 24.047466278076 55.467002868652 185 185 185
22.814035415649 24.047466278076 55.422004699707 183 183 183
22.814035415649 24.047466278076 55.379997253418 159 159 159
22.675561904907 24.119846343994 54.952003479004 18 18 18
22.675561904907 24.119846343994 54.907005310059 16 16 16
22.675561904907 24.119846343994 54.862998962402 17 17 17
22.675561904907 24.119846343994 54.819007873535 22 22 22
22.675561904907 24.119846343994 54.775001525879 16 16 16
22.922760009766 24.457849502563 56.060997009277 46 46 46
22.898683547974 24.479249954224 56.011009216309 91 91 91
22.922760009766 24.457849502563 55.957008361816 90 90 90
22.885465621948 24.521419525146 55.912010192871 123 123 123
22.885465621948 24.521419525146 55.861000061035 134 134 134
22.902303695679 24.486173629761 55.806007385254 134 134 134
22.878227233887 24.507572174072 55.756996154785 126 126 126
22.878227233887 24.507572174072 55.704002380371 117 117 117
22.902303695679 24.486173629761 55.651008605957 140 140 140
22.898683547974 24.479249954224 55.599006652832 128 128 128
22.878227233887 24.507572174072 55.550010681152 130 130 130
22.902303695679 24.486173629761 55.498008728027 121 121 121
22.902303695679 24.486173629761 55.446998596191 120 120 120
22.919141769409 24.450925827026 55.394004821777 97 97 97
22.919141769409 24.450925827026 55.343009948730 97 97 97
22.919141769409 24.450925827026 55.291007995605 92 92 92
22.919141769409 24.450925827026 55.241004943848 98 98 98
22.919141769409 24.450925827026 55.190010070801 98 98 98
22.919141769409 24.450925827026 55.138999938965 98 98 98
22.919141769409 24.450925827026 55.088996887207 100 100 100
22.943216323853 24.429527282715 55.038002014160 102 102 102
22.919141769409 24.450925827026 54.987998962402 108 108 108
22.919141769409 24.450925827026 54.937004089355 105 105 105
22.943216323853 24.429527282715 54.886009216309 110 110 110
22.919141769409 24.450925827026 54.836006164551 110 110 110
22.919141769409 24.450925827026 54.784996032715 111 111 111
22.919141769409 24.450925827026 54.734001159668 113 113 113
22.919141769409 24.450925827026 54.683998107910 109 109 109
22.943216323853 24.429527282715 54.633003234863 108 108 108
22.943216323853 24.429527282715 54.583000183105 109 109 109
22.919141769409 24.450925827026 54.532005310059 115 115 115
22.943216323853 24.429527282715 54.482002258301 113 113 113
22.943216323853 24.429527282715 54.431007385254 116 116 116
22.943216323853 24.429527282715 54.379997253418 116 116 116
22.943216323853 24.429527282715 54.329002380371 112 112 112
22.943216323853 24.429527282715 54.278999328613 109 109 109
22.943216323853 24.429527282715 54.226997375488 123 123 123
22.943216323853 24.429527282715 54.177009582520 118 118 118
22.919141769409 24.450925827026 54.125007629395 117 117 117
22.943216323853 24.429527282715 54.075004577637 109 109 109
22.943216323853 24.429527282715 54.024009704590 103 103 103
22.943216323853 24.429527282715 53.972999572754 109 109 109
22.919141769409 24.450925827026 53.920997619629 107 107 107
22.943216323853 24.429527282715 53.870002746582 109 109 109
22.919141769409 24.450925827026 53.818000793457 103 103 103
22.943216323853 24.429527282715 53.767997741699 109 109 109
22.943216323853 24.429527282715 53.717002868652 112 112 112
22.943216323853 24.429527282715 53.666007995605 110 110 110
22.939596176147 24.422603607178 53.614006042480 107 107 107
22.943216323853 24.429527282715 53.560997009277 108 108 108
22.943216323853 24.429527282715 53.509010314941 116 116 116
22.943216323853 24.429527282715 53.457008361816 115 115 115
22.943216323853 24.429527282715 53.405998229980 117 117 117
22.943216323853 24.429527282715 53.353004455566 122 122 122
22.943216323853 24.429527282715 53.301002502441 127 127 127
22.943216323853 24.429527282715 53.249000549316 128 128 128
22.943216323853 24.429527282715 53.196998596191 122 122 122
22.943216323853 24.429527282715 53.144996643066 124 124 124
22.943216323853 24.429527282715 53.090995788574 131 131 131
22.943216323853 24.429527282715 53.038002014160 142 142 142
22.943216323853 24.429527282715 52.986000061035 144 144 144
22.943216323853 24.429527282715 52.933998107910 142 142 142
22.943216323853 24.429527282715 52.879005432129 135 135 135
22.943216323853 24.429527282715 52.828010559082 130 130 130
22.943216323853 24.429527282715 52.773002624512 129 129 129
22.939596176147 24.422603607178 52.722007751465 124 124 124
22.943216323853 24.429527282715 52.666007995605 128 128 128
22.794208526611 24.110721588135 56.028007507324 79 79 79
22.787599563599 24.131805419922 55.978996276855 125 125 125
22.794208526611 24.110721588135 55.925010681152 123 123 123
22.797826766968 24.117645263672 55.875999450684 119 119 119
22.797826766968 24.117645263672 55.823997497559 129 129 129
22.759904861450 24.146282196045 55.777000427246 18 18 18
22.797826766968 24.117645263672 55.621009826660 111 111 111
22.804437637329 24.096559524536 55.567008972168 133 133 133
22.804437637329 24.096559524536 55.517005920410 127 127 127
22.804437637329 24.096559524536 55.465995788574 130 130 130
22.814664840698 24.082397460938 55.415000915527 108 108 108
22.685316085815 24.273422241211 54.965003967285 53 53 53
22.705772399902 24.245100021362 54.914009094238 96 96 96
22.729848861694 24.223701477051 54.862998962402 25 25 25
22.709390640259 24.252023696899 54.810997009277 24 24 24
22.685316085815 24.273422241211 54.760002136230 122 122 122
22.709390640259 24.252023696899 54.709007263184 66 66 66
22.722608566284 24.209854125977 54.659004211426 14 14 14
22.705772399902 24.245100021362 54.606010437012 36 36 36
22.705772399902 24.245100021362 54.555000305176 70 70 70
22.671468734741 24.280662536621 54.502006530762 21 21 21
22.775960922241 23.873428344727 55.343009948730 156 156 156
22.789808273315 23.866189956665 55.392005920410 238 238 238
22.789808273315 23.866189956665 55.441001892090 242 242 242
22.789808273315 23.866189956665 55.491004943848 197 197 197
22.758493423462 23.873741149902 55.940010070801 189 189 189
22.775960922241 23.873428344727 55.989006042480 226 226 226
22.779579162598 23.880352020264 56.038002014160 119 119 119
22.715372085571 24.196006774902 54.629997253418 77 77 77
22.718992233276 24.202930450439 54.681007385254 79 79 79
22.649126052856 24.204185485840 54.730003356934 60 60 60
22.662973403931 24.196949005127 54.780998229980 66 66 66
22.676820755005 24.189710617065 54.832008361816 136 136 136
22.662973403931 24.196949005127 54.881996154785 72 72 72
22.645505905151 24.197261810303 54.933006286621 54 54 54
22.659353256226 24.190025329590 54.984001159668 54 54 54
22.680438995361 24.196634292603 55.034004211426 11 11 11
22.792474746704 24.208595275879 55.431999206543 203 203 203
22.792474746704 24.208595275879 55.482002258301 245 245 245
22.792474746704 24.208595275879 55.532005310059 241 241 241
22.788856506348 24.201671600342 55.582008361816 244 244 244
22.788856506348 24.201671600342 55.633003234863 242 242 242
22.757543563843 24.209224700928 55.685005187988 67 67 67
22.785238265991 24.194747924805 55.734001159668 176 176 176
22.785238265991 24.194747924805 55.784996032715 242 242 242
22.788856506348 24.201671600342 55.834999084473 239 239 239
22.785238265991 24.194747924805 55.886009216309 238 238 238
22.788856506348 24.201671600342 55.935997009277 235 235 235
22.785238265991 24.194747924805 55.987007141113 168 168 168
22.801752090454 24.529914855957 53.838005065918 7 7 7
22.836685180664 24.529287338257 53.894004821777 6 6 6
22.801752090454 24.529914855957 53.942008972168 18 18 18
22.836685180664 24.529287338257 53.996009826660 30 30 30
22.836685180664 24.529287338257 54.047996520996 38 38 38
22.833066940308 24.522363662720 54.097999572754 49 49 49
22.819219589233 24.529602050781 54.148002624512 65 65 65
22.833066940308 24.522363662720 54.200004577637 80 80 80
22.833066940308 24.522363662720 54.250999450684 80 80 80
22.833066940308 24.522363662720 54.301002502441 79 79 79
22.833066940308 24.522363662720 54.351997375488 90 90 90
22.798133850098 24.522991180420 54.401008605957 112 112 112
22.798133850098 24.522991180420 54.452003479004 110 110 110
22.801752090454 24.529914855957 54.504005432129 116 116 116
22.798133850098 24.522991180420 54.554008483887 110 110 110
22.798133850098 24.522991180420 54.605003356934 112 112 112
22.836685180664 24.529287338257 54.657005310059 188 188 188
22.815599441528 24.522678375244 54.707008361816 174 174 174
22.801752090454 24.529914855957 54.758003234863 124 124 124
22.815599441528 24.522678375244 54.808998107910 164 164 164
22.836685180664 24.529287338257 54.859001159668 196 196 196
22.801752090454 24.529914855957 54.909996032715 128 128 128
22.798133850098 24.522991180420 54.961006164551 142 142 142
22.798133850098 24.522991180420 55.012001037598 136 136 136
22.819219589233 24.529602050781 55.062004089355 123 123 123
22.815599441528 24.522678375244 55.112998962402 118 118 118
22.819219589233 24.529602050781 55.164009094238 114 114 114
22.819219589233 24.529602050781 55.213996887207 119 119 119
22.819219589233 24.529602050781 55.265007019043 121 121 121
22.819219589233 24.529602050781 55.316001892090 121 121 121
22.815599441528 24.522678375244 55.366996765137 125 125 125
22.811981201172 24.515754699707 55.418998718262 120 120 120
22.819219589233 24.529602050781 55.469001770020 131 131 131
22.811981201172 24.515754699707 55.521003723145 141 141 141
22.811981201172 24.515754699707 55.571998596191 213 213 213
22.811981201172 24.515754699707 55.623008728027 199 199 199
22.815599441528 24.522678375244 55.674003601074 194 194 194
22.815599441528 24.522678375244 55.724998474121 192 192 192
22.815599441528 24.522678375244 55.776008605957 197 197 197
22.815599441528 24.522678375244 55.827003479004 180 180 180
22.819219589233 24.529602050781 55.877998352051 129 129 129
22.815599441528 24.522678375244 55.930000305176 152 152 152
22.811981201172 24.515754699707 55.983009338379 154 154 154
22.811981201172 24.515754699707 56.034004211426 145 145 145
22.656820297241 24.826053619385 54.777000427246 48 48 48
22.656820297241 24.826053619385 54.830009460449 82 82 82
22.653202056885 24.819129943848 54.881996154785 57 57 57
22.656820297241 24.826053619385 54.935005187988 20 20 20
22.800170898438 24.830465316772 55.349006652832 208 208 208
22.796552658081 24.823541641235 55.402000427246 11 11 11
22.800170898438 24.830465316772 55.453010559082 5 5 5
22.792932510376 24.816617965698 55.506004333496 11 11 11
22.796552658081 24.823541641235 55.558006286621 2 2 2
22.800170898438 24.830465316772 55.610008239746 158 158 158
22.800170898438 24.830465316772 55.765998840332 166 166 166
22.803789138794 24.837388992310 55.818000793457 248 248 248
22.803789138794 24.837388992310 55.870002746582 248 248 248
22.803789138794 24.837388992310 55.922996520996 250 250 250
22.803789138794 24.837388992310 55.974006652832 244 244 244
22.796552658081 24.823541641235 56.030006408691 64 64 64
22.819387435913 23.956512451172 55.289009094238 113 113 113
22.801921844482 23.956825256348 55.332008361816 187 187 187
22.805540084839 23.963748931885 55.375999450684 190 190 190
22.805540084839 23.963748931885 55.420005798340 190 190 190
22.805540084839 23.963748931885 55.463005065918 192 192 192
22.791692733765 23.970989227295 55.508003234863 183 183 183
22.781465530396 23.985149383545 55.861000061035 155 155 155
22.777845382690 23.978225708008 55.905006408691 185 185 185
22.781465530396 23.985149383545 55.946998596191 183 183 183
22.777845382690 23.978225708008 55.991996765137 187 187 187
22.777845382690 23.978225708008 56.038002014160 201 201 201
22.777845382690 23.978225708008 56.081001281738 174 174 174
22.875083923340 24.332908630371 52.707008361816 112 112 112
22.791999816895 24.376335144043 52.734001159668 11 11 11
22.681219100952 24.434238433838 54.349998474121 46 46 46
22.684839248657 24.441162109375 54.394996643066 25 25 25
22.670991897583 24.448402404785 54.439002990723 34 34 34
22.684839248657 24.441162109375 54.484001159668 32 32 32
22.698686599731 24.433925628662 54.528999328613 39 39 39
22.681219100952 24.434238433838 54.573997497559 21 21 21
22.698686599731 24.433925628662 54.618995666504 50 50 50
22.819694519043 24.361858367920 54.663002014160 174 174 174
22.802228927612 24.362174987793 54.707008361816 161 161 161
22.802228927612 24.362174987793 54.750999450684 130 130 130
22.805847167969 24.369098663330 54.795005798340 146 146 146
22.802228927612 24.362174987793 54.838005065918 164 164 164
22.698686599731 24.433925628662 54.887001037598 17 17 17
22.698686599731 24.433925628662 54.931007385254 134 134 134
22.684839248657 24.441162109375 54.976997375488 103 103 103
22.681219100952 24.434238433838 55.022010803223 21 21 21
22.805847167969 24.369098663330 55.500007629395 89 89 89
22.805847167969 24.369098663330 55.543998718262 184 184 184
22.805847167969 24.369098663330 55.588996887207 191 191 191
22.802228927612 24.362174987793 55.634010314941 183 183 183
22.805847167969 24.369098663330 55.678001403809 186 186 186
22.805847167969 24.369098663330 55.722999572754 185 185 185
22.791999816895 24.376335144043 55.771003723145 183 183 183
22.791999816895 24.376335144043 55.815010070801 185 185 185
22.791999816895 24.376335144043 55.861000061035 119 119 119
22.681524276733 24.839588165283 54.817008972168 45 45 45
22.650213241577 24.847139358521 54.862998962402 41 41 41
22.782075881958 24.795845031738 55.357002258301 23 23 23
22.792303085327 24.781682968140 55.401008605957 180 180 180
22.792303085327 24.781682968140 55.446998596191 179 179 179
22.798913955688 24.760597229004 55.491004943848 181 181 181
22.792303085327 24.781682968140 55.538002014160 181 181 181
22.802534103394 24.767520904541 55.582008361816 180 180 180
22.819997787476 24.767208099365 55.625999450684 71 71 71
22.819997787476 24.767208099365 55.717002868652 93 93 93
22.798913955688 24.760597229004 55.765998840332 184 184 184
22.792303085327 24.781682968140 55.812004089355 190 190 190
22.798913955688 24.760597229004 55.857002258301 186 186 186
22.802534103394 24.767520904541 55.903007507324 187 187 187
22.792303085327 24.781682968140 55.950004577637 170 170 170
22.788702011108 23.998996734619 56.062004089355 119 119 119
22.764627456665 24.020397186279 56.012001037598 124 124 124
22.788702011108 23.998996734619 55.961006164551 139 139 139
22.764627456665 24.020397186279 55.911003112793 126 126 126
22.764627456665 24.020397186279 55.860008239746 129 129 129
22.768247604370 24.027320861816 55.812004089355 12 12 12
22.792322158813 24.005920410156 55.555000305176 105 105 105
22.792322158813 24.005920410156 55.504005432129 141 141 141
22.802549362183 23.991760253906 55.453010559082 138 138 138
22.802549362183 23.991760253906 55.403007507324 144 144 144
22.802549362183 23.991760253906 55.353996276855 130 130 130
22.670209884644 24.210796356201 54.903999328613 78 78 78
22.680438995361 24.196634292603 54.853004455566 108 108 108
22.670209884644 24.210796356201 54.802009582520 106 106 106
22.659982681274 24.224956512451 54.750007629395 47 47 47
22.684057235718 24.203557968140 54.698997497559 37 37 37
22.690668106079 24.182472229004 54.649009704590 36 36 36
22.684057235718 24.203557968140 54.597007751465 37 37 37
22.663602828979 24.231880187988 54.545005798340 18 18 18
22.866743087769 24.451869964600 56.060005187988 50 50 50
22.876970291138 24.437707901001 56.006004333496 147 147 147
22.876970291138 24.437707901001 55.955009460449 140 140 140
22.876970291138 24.437707901001 55.903999328613 142 142 142
22.876970291138 24.437707901001 55.853004455566 140 140 140
22.890817642212 24.430469512939 55.800010681152 161 161 161
22.880590438843 24.444631576538 55.749000549316 148 148 148
22.880590438843 24.444631576538 55.696998596191 143 143 143
22.880590438843 24.444631576538 55.647010803223 156 156 156
22.890817642212 24.430469512939 55.594001770020 165 165 165
22.880590438843 24.444631576538 55.543998718262 141 141 141
22.890817642212 24.430469512939 55.493003845215 147 147 147
22.880590438843 24.444631576538 55.442008972168 147 147 147
22.890817642212 24.430469512939 55.390998840332 149 149 149
22.880590438843 24.444631576538 55.340003967285 146 146 146
22.884206771851 24.451555252075 55.289009094238 143 143 143
22.884206771851 24.451555252075 55.237998962402 141 141 141
22.894437789917 24.437393188477 55.187004089355 150 150 150
22.894437789917 24.437393188477 55.136009216309 147 147 147
22.894437789917 24.437393188477 55.086006164551 141 141 141
22.884206771851 24.451555252075 55.034996032715 153 153 153
22.894437789917 24.437393188477 54.984001159668 147 147 147
22.884206771851 24.451555252075 54.933998107910 155 155 155
22.894437789917 24.437393188477 54.883003234863 151 151 151
22.911901473999 24.437078475952 54.832008361816 151 151 151
22.911901473999 24.437078475952 54.782005310059 151 151 151
22.911901473999 24.437078475952 54.731010437012 147 147 147
22.911901473999 24.437078475952 54.680000305176 150 150 150
22.911901473999 24.437078475952 54.629997253418 148 148 148
22.911901473999 24.437078475952 54.579002380371 149 149 149
22.911901473999 24.437078475952 54.528007507324 145 145 145
22.911901473999 24.437078475952 54.476997375488 147 147 147
22.915521621704 24.444002151489 54.427009582520 145 145 145
22.915521621704 24.444002151489 54.375999450684 151 151 151
22.915521621704 24.444002151489 54.323997497559 150 150 150
22.925748825073 24.429840087891 54.275001525879 142 142 142
22.925748825073 24.429840087891 54.224006652832 149 149 149
22.915521621704 24.444002151489 54.172004699707 149 149 149
22.915521621704 24.444002151489 54.121009826660 148 148 148
22.915521621704 24.444002151489 54.069999694824 143 143 143
22.915521621704 24.444002151489 54.019004821777 125 125 125
22.925748825073 24.429840087891 53.969001770020 125 125 125
22.919141769409 24.450925827026 53.916999816895 134 134 134
22.929368972778 24.436763763428 53.866996765137 127 127 127
22.929368972778 24.436763763428 53.816001892090 131 131 131
22.919141769409 24.450925827026 53.763008117676 126 126 126
22.919141769409 24.450925827026 53.711997985840 124 124 124
22.919141769409 24.450925827026 53.659004211426 116 116 116
22.929368972778 24.436763763428 53.610008239746 122 122 122
22.929368972778 24.436763763428 53.558006286621 126 126 126
22.929368972778 24.436763763428 53.506996154785 127 127 127
22.929368972778 24.436763763428 53.455009460449 127 127 127
22.919141769409 24.450925827026 53.400001525879 142 142 142
22.898683547974 24.479249954224 53.342002868652 221 221 221
22.898683547974 24.479249954224 53.291007995605 183 183 183
22.919141769409 24.450925827026 53.243003845215 157 157 157
22.919141769409 24.450925827026 53.192008972168 129 129 129
22.943216323853 24.429527282715 53.142997741699 126 126 126
22.919141769409 24.450925827026 53.086006164551 144 144 144
22.898683547974 24.479249954224 53.026008605957 243 243 243
22.922760009766 24.457849502563 52.976997375488 221 221 221
22.922760009766 24.457849502563 52.922996520996 225 225 225
22.922760009766 24.457849502563 52.870002746582 216 216 216
22.898683547974 24.479249954224 52.815010070801 199 199 199
22.905921936035 24.493097305298 52.758003234863 196 196 196
22.936607360840 24.450611114502 52.711997985840 173 173 173
22.926378250122 24.464773178101 52.657997131348 153 153 153
22.802686691284 24.970195770264 55.241996765137 109 109 109
22.812913894653 24.956033706665 55.287010192871 182 182 182
22.802686691284 24.970195770264 55.333000183105 184 184 184
22.802686691284 24.970195770264 55.379005432129 178 178 178
22.802686691284 24.970195770264 55.425010681152 182 182 182
22.812913894653 24.956033706665 55.470008850098 171 171 171
22.812913894653 24.956033706665 55.838996887207 180 180 180
22.809295654297 24.949110031128 55.885002136230 187 187 187
22.809295654297 24.949110031128 55.930000305176 184 184 184
22.809295654297 24.949110031128 55.976997375488 198 198 198
22.799066543579 24.963272094727 56.026008605957 181 181 181
22.688610076904 24.650760650635 54.497001647949 18 18 18
22.674762725830 24.658000946045 54.541999816895 15 15 15
22.688610076904 24.650760650635 54.586997985840 16 16 16
22.813238143921 24.585620880127 54.631996154785 112 112 112
22.813238143921 24.585620880127 54.677009582520 124 124 124
22.785541534424 24.600095748901 54.722007751465 182 182 182
22.813238143921 24.585620880127 54.765007019043 124 124 124
22.840932846069 24.571144104004 54.808998107910 147 147 147
22.754228591919 24.607646942139 54.856010437012 63 63 63
22.695219039917 24.629676818848 54.903007507324 138 138 138
22.671144485474 24.651077270508 54.948997497559 37 37 37
22.657297134399 24.658313751221 54.995002746582 24 24 24
22.792150497437 24.579010009766 55.480003356934 109 109 109
22.792150497437 24.579010009766 55.525001525879 182 182 182
22.833696365356 24.557296752930 55.565010070801 183 183 183
22.865007400513 24.549743652344 55.606010437012 180 180 180
22.806001663208 24.571773529053 55.657997131348 189 189 189
22.816228866577 24.557609558105 55.702003479004 184 184 184
22.833696365356 24.557296752930 55.743995666504 188 188 188
22.875238418579 24.535581588745 55.782997131348 187 187 187
22.875238418579 24.535581588745 55.829002380371 112 112 112
22.940855026245 24.492467880249 55.862007141113 68 68 68
22.913160324097 24.506944656372 55.909004211426 79 79 79
22.909540176392 24.500020980835 55.956001281738 82 82 82
22.909540176392 24.500020980835 56.000007629395 79 79 79
22.688306808472 24.245414733887 54.521003723145 44 44 44
22.702154159546 24.238176345825 54.566001892090 46 46 46
22.702154159546 24.238176345825 54.610008239746 40 40 40
22.729848861694 24.223701477051 54.653999328613 36 36 36
22.698534011841 24.231252670288 54.698005676270 58 58 58
22.688306808472 24.245414733887 54.741996765137 116 116 116
22.688306808472 24.245414733887 54.786003112793 130 130 130
22.698534011841 24.231252670288 54.830009460449 155 155 155
22.698534011841 24.231252670288 54.874000549316 114 114 114
22.656991958618 24.252967834473 54.920005798340 22 22 22
22.656991958618 24.252967834473 54.963996887207 16 16 16
22.646764755249 24.267127990723 55.009010314941 19 19 19
22.805692672729 24.166423797607 55.390998840332 143 143 143
22.805692672729 24.166423797607 55.435997009277 189 189 189
22.805692672729 24.166423797607 55.478996276855 193 193 193
22.802076339722 24.159500122070 55.525001525879 190 190 190
22.802076339722 24.159500122070 55.568000793457 194 194 194
22.802076339722 24.159500122070 55.612007141113 163 163 163
22.774381637573 24.173976898193 55.748008728027 174 174 174
22.802076339722 24.159500122070 55.790000915527 183 183 183
22.802076339722 24.159500122070 55.834999084473 182 182 182
22.774381637573 24.173976898193 55.881004333496 186 186 186
22.774381637573 24.173976898193 55.925010681152 187 187 187
22.802076339722 24.159500122070 55.968009948730 161 161 161
22.807561874390 25.046985626221 56.017005920410 61 61 61
22.814800262451 25.060832977295 55.965003967285 98 98 98
22.807561874390 25.046985626221 55.909004211426 85 85 85
22.814800262451 25.060832977295 55.431007385254 71 71 71
22.794343948364 25.089157104492 55.379005432129 26 26 26
22.814342498779 24.452812194824 56.043998718262 99 99 99
22.838418960571 24.431411743164 55.989006042480 142 142 142
22.838418960571 24.431411743164 55.937004089355 145 145 145
22.814342498779 24.452812194824 55.887001037598 145 145 145
22.814342498779 24.452812194824 55.836006164551 142 142 142
22.838418960571 24.431411743164 55.782997131348 158 158 158
22.814342498779 24.452812194824 55.732002258301 151 151 151
22.814342498779 24.452812194824 55.681007385254 152 152 152
22.838418960571 24.431411743164 55.627998352051 148 148 148
22.838418960571 24.431411743164 55.577003479004 158 158 158
22.814342498779 24.452812194824 55.527000427246 154 154 154
22.814342498779 24.452812194824 55.476005554199 151 151 151
22.842037200928 24.438335418701 55.422996520996 148 148 148
22.842037200928 24.438335418701 55.372001647949 149 149 149
22.842037200928 24.438335418701 55.321006774902 145 145 145
22.842037200928 24.438335418701 55.269996643066 144 144 144
22.842037200928 24.438335418701 55.219001770020 146 146 146
22.831808090210 24.452497482300 55.168006896973 152 152 152
22.852266311646 24.424175262451 55.116004943848 143 143 143
22.842037200928 24.438335418701 55.066001892090 147 147 147
22.831808090210 24.452497482300 55.015007019043 152 152 152
22.842037200928 24.438335418701 54.963996887207 144 144 144
22.852266311646 24.424175262451 54.913002014160 139 139 139
22.842037200928 24.438335418701 54.862007141113 153 153 153
22.842037200928 24.438335418701 54.810997009277 155 155 155
22.842037200928 24.438335418701 54.760002136230 152 152 152
22.842037200928 24.438335418701 54.709007263184 150 150 150
22.852266311646 24.424175262451 54.657997131348 163 163 163
22.842037200928 24.438335418701 54.607002258301 141 141 141
22.842037200928 24.438335418701 54.556007385254 135 135 135
22.852266311646 24.424175262451 54.504997253418 134 134 134
22.842037200928 24.438335418701 54.454002380371 131 131 131
22.842037200928 24.438335418701 54.403007507324 135 135 135
22.852266311646 24.424175262451 54.351997375488 140 140 140
22.842037200928 24.438335418701 54.301002502441 140 140 140
22.852266311646 24.424175262451 54.250007629395 146 146 146
22.852266311646 24.424175262451 54.198997497559 147 147 147
22.842037200928 24.438335418701 54.147010803223 146 146 146
22.852266311646 24.424175262451 54.096000671387 142 142 142
22.852266311646 24.424175262451 54.045005798340 141 141 141
22.852266311646 24.424175262451 53.993995666504 133 133 133
22.842037200928 24.438335418701 53.941001892090 130 130 130
22.862493515015 24.410013198853 53.892005920410 128 128 128
22.852266311646 24.424175262451 53.838996887207 130 130 130
22.855884552002 24.431098937988 53.787010192871 134 134 134
22.855884552002 24.431098937988 53.736000061035 130 130 130
22.855884552002 24.431098937988 53.683998107910 126 126 126
22.855884552002 24.431098937988 53.631996154785 125 125 125
22.855884552002 24.431098937988 53.581001281738 123 123 123
22.855884552002 24.431098937988 53.528007507324 121 121 121
22.855884552002 24.431098937988 53.474998474121 125 125 125
22.855884552002 24.431098937988 53.424003601074 126 126 126
22.855884552002 24.431098937988 53.371009826660 127 127 127
22.866113662720 24.416936874390 53.321006774902 125 125 125
22.866113662720 24.416936874390 53.267997741699 130 130 130
22.866113662720 24.416936874390 53.215003967285 130 130 130
22.855884552002 24.431098937988 53.159996032715 129 129 129
22.866113662720 24.416936874390 53.110008239746 129 129 129
22.866113662720 24.416936874390 53.056999206543 130 130 130
22.855884552002 24.431098937988 53.002998352051 127 127 127
22.855884552002 24.431098937988 52.948997497559 133 133 133
22.866113662720 24.416936874390 52.898002624512 139 139 139
22.866113662720 24.416936874390 52.844001770020 134 134 134
22.855884552002 24.431098937988 52.789009094238 135 135 135
22.855884552002 24.431098937988 52.735008239746 132 132 132
22.876340866089 24.402774810791 52.687995910645 135 135 135
22.766988754272 23.957454681396 56.084999084473 132 132 132
22.756761550903 23.971616744995 56.036003112793 159 159 159
22.766988754272 23.957454681396 55.984001159668 137 137 137
22.756761550903 23.971616744995 55.935005187988 125 125 125
22.770608901978 23.964378356934 55.883003234863 118 118 118
22.770608901978 23.964378356934 55.530998229980 27 27 27
22.791063308716 23.936054229736 55.478996276855 133 133 133
22.791063308716 23.936054229736 55.429008483887 142 142 142
22.791063308716 23.936054229736 55.379005432129 140 140 140
22.791063308716 23.936054229736 55.329002380371 138 138 138
22.791063308716 23.936054229736 55.278999328613 29 29 29
22.665334701538 24.134006500244 54.985008239746 6 6 6
22.671943664551 24.112922668457 54.730003356934 11 11 11
22.773733139038 24.914806365967 55.278999328613 88 88 88
22.777353286743 24.921730041504 55.331001281738 10 10 10
22.773733139038 24.914806365967 55.383003234863 19 19 19
22.787580490112 24.907567977905 55.433998107910 8 8 8
22.773733139038 24.914806365967 55.487998962402 14 14 14
22.787580490112 24.907567977905 55.539009094238 241 241 241
22.787580490112 24.907567977905 55.800010681152 184 184 184
22.805047988892 24.907253265381 55.851005554199 251 251 251
22.805047988892 24.907253265381 55.903999328613 248 248 248
22.818895339966 24.900016784668 55.955009460449 248 248 248
22.805047988892 24.907253265381 56.009010314941 247 247 247
22.787580490112 24.907567977905 56.062004089355 6 6 6
22.653047561646 24.616458892822 54.420005798340 62 62 62
