22.416217803955 45.652427673340 5.393997192383 127 127 127
22.445135116577 45.666614532471 5.347000122070 147 147 147
22.445135116577 45.666614532471 5.304000854492 179 179 179
22.416217803955 45.652427673340 5.266998291016 129 129 129
22.421257019043 45.646457672119 5.225997924805 135 135 135
22.445135116577 45.666614532471 5.180007934570 107 107 107
22.445135116577 45.666614532471 5.136001586914 104 104 104
22.445135116577 45.666614532471 5.095001220703 107 107 107
22.445135116577 45.666614532471 5.053009033203 105 105 105
22.445135116577 45.666614532471 5.013000488281 105 105 105
22.445135116577 45.666614532471 4.971008300781 108 108 108
22.445135116577 45.666614532471 4.930007934570 107 107 107
22.438236236572 45.650569915771 4.889007568359 109 109 109
22.438236236572 45.650569915771 4.848007202148 108 108 108
22.438236236572 45.650569915771 4.807006835938 104 104 104
22.438236236572 45.650569915771 4.764999389648 104 104 104
22.438236236572 45.650569915771 4.723999023438 108 108 108
22.416217803955 45.652427673340 4.684005737305 117 117 117
22.445135116577 45.666614532471 4.641998291016 108 108 108
22.421257019043 45.646457672119 4.602005004883 113 113 113
22.397377014160 45.626300811768 4.561996459961 125 125 125
22.421257019043 45.646457672119 4.520004272461 114 114 114
22.416217803955 45.652427673340 4.477996826172 114 114 114
22.421257019043 45.646457672119 4.438003540039 113 113 113
22.421257019043 45.646457672119 4.395996093750 114 114 114
22.416217803955 45.652427673340 4.355010986328 110 110 110
22.421257019043 45.646457672119 4.314010620117 109 109 109
22.416217803955 45.652427673340 4.273010253906 106 106 106
22.421257019043 45.646457672119 4.232009887695 99 99 99
22.416217803955 45.652427673340 4.191009521484 96 96 96
22.421257019043 45.646457672119 4.150009155273 98 98 98
22.421257019043 45.646457672119 4.109008789063 101 101 101
22.416217803955 45.652427673340 4.068008422852 91 91 91
22.421257019043 45.646457672119 4.027008056641 91 91 91
22.421257019043 45.646457672119 3.986007690430 92 92 92
22.416217803955 45.652427673340 3.945007324219 86 86 86
22.426296234131 45.640487670898 3.902999877930 84 84 84
22.416217803955 45.652427673340 3.863006591797 84 84 84
22.421257019043 45.646457672119 3.820999145508 83 83 83
22.421257019043 45.646457672119 3.779998779297 87 87 87
22.421257019043 45.646457672119 3.738998413086 91 91 91
22.421257019043 45.646457672119 3.697006225586 89 89 89
22.397377014160 45.626300811768 3.654998779297 82 82 82
22.421257019043 45.646457672119 3.615005493164 86 86 86
22.397377014160 45.626300811768 3.572998046875 86 86 86
22.426296234131 45.640487670898 3.531997680664 85 85 85
22.421257019043 45.646457672119 3.490997314453 77 77 77
22.397377014160 45.626300811768 3.447998046875 75 75 75
22.397377014160 45.626300811768 3.406005859375 81 81 81
22.397377014160 45.626300811768 3.365005493164 81 81 81
22.421257019043 45.646457672119 3.324996948242 77 77 77
22.426296234131 45.640487670898 3.281997680664 78 78 78
22.397377014160 45.626300811768 3.238006591797 73 73 73
22.397377014160 45.626300811768 3.197998046875 83 83 83
22.397377014160 45.626300811768 3.156005859375 82 82 82
22.426296234131 45.640487670898 3.115997314453 78 78 78
22.397377014160 45.626300811768 3.070999145508 74 74 74
22.426296234131 45.640487670898 3.029998779297 72 72 72
22.397377014160 45.626300811768 2.988006591797 85 85 85
22.397377014160 45.626300811768 2.944000244141 87 87 87
22.397377014160 45.626300811768 2.902008056641 79 79 79
22.426296234131 45.640487670898 2.861007690430 81 81 81
22.397377014160 45.626300811768 2.816009521484 81 81 81
22.397377014160 45.626300811768 2.774002075195 86 86 86
22.402416229248 45.620330810547 2.686996459961 94 94 94
22.378536224365 45.600173950195 2.596008300781 112 112 112
22.385437011719 45.616222381592 2.554000854492 100 100 100
22.385437011719 45.616222381592 2.511001586914 110 110 110
22.345430374146 45.930065155029 5.680007934570 82 82 82
22.350469589233 45.924095153809 5.641998291016 161 161 161
22.350469589233 45.924095153809 5.600006103516 159 159 159
22.350469589233 45.924095153809 5.557998657227 165 165 165
22.328451156616 45.925956726074 5.516998291016 155 155 155
22.345430374146 45.930065155029 5.472000122070 161 161 161
22.328451156616 45.925956726074 5.432998657227 96 96 96
22.321552276611 45.909908294678 5.391006469727 87 87 87
22.321552276611 45.909908294678 5.350997924805 147 147 147
22.321552276611 45.909908294678 5.309997558594 151 151 151
22.321552276611 45.909908294678 5.268005371094 150 150 150
22.321552276611 45.909908294678 5.227005004883 156 156 156
22.321552276611 45.909908294678 5.184005737305 152 152 152
22.321552276611 45.909908294678 5.141998291016 85 85 85
22.197114944458 45.815090179443 4.790008544922 56 56 56
22.178276062012 45.788959503174 4.750000000000 79 79 79
22.173236846924 45.794933319092 4.707000732422 79 79 79
22.226034164429 45.829277038574 4.662002563477 77 77 77
22.243013381958 45.833385467529 4.619003295898 79 79 79
22.220994949341 45.835247039795 4.578002929688 85 85 85
22.220994949341 45.835247039795 4.537002563477 92 92 92
22.207193374634 45.803150177002 4.497009277344 109 109 109
22.220994949341 45.835247039795 4.454010009766 163 163 163
22.190216064453 45.799037933350 4.415008544922 112 112 112
22.178276062012 45.788959503174 4.375000000000 72 72 72
22.178276062012 45.788959503174 4.332000732422 81 81 81
22.154396057129 45.768802642822 4.291000366211 79 79 79
22.178276062012 45.788959503174 4.250000000000 65 65 65
22.178276062012 45.788959503174 4.208007812500 69 69 69
22.178276062012 45.788959503174 4.166000366211 65 65 65
22.327444076538 46.242046356201 5.781997680664 57 57 57
22.334344863892 46.258094787598 5.736999511719 138 138 138
22.334344863892 46.258094787598 5.695999145508 164 164 164
22.334344863892 46.258094787598 5.654006958008 165 165 165
22.327444076538 46.242046356201 5.615005493164 98 98 98
22.327444076538 46.242046356201 5.169998168945 126 126 126
22.327444076538 46.242046356201 5.130004882813 155 155 155
22.327444076538 46.242046356201 5.089996337891 129 129 129
22.327444076538 46.242046356201 5.048995971680 107 107 107
21.959177017212 45.951618194580 4.647003173828 64 64 64
22.358377456665 45.624053955078 2.533996582031 147 147 147
22.368457794189 45.612113952637 2.581008911133 151 151 151
22.363418579102 45.618083953857 2.630996704102 148 148 148
22.363418579102 45.618083953857 2.678009033203 150 150 150
22.370317459106 45.634132385254 2.733001708984 127 127 127
22.358377456665 45.624053955078 2.779998779297 135 135 135
22.370317459106 45.634132385254 2.830001831055 143 143 143
22.358377456665 45.624053955078 2.878005981445 127 127 127
22.370317459106 45.634132385254 2.927001953125 142 142 142
22.353338241577 45.630023956299 2.975006103516 133 133 133
22.377218246460 45.650180816650 3.025009155273 134 134 134
22.372179031372 45.656150817871 3.074005126953 127 127 127
22.360239028931 45.646072387695 3.121002197266 136 136 136
22.360239028931 45.646072387695 3.169006347656 131 131 131
22.353338241577 45.630023956299 3.217010498047 130 130 130
22.360239028931 45.646072387695 3.266006469727 131 131 131
22.360239028931 45.646072387695 3.314010620117 131 131 131
22.360239028931 45.646072387695 3.361007690430 128 128 128
22.355199813843 45.652042388916 3.408996582031 128 128 128
22.353338241577 45.630023956299 3.456008911133 144 144 144
22.355199813843 45.652042388916 3.505004882813 135 135 135
22.360239028931 45.646072387695 3.551010131836 133 133 133
22.355199813843 45.652042388916 3.598999023438 141 141 141
22.360239028931 45.646072387695 3.645996093750 133 133 133
22.360239028931 45.646072387695 3.693008422852 136 136 136
22.360239028931 45.646072387695 3.740997314453 141 141 141
22.360239028931 45.646072387695 3.788009643555 143 143 143
22.353338241577 45.630023956299 3.835006713867 140 140 140
22.360239028931 45.646072387695 3.882003784180 141 141 141
22.353338241577 45.630023956299 3.929000854492 144 144 144
22.355199813843 45.652042388916 3.977005004883 152 152 152
22.355199813843 45.652042388916 4.024002075195 137 137 137
22.360239028931 45.646072387695 4.070999145508 132 132 132
22.338220596313 45.647933959961 4.117996215820 145 145 145
22.338220596313 45.647933959961 4.165008544922 136 136 136
22.338220596313 45.647933959961 4.212005615234 140 140 140
22.338220596313 45.647933959961 4.259002685547 137 137 137
22.333181381226 45.653903961182 4.307006835938 130 130 130
22.333181381226 45.653903961182 4.354003906250 131 131 131
22.333181381226 45.653903961182 4.401000976563 141 141 141
22.333181381226 45.653903961182 4.447998046875 134 134 134
22.338220596313 45.647933959961 4.495010375977 143 143 143
22.333181381226 45.653903961182 4.542007446289 140 140 140
22.333181381226 45.653903961182 4.589004516602 139 139 139
22.333181381226 45.653903961182 4.636001586914 137 137 137
22.333181381226 45.653903961182 4.682998657227 131 131 131
22.333181381226 45.653903961182 4.730010986328 146 146 146
22.338220596313 45.647933959961 4.777999877930 150 150 150
22.333181381226 45.653903961182 4.824996948242 146 146 146
22.333181381226 45.653903961182 4.872009277344 153 153 153
22.333181381226 45.653903961182 4.919006347656 158 158 158
22.333181381226 45.653903961182 4.967010498047 157 157 157
22.333181381226 45.653903961182 5.014007568359 164 164 164
22.328142166138 45.659873962402 5.061996459961 159 159 159
22.333181381226 45.653903961182 5.109008789063 160 160 160
22.333181381226 45.653903961182 5.156005859375 152 152 152
22.340082168579 45.669952392578 5.202011108398 153 153 153
22.328142166138 45.659873962402 5.251007080078 151 151 151
22.328142166138 45.659873962402 5.298004150391 145 145 145
22.335041046143 45.675922393799 5.345001220703 136 136 136
22.323101043701 45.665843963623 5.393005371094 131 131 131
22.323101043701 45.665843963623 5.441009521484 128 128 128
22.328142166138 45.659873962402 5.490005493164 130 130 130
22.318061828613 45.671813964844 5.536010742188 130 130 130
22.328142166138 45.659873962402 5.585006713867 129 129 129
22.323101043701 45.665843963623 5.633010864258 135 135 135
22.323101043701 45.665843963623 5.680999755859 122 122 122
22.323101043701 45.665843963623 5.729003906250 128 128 128
22.328142166138 45.659873962402 5.779006958008 129 129 129
22.135557174683 45.742675781250 4.135009765625 47 47 47
22.154396057129 45.768802642822 4.184005737305 45 45 45
22.154396057129 45.768802642822 4.231002807617 52 52 52
22.144317626953 45.780742645264 4.279006958008 51 51 51
22.142456054688 45.758724212646 4.326004028320 76 76 76
22.139278411865 45.786712646484 4.374008178711 78 78 78
22.163158416748 45.806873321533 4.421005249023 131 131 131
22.163158416748 45.806873321533 4.468002319336 161 161 161
22.159978866577 45.834857940674 4.514999389648 93 93 93
22.190757751465 45.871067047119 4.561004638672 119 119 119
22.190757751465 45.871067047119 4.608001708984 127 127 127
22.165019989014 45.828891754150 4.656997680664 101 101 101
22.139278411865 45.786712646484 4.706008911133 87 87 87
22.153079986572 45.818813323975 4.753005981445 64 64 64
22.299842834473 46.177852630615 5.005004882813 107 107 107
22.289764404297 46.189792633057 5.048004150391 88 88 88
22.313644409180 46.209949493408 5.092010498047 117 117 117
22.322404861450 46.248016357422 5.134002685547 120 120 120
22.289764404297 46.189792633057 5.186004638672 73 73 73
22.289764404297 46.189792633057 5.596008300781 11 11 11
22.293487548828 46.233829498291 5.636001586914 115 115 115
22.288446426392 46.239799499512 5.680999755859 106 106 106
22.298526763916 46.227859497070 5.731002807617 100 100 100
22.298526763916 46.227859497070 5.777008056641 64 64 64
21.962354660034 45.923629760742 4.634002685547 92 92 92
22.338453292847 45.453876495361 5.531997680664 196 196 196
22.321474075317 45.449764251709 5.483001708984 199 199 199
22.338453292847 45.453876495361 5.432006835938 150 150 150
22.197580337524 45.426967620850 4.796005249023 7 7 7
22.180601119995 45.422863006592 4.746002197266 80 80 80
22.214559555054 45.431083679199 4.695999145508 88 88 88
22.214559555054 45.431083679199 4.645996093750 85 85 85
22.231538772583 45.435192108154 4.596008300781 78 78 78
22.197580337524 45.426967620850 4.546005249023 87 87 87
22.197580337524 45.426967620850 4.497009277344 87 87 87
22.207658767700 45.415035247803 4.447006225586 96 96 96
22.231538772583 45.435192108154 4.397003173828 99 99 99
22.236579895020 45.429222106934 4.347000122070 83 83 83
22.236579895020 45.429222106934 4.298004150391 25 25 25
22.294416427612 45.457595825195 5.589996337891 180 180 180
22.304494857788 45.445655822754 5.387008666992 181 181 181
22.348609924316 45.902076721191 5.671005249023 175 175 175
22.370628356934 45.900215148926 5.620010375977 226 226 226
22.360549926758 45.912155151367 5.572998046875 231 231 231
22.370628356934 45.900215148926 5.524002075195 226 226 226
22.348609924316 45.902076721191 5.477996826172 228 228 228
22.348609924316 45.902076721191 5.430007934570 190 190 190
22.348609924316 45.902076721191 5.383010864258 201 201 201
22.348609924316 45.902076721191 5.335998535156 209 209 209
22.348609924316 45.902076721191 5.288009643555 204 204 204
22.348609924316 45.902076721191 5.240005493164 210 210 210
22.348609924316 45.902076721191 5.193008422852 200 200 200
22.331630706787 45.897968292236 5.145996093750 87 87 87
22.190757751465 45.871067047119 4.775009155273 84 84 84
22.219676971436 45.885253906250 4.725997924805 84 84 84
22.219676971436 45.885253906250 4.678009033203 74 74 74
22.241697311401 45.883396148682 4.628997802734 98 98 98
22.246736526489 45.877422332764 4.582000732422 100 100 100
22.224718093872 45.879283905029 4.533996582031 109 109 109
22.219676971436 45.885253906250 4.486999511719 108 108 108
22.258674621582 45.887500762939 4.439010620117 145 145 145
22.212778091431 45.869205474854 4.391006469727 79 79 79
22.190757751465 45.871067047119 4.343002319336 71 71 71
22.219676971436 45.885253906250 4.296005249023 59 59 59
22.185718536377 45.877033233643 4.247009277344 30 30 30
22.357139587402 46.134204864502 5.805007934570 139 139 139
22.374118804932 46.138313293457 5.755996704102 230 230 230
22.374118804932 46.138313293457 5.707000732422 233 233 233
22.374118804932 46.138313293457 5.661010742188 226 226 226
22.374118804932 46.138313293457 5.615005493164 236 236 236
22.374118804932 46.138313293457 5.567001342773 214 214 214
22.357139587402 46.134204864502 5.242004394531 200 200 200
22.357139587402 46.134204864502 5.195999145508 216 216 216
22.357139587402 46.134204864502 5.149002075195 208 208 208
22.335119247437 46.136066436768 5.102996826172 212 212 212
22.357139587402 46.134204864502 5.055999755859 206 206 206
22.357139587402 46.134204864502 5.010009765625 131 131 131
21.970573425293 45.889675140381 4.650009155273 71 71 71
21.963672637939 45.873622894287 4.699005126953 9 9 9
22.170833587646 45.700885772705 4.150009155273 36 36 36
22.179594039917 45.738952636719 4.199005126953 44 44 44
22.179594039917 45.738952636719 4.246002197266 50 50 50
22.172693252563 45.722904205322 4.294006347656 50 50 50
22.172693252563 45.722904205322 4.341003417969 71 71 71
22.174554824829 45.744922637939 4.389007568359 88 88 88
22.188354492188 45.777019500732 4.436004638672 112 112 112
22.198434829712 45.765079498291 4.483001708984 146 146 146
22.190216064453 45.799037933350 4.529998779297 102 102 102
22.202154159546 45.809120178223 4.576004028320 111 111 111
22.204015731812 45.831138610840 4.623001098633 117 117 117
22.183315277100 45.782993316650 4.671997070313 111 111 111
22.184633255005 45.732982635498 4.721008300781 79 79 79
22.179594039917 45.738952636719 4.768997192383 67 67 67
22.179594039917 45.738952636719 4.816009521484 22 22 22
22.325040817261 46.148006439209 5.018005371094 99 99 99
22.325040817261 46.148006439209 5.063003540039 96 96 96
22.314962387085 46.159946441650 5.106002807617 119 119 119
22.326902389526 46.170024871826 5.151000976563 110 110 110
22.320001602173 46.153972625732 5.197998046875 103 103 103
22.316278457642 46.109935760498 5.250000000000 18 18 18
22.330080032349 46.142032623291 5.611999511719 47 47 47
22.326902389526 46.170024871826 5.652008056641 122 122 122
22.333803176880 46.186073303223 5.695007324219 119 119 119
22.333803176880 46.186073303223 5.742996215820 126 126 126
22.320001602173 46.153972625732 5.792999267578 89 89 89
22.314962387085 46.159946441650 5.839004516602 61 61 61
22.379856109619 45.550167083740 2.540008544922 208 208 208
22.371093750000 45.512100219727 2.583999633789 222 222 222
22.371093750000 45.512100219727 2.633010864258 238 238 238
22.398693084717 45.576297760010 2.695999145508 129 129 129
22.398693084717 45.576297760010 2.745010375977 123 123 123
22.398693084717 45.576297760010 2.794998168945 127 127 127
22.393653869629 45.582267761230 2.846008300781 121 121 121
22.393653869629 45.582267761230 2.893997192383 116 116 116
22.393653869629 45.582267761230 2.943008422852 127 127 127
22.393653869629 45.582267761230 2.990997314453 124 124 124
22.388614654541 45.588233947754 3.041000366211 124 124 124
22.388614654541 45.588233947754 3.087997436523 123 123 123
22.393653869629 45.582267761230 3.136001586914 135 135 135
22.388614654541 45.588233947754 3.184997558594 129 129 129
22.400554656982 45.598312377930 3.234008789063 129 129 129
22.388614654541 45.588233947754 3.279998779297 131 131 131
22.400554656982 45.598312377930 3.329010009766 133 133 133
22.400554656982 45.598312377930 3.376998901367 131 131 131
22.388614654541 45.588233947754 3.423995971680 138 138 138
22.388614654541 45.588233947754 3.472000122070 136 136 136
22.400554656982 45.598312377930 3.518997192383 132 132 132
22.407455444336 45.614360809326 3.568008422852 137 137 137
22.388614654541 45.588233947754 3.613998413086 147 147 147
22.400554656982 45.598312377930 3.662002563477 137 137 137
22.407455444336 45.614360809326 3.710006713867 136 136 136
22.407455444336 45.614360809326 3.757003784180 139 139 139
22.400554656982 45.598312377930 3.804000854492 138 138 138
22.407455444336 45.614360809326 3.850997924805 145 145 145
22.407455444336 45.614360809326 3.898010253906 144 144 144
22.400554656982 45.598312377930 3.945007324219 145 145 145
22.400554656982 45.598312377930 3.992004394531 152 152 152
22.400554656982 45.598312377930 4.039001464844 137 137 137
22.407455444336 45.614360809326 4.085998535156 139 139 139
22.407455444336 45.614360809326 4.133010864258 145 145 145
22.407455444336 45.614360809326 4.180007934570 137 137 137
22.407455444336 45.614360809326 4.227005004883 138 138 138
22.400554656982 45.598312377930 4.273010253906 139 139 139
22.402416229248 45.620330810547 4.320007324219 131 131 131
22.402416229248 45.620330810547 4.367004394531 131 131 131
22.407455444336 45.614360809326 4.414001464844 131 131 131
22.378536224365 45.600173950195 4.460998535156 133 133 133
22.402416229248 45.620330810547 4.508010864258 128 128 128
22.407455444336 45.614360809326 4.555007934570 137 137 137
22.407455444336 45.614360809326 4.602005004883 140 140 140
22.407455444336 45.614360809326 4.648010253906 135 135 135
22.402416229248 45.620330810547 4.695007324219 147 147 147
22.402416229248 45.620330810547 4.742004394531 137 137 137
22.402416229248 45.620330810547 4.789001464844 137 137 137
22.402416229248 45.620330810547 4.835998535156 134 134 134
22.402416229248 45.620330810547 4.883010864258 137 137 137
22.380397796631 45.622192382813 4.930007934570 140 140 140
22.397377014160 45.626300811768 4.975997924805 138 138 138
22.402416229248 45.620330810547 5.024002075195 140 140 140
22.402416229248 45.620330810547 5.070999145508 139 139 139
22.402416229248 45.620330810547 5.117996215820 139 139 139
22.380397796631 45.622192382813 5.165008544922 139 139 139
22.380397796631 45.622192382813 5.212005615234 144 144 144
22.397377014160 45.626300811768 5.258010864258 141 141 141
22.387298583984 45.638240814209 5.307006835938 143 143 143
22.380397796631 45.622192382813 5.354003906250 141 141 141
22.387298583984 45.638240814209 5.402008056641 143 143 143
22.387298583984 45.638240814209 5.449005126953 139 139 139
22.387298583984 45.638240814209 5.496002197266 132 132 132
22.387298583984 45.638240814209 5.542999267578 132 132 132
22.387298583984 45.638240814209 5.591003417969 136 136 136
22.387298583984 45.638240814209 5.639999389648 144 144 144
22.387298583984 45.638240814209 5.688003540039 136 136 136
22.387298583984 45.638240814209 5.735000610352 139 139 139
22.387298583984 45.638240814209 5.783004760742 128 128 128
22.380397796631 45.622192382813 5.833007812500 22 22 22
22.328763961792 46.192043304443 5.801010131836 92 92 92
22.328763961792 46.192043304443 5.758010864258 155 155 155
22.345741271973 46.196151733398 5.714996337891 165 165 165
22.345741271973 46.196151733398 5.673995971680 164 164 164
22.333803176880 46.186073303223 5.638000488281 109 109 109
22.333803176880 46.186073303223 5.192001342773 141 141 141
22.333803176880 46.186073303223 5.151000976563 162 162 162
22.333803176880 46.186073303223 5.111007690430 151 151 151
22.326902389526 46.170024871826 5.072006225586 119 119 119
22.314962387085 46.159946441650 5.033004760742 93 93 93
21.975612640381 45.883705139160 4.667999267578 90 90 90
22.023370742798 45.924018859863 4.622009277344 13 13 13
22.348068237305 45.830051422119 5.662002563477 121 121 121
22.336128234863 45.819972991943 5.625000000000 158 158 158
22.336128234863 45.819972991943 5.582000732422 152 152 152
22.336128234863 45.819972991943 5.539001464844 163 163 163
22.336128234863 45.819972991943 5.498001098633 155 155 155
22.336128234863 45.819972991943 5.456008911133 151 151 151
22.324188232422 45.809894561768 5.417007446289 148 148 148
22.329227447510 45.803920745850 5.374008178711 148 148 148
22.319147109985 45.815860748291 5.333007812500 148 148 148
22.324188232422 45.809894561768 5.292999267578 156 156 156
22.324188232422 45.809894561768 5.251007080078 155 155 155
22.329227447510 45.803920745850 5.207000732422 114 114 114
22.174013137817 45.672897338867 4.815002441406 44 44 44
22.174013137817 45.672897338867 4.773010253906 56 56 56
22.185953140259 45.682975769043 4.730010986328 83 83 83
22.180913925171 45.688945770264 4.688003540039 139 139 139
22.209831237793 45.703132629395 4.643997192383 133 133 133
22.214870452881 45.697162628174 4.602005004883 157 157 157
22.209831237793 45.703132629395 4.559997558594 144 144 144
22.238750457764 45.717319488525 4.518005371094 181 181 181
22.209831237793 45.703132629395 4.477005004883 158 158 158
22.197891235352 45.693054199219 4.436996459961 156 156 156
22.214870452881 45.697162628174 4.395004272461 127 127 127
22.162073135376 45.662818908691 4.355010986328 61 61 61
22.167112350464 45.656848907471 4.313003540039 50 50 50
22.155172348022 45.646770477295 4.272003173828 46 46 46
22.167112350464 45.656848907471 4.230010986328 48 48 48
22.167112350464 45.656848907471 4.188003540039 56 56 56
22.172151565552 45.650878906250 4.145996093750 69 69 69
22.314573287964 45.433715820313 5.658996582031 128 128 128
22.314573287964 45.433715820313 5.615997314453 155 155 155
22.314573287964 45.433715820313 5.570999145508 151 151 151
22.307674407959 45.417667388916 5.529998779297 143 143 143
22.309534072876 45.439685821533 5.483001708984 144 144 144
22.321474075317 45.449764251709 5.436004638672 149 149 149
22.314573287964 45.433715820313 5.395004272461 156 156 156
22.314573287964 45.433715820313 5.352005004883 156 156 156
22.314573287964 45.433715820313 5.309997558594 149 149 149
22.314573287964 45.433715820313 5.266006469727 150 150 150
22.319614410400 45.427745819092 5.225006103516 110 110 110
22.176338195801 45.306800842285 4.772003173828 39 39 39
22.176338195801 45.306800842285 4.729003906250 68 68 68
22.176338195801 45.306800842285 4.684997558594 77 77 77
22.200218200684 45.326957702637 4.641006469727 67 67 67
22.176338195801 45.306800842285 4.598999023438 61 61 61
22.176338195801 45.306800842285 4.555007934570 67 67 67
22.193317413330 45.310909271240 4.512008666992 74 74 74
22.193317413330 45.310909271240 4.469009399414 73 73 73
22.205257415771 45.320987701416 4.425003051758 61 61 61
22.229137420654 45.341144561768 4.380996704102 21 21 21
22.316900253296 45.067615509033 5.775009155273 161 161 161
22.299921035767 45.063507080078 5.732009887695 136 136 136
22.316900253296 45.067615509033 5.686004638672 148 148 148
22.299921035767 45.063507080078 5.641006469727 30 30 30
22.304960250854 45.057537078857 5.152008056641 180 180 180
22.315040588379 45.045600891113 5.107009887695 148 148 148
22.309999465942 45.051570892334 5.061996459961 117 117 117
22.315040588379 45.045600891113 5.018997192383 33 33 33
22.276041030884 45.043350219727 5.829010009766 141 141 141
22.281080245972 45.037380218506 5.199005126953 156 156 156
22.326902389526 46.170024871826 5.833999633789 134 134 134
22.343881607056 46.174133300781 5.785003662109 218 218 218
22.343881607056 46.174133300781 5.738006591797 225 225 225
22.343881607056 46.174133300781 5.692001342773 234 234 234
22.343881607056 46.174133300781 5.645004272461 206 206 206
22.309923171997 46.165912628174 5.234008789063 63 63 63
22.314962387085 46.159946441650 5.186004638672 203 203 203
22.314962387085 46.159946441650 5.139999389648 217 217 217
22.343881607056 46.174133300781 5.094009399414 201 201 201
22.314962387085 46.159946441650 5.050003051758 175 175 175
22.328451156616 45.925956726074 5.750000000000 133 133 133
22.350469589233 45.924095153809 5.699996948242 225 225 225
22.350469589233 45.924095153809 5.652999877930 232 232 232
22.350469589233 45.924095153809 5.605010986328 223 223 223
22.350469589233 45.924095153809 5.557998657227 230 230 230
22.350469589233 45.924095153809 5.510009765625 211 211 211
22.321552276611 45.909908294678 5.371002197266 162 162 162
22.321552276611 45.909908294678 5.322998046875 202 202 202
22.321552276611 45.909908294678 5.277008056641 216 216 216
22.321552276611 45.909908294678 5.230010986328 205 205 205
22.321552276611 45.909908294678 5.182998657227 213 213 213
22.316513061523 45.915878295898 5.137008666992 176 176 176
22.175640106201 45.888973236084 4.768997192383 64 64 64
22.180679321289 45.883003234863 4.721008300781 92 92 92
22.168739318848 45.872924804688 4.673995971680 76 76 76
22.168739318848 45.872924804688 4.626998901367 71 71 71
22.168739318848 45.872924804688 4.579010009766 77 77 77
22.168739318848 45.872924804688 4.531997680664 79 79 79
22.168739318848 45.872924804688 4.484008789063 89 89 89
22.134782791138 45.864704132080 4.436996459961 57 57 57
22.185718536377 45.877033233643 4.389999389648 13 13 13
22.357061386108 45.674060821533 5.794998168945 13 13 13
22.335041046143 45.675922393799 5.750000000000 33 33 33
22.335041046143 45.675922393799 5.701004028320 38 38 38
22.335041046143 45.675922393799 5.651000976563 52 52 52
22.340082168579 45.669952392578 5.605010986328 168 168 168
22.340082168579 45.669952392578 5.555999755859 210 210 210
22.340082168579 45.669952392578 5.507003784180 215 215 215
22.323101043701 45.665843963623 5.460006713867 208 208 208
22.340082168579 45.669952392578 5.411010742188 209 209 209
22.323101043701 45.665843963623 5.363998413086 206 206 206
22.323101043701 45.665843963623 5.316009521484 192 192 192
22.328142166138 45.659873962402 5.268997192383 134 134 134
22.340082168579 45.669952392578 5.218002319336 92 92 92
22.340082168579 45.669952392578 5.171005249023 80 80 80
22.333181381226 45.653903961182 5.124008178711 81 81 81
22.340082168579 45.669952392578 5.074996948242 88 88 88
22.333181381226 45.653903961182 5.027008056641 95 95 95
22.333181381226 45.653903961182 4.980010986328 99 99 99
22.333181381226 45.653903961182 4.932998657227 99 99 99
22.333181381226 45.653903961182 4.885009765625 101 101 101
22.333181381226 45.653903961182 4.837005615234 102 102 102
22.306123733521 45.661731719971 4.791000366211 123 123 123
22.294183731079 45.651653289795 4.744003295898 148 148 148
22.294183731079 45.651653289795 4.695999145508 147 147 147
22.306123733521 45.661731719971 4.647003173828 131 131 131
22.333181381226 45.653903961182 4.598999023438 172 172 172
22.328142166138 45.659873962402 4.552001953125 148 148 148
22.328142166138 45.659873962402 4.503997802734 135 135 135
22.328142166138 45.659873962402 4.457000732422 169 169 169
22.328142166138 45.659873962402 4.408996582031 142 142 142
22.294183731079 45.651653289795 4.361007690430 143 143 143
22.328142166138 45.659873962402 4.314010620117 129 129 129
22.311162948608 45.655765533447 4.266006469727 126 126 126
22.311162948608 45.655765533447 4.218002319336 126 126 126
22.311162948608 45.655765533447 4.169998168945 129 129 129
22.311162948608 45.655765533447 4.123001098633 117 117 117
22.333181381226 45.653903961182 4.074996948242 106 106 106
22.333181381226 45.653903961182 4.027008056641 113 113 113
22.333181381226 45.653903961182 3.980010986328 110 110 110
22.333181381226 45.653903961182 3.932998657227 107 107 107
22.304264068604 45.639713287354 3.884002685547 112 112 112
22.338220596313 45.647933959961 3.837005615234 110 110 110
22.333181381226 45.653903961182 3.788009643555 109 109 109
22.333181381226 45.653903961182 3.740997314453 115 115 115
22.326282501221 45.637851715088 3.692001342773 123 123 123
22.304264068604 45.639713287354 3.643005371094 121 121 121
22.304264068604 45.639713287354 3.595001220703 116 116 116
22.326282501221 45.637851715088 3.548004150391 113 113 113
22.326282501221 45.637851715088 3.500000000000 112 112 112
22.304264068604 45.639713287354 3.451004028320 117 117 117
22.304264068604 45.639713287354 3.402008056641 124 124 124
22.304264068604 45.639713287354 3.352996826172 117 117 117
22.304264068604 45.639713287354 3.304000854492 122 122 122
22.304264068604 45.639713287354 3.255996704102 118 118 118
22.304264068604 45.639713287354 3.208007812500 110 110 110
22.287282943726 45.635604858398 3.156005859375 113 113 113
22.304264068604 45.639713287354 3.108001708984 119 119 119
22.314342498779 45.627773284912 3.061996459961 124 124 124
22.304264068604 45.639713287354 3.009002685547 117 117 117
22.304264068604 45.639713287354 2.960998535156 132 132 132
22.304264068604 45.639713287354 2.912002563477 125 125 125
22.304264068604 45.639713287354 2.863998413086 129 129 129
22.168428421021 45.606842041016 2.789001464844 42 42 42
22.246425628662 45.611339569092 2.749008178711 251 251 251
22.258363723755 45.621417999268 2.702011108398 234 234 234
22.280384063721 45.619556427002 2.656005859375 223 223 223
22.258363723755 45.621417999268 2.602996826172 203 203 203
22.280384063721 45.619556427002 2.555999755859 184 184 184
22.285423278809 45.613586425781 2.508010864258 169 169 169
22.307674407959 45.417667388916 5.608001708984 220 220 220
22.307674407959 45.417667388916 5.557998657227 203 203 203
22.324653625488 45.421775817871 5.508010864258 192 192 192
22.324653625488 45.421775817871 5.458007812500 203 203 203
22.324653625488 45.421775817871 5.406997680664 214 214 214
22.183780670166 45.394874572754 4.827011108398 16 16 16
22.176881790161 45.378826141357 4.777008056641 94 94 94
22.154861450195 45.380687713623 4.727996826172 94 94 94
22.210838317871 45.387042999268 4.677001953125 84 84 84
22.227817535400 45.391155242920 4.628005981445 88 88 88
22.210838317871 45.387042999268 4.579010009766 87 87 87
22.193861007690 45.382934570313 4.529006958008 85 85 85
22.176881790161 45.378826141357 4.480010986328 88 88 88
22.210838317871 45.387042999268 4.430999755859 94 94 94
22.210838317871 45.387042999268 4.380996704102 100 100 100
22.210838317871 45.387042999268 4.332000732422 90 90 90
22.193861007690 45.382934570313 4.281997680664 53 53 53
22.290695190430 45.413558959961 5.363006591797 176 176 176
22.332639694214 45.581874847412 2.531997680664 158 158 158
22.332639694214 45.581874847412 2.581008911133 152 152 152
22.339540481567 45.597927093506 2.632003784180 148 148 148
22.332639694214 45.581874847412 2.680999755859 145 145 145
22.332639694214 45.581874847412 2.730010986328 145 145 145
22.339540481567 45.597927093506 2.779998779297 135 135 135
22.339540481567 45.597927093506 2.829010009766 141 141 141
22.332639694214 45.581874847412 2.876998901367 138 138 138
22.334499359131 45.603893280029 2.929000854492 134 134 134
22.339540481567 45.597927093506 2.975997924805 129 129 129
22.334499359131 45.603893280029 3.025009155273 127 127 127
22.339540481567 45.597927093506 3.072006225586 126 126 126
22.339540481567 45.597927093506 3.122009277344 126 126 126
22.334499359131 45.603893280029 3.171005249023 134 134 134
22.339540481567 45.597927093506 3.218002319336 133 133 133
22.334499359131 45.603893280029 3.268005371094 126 126 126
22.334499359131 45.603893280029 3.315002441406 137 137 137
22.334499359131 45.603893280029 3.365005493164 130 130 130
22.334499359131 45.603893280029 3.412002563477 138 138 138
22.334499359131 45.603893280029 3.460006713867 142 142 142
22.334499359131 45.603893280029 3.508010864258 138 138 138
22.334499359131 45.603893280029 3.555999755859 142 142 142
22.329460144043 45.609867095947 3.604003906250 139 139 139
22.329460144043 45.609867095947 3.651000976563 132 132 132
22.334499359131 45.603893280029 3.697998046875 137 137 137
22.334499359131 45.603893280029 3.746002197266 131 131 131
22.329460144043 45.609867095947 3.794006347656 133 133 133
22.329460144043 45.609867095947 3.842010498047 125 125 125
22.324420928955 45.615833282471 3.889999389648 117 117 117
22.329460144043 45.609867095947 3.936004638672 103 103 103
22.329460144043 45.609867095947 3.984008789063 99 99 99
22.329460144043 45.609867095947 4.031005859375 89 89 89
22.329460144043 45.609867095947 4.078002929688 88 88 88
22.329460144043 45.609867095947 4.125000000000 86 86 86
22.315660476685 45.577766418457 4.171997070313 95 95 95
22.324420928955 45.615833282471 4.220001220703 77 77 77
22.324420928955 45.615833282471 4.266998291016 70 70 70
22.334499359131 45.603893280029 4.314010620117 87 87 87
22.339540481567 45.597927093506 4.361007690430 86 86 86
22.355199813843 45.652042388916 4.408996582031 131 131 131
22.355199813843 45.652042388916 4.456008911133 133 133 133
22.334499359131 45.603893280029 4.503005981445 150 150 150
22.343259811401 45.641963958740 4.550003051758 143 143 143
22.352022171021 45.680030822754 4.596008300781 159 159 159
22.317520141602 45.599784851074 4.645004272461 96 96 96
22.334499359131 45.603893280029 4.692001342773 96 96 96
22.329460144043 45.609867095947 4.740005493164 93 93 93
22.331321716309 45.631885528564 4.786010742188 80 80 80
22.343259811401 45.641963958740 4.833007812500 87 87 87
22.333181381226 45.653903961182 4.878997802734 92 92 92
22.338220596313 45.647933959961 4.927001953125 85 85 85
22.343259811401 45.641963958740 4.975006103516 94 94 94
22.333181381226 45.653903961182 5.020996093750 94 94 94
22.338220596313 45.647933959961 5.069000244141 90 90 90
22.333181381226 45.653903961182 5.115997314453 89 89 89
22.333181381226 45.653903961182 5.162002563477 80 80 80
22.333181381226 45.653903961182 5.210998535156 79 79 79
22.333181381226 45.653903961182 5.258010864258 74 74 74
22.340082168579 45.669952392578 5.304000854492 125 125 125
22.333181381226 45.653903961182 5.352996826172 128 128 128
22.352022171021 45.680030822754 5.397003173828 131 131 131
22.340082168579 45.669952392578 5.447006225586 118 118 118
22.352022171021 45.680030822754 5.492004394531 126 126 126
22.335041046143 45.675922393799 5.542007446289 118 118 118
22.358921051025 45.696079254150 5.585998535156 113 113 113
22.365821838379 45.712127685547 5.633010864258 12 12 12
22.119663238525 45.882617950439 4.621002197266 114 114 114
22.112762451172 45.866565704346 4.669006347656 100 100 100
22.104001998901 45.828498840332 4.718002319336 20 20 20
22.320623397827 45.111652374268 5.048995971680 129 129 129
22.320623397827 45.111652374268 5.092010498047 160 160 160
22.327522277832 45.127704620361 5.136001586914 160 160 160
22.327522277832 45.127704620361 5.179000854492 157 157 157
22.327522277832 45.127704620361 5.222000122070 162 162 162
22.332561492920 45.121734619141 5.264999389648 133 133 133
22.298603057861 45.113513946533 5.580001831055 16 16 16
22.327522277832 45.127704620361 5.620010375977 158 158 158
22.327522277832 45.127704620361 5.667999267578 136 136 136
22.327522277832 45.127704620361 5.712005615234 170 170 170
22.327522277832 45.127704620361 5.755004882813 180 180 180
22.327522277832 45.127704620361 5.798995971680 162 162 162
22.327522277832 45.127704620361 5.847000122070 31 31 31
22.398693084717 45.576297760010 2.533996582031 125 125 125
22.398693084717 45.576297760010 2.578002929688 126 126 126
22.398693084717 45.576297760010 2.621002197266 132 132 132
22.398693084717 45.576297760010 2.665008544922 122 122 122
22.415674209595 45.580406188965 2.708999633789 122 122 122
22.398693084717 45.576297760010 2.751007080078 111 111 111
22.422573089600 45.596454620361 2.796005249023 110 110 110
22.422573089600 45.596454620361 2.837997436523 110 110 110
22.422573089600 45.596454620361 2.880004882813 116 116 116
22.398693084717 45.576297760010 2.921005249023 121 121 121
22.422573089600 45.596454620361 2.964996337891 119 119 119
22.422573089600 45.596454620361 3.008010864258 107 107 107
22.398693084717 45.576297760010 3.048004150391 108 108 108
22.417533874512 45.602424621582 3.092010498047 118 118 118
22.422573089600 45.596454620361 3.133010864258 113 113 113
22.398693084717 45.576297760010 3.173995971680 112 112 112
22.417533874512 45.602424621582 3.217010498047 103 103 103
22.422573089600 45.596454620361 3.258010864258 110 110 110
22.417533874512 45.602424621582 3.301010131836 112 112 112
22.393653869629 45.582267761230 3.341003417969 114 114 114
22.417533874512 45.602424621582 3.383010864258 113 113 113
22.417533874512 45.602424621582 3.426010131836 117 117 117
22.417533874512 45.602424621582 3.467010498047 117 117 117
22.417533874512 45.602424621582 3.509002685547 119 119 119
22.417533874512 45.602424621582 3.548995971680 120 120 120
22.417533874512 45.602424621582 3.589996337891 123 123 123
22.417533874512 45.602424621582 3.630996704102 132 132 132
22.417533874512 45.602424621582 3.673004150391 117 117 117
22.417533874512 45.602424621582 3.714004516602 115 115 115
22.388614654541 45.588233947754 3.753997802734 115 115 115
22.417533874512 45.602424621582 3.796005249023 113 113 113
22.417533874512 45.602424621582 3.837005615234 114 114 114
22.417533874512 45.602424621582 3.878005981445 115 115 115
22.417533874512 45.602424621582 3.919006347656 111 111 111
22.417533874512 45.602424621582 3.958999633789 106 106 106
22.417533874512 45.602424621582 4.000000000000 121 121 121
22.388614654541 45.588233947754 4.041000366211 112 112 112
22.417533874512 45.602424621582 4.082000732422 111 111 111
22.388614654541 45.588233947754 4.123001098633 118 118 118
22.417533874512 45.602424621582 4.164001464844 125 125 125
22.388614654541 45.588233947754 4.205001831055 106 106 106
22.412494659424 45.608390808105 4.246002197266 106 106 106
22.417533874512 45.602424621582 4.287002563477 108 108 108
22.400554656982 45.598312377930 4.328002929688 105 105 105
22.400554656982 45.598312377930 4.369003295898 109 109 109
22.400554656982 45.598312377930 4.408996582031 103 103 103
22.400554656982 45.598312377930 4.451004028320 104 104 104
22.400554656982 45.598312377930 4.492004394531 108 108 108
22.400554656982 45.598312377930 4.533004760742 105 105 105
22.400554656982 45.598312377930 4.572998046875 108 108 108
22.400554656982 45.598312377930 4.613998413086 114 114 114
22.407455444336 45.614360809326 4.654998779297 106 106 106
22.407455444336 45.614360809326 4.695999145508 111 111 111
22.407455444336 45.614360809326 4.736999511719 110 110 110
22.400554656982 45.598312377930 4.779006958008 113 113 113
22.400554656982 45.598312377930 4.820999145508 111 111 111
22.400554656982 45.598312377930 4.861999511719 108 108 108
22.407455444336 45.614360809326 4.902008056641 112 112 112
22.378536224365 45.600173950195 4.945007324219 116 116 116
22.407455444336 45.614360809326 4.986007690430 117 117 117
22.407455444336 45.614360809326 5.027008056641 119 119 119
22.407455444336 45.614360809326 5.068008422852 113 113 113
22.407455444336 45.614360809326 5.110000610352 110 110 110
22.402416229248 45.620330810547 5.151000976563 121 121 121
22.407455444336 45.614360809326 5.193008422852 122 122 122
22.402416229248 45.620330810547 5.234008789063 119 119 119
22.407455444336 45.614360809326 5.277008056641 118 118 118
22.407455444336 45.614360809326 5.319000244141 116 116 116
22.402416229248 45.620330810547 5.360000610352 116 116 116
22.402416229248 45.620330810547 5.402008056641 113 113 113
22.402416229248 45.620330810547 5.445007324219 116 116 116
22.407455444336 45.614360809326 5.486999511719 111 111 111
22.402416229248 45.620330810547 5.529998779297 110 110 110
22.402416229248 45.620330810547 5.570999145508 116 116 116
22.402416229248 45.620330810547 5.613006591797 115 115 115
22.385437011719 45.616222381592 5.658996582031 122 122 122
22.402416229248 45.620330810547 5.699005126953 108 108 108
22.380397796631 45.622192382813 5.742996215820 123 123 123
22.402416229248 45.620330810547 5.786010742188 122 122 122
22.176958084106 45.838970184326 4.350997924805 22 22 22
22.195796966553 45.865097045898 4.391006469727 54 54 54
22.195796966553 45.865097045898 4.432006835938 62 62 62
22.195796966553 45.865097045898 4.473007202148 86 86 86
22.190757751465 45.871067047119 4.513000488281 69 69 69
22.195796966553 45.865097045898 4.555007934570 68 68 68
22.190757751465 45.871067047119 4.596008300781 68 68 68
22.195796966553 45.865097045898 4.636001586914 66 66 66
22.195796966553 45.865097045898 4.678009033203 69 69 69
22.190757751465 45.871067047119 4.719009399414 76 76 76
22.190757751465 45.871067047119 4.760009765625 66 66 66
22.351013183594 45.996124267578 5.065002441406 123 123 123
22.328994750977 45.997982025146 5.106002807617 159 159 159
22.328994750977 45.997982025146 5.145996093750 164 164 164
22.351013183594 45.996124267578 5.186004638672 160 160 160
22.328994750977 45.997982025146 5.227005004883 161 161 161
22.351013183594 45.996124267578 5.266006469727 151 151 151
22.351013183594 45.996124267578 5.307998657227 65 65 65
22.328994750977 45.997982025146 5.514999389648 51 51 51
22.345973968506 46.002094268799 5.554000854492 163 163 163
22.345973968506 46.002094268799 5.594009399414 172 172 172
22.352874755859 46.018138885498 5.634002685547 172 172 172
22.345973968506 46.002094268799 5.676010131836 173 173 173
22.323955535889 46.003948211670 5.720001220703 172 172 172
22.347835540771 46.024108886719 5.757003784180 133 133 133
22.328296661377 45.005672454834 5.238998413086 184 184 184
22.328296661377 45.005672454834 5.186996459961 227 227 227
22.328296661377 45.005672454834 5.137008666992 230 230 230
22.311317443848 45.001564025879 5.087005615234 171 171 171
22.267591476440 45.271366119385 5.539001464844 180 180 180
22.335508346558 45.287807464600 5.180999755859 222 222 222
22.318527221680 45.283695220947 5.133010864258 47 47 47
22.189596176147 45.266872406006 4.742004394531 88 88 88
22.177656173706 45.256793975830 4.692001342773 97 97 97
22.182695388794 45.250820159912 4.641998291016 98 98 98
22.189596176147 45.266872406006 4.592010498047 98 98 98
22.189596176147 45.266872406006 4.542007446289 94 94 94
22.189596176147 45.266872406006 4.492004394531 104 104 104
22.211612701416 45.265010833740 4.442001342773 27 27 27
22.267591476440 45.271366119385 5.236007690430 187 187 187
22.281702041626 45.569549560547 2.749008178711 114 114 114
22.276662826538 45.575519561768 2.596008300781 126 126 126
22.281702041626 45.569549560547 2.550003051758 116 116 116
22.349927902222 45.852069854736 5.706008911133 187 187 187
22.349927902222 45.852069854736 5.658996582031 240 240 240
22.349927902222 45.852069854736 5.611007690430 241 241 241
22.349927902222 45.852069854736 5.564010620117 235 235 235
22.349927902222 45.852069854736 5.516006469727 239 239 239
22.349927902222 45.852069854736 5.469009399414 209 209 209
22.332948684692 45.847961425781 5.375000000000 219 219 219
22.349927902222 45.852069854736 5.327011108398 225 225 225
22.332948684692 45.847961425781 5.281005859375 224 224 224
22.332948684692 45.847961425781 5.234008789063 227 227 227
22.332948684692 45.847961425781 5.186004638672 216 216 216
22.349927902222 45.852069854736 5.138000488281 108 108 108
22.187036514282 45.827030181885 4.770996093750 94 94 94
22.209054946899 45.825168609619 4.723007202148 89 89 89
22.181997299194 45.833000183105 4.676010131836 83 83 83
22.187036514282 45.827030181885 4.628005981445 88 88 88
22.187036514282 45.827030181885 4.580001831055 99 99 99
22.187036514282 45.827030181885 4.533004760742 86 86 86
22.181997299194 45.833000183105 4.485000610352 100 100 100
22.181997299194 45.833000183105 4.438003540039 76 76 76
22.181997299194 45.833000183105 4.389999389648 70 70 70
22.181997299194 45.833000183105 4.343002319336 22 22 22
22.364038467407 46.150253295898 5.843002319336 163 163 163
22.364038467407 46.150253295898 5.796005249023 237 237 237
22.364038467407 46.150253295898 5.749008178711 240 240 240
22.342020034790 46.152111053467 5.704010009766 243 243 243
22.364038467407 46.150253295898 5.656005859375 234 234 234
22.342020034790 46.152111053467 5.195007324219 216 216 216
22.342020034790 46.152111053467 5.150009155273 226 226 226
22.358999252319 46.156223297119 5.102996826172 216 216 216
22.342020034790 46.152111053467 5.059005737305 178 178 178
22.030271530151 45.940067291260 4.592010498047 70 70 70
21.989412307739 45.915802001953 4.636001586914 106 106 106
22.309923171997 46.165912628174 4.964996337891 70 70 70
22.309923171997 46.165912628174 5.003997802734 148 148 148
22.309923171997 46.165912628174 5.044006347656 163 163 163
22.326902389526 46.170024871826 5.083007812500 159 159 159
22.333803176880 46.186073303223 5.122009277344 163 163 163
22.326902389526 46.170024871826 5.163009643555 155 155 155
22.309923171997 46.165912628174 5.204010009766 66 66 66
22.309923171997 46.165912628174 5.570007324219 88 88 88
22.333803176880 46.186073303223 5.607009887695 169 169 169
22.333803176880 46.186073303223 5.648010253906 172 172 172
22.333803176880 46.186073303223 5.689010620117 173 173 173
22.333803176880 46.186073303223 5.729003906250 168 168 168
22.333803176880 46.186073303223 5.770004272461 171 171 171
22.333803176880 46.186073303223 5.811004638672 58 58 58
22.174554824829 45.744922637939 4.121002197266 73 73 73
22.150676727295 45.724765777588 4.162002563477 74 74 74
22.150676727295 45.724765777588 4.203002929688 61 61 61
22.174554824829 45.744922637939 4.245010375977 60 60 60
22.174554824829 45.744922637939 4.286010742188 92 92 92
22.150676727295 45.724765777588 4.328002929688 91 91 91
22.150676727295 45.724765777588 4.369003295898 76 76 76
22.169515609741 45.750892639160 4.410003662109 141 141 141
22.222312927246 45.785240173340 4.449005126953 128 128 128
22.198434829712 45.765079498291 4.492004394531 110 110 110
22.222312927246 45.785240173340 4.531005859375 99 99 99
22.222312927246 45.785240173340 4.572998046875 90 90 90
22.205335617065 45.781131744385 4.613998413086 83 83 83
22.186494827271 45.755001068115 4.658996582031 88 88 88
22.174554824829 45.744922637939 4.701004028320 87 87 87
22.169515609741 45.750892639160 4.742004394531 73 73 73
22.174554824829 45.744922637939 4.785003662109 38 38 38
22.322870254517 45.859901428223 5.136001586914 51 51 51
22.305891036987 45.855792999268 5.178009033203 158 158 158
22.322870254517 45.859901428223 5.218002319336 161 161 161
22.322870254517 45.859901428223 5.260009765625 155 155 155
22.305891036987 45.855792999268 5.301010131836 161 161 161
22.305891036987 45.855792999268 5.344009399414 157 157 157
22.305891036987 45.855792999268 5.385009765625 134 134 134
22.317831039429 45.865871429443 5.423995971680 159 159 159
22.317831039429 45.865871429443 5.466003417969 160 160 160
22.317831039429 45.865871429443 5.507003784180 167 167 167
22.322870254517 45.859901428223 5.550003051758 163 163 163
22.322870254517 45.859901428223 5.593002319336 171 171 171
22.346750259399 45.880058288574 5.630996704102 133 133 133
22.361558914185 45.596065521240 2.512008666992 170 170 170
