26.911502838135 18.681192398071 5.457004547119 99 99 99
26.944219589233 18.668931961060 5.416004180908 94 94 94
26.959758758545 18.670570373535 5.374004364014 149 149 149
26.994113922119 18.642770767212 5.332004547119 157 157 157
26.976936340332 18.656671524048 5.291004180908 103 103 103
26.909864425659 18.696729660034 5.252002716064 109 109 109
26.994113922119 18.642770767212 5.208000183105 94 94 94
26.976936340332 18.656671524048 5.167003631592 94 94 94
26.976936340332 18.656671524048 5.126003265381 88 88 88
26.976936340332 18.656671524048 5.085002899170 56 56 56
26.777292251587 19.059827804565 6.942005157471 34 34 34
26.945793151855 18.951906204224 6.940998077393 124 124 124
27.007947921753 18.958463668823 6.909000396729 115 115 115
26.877080917358 19.007505416870 6.543003082275 194 194 194
26.877080917358 19.007505416870 6.503002166748 206 206 206
26.877080917358 19.007505416870 6.460002899170 201 201 201
26.877080917358 19.007505416870 6.419002532959 205 205 205
26.877080917358 19.007505416870 6.377002716064 193 193 193
26.877080917358 19.007505416870 6.335002899170 193 193 193
26.877080917358 19.007505416870 6.294002532959 194 194 194
26.877080917358 19.007505416870 6.252002716064 196 196 196
26.877080917358 19.007505416870 6.211002349854 194 194 194
26.877080917358 19.007505416870 6.170001983643 195 195 195
26.846002578735 19.004226684570 6.128002166748 73 73 73
26.992408752441 18.956825256348 5.642002105713 100 100 100
27.009586334229 18.942924499512 5.601001739502 97 97 97
27.009586334229 18.942924499512 5.559001922607 100 100 100
26.976871490479 18.955184936523 5.518001556396 122 122 122
26.945793151855 18.951906204224 5.476001739502 131 131 131
26.961332321167 18.953546524048 5.435001373291 150 150 150
26.976871490479 18.955184936523 5.393001556396 148 148 148
26.961332321167 18.953546524048 5.352001190186 154 154 154
26.976871490479 18.955184936523 5.310001373291 118 118 118
26.976871490479 18.955184936523 5.269001007080 121 121 121
26.992408752441 18.956825256348 5.227001190186 91 91 91
26.945793151855 18.951906204224 5.187000274658 164 164 164
26.945793151855 18.951906204224 5.145999908447 162 162 162
26.945793151855 18.951906204224 5.104000091553 126 126 126
26.976871490479 18.955184936523 5.062000274658 138 138 138
26.976871490479 18.955184936523 5.019001007080 118 118 118
26.976871490479 18.955184936523 4.978000640869 38 38 38
26.909730911255 19.293760299683 6.741001129150 153 153 153
26.878652572632 19.290483474731 6.698001861572 201 201 201
26.878652572632 19.290483474731 6.655002593994 205 205 205
26.878652572632 19.290483474731 6.613002777100 210 210 210
26.878652572632 19.290483474731 6.572002410889 216 216 216
26.878652572632 19.290483474731 6.529003143311 206 206 206
26.909730911255 19.293760299683 6.491001129150 91 91 91
26.878652572632 19.290483474731 6.195003509521 184 184 184
26.877014160156 19.306022644043 6.153003692627 197 197 197
26.875375747681 19.321559906006 6.111003875732 201 201 201
26.875375747681 19.321559906006 6.070003509521 197 197 197
26.877014160156 19.306022644043 6.029003143311 196 196 196
26.877014160156 19.306022644043 5.988002777100 184 184 184
26.842857360840 18.438276290894 5.961002349854 40 40 40
26.842857360840 18.438276290894 5.995998382568 218 218 218
26.842857360840 18.438276290894 6.031002044678 226 226 226
26.842857360840 18.438276290894 6.068004608154 227 227 227
26.842857360840 18.438276290894 6.102001190186 222 222 222
26.842857360840 18.438276290894 6.136005401611 189 189 189
26.842857360840 18.438276290894 6.173000335693 217 217 217
26.842857360840 18.438276290894 6.207004547119 215 215 215
26.858396530151 18.439914703369 6.426998138428 37 37 37
26.842857360840 18.438276290894 6.457004547119 223 223 223
26.842857360840 18.438276290894 6.493000030518 216 216 216
26.842857360840 18.438276290894 6.530002593994 210 210 210
26.842857360840 18.438276290894 6.563999176025 225 225 225
26.842857360840 18.438276290894 6.602001190186 224 224 224
26.842857360840 18.438276290894 6.638004302979 224 224 224
26.842857360840 18.438276290894 6.673999786377 167 167 167
26.626886367798 18.698303222656 3.103000640869 183 183 183
26.965461730957 18.765443801880 4.963001251221 68 68 68
26.965461730957 18.765443801880 4.998001098633 100 100 100
26.967102050781 18.749902725220 5.034000396729 98 98 98
26.965461730957 18.765443801880 5.070003509521 102 102 102
26.967102050781 18.749902725220 5.105003356934 104 104 104
26.965461730957 18.765443801880 5.141002655029 96 96 96
26.965461730957 18.765443801880 5.176002502441 89 89 89
26.982641220093 18.751543045044 5.212001800537 86 86 86
26.811714172363 18.733512878418 5.248004913330 163 163 163
26.827253341675 18.735151290894 5.283000946045 169 169 169
26.844430923462 18.721250534058 5.317005157471 150 150 150
26.841152191162 18.752328872681 5.352001190186 148 148 148
26.842792510986 18.736791610718 5.387004852295 185 185 185
26.810073852539 18.749052047729 5.421001434326 184 184 184
26.887767791748 18.757247924805 5.458003997803 165 165 165
26.965461730957 18.765443801880 5.495998382568 159 159 159
26.965461730957 18.765443801880 5.532001495361 153 153 153
26.965461730957 18.765443801880 5.567005157471 127 127 127
26.981000900269 18.767082214355 5.604000091553 99 99 99
26.965461730957 18.765443801880 5.638004302979 89 89 89
26.841152191162 18.752328872681 6.159999847412 148 148 148
26.841152191162 18.752328872681 6.196002960205 218 218 218
26.841152191162 18.752328872681 6.233005523682 222 222 222
26.841152191162 18.752328872681 6.266002655029 222 222 222
26.841152191162 18.752328872681 6.301998138428 228 228 228
26.841152191162 18.752328872681 6.337001800537 225 225 225
26.841152191162 18.752328872681 6.374004364014 222 222 222
26.841152191162 18.752328872681 6.410999298096 224 224 224
26.841152191162 18.752328872681 6.446002960205 218 218 218
26.841152191162 18.752328872681 6.481998443604 198 198 198
26.841152191162 18.752328872681 6.517002105713 33 33 33
26.810073852539 18.749052047729 6.549999237061 43 43 43
26.747919082642 18.742494583130 6.571002960205 101 101 101
26.747919082642 18.742494583130 6.605998992920 149 149 149
26.747919082642 18.742494583130 6.643001556396 149 149 149
26.747919082642 18.742494583130 6.678005218506 158 158 158
26.747919082642 18.742494583130 6.715999603271 118 118 118
26.747919082642 18.742494583130 6.751003265381 126 126 126
26.716840744019 18.739217758179 6.780002593994 140 140 140
26.716840744019 18.739217758179 6.813999176025 135 135 135
26.810073852539 18.749052047729 6.879001617432 135 135 135
26.839513778687 18.767866134644 6.924999237061 152 152 152
26.732379913330 18.740856170654 6.932003021240 134 134 134
26.654685974121 18.732660293579 6.950000762939 69 69 69
26.932680130005 19.076219558716 5.157001495361 86 86 86
26.917140960693 19.074579238892 5.193000793457 124 124 124
26.917140960693 19.074579238892 5.228000640869 141 141 141
26.903240203857 19.057401657104 5.264003753662 134 134 134
26.932680130005 19.076219558716 5.298999786377 121 121 121
26.979295730591 19.081136703491 5.335002899170 117 117 117
26.963758468628 19.079496383667 5.370998382568 112 112 112
26.963758468628 19.079496383667 5.406002044678 158 158 158
26.932680130005 19.076219558716 5.442005157471 123 123 123
26.932680130005 19.076219558716 5.477001190186 114 114 114
26.979295730591 19.081136703491 5.514003753662 107 107 107
26.963758468628 19.079496383667 5.549999237061 96 96 96
26.979295730591 19.081136703491 5.586002349854 102 102 102
26.979295730591 19.081136703491 5.622005462646 103 103 103
26.839447021484 19.066383361816 6.074001312256 152 152 152
26.839447021484 19.066383361816 6.110004425049 228 228 228
26.839447021484 19.066383361816 6.145999908447 229 229 229
26.839447021484 19.066383361816 6.181003570557 228 228 228
26.839447021484 19.066383361816 6.217998504639 230 230 230
26.870525360107 19.069662094116 6.255001068115 228 228 228
26.839447021484 19.066383361816 6.291004180908 228 228 228
26.870525360107 19.069662094116 6.328998565674 79 79 79
26.870525360107 19.069662094116 6.364002227783 183 183 183
26.870525360107 19.069662094116 6.400005340576 217 217 217
26.870525360107 19.069662094116 6.437000274658 213 213 213
26.870525360107 19.069662094116 6.474002838135 215 215 215
26.870525360107 19.069662094116 6.511005401611 218 218 218
26.870525360107 19.069662094116 6.547000885010 216 216 216
26.870525360107 19.069662094116 6.583003997803 206 206 206
26.868885040283 19.085199356079 6.624004364014 43 43 43
26.853281021118 19.382076263428 5.953998565674 189 189 189
26.853281021118 19.382076263428 5.990001678467 223 223 223
26.853281021118 19.382076263428 6.026004791260 227 227 227
26.853281021118 19.382076263428 6.061000823975 226 226 226
26.853281021118 19.382076263428 6.099002838135 232 232 232
26.837741851807 19.380437850952 6.131999969482 195 195 195
26.896619796753 19.418069839478 6.543003082275 71 71 71
26.867179870605 19.399253845215 6.575000762939 208 208 208
26.865541458130 19.414793014526 6.614002227783 219 219 219
26.867179870605 19.399253845215 6.647998809814 213 213 213
26.867179870605 19.399253845215 6.687000274658 188 188 188
26.867179870605 19.399253845215 6.724002838135 25 25 25
26.878652572632 19.290483474731 6.748004913330 182 182 182
26.878652572632 19.290483474731 6.704998016357 203 203 203
26.878652572632 19.290483474731 6.661998748779 208 208 208
26.878652572632 19.290483474731 6.619998931885 217 217 217
26.849216461182 19.271665573120 6.576999664307 225 225 225
26.878652572632 19.290483474731 6.536998748779 201 201 201
26.849216461182 19.271665573120 6.493999481201 27 27 27
26.849216461182 19.271665573120 6.243999481201 113 113 113
26.849216461182 19.271665573120 6.201000213623 193 193 193
26.847578048706 19.287204742432 6.159000396729 201 201 201
26.847578048706 19.287204742432 6.118000030518 197 197 197
26.849216461182 19.271665573120 6.076999664307 201 201 201
26.849216461182 19.271665573120 6.034999847412 196 196 196
26.849216461182 19.271665573120 5.993999481201 110 110 110
27.012800216675 19.210363388062 5.543003082275 29 29 29
26.997261047363 19.208723068237 5.501003265381 50 50 50
26.997261047363 19.208723068237 5.459003448486 60 60 60
26.981721878052 19.207084655762 5.417003631592 36 36 36
26.765031814575 19.027109146118 6.950000762939 63 63 63
26.976871490479 18.955184936523 6.952999114990 132 132 132
27.011226654053 18.927387237549 6.918003082275 63 63 63
26.880359649658 18.976428985596 6.594005584717 100 100 100
26.880359649658 18.976428985596 6.551998138428 202 202 202
26.880359649658 18.976428985596 6.509998321533 204 204 204
26.878721237183 18.991968154907 6.466999053955 208 208 208
26.880359649658 18.976428985596 6.425998687744 203 203 203
26.849281311035 18.973150253296 6.383998870850 187 187 187
26.849281311035 18.973150253296 6.341999053955 195 195 195
26.847642898560 18.988689422607 6.299999237061 195 195 195
26.849281311035 18.973150253296 6.258998870850 195 195 195
26.849281311035 18.973150253296 6.219005584717 195 195 195
26.849281311035 18.973150253296 6.176998138428 184 184 184
26.980150222778 18.924108505249 5.647998809814 93 93 93
26.997325897217 18.910209655762 5.605998992920 85 85 85
26.980150222778 18.924108505249 5.564998626709 112 112 112
26.980150222778 18.924108505249 5.522998809814 165 165 165
26.949071884155 18.920831680298 5.481998443604 163 163 163
26.980150222778 18.924108505249 5.439998626709 155 155 155
26.964611053467 18.922470092773 5.398998260498 155 155 155
26.981788635254 18.908569335938 5.356998443604 85 85 85
26.980150222778 18.924108505249 5.314998626709 108 108 108
26.964611053467 18.922470092773 5.273998260498 157 157 157
26.980150222778 18.924108505249 5.231998443604 84 84 84
26.949071884155 18.920831680298 5.192001342773 137 137 137
26.916353225708 18.933090209961 5.152000427246 148 148 148
26.981788635254 18.908569335938 5.107002258301 83 83 83
26.980150222778 18.924108505249 5.066001892090 120 120 120
26.980150222778 18.924108505249 5.025001525879 120 120 120
27.014503479004 18.896308898926 4.981002807617 32 32 32
26.615411758423 18.807075500488 6.967998504639 82 82 82
26.878786087036 18.693450927734 6.986003875732 173 173 173
26.909864425659 18.696729660034 6.951000213623 166 166 166
26.682487487793 18.767015457153 6.860004425049 112 112 112
26.713563919067 18.770292282104 6.822002410889 124 124 124
26.732379913330 18.740856170654 6.790004730225 68 68 68
26.747919082642 18.742494583130 6.752002716064 103 103 103
26.747919082642 18.742494583130 6.712001800537 145 145 145
26.747919082642 18.742494583130 6.670001983643 89 89 89
26.878786087036 18.693450927734 6.564998626709 156 156 156
26.847709655762 18.690172195435 6.522998809814 190 190 190
26.847709655762 18.690172195435 6.481998443604 196 196 196
26.847709655762 18.690172195435 6.438999176025 194 194 194
26.847709655762 18.690172195435 6.398998260498 197 197 197
26.847709655762 18.690172195435 6.358005523682 191 191 191
26.878786087036 18.693450927734 6.317005157471 203 203 203
26.878786087036 18.693450927734 6.276004791260 205 205 205
26.878786087036 18.693450927734 6.236003875732 199 199 199
26.878786087036 18.693450927734 6.194004058838 201 201 201
26.878786087036 18.693450927734 6.154003143311 50 50 50
26.980215072632 18.625593185425 5.668003082275 81 81 81
26.980215072632 18.625593185425 5.626003265381 92 92 92
26.980215072632 18.625593185425 5.585002899170 92 92 92
26.947496414185 18.637853622437 5.544002532959 96 96 96
26.931959152222 18.636213302612 5.502002716064 100 100 100
26.931959152222 18.636213302612 5.461002349854 99 99 99
26.931959152222 18.636213302612 5.420001983643 111 111 111
26.963035583496 18.639492034912 5.379001617432 130 130 130
26.963035583496 18.639492034912 5.337001800537 120 120 120
26.963035583496 18.639492034912 5.296001434326 94 94 94
26.980215072632 18.625593185425 5.254001617432 93 93 93
26.980215072632 18.625593185425 5.213001251221 93 93 93
26.980215072632 18.625593185425 5.171001434326 84 84 84
26.949136734009 18.622314453125 5.131000518799 47 47 47
26.861675262451 18.408836364746 6.743999481201 91 91 91
26.846136093140 18.407197952271 6.699001312256 195 195 195
26.846136093140 18.407197952271 6.659000396729 199 199 199
26.846136093140 18.407197952271 6.616001129150 199 199 199
26.846136093140 18.407197952271 6.576000213623 205 205 205
26.846136093140 18.407197952271 6.533000946045 209 209 209
26.846136093140 18.407197952271 6.492000579834 136 136 136
26.863313674927 18.393297195435 6.250003814697 78 78 78
26.846136093140 18.407197952271 6.208003997803 201 201 201
26.846136093140 18.407197952271 6.167003631592 226 226 226
26.846136093140 18.407197952271 6.127002716064 210 210 210
26.863313674927 18.393297195435 6.086002349854 199 199 199
26.846136093140 18.407197952271 6.045001983643 201 201 201
26.846136093140 18.407197952271 6.005001068115 179 179 179
26.831186294556 19.442592620850 6.091999053955 122 122 122
26.831186294556 19.442592620850 6.131999969482 132 132 132
26.846725463867 19.444231033325 6.630001068115 96 96 96
26.953924179077 19.172727584839 5.380001068115 62 62 62
26.953924179077 19.172727584839 5.421001434326 70 70 70
26.953924179077 19.172727584839 5.462001800537 79 79 79
26.953924179077 19.172727584839 5.504001617432 71 71 71
26.953924179077 19.172727584839 5.545001983643 61 61 61
26.836168289185 19.097459793091 6.110004425049 153 153 153
26.836168289185 19.097459793091 6.151004791260 163 163 163
26.836168289185 19.097459793091 6.190998077393 164 164 164
26.836168289185 19.097459793091 6.231998443604 171 171 171
26.836168289185 19.097459793091 6.272998809814 167 167 167
26.836168289185 19.097459793091 6.313999176025 161 161 161
26.836168289185 19.097459793091 6.439998626709 149 149 149
26.836168289185 19.097459793091 6.479999542236 162 162 162
26.836168289185 19.097459793091 6.521999359131 166 166 166
26.836168289185 19.097459793091 6.562000274658 167 167 167
26.836168289185 19.097459793091 6.604000091553 168 168 168
26.836168289185 19.097459793091 6.645000457764 149 149 149
26.777292251587 19.059827804565 6.919002532959 79 79 79
26.718416213989 19.022192001343 6.949001312256 107 107 107
26.926187515259 18.839859008789 4.993000030518 77 77 77
26.926187515259 18.839859008789 5.034000396729 122 122 122
26.927827835083 18.824319839478 5.076000213623 130 130 130
26.896751403809 18.821041107178 5.118000030518 86 86 86
26.896751403809 18.821041107178 5.159000396729 89 89 89
26.898389816284 18.805501937866 5.200000762939 94 94 94
26.927827835083 18.824319839478 5.239002227783 78 78 78
26.782274246216 18.714694976807 5.285999298096 167 167 167
26.811714172363 18.733512878418 5.325000762939 158 158 158
26.811714172363 18.733512878418 5.365001678467 111 111 111
26.811714172363 18.733512878418 5.405002593994 128 128 128
26.811714172363 18.733512878418 5.445003509521 175 175 175
26.839513778687 18.767866134644 5.484004974365 146 146 146
26.957265853882 18.843137741089 5.523998260498 74 74 74
26.957265853882 18.843137741089 5.564998626709 78 78 78
26.957265853882 18.843137741089 5.605998992920 146 146 146
26.957265853882 18.843137741089 5.646999359131 129 129 129
26.841152191162 18.752328872681 6.206005096436 69 69 69
26.841152191162 18.752328872681 6.248004913330 163 163 163
26.841152191162 18.752328872681 6.287998199463 164 164 164
26.841152191162 18.752328872681 6.326999664307 162 162 162
26.841152191162 18.752328872681 6.368000030518 169 169 169
26.841152191162 18.752328872681 6.409000396729 163 163 163
26.841152191162 18.752328872681 6.449001312256 166 166 166
26.841152191162 18.752328872681 6.490001678467 161 161 161
26.810073852539 18.749052047729 6.529003143311 130 130 130
26.841152191162 18.752328872681 6.572002410889 103 103 103
26.841152191162 18.752328872681 6.614002227783 108 108 108
26.841152191162 18.752328872681 6.655002593994 106 106 106
26.782274246216 18.714694976807 6.687000274658 111 111 111
26.751197814941 18.711416244507 6.722003936768 90 90 90
26.810073852539 18.749052047729 6.776004791260 95 95 95
26.751197814941 18.711416244507 6.806003570557 131 131 131
26.751197814941 18.711416244507 6.846004486084 141 141 141
26.782274246216 18.714694976807 6.890003204346 112 112 112
26.868951797485 18.786684036255 6.956005096436 149 149 149
26.752836227417 18.695877075195 6.965000152588 128 128 128
26.723398208618 18.677061080933 6.999004364014 81 81 81
26.960609436035 18.513544082642 5.298999786377 51 51 51
26.960609436035 18.513544082642 5.339000701904 88 88 88
26.946712493896 18.496364593506 5.380001068115 84 84 84
26.960609436035 18.513544082642 5.421001434326 86 86 86
26.960609436035 18.513544082642 5.461002349854 85 85 85
26.960609436035 18.513544082642 5.502002716064 83 83 83
26.946712493896 18.496364593506 5.543003082275 78 78 78
26.960609436035 18.513544082642 5.583003997803 88 88 88
26.960609436035 18.513544082642 5.624004364014 74 74 74
26.844495773315 18.422737121582 6.020999908447 133 133 133
26.844495773315 18.422737121582 6.060001373291 159 159 159
26.844495773315 18.422737121582 6.100002288818 167 167 167
26.844495773315 18.422737121582 6.140003204346 179 179 179
26.844495773315 18.422737121582 6.181003570557 178 178 178
26.844495773315 18.422737121582 6.221004486084 177 177 177
26.844495773315 18.422737121582 6.261005401611 106 106 106
26.842857360840 18.438276290894 6.465000152588 29 29 29
26.815057754517 18.403919219971 6.502002716064 174 174 174
26.815057754517 18.403919219971 6.543003082275 204 204 204
26.844495773315 18.422737121582 6.584003448486 194 194 194
26.815057754517 18.403919219971 6.624004364014 173 173 173
26.815057754517 18.403919219971 6.665004730225 171 171 171
26.815057754517 18.403919219971 6.704998016357 135 135 135
26.849216461182 19.271665573120 5.983005523682 167 167 167
26.849216461182 19.271665573120 6.019001007080 231 231 231
26.850854873657 19.256126403809 6.056003570557 234 234 234
26.849216461182 19.271665573120 6.090999603271 233 233 233
26.850854873657 19.256126403809 6.127002716064 233 233 233
26.850854873657 19.256126403809 6.161998748779 232 232 232
26.850854873657 19.256126403809 6.198001861572 226 226 226
26.880292892456 19.274944305420 6.240001678467 49 49 49
26.849216461182 19.271665573120 6.494998931885 115 115 115
26.850854873657 19.256126403809 6.527004241943 213 213 213
26.850854873657 19.256126403809 6.565998077393 212 212 212
26.850854873657 19.256126403809 6.603000640869 218 218 218
26.849216461182 19.271665573120 6.641002655029 214 214 214
26.849216461182 19.271665573120 6.679004669189 214 214 214
26.849216461182 19.271665573120 6.715000152588 206 206 206
26.850854873657 19.256126403809 6.752002716064 118 118 118
26.944152832031 18.967447280884 5.041000366211 74 74 74
26.944152832031 18.967447280884 5.077003479004 99 99 99
26.928613662720 18.965806961060 5.113002777100 123 123 123
26.945793151855 18.951906204224 5.149002075195 114 114 114
26.913074493408 18.964168548584 5.185001373291 171 171 171
26.944152832031 18.967447280884 5.220005035400 109 109 109
26.945793151855 18.951906204224 5.256000518799 139 139 139
26.928613662720 18.965806961060 5.292003631592 147 147 147
26.945793151855 18.951906204224 5.326999664307 166 166 166
26.944152832031 18.967447280884 5.363002777100 132 132 132
26.945793151855 18.951906204224 5.397998809814 131 131 131
26.881998062134 18.960889816284 5.433002471924 108 108 108
26.881998062134 18.960889816284 5.469005584717 118 118 118
26.914714813232 18.948629379272 5.505001068115 132 132 132
26.945793151855 18.951906204224 5.542003631592 110 110 110
26.975231170654 18.970724105835 5.578998565674 109 109 109
26.945793151855 18.951906204224 5.614002227783 101 101 101
26.945793151855 18.951906204224 5.648998260498 91 91 91
26.819843292236 18.954332351685 6.173000335693 218 218 218
26.821483612061 18.938795089722 6.210002899170 230 230 230
26.821483612061 18.938795089722 6.245998382568 230 230 230
26.821483612061 18.938795089722 6.282001495361 226 226 226
26.821483612061 18.938795089722 6.319004058838 226 226 226
26.821483612061 18.938795089722 6.354999542236 218 218 218
26.852560043335 18.942071914673 6.392002105713 221 221 221
26.821483612061 18.938795089722 6.428005218506 217 217 217
26.852560043335 18.942071914673 6.465000152588 219 219 219
26.821483612061 18.938795089722 6.501003265381 218 218 218
26.852560043335 18.942071914673 6.537998199463 210 210 210
26.883638381958 18.945350646973 6.581005096436 23 23 23
26.759326934814 18.932237625122 6.776004791260 23 23 23
26.726610183716 18.944498062134 6.801998138428 109 109 109
26.821483612061 18.938795089722 6.860004425049 121 121 121
26.945793151855 18.951906204224 6.934001922607 158 158 158
26.881998062134 18.960889816284 6.958003997803 146 146 146
26.681632995605 18.924041748047 6.937999725342 110 110 110
26.945858001709 18.653392791748 5.060001373291 88 88 88
26.944219589233 18.668931961060 5.096000671387 98 98 98
26.959758758545 18.670570373535 5.131000518799 96 96 96
26.945858001709 18.653392791748 5.167003631592 101 101 101
26.959758758545 18.670570373535 5.202003479004 99 99 99
26.959758758545 18.670570373535 5.238002777100 91 91 91
26.959758758545 18.670570373535 5.272998809814 97 97 97
26.945858001709 18.653392791748 5.309001922607 158 158 158
26.944219589233 18.668931961060 5.344005584717 170 170 170
26.913143157959 18.665653228760 5.380001068115 138 138 138
26.914781570435 18.650114059448 5.415004730225 108 108 108
26.914781570435 18.650114059448 5.450000762939 110 110 110
26.914781570435 18.650114059448 5.485004425049 105 105 105
26.913143157959 18.665653228760 5.520999908447 113 113 113
26.945858001709 18.653392791748 5.558002471924 103 103 103
26.976936340332 18.656671524048 5.594005584717 100 100 100
26.976936340332 18.656671524048 5.630001068115 99 99 99
26.976936340332 18.656671524048 5.666004180908 75 75 75
26.837087631226 18.641918182373 6.115001678467 46 46 46
26.837087631226 18.641918182373 6.150005340576 216 216 216
26.854265213013 18.628019332886 6.187999725342 215 215 215
26.854265213013 18.628019332886 6.223003387451 210 210 210
26.854265213013 18.628019332886 6.258998870850 214 214 214
26.854265213013 18.628019332886 6.295001983643 211 211 211
26.837087631226 18.641918182373 6.328998565674 215 215 215
26.823186874390 18.624740600586 6.364002227783 224 224 224
26.837087631226 18.641918182373 6.401004791260 229 229 229
26.837087631226 18.641918182373 6.437000274658 229 229 229
26.854265213013 18.628019332886 6.475002288818 226 226 226
26.837087631226 18.641918182373 6.509998321533 226 226 226
26.837087631226 18.641918182373 6.545001983643 223 223 223
26.821548461914 18.640279769897 6.578998565674 111 111 111
26.945858001709 18.653392791748 6.906002044678 46 46 46
26.899242401123 18.648475646973 6.931003570557 138 138 138
26.823186874390 18.624740600586 6.948001861572 98 98 98
26.852691650391 18.345043182373 5.950000762939 183 183 183
26.854331970215 18.329504013062 5.986003875732 225 225 225
26.854331970215 18.329504013062 6.020999908447 226 226 226
26.823253631592 18.326225280762 6.056003570557 225 225 225
26.823253631592 18.326225280762 6.090999603271 209 209 209
26.823253631592 18.326225280762 6.126003265381 213 213 213
26.854331970215 18.329504013062 6.161998748779 222 222 222
26.854331970215 18.329504013062 6.198001861572 146 146 146
26.823253631592 18.326225280762 6.516002655029 202 202 202
26.824892044067 18.310686111450 6.554004669189 221 221 221
26.824892044067 18.310686111450 6.590000152588 224 224 224
26.824892044067 18.310686111450 6.627002716064 222 222 222
26.854331970215 18.329504013062 6.664005279541 224 224 224
26.854331970215 18.329504013062 6.701000213623 223 223 223
26.823253631592 18.326225280762 6.735004425049 207 207 207
26.882131576538 18.363859176636 6.759998321533 62 62 62
26.849412918091 18.376119613647 6.714000701904 178 178 178
26.849412918091 18.376119613647 6.672000885010 187 187 187
26.833875656128 18.374479293823 6.629001617432 185 185 185
26.849412918091 18.376119613647 6.589000701904 203 203 203
26.818334579468 18.372840881348 6.547000885010 192 192 192
26.849412918091 18.376119613647 6.507999420166 159 159 159
26.849412918091 18.376119613647 6.222003936768 86 86 86
26.849412918091 18.376119613647 6.181003570557 188 188 188
26.849412918091 18.376119613647 6.139003753662 189 189 189
26.849412918091 18.376119613647 6.099002838135 191 191 191
26.849412918091 18.376119613647 6.058002471924 188 188 188
26.849412918091 18.376119613647 6.018001556396 180 180 180
26.880491256714 18.379396438599 5.979000091553 150 150 150
26.689043045044 18.704860687256 6.958003997803 102 102 102
26.819910049438 18.655818939209 6.950000762939 140 140 140
26.850988388062 18.659097671509 6.575000762939 164 164 164
26.850988388062 18.659097671509 6.534000396729 178 178 178
26.819910049438 18.655818939209 6.492000579834 181 181 181
26.850988388062 18.659097671509 6.451000213623 179 179 179
26.819910049438 18.655818939209 6.408000946045 182 182 182
26.819910049438 18.655818939209 6.368000030518 175 175 175
26.850988388062 18.659097671509 6.327999114990 190 190 190
26.850988388062 18.659097671509 6.286998748779 206 206 206
26.850988388062 18.659097671509 6.245998382568 200 200 200
26.850988388062 18.659097671509 6.204998016357 206 206 206
26.850988388062 18.659097671509 6.164005279541 181 181 181
26.852626800537 18.643556594849 6.124004364014 55 55 55
26.966314315796 18.608415603638 5.638004302979 85 85 85
26.981853485107 18.610055923462 5.597003936768 83 83 83
26.950775146484 18.606777191162 5.555004119873 85 85 85
26.950775146484 18.606777191162 5.514003753662 89 89 89
26.931959152222 18.636213302612 5.473003387451 84 84 84
26.949136734009 18.622314453125 5.432003021240 83 83 83
26.947496414185 18.637853622437 5.391002655029 123 123 123
26.950775146484 18.606777191162 5.349002838135 123 123 123
26.950775146484 18.606777191162 5.307003021240 89 89 89
26.950775146484 18.606777191162 5.266002655029 81 81 81
26.950775146484 18.606777191162 5.225002288818 81 81 81
26.950775146484 18.606777191162 5.184001922607 74 74 74
26.950775146484 18.606777191162 5.142002105713 43 43 43
26.756048202515 18.963315963745 6.998004913330 58 58 58
26.690614700317 18.987836837769 6.943004608154 92 92 92
26.890193939209 18.883195877075 6.951000213623 139 139 139
26.886917114258 18.914274215698 6.903003692627 131 131 131
26.756048202515 18.963315963745 6.833003997803 120 120 120
26.771587371826 18.964954376221 6.795001983643 106 106 106
26.854198455811 18.926532745361 6.768001556396 53 53 53
26.855838775635 18.910995483398 6.520999908447 174 174 174
26.855838775635 18.910995483398 6.478000640869 192 192 192
26.855838775635 18.910995483398 6.437999725342 186 186 186
26.852560043335 18.942071914673 6.393001556396 175 175 175
26.852560043335 18.942071914673 6.352001190186 180 180 180
26.837020874023 18.940433502197 6.309001922607 180 180 180
26.852560043335 18.942071914673 6.269001007080 180 180 180
26.852560043335 18.942071914673 6.228000640869 179 179 179
26.852560043335 18.942071914673 6.187000274658 143 143 143
26.967887878418 18.891391754150 5.658000946045 71 71 71
26.985067367554 18.877490997314 5.617000579834 141 141 141
26.967887878418 18.891391754150 5.575000762939 125 125 125
26.952348709106 18.889753341675 5.534000396729 164 164 164
26.967887878418 18.891391754150 5.492000579834 94 94 94
26.852560043335 18.942071914673 5.451999664307 162 162 162
26.886917114258 18.914274215698 5.410999298096 106 106 106
26.869737625122 18.928173065186 5.369998931885 115 115 115
26.886917114258 18.914274215698 5.328998565674 120 120 120
26.852560043335 18.942071914673 5.289005279541 143 143 143
26.967887878418 18.891391754150 5.243000030518 70 70 70
26.952348709106 18.889753341675 5.202003479004 75 75 75
26.952348709106 18.889753341675 5.162002563477 82 82 82
26.952348709106 18.889753341675 5.119003295898 93 93 93
26.967887878418 18.891391754150 5.077003479004 79 79 79
26.952348709106 18.889753341675 5.036003112793 125 125 125
26.967887878418 18.891391754150 4.993000030518 78 78 78
26.857412338257 19.193971633911 6.672000885010 179 179 179
26.857412338257 19.193971633911 6.631999969482 190 190 190
26.857412338257 19.193971633911 6.588001251221 189 189 189
26.857412338257 19.193971633911 6.546001434326 188 188 188
26.857412338257 19.193971633911 6.505001068115 186 186 186
26.857412338257 19.193971633911 6.463001251221 169 169 169
26.855772018433 19.209510803223 6.253002166748 173 173 173
26.855772018433 19.209510803223 6.212001800537 183 183 183
26.855772018433 19.209510803223 6.171001434326 185 185 185
26.855772018433 19.209510803223 6.129001617432 182 182 182
26.824693679810 19.206232070923 6.087001800537 183 183 183
26.855772018433 19.209510803223 6.047000885010 169 169 169
26.953924179077 19.172727584839 5.596004486084 84 84 84
26.953924179077 19.172727584839 5.555004119873 87 87 87
26.953924179077 19.172727584839 5.513004302979 80 80 80
26.988277435303 19.144929885864 5.471004486084 88 88 88
26.971099853516 19.158830642700 5.429004669189 80 80 80
26.953924179077 19.172727584839 5.388004302979 84 84 84
26.971099853516 19.158830642700 5.346004486084 101 101 101
26.971099853516 19.158830642700 5.304004669189 18 18 18
26.893341064453 19.449148178101 6.662998199463 82 82 82
26.860622406006 19.461410522461 6.616001129150 135 135 135
26.858983993530 19.476947784424 6.112003326416 94 94 94
26.828170776367 18.279609680176 5.943004608154 131 131 131
26.828170776367 18.279609680176 5.981998443604 205 205 205
26.828170776367 18.279609680176 6.021999359131 191 191 191
26.828170776367 18.279609680176 6.062000274658 190 190 190
26.828170776367 18.279609680176 6.103000640869 200 200 200
26.828170776367 18.279609680176 6.141002655029 159 159 159
26.857608795166 18.298425674438 6.547000885010 150 150 150
26.828170776367 18.279609680176 6.585002899170 178 178 178
26.828170776367 18.279609680176 6.626003265381 175 175 175
26.857608795166 18.298425674438 6.669002532959 179 179 179
26.828170776367 18.279609680176 6.707004547119 173 173 173
26.828170776367 18.279609680176 6.747005462646 162 162 162
26.940940856934 18.700008392334 4.998001098633 52 52 52
26.940940856934 18.700008392334 5.038002014160 71 71 71
26.972019195557 18.703287124634 5.079002380371 81 81 81
26.940940856934 18.700008392334 5.121002197266 78 78 78
26.940940856934 18.700008392334 5.162002563477 81 81 81
26.972019195557 18.703287124634 5.202003479004 82 82 82
26.940940856934 18.700008392334 5.243999481201 71 71 71
26.940940856934 18.700008392334 5.284999847412 158 158 158
26.940940856934 18.700008392334 5.325000762939 106 106 106
26.940940856934 18.700008392334 5.366001129150 132 132 132
26.913143157959 18.665653228760 5.408000946045 104 104 104
26.913143157959 18.665653228760 5.448001861572 83 83 83
26.913143157959 18.665653228760 5.489002227783 87 87 87
26.940940856934 18.700008392334 5.530002593994 78 78 78
26.972019195557 18.703287124634 5.570003509521 82 82 82
26.940940856934 18.700008392334 5.611003875732 76 76 76
26.972019195557 18.703287124634 5.652004241943 72 72 72
26.826465606689 18.593664169312 6.130001068115 156 156 156
26.824827194214 18.609201431274 6.171001434326 184 184 184
26.824827194214 18.609201431274 6.212001800537 200 200 200
26.824827194214 18.609201431274 6.252002716064 189 189 189
26.824827194214 18.609201431274 6.293003082275 195 195 195
26.854265213013 18.628019332886 6.334003448486 157 157 157
26.824827194214 18.609201431274 6.372005462646 163 163 163
26.826465606689 18.593664169312 6.412998199463 173 173 173
26.826465606689 18.593664169312 6.452999114990 179 179 179
26.824827194214 18.609201431274 6.494998931885 169 169 169
26.826465606689 18.593664169312 6.534999847412 169 169 169
26.824827194214 18.609201431274 6.576000213623 163 163 163
26.999818801880 18.737642288208 6.907001495361 25 25 25
26.940940856934 18.700008392334 6.932003021240 88 88 88
26.646490097046 18.810354232788 3.117000579834 162 162 162
26.675930023193 18.829170227051 3.156002044678 164 164 164
26.675930023193 18.829170227051 3.196002960205 152 152 152
26.675930023193 18.829170227051 3.235000610352 104 104 104
26.675930023193 18.829170227051 3.280002593994 102 102 102
26.646490097046 18.810354232788 3.334003448486 121 121 121
26.675930023193 18.829170227051 3.375000000000 127 127 127
26.648130416870 18.794815063477 3.419002532959 138 138 138
26.677568435669 18.813632965088 3.457000732422 140 140 140
26.677568435669 18.813632965088 3.500000000000 146 146 146
26.677568435669 18.813632965088 3.545001983643 134 134 134
26.677568435669 18.813632965088 4.002002716064 142 142 142
26.675930023193 18.829170227051 4.040000915527 147 147 147
26.675930023193 18.829170227051 4.083000183105 143 143 143
26.675930023193 18.829170227051 4.122001647949 147 147 147
26.675930023193 18.829170227051 4.162002563477 142 142 142
26.675930023193 18.829170227051 4.203002929688 144 144 144
26.675930023193 18.829170227051 4.244003295898 140 140 140
26.675930023193 18.829170227051 4.285003662109 135 135 135
26.675930023193 18.829170227051 4.326000213623 136 136 136
26.675930023193 18.829170227051 4.364002227783 141 141 141
26.675930023193 18.829170227051 4.404003143311 137 137 137
26.675930023193 18.829170227051 4.446002960205 125 125 125
26.675930023193 18.829170227051 4.485000610352 129 129 129
26.675930023193 18.829170227051 4.524002075195 117 117 117
26.675930023193 18.829170227051 4.564002990723 113 113 113
26.675930023193 18.829170227051 4.604000091553 113 113 113
26.675930023193 18.829170227051 4.645000457764 113 113 113
26.707006454468 18.832448959351 4.683002471924 116 116 116
26.675930023193 18.829170227051 4.724002838135 108 108 108
26.707006454468 18.832448959351 4.762001037598 98 98 98
26.675930023193 18.829170227051 4.803001403809 92 92 92
26.675930023193 18.829170227051 4.842002868652 92 92 92
26.707006454468 18.832448959351 4.881999969482 86 86 86
26.691467285156 18.830808639526 4.922000885010 101 101 101
26.691467285156 18.830808639526 4.962001800537 119 119 119
26.691467285156 18.830808639526 5.001003265381 120 120 120
26.691467285156 18.830808639526 5.040000915527 114 114 114
26.691467285156 18.830808639526 5.080001831055 123 123 123
26.707006454468 18.832448959351 5.118000030518 101 101 101
26.750345230103 18.868444442749 5.155002593994 139 139 139
26.736446380615 18.851264953613 5.196002960205 122 122 122
26.736446380615 18.851264953613 5.235004425049 123 123 123
26.736446380615 18.851264953613 5.275005340576 136 136 136
26.750345230103 18.868444442749 5.313999176025 143 143 143
26.750345230103 18.868444442749 5.353000640869 149 149 149
26.764244079590 18.885622024536 5.393001556396 142 142 142
26.750345230103 18.868444442749 5.433002471924 149 149 149
26.750345230103 18.868444442749 5.472003936768 128 128 128
26.750345230103 18.868444442749 5.512004852295 137 137 137
26.750345230103 18.868444442749 5.551998138428 118 118 118
26.736446380615 18.851264953613 5.590999603271 121 121 121
26.750345230103 18.868444442749 5.631000518799 125 125 125
26.722545623779 18.834087371826 5.669002532959 157 157 157
26.722545623779 18.834087371826 5.709003448486 168 168 168
26.722545623779 18.834087371826 5.749004364014 158 158 158
26.722545623779 18.834087371826 5.787998199463 120 120 120
26.722545623779 18.834087371826 5.826999664307 92 92 92
26.722545623779 18.834087371826 5.867000579834 97 97 97
26.722545623779 18.834087371826 5.906002044678 87 87 87
26.722545623779 18.834087371826 5.945003509521 94 94 94
26.722545623779 18.834087371826 5.986003875732 99 99 99
26.736446380615 18.851264953613 6.026004791260 98 98 98
26.722545623779 18.834087371826 6.063999176025 92 92 92
26.722545623779 18.834087371826 6.104000091553 90 90 90
26.736446380615 18.851264953613 6.145000457764 88 88 88
26.793684005737 18.904439926147 6.192005157471 149 149 149
26.793684005737 18.904439926147 6.233005523682 149 149 149
26.750345230103 18.868444442749 6.266002655029 178 178 178
26.793684005737 18.904439926147 6.312000274658 154 154 154
26.793684005737 18.904439926147 6.353000640869 152 152 152
26.793684005737 18.904439926147 6.394001007080 150 150 150
26.765882492065 18.870082855225 6.430004119873 171 171 171
26.765882492065 18.870082855225 6.471004486084 173 173 173
26.764244079590 18.885622024536 6.514003753662 156 156 156
26.722545623779 18.834087371826 6.545001983643 85 85 85
26.722545623779 18.834087371826 6.583003997803 91 91 91
26.736446380615 18.851264953613 6.628002166748 101 101 101
26.736446380615 18.851264953613 6.666004180908 90 90 90
26.736446380615 18.851264953613 6.708003997803 81 81 81
26.793684005737 18.904439926147 6.764003753662 88 88 88
26.677568435669 18.813632965088 6.778003692627 136 136 136
26.679208755493 18.798093795776 6.815998077393 137 137 137
26.663669586182 18.796453475952 6.853000640869 112 112 112
26.691467285156 18.830808639526 6.904003143311 122 122 122
26.663669586182 18.796453475952 6.932003021240 136 136 136
26.620330810547 18.760457992554 6.965000152588 82 82 82
26.677568435669 18.813632965088 7.021999359131 61 61 61
26.819776535034 19.252847671509 6.018001556396 153 153 153
26.850854873657 19.256126403809 6.060001373291 168 168 168
26.850854873657 19.256126403809 6.101001739502 168 168 168
26.850854873657 19.256126403809 6.141002655029 171 171 171
26.850854873657 19.256126403809 6.182003021240 168 168 168
26.819776535034 19.252847671509 6.222003936768 149 149 149
26.850854873657 19.256126403809 6.512004852295 154 154 154
26.850854873657 19.256126403809 6.555004119873 209 209 209
26.850854873657 19.256126403809 6.597003936768 198 198 198
26.850854873657 19.256126403809 6.638004302979 170 170 170
26.849216461182 19.271665573120 6.680004119873 165 165 165
26.849216461182 19.271665573120 6.722003936768 139 139 139
26.825679779053 18.452173233032 6.690998077393 172 172 172
26.825679779053 18.452173233032 6.655002593994 221 221 221
26.825679779053 18.452173233032 6.618999481201 224 224 224
26.825679779053 18.452173233032 6.582004547119 223 223 223
26.825679779053 18.452173233032 6.545001983643 214 214 214
26.808500289917 18.466073989868 6.507999420166 212 212 212
26.825679779053 18.452173233032 6.473003387451 223 223 223
26.825679779053 18.452173233032 6.437999725342 75 75 75
26.825679779053 18.452173233032 6.257999420166 177 177 177
26.825679779053 18.452173233032 6.223003387451 219 219 219
26.808500289917 18.466073989868 6.186000823975 205 205 205
26.808500289917 18.466073989868 6.151004791260 208 208 208
26.825679779053 18.452173233032 6.116001129150 221 221 221
26.825679779053 18.452173233032 6.081005096436 223 223 223
26.808500289917 18.466073989868 6.045001983643 222 222 222
26.808500289917 18.466073989868 6.008998870850 138 138 138
26.963888168335 18.482465744019 5.560001373291 64 64 64
26.932811737061 18.479187011719 5.523998260498 89 89 89
26.963888168335 18.482465744019 5.489002227783 92 92 92
26.963888168335 18.482465744019 5.452999114990 94 94 94
26.932811737061 18.479187011719 5.417003631592 98 98 98
26.932811737061 18.479187011719 5.381999969482 75 75 75
26.963888168335 18.482465744019 5.347003936768 25 25 25
26.654685974121 18.732660293579 6.969005584717 64 64 64
26.844430923462 18.721250534058 6.979999542236 156 156 156
26.904947280884 18.743347167969 6.966999053955 165 165 165
26.903306961060 18.758886337280 6.926998138428 157 157 157
26.747919082642 18.742494583130 6.839000701904 126 126 126
26.747919082642 18.742494583130 6.803005218506 127 127 127
26.763458251953 18.744134902954 6.777004241943 91 91 91
26.747919082642 18.742494583130 6.735004425049 102 102 102
26.749559402466 18.726955413818 6.697002410889 143 143 143
26.747919082642 18.742494583130 6.660999298096 101 101 101
26.842792510986 18.736791610718 6.535999298096 127 127 127
26.827253341675 18.735151290894 6.498004913330 219 219 219
26.842792510986 18.736791610718 6.464000701904 221 221 221
26.841152191162 18.752328872681 6.424999237061 223 223 223
26.841152191162 18.752328872681 6.390003204346 223 223 223
26.841152191162 18.752328872681 6.353000640869 225 225 225
26.841152191162 18.752328872681 6.318004608154 226 226 226
26.841152191162 18.752328872681 6.281002044678 216 216 216
26.841152191162 18.752328872681 6.247005462646 221 221 221
26.841152191162 18.752328872681 6.210002899170 214 214 214
26.872228622437 18.755607604980 6.179004669189 21 21 21
26.965461730957 18.765443801880 5.650005340576 91 91 91
26.965461730957 18.765443801880 5.615001678467 103 103 103
26.965461730957 18.765443801880 5.578998565674 156 156 156
26.934383392334 18.762165069580 5.542003631592 147 147 147
26.934383392334 18.762165069580 5.506000518799 92 92 92
26.810073852539 18.749052047729 5.466999053955 169 169 169
26.810073852539 18.749052047729 5.432003021240 183 183 183
26.810073852539 18.749052047729 5.397998809814 161 161 161
26.839513778687 18.767866134644 5.363002777100 146 146 146
26.810073852539 18.749052047729 5.327999114990 169 169 169
26.777357101440 18.761310577393 5.293003082275 180 180 180
26.841152191162 18.752328872681 5.257999420166 120 120 120
26.855051040649 18.769506454468 5.223003387451 106 106 106
26.841152191162 18.752328872681 5.188003540039 105 105 105
26.841152191162 18.752328872681 5.153003692627 115 115 115
26.839513778687 18.767866134644 5.117000579834 124 124 124
26.839513778687 18.767866134644 5.082000732422 120 120 120
26.839513778687 18.767866134644 5.047000885010 124 124 124
26.841152191162 18.752328872681 5.013000488281 126 126 126
26.810073852539 18.749052047729 4.978000640869 115 115 115
26.778995513916 18.745773315430 4.946002960205 102 102 102
26.777357101440 18.761310577393 4.910003662109 113 113 113
26.777357101440 18.761310577393 4.875000000000 109 109 109
26.777357101440 18.761310577393 4.840000152588 110 110 110
26.777357101440 18.761310577393 4.805000305176 109 109 109
26.777357101440 18.761310577393 4.770999908447 111 111 111
26.777357101440 18.761310577393 4.735000610352 117 117 117
26.777357101440 18.761310577393 4.701000213623 115 115 115
26.777357101440 18.761310577393 4.665000915527 120 120 120
26.777357101440 18.761310577393 4.630001068115 128 128 128
26.777357101440 18.761310577393 4.594001770020 130 130 130
26.777357101440 18.761310577393 4.560001373291 123 123 123
26.777357101440 18.761310577393 4.525001525879 122 122 122
26.777357101440 18.761310577393 4.490001678467 123 123 123
26.777357101440 18.761310577393 4.455001831055 119 119 119
26.777357101440 18.761310577393 4.418003082275 118 118 118
26.775718688965 18.776849746704 4.384002685547 116 116 116
26.777357101440 18.761310577393 4.349002838135 114 114 114
26.777357101440 18.761310577393 4.315002441406 112 112 112
26.777357101440 18.761310577393 4.278003692627 117 117 117
26.775718688965 18.776849746704 4.242000579834 120 120 120
26.760181427002 18.775211334229 4.208000183105 123 123 123
26.777357101440 18.761310577393 4.171001434326 123 123 123
26.775718688965 18.776849746704 4.134002685547 122 122 122
26.775718688965 18.776849746704 4.099002838135 130 130 130
26.760181427002 18.775211334229 4.064002990723 135 135 135
26.744642257690 18.773571014404 3.551002502441 153 153 153
26.744642257690 18.773571014404 3.513000488281 153 153 153
26.744642257690 18.773571014404 3.476001739502 153 153 153
26.744642257690 18.773571014404 3.438003540039 153 153 153
26.744642257690 18.773571014404 3.402000427246 153 153 153
26.744642257690 18.773571014404 3.364002227783 147 147 147
26.744642257690 18.773571014404 3.328002929688 143 143 143
26.713563919067 18.770292282104 3.299003601074 148 148 148
26.713563919067 18.770292282104 3.263999938965 140 140 140
26.713563919067 18.770292282104 3.229000091553 148 148 148
26.713563919067 18.770292282104 3.190002441406 143 143 143
26.729103088379 18.771932601929 3.138999938965 148 148 148
26.651409149170 18.763736724854 3.127002716064 153 153 153
26.589254379272 18.757179260254 3.111000061035 160 160 160
26.749492645264 19.025470733643 6.946002960205 60 60 60
26.842725753784 19.035305023193 6.932003021240 113 113 113
26.904880523682 19.041862487793 6.908000946045 85 85 85
26.842725753784 19.035305023193 6.600002288818 184 184 184
26.842725753784 19.035305023193 6.562000274658 218 218 218
26.842725753784 19.035305023193 6.525005340576 217 217 217
26.842725753784 19.035305023193 6.488002777100 213 213 213
26.842725753784 19.035305023193 6.451999664307 220 220 220
26.842725753784 19.035305023193 6.415004730225 214 214 214
26.842725753784 19.035305023193 6.378002166748 205 205 205
26.842725753784 19.035305023193 6.340000152588 224 224 224
26.842725753784 19.035305023193 6.304004669189 225 225 225
26.842725753784 19.035305023193 6.268001556396 226 226 226
26.842725753784 19.035305023193 6.233005523682 231 231 231
26.842725753784 19.035305023193 6.196002960205 228 228 228
26.842725753784 19.035305023193 6.159999847412 228 228 228
26.827186584473 19.033666610718 6.124004364014 191 191 191
26.965396881104 19.063957214355 5.632999420166 103 103 103
26.963758468628 19.079496383667 5.597003936768 98 98 98
26.965396881104 19.063957214355 5.560001373291 93 93 93
26.948219299316 19.077857971191 5.523998260498 108 108 108
26.904880523682 19.041862487793 5.487003326416 113 113 113
26.889343261719 19.040222167969 5.451000213623 123 123 123
26.948219299316 19.077857971191 5.416004180908 169 169 169
26.963758468628 19.079496383667 5.381000518799 117 117 117
26.963758468628 19.079496383667 5.345005035400 113 113 113
26.904880523682 19.041862487793 5.309001922607 126 126 126
26.932680130005 19.076219558716 5.272998809814 135 135 135
26.904880523682 19.041862487793 5.237003326416 136 136 136
26.903240203857 19.057401657104 5.202003479004 106 106 106
26.932680130005 19.076219558716 5.166000366211 51 51 51
26.842658996582 19.333820343018 6.773998260498 166 166 166
26.859838485718 19.319919586182 6.738002777100 209 209 209
26.842658996582 19.333820343018 6.699001312256 215 215 215
26.842658996582 19.333820343018 6.660999298096 212 212 212
26.842658996582 19.333820343018 6.626003265381 214 214 214
26.842658996582 19.333820343018 6.588001251221 216 216 216
26.842658996582 19.333820343018 6.549999237061 206 206 206
26.842658996582 19.333820343018 6.181003570557 218 218 218
26.842658996582 19.333820343018 6.146999359131 233 233 233
