13.610120773315 31.451297760010 62.084991455078 123 123 123
13.607099533081 31.444042205811 62.037994384766 123 123 123
13.603273391724 31.433561325073 61.992004394531 123 123 123
13.607286453247 31.440628051758 61.937011718750 102 102 102
13.604707717896 31.434129714966 61.888000488281 124 124 124
13.606130599976 31.434940338135 61.835998535156 126 126 126
13.606130599976 31.434940338135 61.781982421875 123 123 123
13.608831405640 31.439247131348 61.725982666016 130 130 130
13.611173629761 31.441085815430 61.670989990234 129 129 129
13.607622146606 31.434534072876 61.619995117188 133 133 133
13.614305496216 31.446392059326 61.557006835938 135 135 135
13.517869949341 31.190225601196 70.734985351563 33 33 33
13.561471939087 31.277709960938 70.519012451172 161 161 161
13.580533981323 31.313480377197 70.399993896484 187 187 187
13.609441757202 31.374729156494 70.335998535156 151 151 151
13.644693374634 31.445129394531 70.291992187500 46 46 46
13.635263442993 31.412092208862 69.552001953125 57 57 57
13.669694900513 31.479515075684 69.365997314453 36 36 36
13.669870376587 31.476345062256 69.216003417969 49 49 49
13.666971206665 31.466894149780 69.061004638672 72 72 72
13.664403915405 31.460151672363 68.915985107422 88 88 88
13.660650253296 31.448451995850 68.766998291016 155 155 155
13.656362533569 31.437458038330 68.623992919922 161 161 161
13.654787063599 31.430526733398 68.493988037109 155 155 155
13.653974533081 31.427547454834 68.372009277344 162 162 162
13.652818679810 31.421859741211 68.250000000000 168 168 168
13.649930953979 31.412166595459 68.126007080078 168 168 168
13.649549484253 31.410188674927 68.015991210938 173 173 173
13.644788742065 31.398921966553 67.897003173828 172 172 172
13.645017623901 31.394779205322 67.791992187500 172 172 172
13.645177841187 31.391853332520 67.690002441406 175 175 175
13.644468307495 31.386924743652 67.588989257813 176 176 176
13.639169692993 31.376609802246 67.483001708984 177 177 177
13.636171340942 31.368864059448 67.385009765625 178 178 178
13.638200759888 31.367507934570 67.295989990234 180 180 180
13.637441635132 31.363554000854 67.204986572266 180 180 180
13.636613845825 31.360820770264 67.118988037109 182 182 182
13.634485244751 31.355079650879 67.029998779297 185 185 185
13.633668899536 31.352100372314 66.947998046875 184 184 184
13.630388259888 31.340671539307 66.859008789063 184 184 184
13.632093429565 31.345167160034 66.786987304688 184 184 184
13.631322860718 31.341457366943 66.708007812500 177 177 177
13.630613327026 31.336526870728 66.631011962891 187 187 187
13.629743576050 31.334522247314 66.557983398438 187 187 187
13.628591537476 31.328836441040 66.481994628906 185 185 185
13.628210067749 31.326858520508 66.411987304688 188 188 188
13.628263473511 31.325885772705 66.342987060547 186 186 186
13.626638412476 31.319927215576 66.273010253906 189 189 189
13.626310348511 31.316974639893 66.204986572266 189 189 189
13.623682022095 31.311450958252 66.136993408203 188 188 188
13.622972488403 31.306522369385 66.070983886719 190 190 190
13.622594833374 31.304544448853 66.007995605469 191 191 191
13.625658035278 31.311069488525 65.951995849609 189 189 189
13.621831893921 31.300590515137 65.885009765625 193 193 193
13.622819900513 31.300399780273 65.825988769531 194 194 194
13.620637893677 31.295635223389 65.764984130859 192 192 192
13.617624282837 31.288135528564 65.704010009766 194 194 194
13.619443893433 31.290679931641 65.648986816406 193 193 193
13.619062423706 31.288702011108 65.592987060547 195 195 195
13.620035171509 31.288755416870 65.539001464844 197 197 197
13.617528915405 31.281038284302 65.480010986328 193 193 193
13.614912033081 31.275270462036 65.424011230469 195 195 195
13.617704391479 31.277870178223 65.372985839844 195 195 195
13.616941452026 31.273914337158 65.320007324219 194 194 194
13.616559982300 31.271938323975 65.268005371094 197 197 197
13.615747451782 31.268959045410 65.216003417969 192 192 192
13.614038467407 31.264465332031 65.164001464844 197 197 197
13.614606857300 31.263027191162 65.113983154297 194 194 194
13.615961074829 31.265058517456 65.066009521484 197 197 197
13.617341995239 31.266601562500 65.019012451172 198 198 198
13.611650466919 31.254550933838 64.966003417969 196 196 196
13.613069534302 31.255363464355 64.919006347656 199 199 199
13.610074996948 31.247619628906 64.868988037109 199 199 199
13.610128402710 31.246644973755 64.821990966797 198 198 198
13.615049362183 31.254983901978 64.779998779297 200 200 200
13.612051010132 31.247238159180 64.731994628906 201 201 201
13.610342025757 31.242744445801 64.684997558594 199 199 199
13.609907150269 31.241741180420 64.639984130859 197 197 197
13.606966018677 31.233022689819 64.592987060547 199 199 199
13.608766555786 31.235811233521 64.549011230469 201 201 201
13.609701156616 31.236595153809 64.506011962891 201 201 201
13.607954025269 31.232831954956 64.460998535156 198 198 198
13.609308242798 31.234863281250 64.419006347656 199 199 199
13.607191085815 31.228878021240 64.373992919922 196 196 196
13.608167648315 31.228931427002 64.332000732422 198 198 198
13.606431961060 31.224925994873 64.287994384766 200 200 200
13.603475570679 31.216449737549 64.243988037109 199 199 199
13.606645584106 31.221023559570 64.204010009766 198 198 198
13.606645584106 31.221023559570 64.161987304688 199 199 199
13.603635787964 31.213523864746 64.118988037109 197 197 197
13.607255935669 31.218856811523 64.079010009766 199 199 199
13.604639053345 31.213088989258 64.036010742188 199 199 199
13.609178543091 31.219451904297 63.996002197266 198 198 198
13.601682662964 31.204612731934 63.953002929688 198 198 198
13.604471206665 31.207210540771 63.912994384766 196 196 196
13.604471206665 31.207210540771 63.872985839844 202 202 202
13.604093551636 31.205234527588 63.832000732422 199 199 199
13.609025955200 31.213329315186 63.791992187500 203 203 203
13.601148605347 31.196514129639 63.750000000000 198 198 198
13.600755691528 31.194782257080 63.709991455078 199 199 199
13.603502273560 31.198112487793 63.669982910156 200 200 200
13.603124618530 31.196136474609 63.630004882813 198 198 198
13.603124618530 31.196136474609 63.589996337891 201 201 201
13.602731704712 31.194400787354 63.549987792969 198 198 198
13.603300094604 31.192966461182 63.510009765625 200 200 200
13.604166030884 31.194969177246 63.470001220703 198 198 198
13.601591110229 31.188470840454 63.429992675781 200 200 200
13.600828170776 31.184516906738 63.389984130859 198 198 198
13.598646163940 31.179750442505 63.350006103516 199 199 199
13.602212905884 31.186059951782 63.308990478516 200 200 200
13.599203109741 31.178558349609 63.269989013672 198 198 198
13.602373123169 31.183134078979 63.229003906250 202 202 202
13.601991653442 31.181156158447 63.188995361328 200 200 200
13.596296310425 31.169109344482 63.149993896484 199 199 199
13.601179122925 31.178178787231 63.108001708984 199 199 199
13.598653793335 31.170703887939 63.069000244141 197 197 197
13.598276138306 31.168727874756 63.028991699219 199 199 199
13.597841262817 31.167724609375 62.988006591797 199 199 199
13.595331192017 31.160007476807 62.947998046875 194 194 194
13.595331192017 31.160007476807 62.906982421875 197 197 197
13.596696853638 31.161794662476 62.865997314453 197 197 197
13.595937728882 31.157840728760 62.825012207031 201 201 201
13.594190597534 31.154075622559 62.785003662109 194 194 194
13.595560073853 31.155864715576 62.742004394531 186 186 186
13.591192245483 31.146331787109 62.703002929688 189 189 189
13.594419479370 31.149932861328 62.660003662109 178 178 178
13.600275039673 31.159057617188 62.613983154297 148 148 148
13.598535537720 31.155048370361 62.572998046875 159 159 159
13.597711563110 31.152313232422 62.531005859375 174 174 174
13.597383499146 31.149362564087 62.488006591797 173 173 173
13.596555709839 31.146627426147 62.445983886719 177 177 177
13.597936630249 31.148170471191 62.401000976563 179 179 179
13.597990036011 31.147195816040 62.356994628906 180 180 180
13.604555130005 31.161249160767 62.307006835938 159 159 159
13.605936050415 31.162792205811 62.260986328125 163 163 163
13.613065719604 31.175409317017 62.208984375000 171 171 171
13.617658615112 31.180797576904 62.161010742188 171 171 171
13.608240127563 31.165363311768 62.121002197266 172 172 172
13.612955093384 31.168556213379 62.071990966797 171 171 171
13.614717483521 31.172077178955 62.023010253906 163 163 163
13.618268966675 31.178630828857 61.971984863281 158 158 158
13.619581222534 31.181390762329 61.921997070313 148 148 148
13.618429183960 31.175704956055 61.875000000000 148 148 148
13.616693496704 31.171695709229 61.828002929688 140 140 140
13.618047714233 31.173727035522 61.776000976563 130 130 130
13.651960372925 31.241853713989 61.683990478516 173 173 173
13.671781539917 31.281576156616 61.606994628906 186 186 186
13.665758132935 31.266574859619 61.562011718750 193 193 193
13.656446456909 31.249191284180 61.519012451172 187 187 187
13.573816299438 31.026546478271 70.752990722656 50 50 50
13.602018356323 31.082866668701 70.670989990234 100 100 100
13.609254837036 31.093532562256 70.484008789063 134 134 134
13.720537185669 31.106254577637 61.871002197266 68 68 68
13.721529006958 31.106063842773 61.821990966797 100 100 100
13.726518630981 31.113183975220 61.768005371094 136 136 136
13.717203140259 31.095802307129 61.727996826172 138 138 138
13.716821670532 31.093824386597 61.678985595703 141 141 141
13.722311019897 31.100727081299 61.622985839844 153 153 153
13.719736099243 31.094228744507 61.574005126953 155 155 155
13.717985153198 31.090465545654 61.523986816406 159 159 159
13.568410873413 31.098133087158 70.488983154297 54 54 54
13.566240310669 31.110973358154 70.730987548828 75 75 75
13.619310379028 31.035160064697 70.750000000000 18 18 18
13.606691360474 31.255746841431 70.437988281250 185 185 185
13.642145156860 31.206838607788 70.519989013672 201 201 201
13.647455215454 31.208108901978 70.729003906250 80 80 80
13.701959609985 31.132862091064 70.748992919922 76 76 76
13.598318099976 31.150146484375 62.350006103516 49 49 49
13.600347518921 31.148792266846 62.395996093750 70 70 70
13.594503402710 31.157272338867 62.436004638672 97 97 97
13.598104476929 31.154048919678 62.480987548828 92 92 92
13.607442855835 31.144290924072 62.527984619141 91 91 91
13.599351882935 31.158027648926 62.566009521484 88 88 88
13.595537185669 31.165153503418 62.606994628906 76 76 76
13.603979110718 31.153881072998 62.653991699219 121 121 121
13.604955673218 31.153934478760 62.695983886719 100 100 100
13.603738784790 31.158269882202 62.736999511719 127 127 127
13.603143692017 31.160192489624 62.777984619141 137 137 137
13.609235763550 31.156126022339 62.820983886719 152 152 152
13.595476150513 31.175174713135 62.856994628906 150 150 150
13.602796554565 31.166530609131 62.901000976563 143 143 143
13.596845626831 31.176961898804 62.940002441406 136 136 136
13.596235275269 31.179130554199 62.980010986328 142 142 142
13.605047225952 31.170078277588 63.023010253906 133 133 133
13.597063064575 31.181865692139 63.062011718750 137 137 137
13.598470687866 31.182918548584 63.101989746094 142 142 142
13.595846176147 31.186199188232 63.143005371094 136 136 136
13.601015090942 31.181102752686 63.183990478516 139 139 139
13.606241226196 31.175033569336 63.225006103516 131 131 131
13.600168228149 31.187660217285 63.264007568359 133 133 133
13.603185653687 31.186113357544 63.303985595703 139 139 139
13.599992752075 31.190828323364 63.343994140625 140 140 140
13.597246170044 31.196300506592 63.384002685547 139 139 139
13.599225997925 31.195920944214 63.424011230469 139 139 139
13.599172592163 31.196895599365 63.463989257813 134 134 134
13.594747543335 31.206188201904 63.503997802734 136 136 136
13.602567672729 31.197326660156 63.544982910156 137 137 137
13.599931716919 31.200849533081 63.584991455078 137 137 137
13.589174270630 31.218597412109 63.625000000000 139 139 139
13.599081039429 31.207405090332 63.665008544922 137 137 137
13.598421096802 31.210548400879 63.705993652344 144 144 144
13.600515365601 31.207973480225 63.746002197266 144 144 144
13.594564437866 31.218402862549 63.786987304688 144 144 144
13.595552444458 31.218212127686 63.828002929688 138 138 138
13.594392776489 31.221572875977 63.868988037109 140 140 140
13.598516464233 31.217643737793 63.908996582031 135 135 135
13.597303390503 31.221977233887 63.950988769531 144 144 144
13.600931167603 31.218265533447 63.990997314453 137 137 137
13.602430343628 31.217613220215 64.031982421875 137 137 137
13.602865219116 31.218616485596 64.072998046875 139 139 139
13.595304489136 31.231647491455 64.117004394531 139 139 139
13.601530075073 31.225143432617 64.156982421875 140 140 140
13.595087051392 31.235548019409 64.201995849609 142 142 142
13.597066879272 31.235168457031 64.243988037109 143 143 143
13.597444534302 31.237144470215 64.286010742188 140 140 140
13.598421096802 31.237197875977 64.328002929688 136 136 136
13.594633102417 31.243835449219 64.372985839844 137 137 137
13.599248886108 31.239933013916 64.415008544922 135 135 135
13.595449447632 31.246814727783 64.459991455078 131 131 131
13.598466873169 31.245269775391 64.502990722656 136 136 136
13.601552963257 31.242504119873 64.545989990234 130 130 130
13.598794937134 31.248222351074 64.592010498047 135 135 135
13.593881607056 31.257488250732 64.639984130859 133 133 133
13.597578048706 31.252555847168 64.682983398438 137 137 137
13.595861434937 31.257106781006 64.730010986328 128 128 128
13.595075607300 31.262443542480 64.777984619141 125 125 125
13.593915939331 31.265802383423 64.825012207031 132 132 132
13.597566604614 31.261602401733 64.868988037109 123 123 123
13.595849990845 31.266153335571 64.919006347656 129 129 129
13.598264694214 31.266775131226 64.966003417969 126 126 126
13.597097396851 31.270133972168 65.014984130859 125 125 125
13.598089218140 31.269943237305 65.062988281250 122 122 122
13.594232559204 31.277801513672 65.115997314453 121 121 121
13.597253799438 31.276256561279 65.165008544922 115 115 115
13.594057083130 31.280971527100 65.217010498047 121 121 121
13.592786788940 31.286277770996 65.269989013672 121 121 121
13.594209671021 31.287090301514 65.321990966797 114 114 114
13.596242904663 31.285736083984 65.372009277344 111 111 111
13.592889785767 31.293375015259 65.428985595703 110 110 110
13.589071273804 31.300502777100 65.486999511719 102 102 102
13.596342086792 31.292831420898 65.536010742188 106 106 106
13.592538833618 31.299713134766 65.595001220703 106 106 106
13.594476699829 31.300064086914 65.649993896484 109 109 109
13.590040206909 31.309600830078 65.712982177734 97 97 97
13.586236953735 31.316482543945 65.774993896484 102 102 102
13.587606430054 31.318269729614 65.833984375000 99 99 99
13.588594436646 31.318080902100 65.891998291016 92 92 92
13.588422775269 31.321249008179 65.954986572266 92 92 92
13.591939926147 31.319486618042 66.014007568359 83 83 83
13.590738296509 31.323575973511 66.079010009766 82 82 82
13.589521408081 31.327911376953 66.144989013672 75 75 75
13.584043502808 31.338611602783 66.218994140625 73 73 73
13.585546493530 31.337961196899 66.282989501953 72 72 72
13.587903976440 31.339557647705 66.350982666016 68 68 68
13.591478347778 31.336822509766 66.415008544922 64 64 64
13.587053298950 31.346113204956 66.493011474609 57 57 57
13.585348129272 31.350421905518 66.566986083984 54 54 54
13.588884353638 31.348415374756 66.636993408203 47 47 47
13.580751419067 31.362882614136 66.725006103516 40 40 40
13.588415145874 31.356945037842 66.792999267578 50 50 50
13.586645126343 31.362472534180 66.875000000000 36 36 36
13.581731796265 31.371738433838 66.963989257813 39 39 39
13.583101272583 31.373525619507 67.044982910156 38 38 38
13.579732894897 31.381408691406 67.135986328125 29 29 29
13.580545425415 31.384387969971 67.222991943359 26 26 26
13.580331802368 31.388288497925 67.313995361328 23 23 23
13.581754684448 31.389099121094 67.403991699219 28 28 28
13.532735824585 31.471248626709 67.696990966797 71 71 71
13.575242996216 31.409770965576 67.709991455078 28 28 28
13.565073013306 31.461292266846 68.658996582031 26 26 26
13.565832138062 31.465244293213 68.790008544922 32 32 32
13.622922897339 31.414104461670 69.537994384766 109 109 109
13.615880966187 31.453327178955 70.290008544922 129 129 129
13.639589309692 31.422355651855 70.408996582031 190 190 190
13.663217544556 31.392845153809 70.533996582031 138 138 138
13.742662429810 31.121896743774 61.548004150391 170 170 170
13.740880966187 31.127666473389 61.596984863281 173 173 173
13.737577438354 31.134330749512 61.644989013672 169 169 169
13.738065719604 31.134357452393 61.695983886719 171 171 171
13.730466842651 31.148122787476 61.738983154297 165 165 165
13.731451034546 31.147932052612 61.789001464844 174 174 174
13.730844497681 31.150098800659 61.837982177734 171 171 171
13.731103897095 31.154270172119 61.885009765625 164 164 164
13.728410720825 31.158767700195 61.932006835938 157 157 157
13.729333877563 31.159795761108 61.979003906250 154 154 154
13.724435806274 31.168817520142 62.022003173828 163 163 163
13.719457626343 31.179302215576 62.065002441406 174 174 174
13.725194931030 31.172771453857 62.114990234375 153 153 153
13.724588394165 31.174940109253 62.161010742188 144 144 144
13.722925186157 31.178516387939 62.204986572266 142 142 142
13.721761703491 31.181875228882 62.250000000000 130 130 130
13.717962265015 31.188755035400 62.291992187500 148 148 148
13.689126968384 31.232894897461 62.319000244141 177 177 177
13.688463211060 31.236036300659 62.363006591797 178 178 178
13.703836441040 31.214385986328 62.416992187500 139 139 139
13.719602584839 31.194469451904 62.468994140625 96 96 96
13.712591171265 31.206310272217 62.509002685547 95 95 95
13.718767166138 31.200780868530 62.553985595703 75 75 75
13.710702896118 31.214031219482 62.592987060547 48 48 48
13.642240524292 31.320785522461 62.779998779297 119 119 119
13.672929763794 31.278461456299 62.833984375000 171 171 171
13.691335678101 31.255020141602 62.881988525391 73 73 73
13.683324813843 31.276098251343 63.088989257813 96 96 96
13.676439285278 31.285743713379 63.128997802734 175 175 175
13.654508590698 31.319992065430 63.166992187500 178 178 178
13.644910812378 31.334381103516 63.207000732422 104 104 104
13.646638870239 31.347434997559 63.544006347656 163 163 163
13.666589736938 31.322612762451 63.584991455078 176 176 176
13.694204330444 31.282810211182 63.626007080078 119 119 119
13.689893722534 31.298954010010 63.833984375000 48 48 48
13.669057846069 31.331062316895 63.878997802734 175 175 175
13.645071029663 31.367153167725 63.925994873047 166 166 166
13.641138076782 31.385272979736 64.231994628906 135 135 135
13.650556564331 31.374055862427 64.273986816406 181 181 181
13.672151565552 31.345901489258 64.309997558594 176 176 176
13.702844619751 31.303577423096 64.342010498047 55 55 55
13.683095932007 31.342590332031 64.575988769531 160 160 160
13.648431777954 31.394966125488 64.640991210938 126 126 126
13.640409469604 31.416286468506 64.885009765625 127 127 127
13.648786544800 31.406234741211 64.929992675781 182 182 182
13.666151046753 31.383960723877 64.967987060547 181 181 181
13.680425643921 31.364452362061 65.006988525391 126 126 126
13.679208755493 31.368785858154 65.057983398438 69 69 69
13.656763076782 31.403493881226 65.126007080078 86 86 86
13.653448104858 31.410402297974 65.180999755859 98 98 98
13.676210403442 31.378889083862 65.213989257813 165 165 165
13.669095993042 31.392681121826 65.273010253906 107 107 107
13.655076980591 31.416358947754 65.338989257813 118 118 118
13.658296585083 31.411159515381 65.389007568359 124 124 124
13.656999588013 31.416954040527 65.446990966797 132 132 132
13.654241561890 31.422672271729 65.503997802734 171 171 171
13.660520553589 31.415191650391 65.553985595703 184 184 184
13.666692733765 31.409664154053 65.605987548828 183 183 183
13.660684585571 31.421070098877 65.669982910156 155 155 155
13.655168533325 31.432502746582 65.735992431641 160 160 160
13.659795761108 31.428356170654 65.790985107422 163 163 163
13.667119979858 31.419712066650 65.843994140625 171 171 171
13.660558700562 31.432310104370 65.912994384766 172 172 172
13.665239334106 31.427188873291 65.968994140625 174 174 174
13.654985427856 31.444717407227 66.045989990234 181 181 181
13.656961441040 31.444337844849 66.108001708984 186 186 186
13.677503585815 31.417593002319 66.148010253906 185 185 185
13.665704727173 31.436506271362 66.229003906250 184 184 184
13.656885147095 31.454603195190 66.311004638672 185 185 185
13.661085128784 31.449455261230 66.373992919922 185 185 185
13.675779342651 31.431190490723 66.424011230469 181 181 181
13.665418624878 31.450672149658 66.513000488281 185 185 185
13.660440444946 31.461154937744 66.593994140625 186 186 186
13.668260574341 31.452293395996 66.656982421875 188 188 188
13.678789138794 31.438692092896 66.717010498047 185 185 185
13.670076370239 31.454839706421 66.808990478516 183 183 183
13.670404434204 31.457790374756 66.889007568359 184 184 184
13.679700851440 31.448766708374 66.957000732422 180 180 180
13.671598434448 31.462747573853 67.053009033203 183 183 183
13.668729782104 31.470413208008 67.144012451172 189 189 189
13.679178237915 31.458274841309 67.212982177734 185 185 185
13.669870376587 31.476345062256 67.320007324219 183 183 183
13.664907455444 31.486585617065 67.421997070313 185 185 185
13.667249679565 31.488426208496 67.514007568359 184 184 184
13.665494918823 31.493709564209 67.613983154297 190 190 190
13.675901412964 31.482299804688 67.692993164063 185 185 185
13.671422958374 31.492568969727 67.804992675781 182 182 182
13.679143905640 31.485656738281 67.894989013672 165 165 165
13.662431716919 31.513835906982 68.036987304688 190 190 190
13.675981521606 31.498687744141 68.122985839844 183 183 183
13.675088882446 31.505973815918 68.240997314453 179 179 179
13.684507369995 31.494754791260 68.337005615234 148 148 148
13.678258895874 31.510547637939 68.475982666016 167 167 167
13.692918777466 31.493015289307 68.566009521484 168 168 168
13.694852828979 31.493366241455 68.690002441406 169 169 169
13.696657180786 31.496154785156 68.820007324219 174 174 174
13.689367294312 31.513114929199 68.980987548828 135 135 135
13.688966751099 31.520427703857 69.130004882813 133 133 133
13.690729141235 31.523948669434 69.276000976563 97 97 97
13.692636489868 31.524787902832 69.424011230469 97 97 97
13.694818496704 31.529552459717 69.582000732422 98 98 98
13.688165664673 31.543857574463 69.769012451172 96 96 96
13.685602188110 31.554964065552 69.953002929688 109 109 109
13.680418014526 31.569105148315 70.152984619141 108 108 108
13.681009292603 31.576229095459 70.345001220703 113 113 113
13.683202743530 31.580749511719 70.542999267578 111 111 111
13.678442001343 31.596138000488 70.769989013672 108 108 108
13.664091110229 31.625911712646 71.042999267578 122 122 122
13.645875930786 31.663787841797 71.348999023438 117 117 117
13.663869857788 31.452053070068 61.548004150391 183 183 183
13.697095870972 31.408157348633 61.631988525391 184 184 184
13.696920394897 31.411325454712 61.683990478516 184 184 184
13.677732467651 31.440101623535 61.721008300781 181 181 181
13.684530258179 31.432161331177 61.779998779297 169 169 169
13.666383743286 31.459770202637 61.816986083984 182 182 182
13.661363601685 31.470987319946 61.863983154297 183 183 183
13.659769058228 31.473344802856 61.915008544922 184 184 184
13.661191940308 31.474155426025 61.967010498047 183 183 183
13.664766311646 31.471418380737 62.019989013672 182 182 182
13.660367965698 31.480224609375 62.066986083984 183 183 183
13.667135238647 31.472770690918 62.121002197266 183 183 183
13.668676376343 31.471389770508 62.171997070313 182 182 182
13.664754867554 31.480464935303 62.217010498047 183 183 183
13.663106918335 31.483797073364 62.264984130859 183 183 183
13.667718887329 31.479894638062 62.316009521484 182 182 182
13.671281814575 31.477399826050 62.364990234375 181 181 181
13.674936294556 31.473199844360 62.415008544922 182 182 182
13.677965164185 31.471410751343 62.462982177734 181 181 181
13.697401046753 31.447052001953 62.519012451172 182 182 182
13.690462112427 31.457672119141 62.562011718750 180 180 180
13.698785781860 31.448593139648 62.610992431641 177 177 177
13.689638137817 31.463739395142 62.652984619141 181 181 181
13.690019607544 31.465717315674 62.699005126953 181 181 181
13.690938949585 31.466745376587 62.744995117188 181 181 181
13.693536758423 31.463954925537 62.790985107422 181 181 181
13.689779281616 31.470104217529 62.834991455078 181 181 181
13.692758560181 31.469289779663 62.880004882813 181 181 181
13.689561843872 31.474002838135 62.924011230469 181 181 181
13.695112228394 31.470886230469 62.970001220703 181 181 181
13.695543289185 31.471889495850 63.014984130859 180 180 180
13.702882766724 31.463001251221 63.061004638672 181 181 181
13.699068069458 31.470125198364 63.104003906250 181 181 181
13.699499130249 31.471128463745 63.148010253906 181 181 181
13.700445175171 31.471668243408 63.191986083984 181 181 181
13.702425003052 31.471288681030 63.235992431641 181 181 181
13.707162857056 31.465190887451 63.281005859375 179 179 179
13.713872909546 31.458715438843 63.325012207031 179 179 179
13.711008071899 31.466381072998 63.368011474609 179 179 179
13.713644027710 31.462860107422 63.411987304688 178 178 178
13.712430953979 31.467193603516 63.455993652344 179 179 179
13.719263076782 31.458522796631 63.498992919922 180 180 180
13.720689773560 31.459333419800 63.542999267578 179 179 179
13.714803695679 31.468545913696 63.587005615234 180 180 180
13.717874526978 31.466026306152 63.630004882813 180 180 180
13.717214584351 31.469167709351 63.674011230469 180 180 180
13.715562820435 31.472499847412 63.717987060547 179 179 179
13.718648910522 31.469736099243 63.760986328125 178 178 178
13.721059799194 31.470355987549 63.804992675781 178 178 178
13.717786788940 31.476535797119 63.848999023438 179 179 179
13.719842910767 31.474691390991 63.893005371094 178 178 178
13.714433670044 31.484174728394 63.938995361328 179 179 179
13.717950820923 31.482412338257 63.983001708984 178 178 178
13.715246200562 31.487152099609 64.027984619141 176 176 176
13.716669082642 31.487964630127 64.071990966797 175 175 175
13.718713760376 31.486366271973 64.117004394531 176 176 176
13.722784042358 31.483409881592 64.161010742188 176 176 176
13.722181320190 31.485578536987 64.207000732422 170 170 170
13.722558975220 31.487556457520 64.251983642578 171 171 171
13.719259262085 31.494220733643 64.299011230469 150 150 150
13.721288681030 31.492864608765 64.343994140625 172 172 172
13.721670150757 31.494842529297 64.390991210938 170 170 170
13.722616195679 31.495384216309 64.437011718750 167 167 167
13.718736648560 31.503726959229 64.485992431641 170 170 170
13.720293045044 31.502101898193 64.531982421875 165 165 165
13.717912673950 31.509794235229 64.582000732422 170 170 170
13.724245071411 31.501340866089 64.626007080078 167 167 167
13.723573684692 31.504726409912 64.674987792969 166 166 166
13.728689193726 31.500606536865 64.721008300781 165 165 165
13.724386215210 31.507705688477 64.773010253906 166 166 166
13.722627639771 31.512989044189 64.822998046875 163 163 163
13.728422164917 31.505481719971 64.869995117188 160 160 160
13.717653274536 31.523471832275 64.927001953125 157 157 157
13.721670150757 31.521492004395 64.975982666016 153 153 153
13.725366592407 31.516561508179 65.023986816406 147 147 147
13.725744247437 31.518539428711 65.075988769531 142 142 142
13.719675064087 31.531164169312 65.132995605469 137 137 137
13.718076705933 31.533521652222 65.187011718750 133 133 133
13.720605850220 31.531948089600 65.238983154297 127 127 127
13.718229293823 31.539642333984 65.295989990234 119 119 119
13.724992752075 31.532190322876 65.346008300781 116 116 116
13.723791122437 31.536281585693 65.402984619141 98 98 98
13.724172592163 31.538257598877 65.458984375000 89 89 89
13.727865219116 31.533325195313 65.510986328125 78 78 78
13.722345352173 31.544759750366 65.574005126953 65 65 65
13.727952957153 31.540664672852 65.628997802734 55 55 55
13.724702835083 31.546356201172 65.690002441406 42 42 42
13.721334457397 31.554239273071 65.755004882813 37 37 37
13.596502304077 31.814624786377 67.816986083984 79 79 79
13.720476150513 31.632190704346 67.682983398438 131 131 131
13.745645523071 31.601299285889 67.736999511719 113 113 113
13.744428634644 31.605632781982 67.841003417969 145 145 145
13.603467941284 31.821363449097 68.238983154297 109 109 109
13.641611099243 31.767957687378 68.273986816406 131 131 131
13.744733810425 31.617876052856 68.169982910156 119 119 119
13.753992080688 31.609580993652 68.265991210938 107 107 107
13.683008193970 31.735513687134 68.941009521484 21 21 21
13.651712417603 31.833309173584 70.313995361328 123 123 123
13.648672103882 31.844142913818 70.514007568359 167 167 167
13.617143630981 32.008430480957 67.942993164063 63 63 63
13.717123031616 31.862089157104 67.859985351563 93 93 93
13.755086898804 31.812095642090 67.897003173828 128 128 128
13.666997909546 31.946622848511 68.174987792969 135 135 135
13.843660354614 31.686397552490 67.933990478516 127 127 127
13.635019302368 32.003547668457 68.472991943359 156 156 156
13.681077957153 31.939571380615 68.498992919922 144 144 144
13.679269790649 31.945831298828 68.625000000000 160 160 160
13.624788284302 32.091743469238 70.442993164063 91 91 91
13.662202835083 32.042694091797 70.524993896484 166 166 166
13.604604721069 32.245407104492 68.009002685547 51 51 51
13.710985183716 32.089389801025 67.924987792969 44 44 44
13.731958389282 32.063648223877 67.994995117188 108 108 108
13.668367385864 32.161865234375 68.222991943359 116 116 116
13.711183547974 32.103584289551 68.256988525391 68 68 68
13.700456619263 32.129646301270 68.514984130859 130 130 130
13.755243301392 32.049278259277 68.520996093750 128 128 128
13.772489547729 32.029197692871 68.609008789063 53 53 53
13.797170639038 31.998281478882 68.684997558594 99 99 99
13.681791305542 32.237915039063 70.697998046875 43 43 43
13.742856979370 32.150070190430 70.710998535156 35 35 35
13.616853713989 32.449512481689 68.126007080078 94 94 94
13.706201553345 32.318721771240 68.079986572266 99 99 99
13.730276107788 32.289970397949 68.152008056641 117 117 117
13.727460861206 32.296661376953 68.268005371094 35 35 35
13.681966781616 32.572654724121 68.144989013672 122 122 122
13.736024856567 32.496650695801 68.165008544922 99 99 99
13.641321182251 32.849407196045 68.217987060547 110 110 110
13.708223342896 32.753326416016 68.221984863281 102 102 102
13.558301925659 32.980789184570 68.587982177734 73 73 73
13.629018783569 33.073188781738 68.109985351563 26 26 26
13.690427780151 32.988052368164 68.131011962891 111 111 111
13.711416244507 32.962066650391 68.212005615234 107 107 107
13.653760910034 33.050098419189 68.416992187500 121 121 121
13.714704513550 32.964447021484 68.437988281250 168 168 168
13.723936080933 32.956642150879 68.542999267578 136 136 136
13.747457504272 33.115890502930 68.136993408203 39 39 39
13.718667984009 33.168098449707 68.412994384766 57 57 57
13.778017044067 33.084804534912 68.437988281250 121 121 121
13.791551589966 33.069900512695 68.536987304688 126 126 126
13.829656600952 33.017227172852 68.595001220703 20 20 20
13.483522415161 31.654859542847 67.704010009766 144 144 144
13.489416122437 31.592102050781 67.729003906250 118 118 118
13.490179061890 31.596054077148 67.842987060547 149 149 149
13.455652236938 32.010555267334 68.519012451172 43 43 43
13.488920211792 31.618968963623 68.218994140625 140 140 140
13.507761001587 31.507530212402 70.437988281250 17 17 17
13.519594192505 31.363431930542 70.341003417969 90 90 90
13.526464462280 31.300727844238 70.421997070313 170 170 170
13.532892227173 31.219413757324 70.458007812500 178 178 178
13.541753768921 31.129432678223 70.477996826172 185 185 185
13.546701431274 31.066131591797 70.561004638672 127 127 127
13.550271987915 31.036743164063 70.734985351563 112 112 112
13.626268386841 31.104249954224 61.518005371094 151 151 151
13.626436233521 31.110126495361 61.559997558594 152 152 152
13.626703262329 31.105251312256 61.609008789063 157 157 157
13.626436233521 31.110126495361 61.652008056641 166 166 166
13.627653121948 31.105792999268 61.697998046875 174 174 174
13.627630233765 31.115081787109 61.738006591797 177 177 177
13.628412246704 31.109745025635 61.783996582031 175 175 175
13.628225326538 31.113159179688 61.825988769531 176 176 176
13.628011703491 31.117059707642 61.865997314453 180 180 180
13.628389358521 31.119037628174 61.906982421875 177 177 177
13.628999710083 31.116868972778 61.950012207031 180 180 180
13.629152297974 31.122989654541 61.988006591797 177 177 177
13.629152297974 31.122989654541 62.028991699219 178 178 178
13.628938674927 31.126890182495 62.067993164063 175 175 175
13.628587722778 31.133228302002 62.105010986328 175 175 175
13.628305435181 31.138347625732 62.143005371094 163 163 163
13.629175186157 31.140352249146 62.182006835938 135 135 135
13.629297256470 31.138158798218 62.221984863281 178 178 178
13.629728317261 31.139160156250 62.260009765625 180 180 180
13.629728317261 31.139160156250 62.299011230469 180 180 180
13.629903793335 31.135990142822 62.337982177734 181 181 181
13.630926132202 31.144115447998 62.372985839844 180 180 180
13.630926132202 31.144115447998 62.411010742188 179 179 179
13.630708694458 31.148015975952 62.446990966797 180 180 180
13.631685256958 31.148069381714 62.484008789063 181 181 181
13.631914138794 31.143924713135 62.523010253906 180 180 180
13.632253646851 31.146633148193 62.558990478516 183 183 183
13.631906509399 31.152971267700 62.593994140625 141 141 141
13.634500503540 31.141378402710 62.632995605469 181 181 181
13.632902145386 31.143735885620 62.667999267578 181 181 181
13.633066177368 31.149612426758 62.703002929688 179 179 179
13.633260726929 31.155002593994 62.738006591797 172 172 172
13.633653640747 31.156736373901 62.773010253906 177 177 177
13.634023666382 31.158956527710 62.807983398438 185 185 185
13.634412765503 31.160690307617 62.842987060547 186 186 186
13.634801864624 31.153621673584 62.880004882813 187 187 187
13.634565353394 31.166810989380 62.912994384766 179 179 179
13.634042739868 31.176319122314 62.946990966797 179 179 179
13.635381698608 31.169790267944 62.983001708984 163 163 163
13.635000228882 31.167812347412 63.018005371094 180 180 180
13.635568618774 31.166376113892 63.053009033203 179 179 179
13.636152267456 31.173500061035 63.087005615234 178 178 178
13.635927200317 31.177644729614 63.122009277344 179 179 179
13.636522293091 31.175720214844 63.156982421875 182 182 182
13.636743545532 31.180622100830 63.191009521484 183 183 183
13.636575698853 31.174745559692 63.225982666016 180 180 180
13.636686325073 31.181598663330 63.260986328125 178 178 178
13.636686325073 31.181598663330 63.295989990234 183 183 183
13.637678146362 31.181407928467 63.330993652344 181 181 181
13.636491775513 31.194057464600 63.365997314453 183 183 183
13.636774063110 31.188938140869 63.399993896484 183 183 183
13.637533187866 31.192892074585 63.434997558594 179 179 179
13.637968063354 31.193893432617 63.470001220703 181 181 181
13.637632369995 31.199989318848 63.506011962891 181 181 181
13.638731002808 31.197849273682 63.540985107422 180 180 180
13.638349533081 31.195871353149 63.575988769531 179 179 179
13.638971328735 31.193460464478 63.610992431641 180 180 180
13.639539718628 31.200826644897 63.647003173828 181 181 181
13.638166427612 31.208087921143 63.682983398438 184 184 184
13.638776779175 31.205919265747 63.717987060547 177 177 177
13.640317916870 31.204536437988 63.753997802734 180 180 180
13.639165878296 31.207653045654 63.790008544922 181 181 181
13.639360427856 31.213043212891 63.826995849609 179 179 179
13.639795303345 31.214044570923 63.863983154297 179 179 179
13.641023635864 31.209465026855 63.898986816406 180 180 180
13.640569686890 31.217754364014 63.937011718750 182 182 182
13.639177322388 31.225257873535 63.975982666016 182 182 182
13.641889572144 31.211469650269 64.010009765625 181 181 181
13.640771865845 31.222900390625 64.049987792969 181 181 181
13.641763687134 31.222709655762 64.087005615234 182 182 182
13.641763687134 31.222709655762 64.125000000000 180 180 180
13.642103195190 31.225418090820 64.162994384766 181 181 181
13.642522811890 31.226665496826 64.201995849609 180 180 180
13.642522811890 31.226665496826 64.239990234375 180 180 180
13.641080856323 31.235141754150 64.281982421875 179 179 179
13.641527175903 31.235900878906 64.320983886719 181 181 181
13.642457962036 31.236686706543 64.359985351563 179 179 179
13.642457962036 31.236686706543 64.401000976563 181 181 181
13.642057418823 31.243999481201 64.442993164063 180 180 180
13.642438888550 31.245975494385 64.484008789063 183 183 183
13.642614364624 31.242805480957 64.523986816406 181 181 181
13.644037246704 31.243618011475 64.566009521484 183 183 183
13.644258499146 31.248521804810 64.609008789063 182 182 182
13.644205093384 31.249496459961 64.652008056641 181 181 181
13.644018173218 31.252908706665 64.695983886719 179 179 179
13.644636154175 31.250497817993 64.738006591797 180 180 180
13.644636154175 31.250497817993 64.781005859375 180 180 180
13.645341873169 31.255428314209 64.828002929688 180 180 180
13.644994735718 31.261764526367 64.876007080078 181 181 181
13.645776748657 31.256427764893 64.917999267578 180 180 180
13.645704269409 31.266693115234 64.970001220703 182 182 182
13.645528793335 31.269863128662 65.018005371094 183 183 183
13.646757125854 31.265285491943 65.062011718750 180 180 180
13.646306991577 31.264526367188 65.109985351563 179 179 179
13.646894454956 31.271648406982 65.161987304688 182 182 182
13.646112442017 31.276985168457 65.213989257813 181 181 181
13.645463943481 31.279884338379 65.265991210938 177 177 177
13.646093368530 31.286275863647 65.320007324219 179 179 179
13.646440505981 31.279937744141 65.368011474609 180 180 180
13.646821975708 31.281913757324 65.420989990234 177 177 177
13.646638870239 31.294130325317 65.483001708984 178 178 178
13.647192001343 31.292938232422 65.536010742188 179 179 179
13.647638320923 31.293697357178 65.592010498047 178 178 178
13.647672653198 31.302011489868 65.653991699219 176 176 176
13.648107528687 31.303012847900 65.712982177734 178 178 178
13.648553848267 31.303771972656 65.770996093750 178 178 178
13.648973464966 31.305017471313 65.832000732422 177 177 177
13.648031234741 31.313278198242 65.898986816406 176 176 176
13.648668289185 31.319427490234 65.966003417969 175 175 175
13.648668289185 31.319427490234 66.028991699219 178 178 178
13.648996353149 31.322378158569 66.096008300781 174 174 174
13.649660110474 31.319236755371 66.158996582031 172 172 172
13.649824142456 31.325115203857 66.231994628906 171 171 171
13.649423599243 31.332427978516 66.307983398438 171 171 171
13.649572372437 31.338548660278 66.384002685547 172 172 172
13.650129318237 31.337356567383 66.455993652344 171 171 171
13.650770187378 31.343503952026 66.536010742188 169 169 169
13.651109695435 31.346212387085 66.614990234375 171 171 171
13.649042129517 31.357101440430 66.704010009766 171 171 171
13.649370193481 31.360054016113 66.786987304688 169 169 169
13.649805068970 31.361055374146 66.871002197266 169 169 169
13.649797439575 31.370101928711 66.964996337891 167 167 167
13.649827957153 31.378417968750 67.061004638672 167 167 167
13.649370193481 31.386705398560 67.161010742188 169 169 169
13.649728775024 31.397972106934 67.268005371094 161 161 161
13.649950027466 31.402873992920 67.369995117188 162 162 162
13.649549484253 31.410188674927 67.477996826172 158 158 158
13.649091720581 31.418476104736 67.589996337891 155 155 155
13.649312973022 31.423377990723 67.703002929688 156 156 156
13.649843215942 31.431476593018 67.821990966797 151 151 151
13.647382736206 31.458480834961 67.973999023438 149 149 149
13.648195266724 31.461460113525 68.095001220703 138 138 138
13.646505355835 31.483373641968 68.248992919922 136 136 136
13.646154403687 31.489711761475 68.385986328125 133 133 133
13.644506454468 31.519695281982 68.565002441406 154 154 154
13.648260116577 31.478090286255 68.634002685547 161 161 161
13.649492263794 31.473512649536 68.769012451172 99 99 99
13.644964218140 31.538059234619 69.026000976563 60 60 60
13.644834518433 31.549299240112 69.200988769531 41 41 41
13.595426559448 32.181083679199 70.506988525391 129 129 129
13.605878829956 32.062095642090 70.486999511719 131 131 131
13.612619400024 31.983976364136 70.540985107422 117 117 117
13.638231277466 31.722782135010 71.359985351563 45 45 45
13.647054672241 31.624485015869 71.390991210938 81 81 81
13.649251937866 33.105354309082 68.106994628906 13 13 13
13.658208847046 33.013668060303 68.126983642578 120 120 120
13.664041519165 32.934280395508 68.158996582031 120 120 120
13.666330337524 32.910442352295 68.247009277344 116 116 116
13.673196792603 32.847736358643 68.295989990234 146 146 146
13.666685104370 32.921707153320 68.496002197266 142 142 142
13.696287155151 32.561218261719 68.210998535156 106 106 106
13.713041305542 32.390007019043 68.130004882813 84 84 84
13.725072860718 32.242248535156 68.070007324219 35 35 35
13.780603408813 31.579257965088 67.682983398438 111 111 111
13.775716781616 31.659189224243 67.897003173828 167 167 167
13.738843917847 32.116348266602 68.632995605469 56 56 56
13.791917800903 31.640274047852 71.406982421875 14 14 14
13.796022415161 33.121982574463 68.579986572266 36 36 36
13.882802963257 32.121818542480 68.625000000000 105 105 105
13.876157760620 32.109230041504 70.756988525391 13 13 13
13.680345535278 33.082370758057 68.442993164063 150 150 150
13.689664840698 32.984100341797 68.457000732422 144 144 144
13.689901351929 32.970909118652 68.563995361328 126 126 126
13.808301925659 31.662448883057 67.914001464844 139 139 139
13.780042648315 31.980712890625 68.720001220703 15 15 15
13.771039962769 32.100028991699 70.757995605469 12 12 12
13.812677383423 31.645084381104 71.428985595703 9 9 9
13.582498550415 33.003147125244 68.141998291016 115 115 115
13.587285995483 32.942771911621 68.192993164063 121 121 121
13.593832015991 32.877113342285 68.238983154297 111 111 111
13.602472305298 32.782230377197 68.251983642578 113 113 113
13.615022659302 32.634014129639 68.204986572266 112 112 112
13.627744674683 32.500480651855 68.169982910156 116 116 116
13.638425827026 32.377342224121 68.141998291016 115 115 115
13.653470993042 32.210437774658 68.058990478516 92 92 92
13.664876937866 32.074142456055 68.006988525391 101 101 101
13.679143905640 31.921373367310 67.930999755859 91 91 91
13.690771102905 31.789978027344 67.873992919922 81 81 81
13.709585189819 31.581222534180 67.712982177734 132 132 132
13.701509475708 31.665866851807 67.932983398438 152 152 152
13.671850204468 32.000682830811 68.503997802734 150 150 150
13.674032211304 31.978796005249 68.600982666016 120 120 120
13.705728530884 31.615730285645 68.212005615234 158 158 158
13.709360122681 31.585365295410 68.290985107422 101 101 101
13.666784286499 32.092826843262 70.764984130859 6 6 6
13.707536697388 31.645172119141 71.453002929688 5 5 5
13.657442092896 31.097650527954 61.544006347656 175 175 175
13.659540176392 31.095075607300 61.591003417969 177 177 177
13.657606124878 31.103527069092 61.631988525391 175 175 175
13.656618118286 31.103717803955 61.677001953125 175 175 175
13.657228469849 31.101551055908 61.721984863281 178 178 178
13.657228469849 31.101551055908 61.765991210938 176 176 176
13.656827926636 31.108863830566 61.805999755859 177 177 177
13.657052993774 31.104719161987 61.850982666016 177 177 177
13.655607223511 31.113197326660 61.889007568359 176 176 176
13.654771804810 31.119508743286 61.928009033203 179 179 179
13.654825210571 31.118534088135 61.970001220703 176 176 176
13.656042098999 31.114200592041 62.013000488281 177 177 177
13.654596328735 31.122676849365 62.049987792969 179 179 179
13.654596328735 31.122676849365 62.091003417969 179 179 179
13.654043197632 31.123870849609 62.130004882813 178 178 178
13.653612136841 31.122867584229 62.169982910156 177 177 177
13.653398513794 31.126770019531 62.207000732422 179 179 179
13.653169631958 31.130912780762 62.244995117188 179 179 179
13.653398513794 31.126770019531 62.285003662109 178 178 178
13.653169631958 31.130912780762 62.321990966797 179 179 179
13.653600692749 31.131914138794 62.359985351563 178 178 178
13.652860641479 31.136520385742 62.395996093750 178 178 178
13.651697158813 31.139879226685 62.432983398438 178 178 178
13.652914047241 31.135543823242 62.471008300781 177 177 177
13.651430130005 31.144754409790 62.506011962891 178 178 178
13.651430130005 31.144754409790 62.542999267578 178 178 178
13.651430130005 31.144754409790 62.579010009766 176 176 176
13.651315689087 31.137901306152 62.617004394531 151 151 151
13.650667190552 31.140800476074 62.652984619141 175 175 175
13.651315689087 31.137901306152 62.688995361328 176 176 176
13.651048660278 31.142776489258 62.723999023438 175 175 175
13.650426864624 31.145187377930 62.759002685547 156 156 156
13.650697708130 31.149116516113 62.794006347656 167 167 167
13.650091171265 31.151283264160 62.829010009766 176 176 176
13.648942947388 31.154397964478 62.863983154297 190 190 190
13.648702621460 31.158786773682 62.898986816406 186 186 186
13.649377822876 31.155399322510 62.933990478516 176 176 176
13.648160934448 31.159732818604 62.968994140625 177 177 177
13.649377822876 31.155399322510 63.003997802734 174 174 174
13.647539138794 31.162143707275 63.037994384766 179 179 179
13.647375106812 31.165069580078 63.072998046875 174 174 174
13.646997451782 31.163093566895 63.108001708984 176 176 176
13.647375106812 31.165069580078 63.141998291016 176 176 176
13.647027969360 31.171409606934 63.177001953125 177 177 177
13.646574020386 31.179695129395 63.210998535156 177 177 177
13.647249221802 31.176311492920 63.246002197266 178 178 178
13.646245956421 31.176744461060 63.281005859375 177 177 177
13.646417617798 31.173576354980 63.315002441406 177 177 177
13.644193649292 31.187389373779 63.350006103516 174 174 174
13.644575119019 31.189367294312 63.385009765625 176 176 176
13.645032882690 31.181079864502 63.419982910156 176 176 176
13.644369125366 31.184221267700 63.454986572266 178 178 178
13.644247055054 31.186416625977 63.489990234375 177 177 177
13.643598556519 31.189313888550 63.524993896484 176 176 176
13.644033432007 31.190315246582 63.559997558594 177 177 177
13.643812179565 31.185413360596 63.593994140625 176 176 176
13.643598556519 31.189313888550 63.630004882813 178 178 178
13.643793106079 31.194702148438 63.665985107422 178 178 178
13.643579483032 31.198604583740 63.701995849609 179 179 179
13.642587661743 31.198793411255 63.736999511719 181 181 181
13.643022537231 31.199794769287 63.773010253906 180 180 180
13.642587661743 31.198793411255 63.808990478516 178 178 178
13.643022537231 31.199794769287 63.845001220703 178 178 178
13.641630172729 31.207298278809 63.881988525391 179 179 179
13.640993118286 31.201150894165 63.916992187500 178 178 178
13.641630172729 31.207298278809 63.954986572266 179 179 179
13.641683578491 31.206323623657 63.992004394531 179 179 179
13.640417098999 31.211631774902 64.028991699219 177 177 177
13.640417098999 31.211631774902 64.066986083984 179 179 179
13.639753341675 31.214775085449 64.105010986328 178 178 178
13.640798568726 31.213609695435 64.141998291016 177 177 177
13.638360977173 31.222278594971 64.182006835938 177 177 177
13.639524459839 31.218919754028 64.220001220703 178 178 178
13.637929916382 31.221277236938 64.257995605469 179 179 179
13.637758255005 31.224445343018 64.298004150391 178 178 178
13.638200759888 31.225204467773 64.337005615234 176 176 176
13.637907028198 31.230567932129 64.378997802734 176 176 176
13.637529373169 31.228590011597 64.417999267578 179 179 179
13.638200759888 31.225204467773 64.457000732422 180 180 180
13.637147903442 31.226613998413 64.497009277344 177 177 177
13.636911392212 31.239803314209 64.542999267578 180 180 180
13.636911392212 31.239803314209 64.584991455078 178 178 178
13.636289596558 31.242214202881 64.626983642578 181 181 181
