14.622989654541 5.717227458954 6.140998840332 167 167 167
14.622989654541 5.717227458954 6.120002746582 170 170 170
14.622989654541 5.717227458954 6.097999572754 169 169 169
14.630790710449 5.717650890350 6.074996948242 170 170 170
14.622989654541 5.717227458954 6.055000305176 169 169 169
14.630790710449 5.717650890350 6.031997680664 171 171 171
14.622989654541 5.717227458954 6.011001586914 172 172 172
14.630790710449 5.717650890350 5.988998413086 168 168 168
14.622989654541 5.717227458954 5.968002319336 169 169 169
14.637744903564 5.733677387238 5.945999145508 172 172 172
14.622989654541 5.717227458954 5.926002502441 172 172 172
14.622989654541 5.717227458954 5.903999328613 172 172 172
14.622989654541 5.717227458954 5.883003234863 170 170 170
14.637744903564 5.733677387238 5.861000061035 175 175 175
14.637744903564 5.733677387238 5.837997436523 173 173 173
14.622989654541 5.717227458954 5.819000244141 171 171 171
14.622989654541 5.717227458954 5.797996520996 173 173 173
14.637744903564 5.733677387238 5.776000976563 173 173 173
14.622989654541 5.717227458954 5.755996704102 175 175 175
14.637744903564 5.733677387238 5.734001159668 171 171 171
14.622989654541 5.717227458954 5.713996887207 176 176 176
14.622989654541 5.717227458954 5.693000793457 175 175 175
14.637744903564 5.733677387238 5.670997619629 173 173 173
14.637744903564 5.733677387238 5.650001525879 174 174 174
14.637744903564 5.733677387238 5.628997802734 171 171 171
14.622989654541 5.717227458954 5.609001159668 175 175 175
14.637744903564 5.733677387238 5.586997985840 174 174 174
14.637744903564 5.733677387238 5.566001892090 173 173 173
14.622989654541 5.717227458954 5.545997619629 174 174 174
14.637744903564 5.733677387238 5.524002075195 173 173 173
14.637744903564 5.733677387238 5.503997802734 172 172 172
14.637744903564 5.733677387238 5.483001708984 174 174 174
14.637744903564 5.733677387238 5.461997985840 171 171 171
14.637744903564 5.733677387238 5.441001892090 171 171 171
14.637744903564 5.733677387238 5.419998168945 171 171 171
14.637744903564 5.733677387238 5.399002075195 170 170 170
14.637744903564 5.733677387238 5.378997802734 166 166 166
14.637744903564 5.733677387238 5.358001708984 170 170 170
14.637744903564 5.733677387238 5.336997985840 170 170 170
14.637744903564 5.733677387238 5.316001892090 171 171 171
14.622989654541 5.717227458954 5.294998168945 172 172 172
14.622989654541 5.717227458954 5.274002075195 173 173 173
14.637744903564 5.733677387238 5.253997802734 173 173 173
14.637744903564 5.733677387238 5.233001708984 173 173 173
14.637744903564 5.733677387238 5.211997985840 171 171 171
14.637744903564 5.733677387238 5.191001892090 171 171 171
14.637744903564 5.733677387238 5.169998168945 171 171 171
14.637744903564 5.733677387238 5.149002075195 171 171 171
14.637744903564 5.733677387238 5.128997802734 170 170 170
14.637744903564 5.733677387238 5.108001708984 173 173 173
14.636897087097 5.749279499054 5.087997436523 171 171 171
14.637744903564 5.733677387238 5.066001892090 171 171 171
14.636897087097 5.749279499054 5.045997619629 169 169 169
14.637744903564 5.733677387238 5.024002075195 170 170 170
14.636897087097 5.749279499054 5.003997802734 169 169 169
14.637744903564 5.733677387238 4.982002258301 171 171 171
14.637744903564 5.733677387238 4.959999084473 169 169 169
14.637744903564 5.733677387238 4.940002441406 172 172 172
14.636897087097 5.749279499054 4.918998718262 167 167 167
14.637744903564 5.733677387238 4.897003173828 167 167 167
14.637744903564 5.733677387238 4.875999450684 167 167 167
14.637744903564 5.733677387238 4.855003356934 170 170 170
14.637744903564 5.733677387238 4.833999633789 168 168 168
14.637744903564 5.733677387238 4.813003540039 168 168 168
14.636897087097 5.749279499054 4.791999816895 168 168 168
14.636897087097 5.749279499054 4.770996093750 167 167 167
14.637744903564 5.733677387238 4.748001098633 169 169 169
14.636897087097 5.749279499054 4.727996826172 166 166 166
14.636897087097 5.749279499054 4.707000732422 164 164 164
14.637744903564 5.733677387238 4.682998657227 166 166 166
14.636897087097 5.749279499054 4.664001464844 165 165 165
14.637744903564 5.733677387238 4.639999389648 167 167 167
14.637744903564 5.733677387238 4.617996215820 166 166 166
14.636897087097 5.749279499054 4.598999023438 164 164 164
14.636897087097 5.749279499054 4.577003479004 166 166 166
14.636897087097 5.749279499054 4.555999755859 164 164 164
14.636897087097 5.749279499054 4.532997131348 164 164 164
14.637744903564 5.733677387238 4.508003234863 162 162 162
14.636897087097 5.749279499054 4.488998413086 162 162 162
14.636897087097 5.749279499054 4.468002319336 161 161 161
14.636897087097 5.749279499054 4.444999694824 162 162 162
14.636897087097 5.749279499054 4.424003601074 163 163 163
14.636897087097 5.749279499054 4.400001525879 162 162 162
14.636897087097 5.749279499054 4.378997802734 160 160 160
14.636897087097 5.749279499054 4.357002258301 160 160 160
14.636897087097 5.749279499054 4.333000183105 160 160 160
14.636897087097 5.749279499054 4.311996459961 162 162 162
14.636897087097 5.749279499054 4.287002563477 159 159 159
14.636897087097 5.749279499054 4.265998840332 161 161 161
14.636897087097 5.749279499054 4.245002746582 162 162 162
14.636897087097 5.749279499054 4.222000122070 158 158 158
14.636897087097 5.749279499054 4.197998046875 161 161 161
14.636897087097 5.749279499054 4.172996520996 159 159 159
14.636897087097 5.749279499054 4.151000976563 154 154 154
14.636897087097 5.749279499054 4.125999450684 152 152 152
14.636897087097 5.749279499054 4.107002258301 154 154 154
14.636897087097 5.749279499054 4.081001281738 151 151 151
14.636897087097 5.749279499054 4.057998657227 150 150 150
14.643850326538 5.765305042267 4.038002014160 150 150 150
14.644698143005 5.749702930450 4.013000488281 147 147 147
14.636897087097 5.749279499054 3.985000610352 143 143 143
14.636897087097 5.749279499054 3.962997436523 148 148 148
14.636897087097 5.749279499054 3.941001892090 145 145 145
14.636897087097 5.749279499054 3.916000366211 146 146 146
14.636897087097 5.749279499054 3.890998840332 141 141 141
14.636897087097 5.749279499054 3.866996765137 144 144 144
14.636897087097 5.749279499054 3.843002319336 147 147 147
14.636897087097 5.749279499054 3.817001342773 143 143 143
14.636897087097 5.749279499054 3.790000915527 145 145 145
14.636897087097 5.749279499054 3.768997192383 145 145 145
14.636897087097 5.749279499054 3.739997863770 145 145 145
14.643850326538 5.765305042267 3.721000671387 142 142 142
14.643850326538 5.765305042267 3.698997497559 143 143 143
14.643850326538 5.765305042267 3.668998718262 138 138 138
14.636897087097 5.749279499054 3.639999389648 140 140 140
14.643850326538 5.765305042267 3.620002746582 140 140 140
14.636897087097 5.749279499054 3.589996337891 142 142 142
14.643850326538 5.765305042267 3.569000244141 147 147 147
14.643850326538 5.765305042267 3.542999267578 140 140 140
14.636897087097 5.749279499054 3.510002136230 139 139 139
14.643850326538 5.765305042267 3.487998962402 138 138 138
14.643850326538 5.765305042267 3.462997436523 139 139 139
14.643850326538 5.765305042267 3.435997009277 141 141 141
14.643850326538 5.765305042267 3.411003112793 151 151 151
14.643850326538 5.765305042267 3.387001037598 169 169 169
14.658604621887 5.781754970551 3.369003295898 160 160 160
14.679465293884 5.829831600189 3.364997863770 137 137 137
14.694219589233 5.846281528473 3.363998413086 154 154 154
14.616036415100 5.701201915741 3.232002258301 199 199 199
14.344869613647 5.796008586884 3.430999755859 123 123 123
14.352670669556 5.796432018280 3.404998779297 158 158 158
14.359623908997 5.812457561493 3.388000488281 154 154 154
14.366577148438 5.828483104706 3.372001647949 152 152 152
14.366577148438 5.828483104706 3.347000122070 146 146 146
14.352670669556 5.796432018280 3.301002502441 167 167 167
14.352670669556 5.796432018280 3.270996093750 139 139 139
14.352670669556 5.796432018280 3.240997314453 142 142 142
14.796480178833 5.836187839508 3.333000183105 152 152 152
14.787831306458 5.851366519928 3.369003295898 156 156 156
14.812929153442 5.821434497833 3.367996215820 133 133 133
14.830226898193 5.791078090668 3.371002197266 139 139 139
14.857019424438 5.729940891266 3.366996765137 137 137 137
14.889919281006 5.700432300568 3.370002746582 141 141 141
14.916711807251 5.639295101166 3.366996765137 138 138 138
14.933160781860 5.624540805817 3.378997802734 76 76 76
14.827510833740 5.697041988373 5.208000183105 124 124 124
14.826663970947 5.712643146515 5.228996276855 163 163 163
14.826663970947 5.712643146515 5.250000000000 154 154 154
14.836159706116 5.681864261627 5.269996643066 159 159 159
14.837007522583 5.666262149811 5.291000366211 156 156 156
14.837007522583 5.666262149811 5.311996459961 155 155 155
14.810213088989 5.727397441864 5.333999633789 133 133 133
14.818862915039 5.712219715118 5.355003356934 132 132 132
14.837007522583 5.666262149811 5.375000000000 159 159 159
14.837007522583 5.666262149811 5.395996093750 155 155 155
14.837007522583 5.666262149811 5.416999816895 156 156 156
14.811908721924 5.696195125580 5.438003540039 163 163 163
14.811908721924 5.696195125580 5.458999633789 160 160 160
14.829206466675 5.665837764740 5.480003356934 131 131 131
14.837854385376 5.650660037994 5.501998901367 65 65 65
14.820557594299 5.681016445160 5.648002624512 152 152 152
14.829206466675 5.665837764740 5.669998168945 153 153 153
14.820557594299 5.681016445160 5.690002441406 148 148 148
14.829206466675 5.665837764740 5.711997985840 150 150 150
14.830053329468 5.650235652924 5.734001159668 150 150 150
14.821405410767 5.665414333344 5.754997253418 152 152 152
14.830053329468 5.650235652924 5.777999877930 148 148 148
14.830053329468 5.650235652924 5.800003051758 150 150 150
14.830053329468 5.650235652924 5.820999145508 152 152 152
14.837854385376 5.650660037994 5.843002319336 155 155 155
14.830053329468 5.650235652924 5.863998413086 157 157 157
14.794610977173 5.726550579071 5.875000000000 118 118 118
14.803260803223 5.711371898651 5.898002624512 126 126 126
14.838702201843 5.635057926178 5.930000305176 151 151 151
14.838702201843 5.635057926178 5.952003479004 149 149 149
14.847351074219 5.619879245758 5.975997924805 151 151 151
14.838702201843 5.635057926178 5.996002197266 152 152 152
14.847351074219 5.619879245758 6.019996643066 149 149 149
14.830901145935 5.634633541107 6.039001464844 151 151 151
14.847351074219 5.619879245758 6.063003540039 147 147 147
14.839550018311 5.619455814362 6.084999084473 150 150 150
14.839550018311 5.619455814362 6.107002258301 151 151 151
14.839550018311 5.619455814362 6.127998352051 151 151 151
14.813604354858 5.664990901947 6.142997741699 124 124 124
14.823100090027 5.634210109711 6.191001892090 72 72 72
14.848197937012 5.604277133942 6.222000122070 116 116 116
14.847351074219 5.619879245758 6.241996765137 113 113 113
14.839550018311 5.619455814362 6.263999938965 114 114 114
14.847351074219 5.619879245758 6.288002014160 116 116 116
14.839550018311 5.619455814362 6.309997558594 114 114 114
14.847351074219 5.619879245758 6.333000183105 113 113 113
14.840396881104 5.603853702545 6.359001159668 115 115 115
14.840396881104 5.603853702545 6.379997253418 114 114 114
14.848197937012 5.604277133942 6.406997680664 113 113 113
14.832595825195 5.603429317474 6.426002502441 110 110 110
14.840396881104 5.603853702545 6.449996948242 111 111 111
14.805803298950 5.664566516876 6.458000183105 119 119 119
14.813604354858 5.664990901947 6.481002807617 119 119 119
14.840396881104 5.603853702545 6.519996643066 114 114 114
14.832595825195 5.603429317474 6.541000366211 109 109 109
14.832595825195 5.603429317474 6.567001342773 108 108 108
14.840396881104 5.603853702545 6.594001770020 109 109 109
14.840396881104 5.603853702545 6.617996215820 112 112 112
14.840396881104 5.603853702545 6.638999938965 110 110 110
14.840396881104 5.603853702545 6.664001464844 107 107 107
14.840396881104 5.603853702545 6.689002990723 118 118 118
14.832595825195 5.603429317474 6.711997985840 122 122 122
14.841244697571 5.588251590729 6.738998413086 115 115 115
14.841244697571 5.588251590729 6.763000488281 109 109 109
14.841244697571 5.588251590729 6.789001464844 110 110 110
14.841244697571 5.588251590729 6.814002990723 114 114 114
14.849893569946 5.573073863983 6.845001220703 113 113 113
14.832595825195 5.603429317474 6.859001159668 117 117 117
14.841244697571 5.588251590729 6.888999938965 114 114 114
14.553628921509 5.697811603546 3.230003356934 202 202 202
14.459342002869 5.849170207977 3.362998962402 154 154 154
14.476638793945 5.818813800812 3.370002746582 143 143 143
14.511233329773 5.758100986481 3.365997314453 165 165 165
14.519882202148 5.742923259735 3.380996704102 176 176 176
14.519882202148 5.742923259735 3.406997680664 154 154 154
14.527682304382 5.743346691132 3.430999755859 135 135 135
14.519882202148 5.742923259735 3.460998535156 136 136 136
14.527682304382 5.743346691132 3.483001708984 140 140 140
14.519882202148 5.742923259735 3.513000488281 140 140 140
14.527682304382 5.743346691132 3.536003112793 135 135 135
14.519882202148 5.742923259735 3.563003540039 138 138 138
14.553628921509 5.697811603546 3.555000305176 142 142 142
14.570925712585 5.667456150055 3.569999694824 153 153 153
14.563124656677 5.667031764984 3.597000122070 141 141 141
14.570925712585 5.667456150055 3.622001647949 149 149 149
14.570925712585 5.667456150055 3.643997192383 149 149 149
14.579574584961 5.652277469635 3.667999267578 147 147 147
14.571773529053 5.651854038239 3.690002441406 144 144 144
14.571773529053 5.651854038239 3.713996887207 148 148 148
14.562276840210 5.682633876801 3.752998352051 135 135 135
14.563124656677 5.667031764984 3.777000427246 121 121 121
14.563124656677 5.667031764984 3.800003051758 128 128 128
14.571773529053 5.651854038239 3.815002441406 128 128 128
14.589070320129 5.621496677399 3.832000732422 129 129 129
14.581269264221 5.621073246002 3.858001708984 139 139 139
14.546674728394 5.681787014008 3.908996582031 129 129 129
14.554475784302 5.682210445404 3.929000854492 136 136 136
14.546674728394 5.681787014008 3.956001281738 139 139 139
14.554475784302 5.682210445404 3.978996276855 136 136 136
14.546674728394 5.681787014008 4.002998352051 140 140 140
14.554475784302 5.682210445404 4.025001525879 148 148 148
14.597718238831 5.606318950653 4.020996093750 155 155 155
14.607213973999 5.575538158417 4.033996582031 159 159 159
14.622816085815 5.576385974884 4.054000854492 160 160 160
14.631464958191 5.561208248138 4.072998046875 156 156 156
14.640113830566 5.546029567719 4.088996887207 162 162 162
14.640960693359 5.530427455902 4.111999511719 165 165 165
14.650457382202 5.499647617340 4.128997802734 170 170 170
14.658258438110 5.500071048737 4.149002075195 170 170 170
14.674707412720 5.485316753387 4.166999816895 172 172 172
14.675555229187 5.469714641571 4.189002990723 172 172 172
14.676403045654 5.454112529755 4.207000732422 170 170 170
14.684204101563 5.454535961151 4.226997375488 166 166 166
14.692852020264 5.439358234406 4.247001647949 167 167 167
14.701500892639 5.424180507660 4.268997192383 166 166 166
14.710149765015 5.409001827240 4.291000366211 164 164 164
14.701500892639 5.424180507660 4.317001342773 135 135 135
14.701500892639 5.424180507660 4.341003417969 159 159 159
14.710149765015 5.409001827240 4.362998962402 157 157 157
14.701500892639 5.424180507660 4.388000488281 159 159 159
14.701500892639 5.424180507660 4.413002014160 159 159 159
14.702348709106 5.408578395844 4.432998657227 159 159 159
14.710996627808 5.393399715424 4.455001831055 160 160 160
14.702348709106 5.408578395844 4.482002258301 161 161 161
14.702348709106 5.408578395844 4.503997802734 160 160 160
14.702348709106 5.408578395844 4.527999877930 156 156 156
14.702348709106 5.408578395844 4.553001403809 161 161 161
14.702348709106 5.408578395844 4.575996398926 165 165 165
14.711844444275 5.377797603607 4.597999572754 161 161 161
14.702348709106 5.408578395844 4.622001647949 164 164 164
14.711844444275 5.377797603607 4.644996643066 163 163 163
14.702348709106 5.408578395844 4.669998168945 165 165 165
14.702348709106 5.408578395844 4.694000244141 164 164 164
14.711844444275 5.377797603607 4.714996337891 165 165 165
14.711844444275 5.377797603607 4.738998413086 168 168 168
14.711844444275 5.377797603607 4.763000488281 167 167 167
14.711844444275 5.377797603607 4.784996032715 166 166 166
14.711844444275 5.377797603607 4.807998657227 169 169 169
14.711844444275 5.377797603607 4.832000732422 166 166 166
14.711844444275 5.377797603607 4.855003356934 160 160 160
14.600260734558 5.559513568878 4.905998229980 143 143 143
14.557866096497 5.619801998138 4.935997009277 109 109 109
14.557866096497 5.619801998138 4.958000183105 110 110 110
14.557866096497 5.619801998138 4.980003356934 115 115 115
14.557866096497 5.619801998138 5.000999450684 117 117 117
14.557866096497 5.619801998138 5.022003173828 113 113 113
14.557866096497 5.619801998138 5.043998718262 111 111 111
14.660800933838 5.453264713287 5.049003601074 153 153 153
14.704043388367 5.377374172211 5.064002990723 165 165 165
14.704891204834 5.361772060394 5.085998535156 165 165 165
14.704891204834 5.361772060394 5.109001159668 163 163 163
14.704891204834 5.361772060394 5.131996154785 165 165 165
14.696242332458 5.376950740814 5.155998229980 173 173 173
14.696242332458 5.376950740814 5.179000854492 171 171 171
14.696242332458 5.376950740814 5.202003479004 172 172 172
14.696242332458 5.376950740814 5.224998474121 173 173 173
14.696242332458 5.376950740814 5.248001098633 176 176 176
14.695394515991 5.392552852631 5.270996093750 176 176 176
14.696242332458 5.376950740814 5.292999267578 176 176 176
14.688441276550 5.376526355743 5.316001892090 175 175 175
14.696242332458 5.376950740814 5.338996887207 176 176 176
14.688441276550 5.376526355743 5.361999511719 174 174 174
14.688441276550 5.376526355743 5.385002136230 173 173 173
14.688441276550 5.376526355743 5.407997131348 173 173 173
14.688441276550 5.376526355743 5.430999755859 170 170 170
14.688441276550 5.376526355743 5.454002380371 170 170 170
14.688441276550 5.376526355743 5.476997375488 169 169 169
14.687593460083 5.392128467560 5.499000549316 174 174 174
14.687593460083 5.392128467560 5.522003173828 171 171 171
14.680640220642 5.376102924347 5.544998168945 172 172 172
14.679792404175 5.391705036163 5.568000793457 169 169 169
14.679792404175 5.391705036163 5.591003417969 170 170 170
14.687593460083 5.392128467560 5.613998413086 172 172 172
14.679792404175 5.391705036163 5.636001586914 174 174 174
14.679792404175 5.391705036163 5.659996032715 171 171 171
14.679792404175 5.391705036163 5.681999206543 173 173 173
14.672839164734 5.375678539276 5.706001281738 175 175 175
14.680640220642 5.376102924347 5.728996276855 175 175 175
14.679792404175 5.391705036163 5.750999450684 179 179 179
14.679792404175 5.391705036163 5.774002075195 176 176 176
14.672839164734 5.375678539276 5.797996520996 177 177 177
14.671991348267 5.391280651093 5.819999694824 173 173 173
14.671991348267 5.391280651093 5.843002319336 176 176 176
14.671991348267 5.391280651093 5.865997314453 177 177 177
14.671991348267 5.391280651093 5.889999389648 176 176 176
14.671991348267 5.391280651093 5.913002014160 175 175 175
14.671991348267 5.391280651093 5.935997009277 176 176 176
14.671991348267 5.391280651093 5.958999633789 177 177 177
14.671991348267 5.391280651093 5.983001708984 175 175 175
14.664191246033 5.390857219696 6.003997802734 177 177 177
14.664191246033 5.390857219696 6.027999877930 177 177 177
14.671991348267 5.391280651093 6.052001953125 173 173 173
14.595849990845 5.496680736542 6.052001953125 134 134 134
14.526662826538 5.618107318878 6.051002502441 138 138 138
14.526662826538 5.618107318878 6.072998046875 173 173 173
14.526662826538 5.618107318878 6.095001220703 183 183 183
14.519708633423 5.602080821991 6.117996215820 190 190 190
14.527509689331 5.602505207062 6.139999389648 188 188 188
14.527509689331 5.602505207062 6.164001464844 161 161 161
14.664191246033 5.390857219696 6.237998962402 175 175 175
14.664191246033 5.390857219696 6.263999938965 175 175 175
14.664191246033 5.390857219696 6.287002563477 175 175 175
14.656390190125 5.390433788300 6.308998107910 175 175 175
14.664191246033 5.390857219696 6.335998535156 175 175 175
14.656390190125 5.390433788300 6.358001708984 173 173 173
14.664191246033 5.390857219696 6.384002685547 173 173 173
14.664191246033 5.390857219696 6.408996582031 175 175 175
14.656390190125 5.390433788300 6.430000305176 174 174 174
14.656390190125 5.390433788300 6.455001831055 176 176 176
14.656390190125 5.390433788300 6.480003356934 172 172 172
14.656390190125 5.390433788300 6.503997802734 172 172 172
14.647741317749 5.405611515045 6.526000976563 171 171 171
14.648589134216 5.390009403229 6.551002502441 171 171 171
14.648589134216 5.390009403229 6.575996398926 170 170 170
14.648589134216 5.390009403229 6.600997924805 173 173 173
14.639940261841 5.405188083649 6.624000549316 173 173 173
14.648589134216 5.390009403229 6.651000976563 170 170 170
14.648589134216 5.390009403229 6.676002502441 171 171 171
14.639940261841 5.405188083649 6.698997497559 171 171 171
14.639940261841 5.405188083649 6.723999023438 175 175 175
14.639940261841 5.405188083649 6.749000549316 171 171 171
14.639940261841 5.405188083649 6.773002624512 172 172 172
14.640788078308 5.389585971832 6.802001953125 173 173 173
14.639940261841 5.405188083649 6.825996398926 174 174 174
14.632139205933 5.404764652252 6.848999023438 173 173 173
14.639940261841 5.405188083649 6.876998901367 175 175 175
14.632139205933 5.404764652252 6.902000427246 171 171 171
14.640788078308 5.389585971832 6.930999755859 172 172 172
14.632139205933 5.404764652252 6.954002380371 172 172 172
14.632139205933 5.404764652252 6.981002807617 171 171 171
14.632987022400 5.389162540436 7.008003234863 174 174 174
14.632139205933 5.404764652252 7.032997131348 174 174 174
14.632139205933 5.404764652252 7.057998657227 171 171 171
14.632139205933 5.404764652252 7.084999084473 170 170 170
14.623491287231 5.419942378998 7.111000061035 171 171 171
14.623491287231 5.419942378998 7.138999938965 170 170 170
14.623491287231 5.419942378998 7.165000915527 172 172 172
14.623491287231 5.419942378998 7.194000244141 171 171 171
14.615690231323 5.419518947601 7.218002319336 170 170 170
14.615690231323 5.419518947601 7.246002197266 170 170 170
14.614842414856 5.435120105743 7.264999389648 159 159 159
14.564645767212 5.494986057281 7.250999450684 108 108 108
14.388613700867 5.422831058502 3.282997131348 145 145 145
14.328921318054 5.513476848602 3.367996215820 134 134 134
14.354019165039 5.483544826508 3.372001647949 144 144 144
14.379964828491 5.438009738922 3.375000000000 150 150 150
14.413711547852 5.392899036407 3.372001647949 141 141 141
14.448305130005 5.332185268402 3.372001647949 158 158 158
14.473403930664 5.302252292633 3.379997253418 139 139 139
14.490700721741 5.271896839142 3.390998840332 111 111 111
14.340786933899 5.295048236847 3.237998962402 145 145 145
14.332138061523 5.310226917267 3.281997680664 125 125 125
14.315689086914 5.324981212616 3.322998046875 128 128 128
14.339939117432 5.310650348663 3.333999633789 166 166 166
14.332985877991 5.294624805450 3.360000610352 164 164 164
14.349435806274 5.279871463776 3.380996704102 141 141 141
14.337068557739 5.795585155487 3.237998962402 175 175 175
14.328419685364 5.810761928558 3.273002624512 171 171 171
14.311122894287 5.841118335724 3.318000793457 157 157 157
14.335372924805 5.826787471771 3.329002380371 172 172 172
14.328419685364 5.810761928558 3.350997924805 168 168 168
14.337068557739 5.795585155487 3.375000000000 173 173 173
14.353517532349 5.780829906464 3.386001586914 156 156 156
14.439155578613 5.644649982452 3.325996398926 150 150 150
14.472902297974 5.599538326263 3.322998046875 148 148 148
14.491046905518 5.553580760956 3.328002929688 151 151 151
14.516145706177 5.523647785187 3.329002380371 150 150 150
14.558540344238 5.463358402252 3.323997497559 137 137 137
14.584486007690 5.417824268341 3.328002929688 142 142 142
14.617384910583 5.388314723969 3.325996398926 148 148 148
14.643330574036 5.342779636383 3.336997985840 176 176 176
14.636377334595 5.326754093170 3.360000610352 159 159 159
14.643330574036 5.342779636383 3.392997741699 153 153 153
14.636377334595 5.326754093170 3.417999267578 150 150 150
14.643330574036 5.342779636383 3.449996948242 164 164 164
14.643330574036 5.342779636383 3.478996276855 163 163 163
14.643330574036 5.342779636383 3.506996154785 161 161 161
14.643330574036 5.342779636383 3.536003112793 163 163 163
14.643330574036 5.342779636383 3.564002990723 160 160 160
14.635529518127 5.342356204987 3.594001770020 162 162 162
14.636377334595 5.326754093170 3.617996215820 161 161 161
14.635529518127 5.342356204987 3.648002624512 167 167 167
14.635529518127 5.342356204987 3.677001953125 168 168 168
14.643330574036 5.342779636383 3.700996398926 167 167 167
14.635529518127 5.342356204987 3.732002258301 168 168 168
14.635529518127 5.342356204987 3.758003234863 166 166 166
14.550739288330 5.462934017181 3.841003417969 121 121 121
14.533442497253 5.493291378021 3.877998352051 108 108 108
14.541242599487 5.493714809418 3.902999877930 107 107 107
14.533442497253 5.493291378021 3.930000305176 109 109 109
14.533442497253 5.493291378021 3.954002380371 106 106 106
14.541242599487 5.493714809418 3.976997375488 117 117 117
14.618232727051 5.372712612152 3.950996398926 163 163 163
14.635529518127 5.342356204987 3.971000671387 164 164 164
14.627728462219 5.341931819916 3.998001098633 163 163 163
14.627728462219 5.341931819916 4.023002624512 166 166 166
14.635529518127 5.342356204987 4.047996520996 174 174 174
14.627728462219 5.341931819916 4.074996948242 169 169 169
14.627728462219 5.341931819916 4.100997924805 170 170 170
14.627728462219 5.341931819916 4.126998901367 171 171 171
14.635529518127 5.342356204987 4.150001525879 172 172 172
14.627728462219 5.341931819916 4.178001403809 169 169 169
14.627728462219 5.341931819916 4.202003479004 170 170 170
14.618232727051 5.372712612152 4.230003356934 171 171 171
14.627728462219 5.341931819916 4.252998352051 167 167 167
14.627728462219 5.341931819916 4.277000427246 168 168 168
14.627728462219 5.341931819916 4.301002502441 170 170 170
14.627728462219 5.341931819916 4.325996398926 171 171 171
14.618232727051 5.372712612152 4.351997375488 171 171 171
14.627728462219 5.341931819916 4.375999450684 171 171 171
14.618232727051 5.372712612152 4.402000427246 174 174 174
14.627728462219 5.341931819916 4.424003601074 171 171 171
14.618232727051 5.372712612152 4.449996948242 172 172 172
14.618232727051 5.372712612152 4.473999023438 172 172 172
14.627728462219 5.341931819916 4.497001647949 173 173 173
14.618232727051 5.372712612152 4.522003173828 176 176 176
14.618232727051 5.372712612152 4.547996520996 172 172 172
14.618232727051 5.372712612152 4.570999145508 176 176 176
14.618232727051 5.372712612152 4.594001770020 177 177 177
14.618232727051 5.372712612152 4.617996215820 175 175 175
14.610431671143 5.372289180756 4.644996643066 176 176 176
14.618232727051 5.372712612152 4.666999816895 175 175 175
14.618232727051 5.372712612152 4.691001892090 175 175 175
14.610431671143 5.372289180756 4.714996337891 175 175 175
14.618232727051 5.372712612152 4.736999511719 177 177 177
14.610431671143 5.372289180756 4.762001037598 176 176 176
14.610431671143 5.372289180756 4.784996032715 178 178 178
14.618232727051 5.372712612152 4.807998657227 177 177 177
14.618232727051 5.372712612152 4.832000732422 175 175 175
14.575837135315 5.433001041412 4.864997863770 144 144 144
14.534290313721 5.477689266205 4.894996643066 113 113 113
14.541242599487 5.493714809418 4.916999816895 112 112 112
14.541242599487 5.493714809418 4.941001892090 113 113 113
14.541242599487 5.493714809418 4.962997436523 112 112 112
14.541242599487 5.493714809418 4.985000610352 113 113 113
14.541242599487 5.493714809418 5.006996154785 112 112 112
14.618232727051 5.372712612152 5.017997741699 170 170 170
14.610431671143 5.372289180756 5.041999816895 170 170 170
14.610431671143 5.372289180756 5.065002441406 171 171 171
14.610431671143 5.372289180756 5.087997436523 171 171 171
14.610431671143 5.372289180756 5.111000061035 172 172 172
14.610431671143 5.372289180756 5.134002685547 172 172 172
14.610431671143 5.372289180756 5.156997680664 175 175 175
14.610431671143 5.372289180756 5.180000305176 176 176 176
14.610431671143 5.372289180756 5.203002929688 178 178 178
14.601783752441 5.387466907501 5.225997924805 175 175 175
14.602630615234 5.371864795685 5.249000549316 174 174 174
14.601783752441 5.387466907501 5.272003173828 172 172 172
14.602630615234 5.371864795685 5.294998168945 173 173 173
14.602630615234 5.371864795685 5.318000793457 172 172 172
14.602630615234 5.371864795685 5.339996337891 172 172 172
14.593982696533 5.387043476105 5.362998962402 173 173 173
14.601783752441 5.387466907501 5.386001586914 174 174 174
14.601783752441 5.387466907501 5.408996582031 170 170 170
14.593982696533 5.387043476105 5.431999206543 172 172 172
14.601783752441 5.387466907501 5.455001831055 172 172 172
14.601783752441 5.387466907501 5.477996826172 173 173 173
14.593982696533 5.387043476105 5.500000000000 174 174 174
14.610431671143 5.372289180756 5.524002075195 171 171 171
14.602630615234 5.371864795685 5.546997070313 170 170 170
14.601783752441 5.387466907501 5.569000244141 170 170 170
14.601783752441 5.387466907501 5.592002868652 173 173 173
14.601783752441 5.387466907501 5.614997863770 172 172 172
14.601783752441 5.387466907501 5.638000488281 174 174 174
14.593982696533 5.387043476105 5.661003112793 176 176 176
14.601783752441 5.387466907501 5.683998107910 174 174 174
14.601783752441 5.387466907501 5.707000732422 175 175 175
14.593982696533 5.387043476105 5.728996276855 174 174 174
14.593982696533 5.387043476105 5.751998901367 173 173 173
14.593982696533 5.387043476105 5.775001525879 176 176 176
14.593982696533 5.387043476105 5.799003601074 172 172 172
14.593982696533 5.387043476105 5.820999145508 174 174 174
14.601783752441 5.387466907501 5.845001220703 175 175 175
14.593982696533 5.387043476105 5.867996215820 175 175 175
14.593982696533 5.387043476105 5.889999389648 174 174 174
14.593982696533 5.387043476105 5.913002014160 172 172 172
14.593982696533 5.387043476105 5.936996459961 174 174 174
14.593982696533 5.387043476105 5.959999084473 173 173 173
14.593982696533 5.387043476105 5.984001159668 172 172 172
14.585332870483 5.402222156525 6.003997802734 155 155 155
14.524793624878 5.508469104767 6.006996154785 132 132 132
14.500543594360 5.522799968719 6.025001525879 164 164 164
14.500543594360 5.522799968719 6.046997070313 187 187 187
14.499695777893 5.538402080536 6.067001342773 178 178 178
14.500543594360 5.522799968719 6.091003417969 173 173 173
14.508344650269 5.523223400116 6.114997863770 166 166 166
14.568883895874 5.416976451874 6.164001464844 163 163 163
14.586181640625 5.386620044708 6.194000244141 170 170 170
14.593133926392 5.402645587921 6.217002868652 171 171 171
14.585332870483 5.402222156525 6.238998413086 172 172 172
14.585332870483 5.402222156525 6.263000488281 171 171 171
14.585332870483 5.402222156525 6.286003112793 170 170 170
14.585332870483 5.402222156525 6.309997558594 173 173 173
14.585332870483 5.402222156525 6.333999633789 171 171 171
14.585332870483 5.402222156525 6.357002258301 172 172 172
14.576684951782 5.417399883270 6.377998352051 172 172 172
14.576684951782 5.417399883270 6.404998779297 172 172 172
14.585332870483 5.402222156525 6.430000305176 174 174 174
14.568883895874 5.416976451874 6.449996948242 172 172 172
14.576684951782 5.417399883270 6.475997924805 171 171 171
14.568883895874 5.416976451874 6.499000549316 170 170 170
14.568883895874 5.416976451874 6.524002075195 170 170 170
14.568883895874 5.416976451874 6.545997619629 171 171 171
14.568883895874 5.416976451874 6.571998596191 170 170 170
14.568883895874 5.416976451874 6.596000671387 167 167 167
14.568883895874 5.416976451874 6.623001098633 169 169 169
14.576684951782 5.417399883270 6.650001525879 169 169 169
14.568883895874 5.416976451874 6.671997070313 169 169 169
14.568883895874 5.416976451874 6.696998596191 167 167 167
14.568883895874 5.416976451874 6.721000671387 166 166 166
14.568883895874 5.416976451874 6.746002197266 167 167 167
14.568883895874 5.416976451874 6.773002624512 165 165 165
14.568883895874 5.416976451874 6.800003051758 167 167 167
14.561082839966 5.416553020477 6.821998596191 163 163 163
14.561082839966 5.416553020477 6.847000122070 164 164 164
14.568036079407 5.432577610016 6.869003295898 165 165 165
14.561082839966 5.416553020477 6.899002075195 163 163 163
14.568883895874 5.416976451874 6.926002502441 162 162 162
14.568883895874 5.416976451874 6.952003479004 168 168 168
14.568036079407 5.432577610016 6.973999023438 165 165 165
14.568036079407 5.432577610016 7.001998901367 160 160 160
14.561082839966 5.416553020477 7.029998779297 159 159 159
14.568036079407 5.432577610016 7.052001953125 157 157 157
14.560235023499 5.432154178619 7.078002929688 162 162 162
14.568036079407 5.432577610016 7.106002807617 160 160 160
14.560235023499 5.432154178619 7.129997253418 156 156 156
14.568036079407 5.432577610016 7.159996032715 150 150 150
14.560235023499 5.432154178619 7.184997558594 148 148 148
14.542090415955 5.478112697601 7.198997497559 141 141 141
14.534290313721 5.477689266205 7.222999572754 143 143 143
14.542090415955 5.478112697601 7.253997802734 146 146 146
14.648261070251 5.828135967255 3.288002014160 158 158 158
14.639612197876 5.843314647675 3.327003479004 153 153 153
14.664710998535 5.813382625580 3.324996948242 140 140 140
14.690656661987 5.767847537994 3.331001281738 184 184 184
14.691503524780 5.752245426178 3.347999572754 155 155 155
14.691503524780 5.752245426178 3.377998352051 149 149 149
14.690656661987 5.767847537994 3.407997131348 142 142 142
14.691503524780 5.752245426178 3.429000854492 147 147 147
14.691503524780 5.752245426178 3.458000183105 144 144 144
14.691503524780 5.752245426178 3.486999511719 146 146 146
14.683702468872 5.751821994781 3.513000488281 147 147 147
14.699304580688 5.752669811249 3.529998779297 116 116 116
14.691503524780 5.752245426178 3.561996459961 60 60 60
14.699304580688 5.752669811249 3.583999633789 66 66 66
14.691503524780 5.752245426178 3.611999511719 53 53 53
14.691503524780 5.752245426178 3.638000488281 53 53 53
14.691503524780 5.752245426178 3.663002014160 57 57 57
14.691503524780 5.752245426178 3.685997009277 52 52 52
14.690656661987 5.767847537994 3.718002319336 52 52 52
14.691503524780 5.752245426178 3.739997863770 57 57 57
14.691503524780 5.752245426178 3.764999389648 54 54 54
14.691503524780 5.752245426178 3.789001464844 44 44 44
14.691503524780 5.752245426178 3.813003540039 44 44 44
14.691503524780 5.752245426178 3.834999084473 43 43 43
14.691503524780 5.752245426178 3.861000061035 41 41 41
14.699304580688 5.752669811249 3.881996154785 46 46 46
14.691503524780 5.752245426178 3.909996032715 48 48 48
14.699304580688 5.752669811249 3.929000854492 43 43 43
14.699304580688 5.752669811249 3.954002380371 45 45 45
14.691503524780 5.752245426178 3.981002807617 44 44 44
14.700152397156 5.737067699432 3.999000549316 43 43 43
14.700152397156 5.737067699432 4.023002624512 40 40 40
14.691503524780 5.752245426178 4.051002502441 34 34 34
14.699304580688 5.752669811249 4.117996215820 29 29 29
14.733898162842 5.691956996918 4.891998291016 68 68 68
14.735593795776 5.660752773285 4.912002563477 77 77 77
14.735593795776 5.660752773285 4.932998657227 71 71 71
14.735593795776 5.660752773285 4.954002380371 66 66 66
14.735593795776 5.660752773285 4.975997924805 67 67 67
14.726097106934 5.691533565521 4.999000549316 54 54 54
14.802239418030 5.586132526398 5.052001953125 82 82 82
14.802239418030 5.586132526398 5.073997497559 160 160 160
14.802239418030 5.586132526398 5.095001220703 154 154 154
14.803087234497 5.570531368256 5.115997314453 150 150 150
14.810888290405 5.570954799652 5.137001037598 152 152 152
14.803087234497 5.570531368256 5.159996032715 151 151 151
14.812582969666 5.539750576019 5.180999755859 150 150 150
14.810888290405 5.570954799652 5.203002929688 150 150 150
14.810888290405 5.570954799652 5.224998474121 149 149 149
14.812582969666 5.539750576019 5.247001647949 149 149 149
14.810888290405 5.570954799652 5.268997192383 147 147 147
14.752042770386 5.645998477936 5.291999816895 150 150 150
14.752042770386 5.645998477936 5.313003540039 152 152 152
14.803087234497 5.570531368256 5.333999633789 157 157 157
14.810888290405 5.570954799652 5.356002807617 152 152 152
14.820384025574 5.540174007416 5.376998901367 152 152 152
14.810888290405 5.570954799652 5.399002075195 154 154 154
14.810888290405 5.570954799652 5.420997619629 151 151 151
14.810888290405 5.570954799652 5.443000793457 150 150 150
14.810888290405 5.570954799652 5.464996337891 138 138 138
14.803087234497 5.570531368256 5.486000061035 156 156 156
14.785790443420 5.600886821747 5.505996704102 166 166 166
14.794438362122 5.585708141327 5.528999328613 157 157 157
14.803087234497 5.570531368256 5.595001220703 139 139 139
14.820384025574 5.540174007416 5.617996215820 151 151 151
14.820384025574 5.540174007416 5.639999389648 149 149 149
14.828185081482 5.540598392487 5.663002014160 154 154 154
14.828185081482 5.540598392487 5.684997558594 149 149 149
14.820384025574 5.540174007416 5.707000732422 150 150 150
14.820384025574 5.540174007416 5.727996826172 151 151 151
14.828185081482 5.540598392487 5.750999450684 154 154 154
14.829032897949 5.524996280670 5.774002075195 151 151 151
14.829032897949 5.524996280670 5.795997619629 151 151 151
14.828185081482 5.540598392487 5.818000793457 152 152 152
14.761539459229 5.615217685699 5.827003479004 142 142 142
14.726944923401 5.675931453705 5.839996337891 147 147 147
14.744241714478 5.645574092865 5.865997314453 154 154 154
14.812582969666 5.539750576019 5.904998779297 150 150 150
14.829032897949 5.524996280670 5.930999755859 154 154 154
14.829032897949 5.524996280670 5.952003479004 152 152 152
14.829032897949 5.524996280670 5.974998474121 151 151 151
14.829032897949 5.524996280670 5.998001098633 151 151 151
14.829032897949 5.524996280670 6.020996093750 154 154 154
14.828185081482 5.540598392487 6.041999816895 153 153 153
14.829032897949 5.524996280670 6.065002441406 153 153 153
14.820384025574 5.540174007416 6.086997985840 156 156 156
14.794438362122 5.585708141327 6.099998474121 112 112 112
14.803087234497 5.570531368256 6.148002624512 77 77 77
14.820384025574 5.540174007416 6.176002502441 114 114 114
14.820384025574 5.540174007416 6.198997497559 114 114 114
14.820384025574 5.540174007416 6.222999572754 113 113 113
14.820384025574 5.540174007416 6.246002197266 112 112 112
14.820384025574 5.540174007416 6.267997741699 112 112 112
14.829032897949 5.524996280670 6.293998718262 109 109 109
14.829032897949 5.524996280670 6.317001342773 113 113 113
14.829032897949 5.524996280670 6.341003417969 112 112 112
14.821231842041 5.524571895599 6.362998962402 112 112 112
14.829032897949 5.524996280670 6.387001037598 112 112 112
14.820384025574 5.540174007416 6.408996582031 115 115 115
14.777989387512 5.600463390350 6.413002014160 144 144 144
14.777989387512 5.600463390350 6.434997558594 147 147 147
14.760692596436 5.630819797516 6.448997497559 121 121 121
14.769340515137 5.615641117096 6.477996826172 122 122 122
14.821231842041 5.524571895599 6.528999328613 115 115 115
14.829032897949 5.524996280670 6.555000305176 112 112 112
14.829032897949 5.524996280670 6.580001831055 111 111 111
14.829032897949 5.524996280670 6.602996826172 111 111 111
14.821231842041 5.524571895599 6.625999450684 111 111 111
14.829032897949 5.524996280670 6.653999328613 121 121 121
14.812582969666 5.539750576019 6.667999267578 120 120 120
14.829032897949 5.524996280670 6.700996398926 110 110 110
14.829032897949 5.524996280670 6.726997375488 113 113 113
14.829032897949 5.524996280670 6.750000000000 115 115 115
14.829032897949 5.524996280670 6.775001525879 112 112 112
14.821231842041 5.524571895599 6.799003601074 112 112 112
14.829032897949 5.524996280670 6.824996948242 117 117 117
14.820384025574 5.540174007416 6.847999572754 101 101 101
14.820384025574 5.540174007416 6.872001647949 59 59 59
14.526489257813 5.477264881134 4.157997131348 59 59 59
14.524793624878 5.508469104767 4.145996093750 74 74 74
14.522251129150 5.555275440216 4.137001037598 83 83 83
14.529205322266 5.571300983429 4.122001647949 88 88 88
14.526662826538 5.618107318878 4.115997314453 93 93 93
14.518013000488 5.633285045624 4.100997924805 98 98 98
14.524119377136 5.664913654327 4.088996887207 106 106 106
14.520729064941 5.727321147919 4.089996337891 96 96 96
14.520729064941 5.727321147919 4.069999694824 98 98 98
14.520729064941 5.727321147919 4.050003051758 105 105 105
14.519882202148 5.742923259735 4.036003112793 109 109 109
14.520729064941 5.727321147919 4.013000488281 117 117 117
14.519882202148 5.742923259735 3.997001647949 117 117 117
14.519882202148 5.742923259735 3.975997924805 118 118 118
14.519034385681 5.758525371552 3.958999633789 117 117 117
14.527682304382 5.743346691132 3.934997558594 119 119 119
14.526834487915 5.758948802948 3.916000366211 125 125 125
14.527682304382 5.743346691132 3.891998291016 122 122 122
14.526834487915 5.758948802948 3.875000000000 124 124 124
14.527682304382 5.743346691132 3.847000122070 126 126 126
14.527682304382 5.743346691132 3.831001281738 133 133 133
14.527682304382 5.743346691132 3.807998657227 130 130 130
14.526834487915 5.758948802948 3.791000366211 131 131 131
14.527682304382 5.743346691132 3.765998840332 136 136 136
14.526834487915 5.758948802948 3.746002197266 134 134 134
14.528530120850 5.727744579315 3.717002868652 145 145 145
14.529376983643 5.712142467499 3.684997558594 172 172 172
14.528530120850 5.727744579315 3.670997619629 172 172 172
14.529376983643 5.712142467499 3.640998840332 171 171 171
14.528530120850 5.727744579315 3.627998352051 166 166 166
14.528530120850 5.727744579315 3.605003356934 159 159 159
14.535483360291 5.743770122528 3.584999084473 159 159 159
14.535483360291 5.743770122528 3.568000793457 158 158 158
14.534635543823 5.759372234344 3.550003051758 158 158 158
14.534635543823 5.759372234344 3.529998779297 169 169 169
14.525987625122 5.774550914764 3.511001586914 157 157 157
14.534635543823 5.759372234344 3.484001159668 154 154 154
14.533788681030 5.774974346161 3.464996337891 157 157 157
14.533788681030 5.774974346161 3.441001892090 159 159 159
14.534635543823 5.759372234344 3.416000366211 154 154 154
14.534635543823 5.759372234344 3.390998840332 174 174 174
14.533788681030 5.774974346161 3.371002197266 172 172 172
14.533788681030 5.774974346161 3.347999572754 199 199 199
14.540741920471 5.791000843048 3.333999633789 179 179 179
14.531246185303 5.821779727936 3.331001281738 149 149 149
14.529550552368 5.852983951569 3.325996398926 167 167 167
14.533788681030 5.774974346161 3.254997253418 195 195 195
14.768493652344 5.631243228912 6.458000183105 95 95 95
14.768493652344 5.631243228912 6.431999206543 170 170 170
14.768493652344 5.631243228912 6.411003112793 169 169 169
14.772730827332 5.553233623505 6.420997619629 168 168 168
14.781379699707 5.538055896759 6.407997131348 159 159 159
14.761886596680 5.896901607513 6.070999145508 79 79 79
14.761038780212 5.912503719330 6.046997070313 118 118 118
14.770534515381 5.881722927094 6.034996032715 138 138 138
14.768839836121 5.912927150726 6.013999938965 146 146 146
14.770534515381 5.881722927094 5.995002746582 154 154 154
14.770534515381 5.881722927094 5.978996276855 161 161 161
14.768839836121 5.912927150726 5.957000732422 159 159 159
14.768839836121 5.912927150726 5.940002441406 165 165 165
14.770534515381 5.881722927094 5.921997070313 166 166 166
14.768839836121 5.912927150726 5.902999877930 168 168 168
14.768839836121 5.912927150726 5.881996154785 159 159 159
14.768839836121 5.912927150726 5.865997314453 176 176 176
14.768839836121 5.912927150726 5.847000122070 182 182 182
14.768839836121 5.912927150726 5.830001831055 190 190 190
14.768839836121 5.912927150726 5.810997009277 180 180 180
14.768839836121 5.912927150726 5.792999267578 177 177 177
14.768839836121 5.912927150726 5.775001525879 191 191 191
14.768839836121 5.912927150726 5.756996154785 188 188 188
14.768839836121 5.912927150726 5.738998413086 190 190 190
14.777487754822 5.897748470306 5.722000122070 192 192 192
14.777487754822 5.897748470306 5.704002380371 193 193 193
14.768839836121 5.912927150726 5.684997558594 190 190 190
14.777487754822 5.897748470306 5.667999267578 185 185 185
14.777487754822 5.897748470306 5.650001525879 183 183 183
14.777487754822 5.897748470306 5.633003234863 176 176 176
14.777487754822 5.897748470306 5.615997314453 167 167 167
14.778335571289 5.882146358490 5.598999023438 105 105 105
14.788679122925 5.835764408112 5.592002868652 144 144 144
14.786809921265 5.726126194000 5.591003417969 137 137 137
14.793590545654 5.601310253143 5.589996337891 107 107 107
14.800371170044 5.476494312286 5.587997436523 91 91 91
14.793590545654 5.601310253143 5.531997680664 143 143 143
14.791895866394 5.632514476776 5.510002136230 166 166 166
14.791048049927 5.648116588593 5.488998413086 163 163 163
14.797154426575 5.679745197296 5.467002868652 164 164 164
14.797154426575 5.679745197296 5.447998046875 169 169 169
14.796306610107 5.695347309113 5.428001403809 168 168 168
14.795459747314 5.710948467255 5.407997131348 168 168 168
14.794610977173 5.726550579071 5.388999938965 173 173 173
14.793764114380 5.742152690887 5.367996215820 173 173 173
14.792068481445 5.773356914520 5.347999572754 162 162 162
14.792068481445 5.773356914520 5.330001831055 161 161 161
14.792916297913 5.757754802704 5.313003540039 165 165 165
14.800717353821 5.758178234100 5.294998168945 173 173 173
14.791221618652 5.788959026337 5.275001525879 153 153 153
14.792068481445 5.773356914520 5.258003234863 162 162 162
14.792916297913 5.757754802704 5.239997863770 165 165 165
14.800717353821 5.758178234100 5.222999572754 162 162 162
14.793764114380 5.742152690887 5.205001831055 168 168 168
14.794610977173 5.726550579071 5.186996459961 172 172 172
14.803260803223 5.711371898651 5.168998718262 166 166 166
14.796306610107 5.695347309113 5.151000976563 170 170 170
14.804955482483 5.680168628693 5.133003234863 161 161 161
14.798002243042 5.664143085480 5.113998413086 159 159 159
14.806650161743 5.648964405060 5.095001220703 156 156 156
14.800544738770 5.617336750031 5.075996398926 145 145 145
14.808345794678 5.617760181427 5.056999206543 60 60 60
14.862606048584 5.339043140411 3.415000915527 147 147 147
14.862606048584 5.339043140411 3.390998840332 174 174 174
14.862606048584 5.339043140411 3.364997863770 166 166 166
14.853958129883 5.354221820831 3.349998474121 166 166 166
14.860063552856 5.385849475861 3.334999084473 148 148 148
14.857521057129 5.432655811310 3.336997985840 144 144 144
14.854978561401 5.479461193085 3.337997436523 148 148 148
14.853282928467 5.510665416718 3.331001281738 147 147 147
14.857693672180 5.573497295380 3.336997985840 145 145 145
14.855151176453 5.620302677155 3.335998535156 150 150 150
14.852608680725 5.667109012604 3.337997436523 151 151 151
14.836332321167 5.822705745697 3.400001525879 156 156 156
14.842437744141 5.854332447052 3.389999389648 173 173 173
14.842437744141 5.854332447052 3.373001098633 166 166 166
14.841590881348 5.869934558868 3.350997924805 168 168 168
14.841590881348 5.869934558868 3.329002380371 170 170 170
14.840743064880 5.885536670685 3.317001342773 164 164 164
14.842437744141 5.854332447052 3.275001525879 165 165 165
14.842437744141 5.854332447052 3.248001098633 180 180 180
14.850238800049 5.854756832123 3.222000122070 176 176 176
14.419142723083 5.580970287323 3.790000915527 3 3 3
14.447804450989 5.629471302032 3.760002136230 2 2 2
14.518186569214 5.774127483368 3.760002136230 95 95 95
14.518186569214 5.774127483368 3.737998962402 100 100 100
14.518186569214 5.774127483368 3.712997436523 99 99 99
14.518186569214 5.774127483368 3.683998107910 102 102 102
14.518186569214 5.774127483368 3.658996582031 106 106 106
