30.839595794678 10.695291519165 9.270996093750 148 148 148
30.831748962402 10.710899353027 9.273010253906 103 103 103
30.831851959229 10.664024353027 7.809997558594 135 135 135
30.831851959229 10.664024353027 7.794998168945 200 200 200
30.809724807739 10.070222854614 9.279006958008 117 117 117
30.825279235840 10.101507186890 9.257003784180 159 159 159
30.833057403564 10.117151260376 9.272003173828 143 143 143
30.840835571289 10.132793426514 9.286010742188 55 55 55
30.699592590332 10.413730621338 8.098999023438 148 148 148
30.715217590332 10.413764953613 8.092010498047 200 200 200
30.715147018433 10.445014953613 8.085998535156 198 198 198
30.738550186157 10.460691452026 8.125000000000 165 165 165
30.754140853882 10.476350784302 9.141998291016 133 133 133
30.769697189331 10.507635116577 9.106002807617 90 90 90
30.793029785156 10.554561614990 9.264999389648 107 107 107
30.808620452881 10.570220947266 9.262008666992 157 157 157
30.824176788330 10.601505279541 9.268997192383 149 149 149
30.831954956055 10.617149353027 9.283004760742 91 91 91
30.839664459229 10.664041519165 7.802001953125 132 132 132
30.855289459229 10.664075851440 7.811004638672 133 133 133
30.589595794678 10.694738388062 9.339004516602 125 125 125
30.721925735474 10.913782119751 9.333007812500 56 56 56
30.737482070923 10.945066452026 9.322006225586 129 129 129
30.753070831299 10.960725784302 9.386001586914 110 110 110
30.651821136475 10.819877624512 7.904998779297 146 146 146
30.667377471924 10.851161956787 7.992996215820 155 155 155
30.682931900024 10.882446289063 8.087005615234 186 186 186
30.698556900024 10.882480621338 8.089004516602 182 182 182
30.714113235474 10.913764953613 8.130004882813 158 158 158
30.566329956055 10.616561889648 7.801010131836 133 133 133
30.660390853882 10.476144790649 8.100997924805 69 69 69
30.652647018433 10.444877624512 8.102996826172 149 149 149
30.668308258057 10.429286956787 8.089004516602 201 201 201
30.683967590332 10.413696289063 8.098007202148 209 209 209
30.691814422607 10.398088455200 8.091003417969 161 161 161
30.699729919434 10.351232528687 9.133010864258 119 119 119
30.715354919434 10.351266860962 9.044006347656 150 150 150
30.738861083984 10.320068359375 9.037002563477 123 123 123
30.762435913086 10.257619857788 9.266998291016 84 84 84
30.785907745361 10.242046356201 9.279998779297 154 154 154
30.785976409912 10.210796356201 9.264007568359 166 166 166
30.809448242188 10.195222854614 9.272003173828 126 126 126
30.690467834473 11.007463455200 9.395004272461 129 129 129
30.706161499023 10.976247787476 9.378997802734 140 140 140
30.714044570923 10.945014953613 9.378997802734 102 102 102
30.753244400024 10.882600784302 9.279998779297 33 33 33
30.768903732300 10.867010116577 9.287002563477 130 130 130
30.784564971924 10.851419448853 9.277008056641 163 163 163
30.792446136475 10.820186614990 9.276000976563 142 142 142
30.808105468750 10.804595947266 9.296005249023 57 57 57
30.808414459229 10.663970947266 7.798004150391 206 206 206
30.808483123779 10.632720947266 7.813003540039 106 106 106
30.816123962402 10.710863113403 9.264999389648 148 148 148
30.808380126953 10.679595947266 9.274002075195 96 96 96
30.808828353882 10.476470947266 9.277008056641 29 29 29
30.816707611084 10.445238113403 9.268997192383 39 39 39
30.801155090332 10.413953781128 9.272003173828 42 42 42
30.809036254883 10.382722854614 9.279998779297 78 78 78
30.809070587158 10.367097854614 9.268997192383 64 64 64
30.809173583984 10.320222854614 9.273010253906 71 71 71
30.801395416260 10.304580688477 9.277008056641 75 75 75
30.817054748535 10.288990020752 9.277008056641 84 84 84
30.801532745361 10.242080688477 9.259002685547 82 82 82
30.809379577637 10.226472854614 9.274002075195 88 88 88
30.809448242188 10.195222854614 9.274002075195 92 92 92
30.801704406738 10.163955688477 9.275009155273 96 96 96
30.809585571289 10.132722854614 9.268005371094 94 94 94
30.809656143188 10.101472854614 9.266998291016 96 96 96
30.809724807739 10.070222854614 9.276000976563 101 101 101
30.809793472290 10.038972854614 9.264999389648 109 109 109
30.809829711914 10.023347854614 9.281997680664 112 112 112
30.808277130127 10.726470947266 9.333007812500 93 93 93
30.769470214844 7.070129394531 7.016998291016 143 143 143
30.769470214844 7.070129394531 7.048004150391 144 144 144
30.769470214844 7.070129394531 7.079010009766 143 143 143
30.769470214844 7.070129394531 7.110000610352 141 141 141
30.777282714844 7.070144653320 7.150009155273 145 145 145
30.769470214844 7.070129394531 7.169998168945 140 140 140
30.769470214844 7.070129394531 7.204010009766 139 139 139
30.769470214844 7.070129394531 7.236999511719 141 141 141
30.769470214844 7.070129394531 7.270996093750 141 141 141
30.769470214844 7.070129394531 7.301010131836 149 149 149
30.769401550293 7.101379394531 7.324005126953 170 170 170
30.761589050293 7.101360321045 7.348007202148 158 158 158
30.745929718018 7.116950988770 7.365005493164 157 157 157
30.769470214844 7.070129394531 7.441009521484 144 144 144
30.769470214844 7.070129394531 7.473999023438 143 143 143
30.769470214844 7.070129394531 7.507003784180 145 145 145
30.777282714844 7.070144653320 7.548004150391 144 144 144
30.777282714844 7.070144653320 7.585006713867 151 151 151
30.777282714844 7.070144653320 7.619003295898 148 148 148
30.777282714844 7.070144653320 7.654998779297 149 149 149
30.777282714844 7.070144653320 7.691009521484 146 146 146
30.777282714844 7.070144653320 7.729003906250 140 140 140
30.769470214844 7.070129394531 7.762008666992 143 143 143
30.769470214844 7.070129394531 7.802001953125 144 144 144
30.777282714844 7.070144653320 7.845001220703 141 141 141
30.769470214844 7.070129394531 7.878005981445 144 144 144
30.769470214844 7.070129394531 7.917999267578 140 140 140
30.777282714844 7.070144653320 7.964004516602 147 147 147
30.777282714844 7.070144653320 8.001998901367 146 146 146
30.777282714844 7.070144653320 8.044998168945 146 146 146
30.777282714844 7.070144653320 8.083007812500 145 145 145
30.777282714844 7.070144653320 8.121002197266 142 142 142
30.785095214844 7.070163726807 8.169998168945 135 135 135
30.777282714844 7.070144653320 8.206008911133 139 139 139
30.769470214844 7.070129394531 8.245010375977 140 140 140
30.769470214844 7.070129394531 8.286010742188 139 139 139
30.777282714844 7.070144653320 8.335998535156 133 133 133
30.777282714844 7.070144653320 8.385009765625 133 133 133
30.785095214844 7.070163726807 8.432006835938 131 131 131
30.777282714844 7.070144653320 8.470001220703 130 130 130
30.777282714844 7.070144653320 8.518997192383 132 132 132
30.777282714844 7.070144653320 8.561004638672 126 126 126
30.777282714844 7.070144653320 8.611999511719 128 128 128
30.785095214844 7.070163726807 8.664001464844 126 126 126
30.769470214844 7.070129394531 8.699996948242 150 150 150
30.769470214844 7.070129394531 8.738006591797 141 141 141
30.769470214844 7.070129394531 8.792007446289 136 136 136
30.769401550293 7.101379394531 8.822006225586 128 128 128
30.777282714844 7.070144653320 8.908996582031 132 132 132
30.777282714844 7.070144653320 8.960006713867 127 127 127
30.777282714844 7.070144653320 9.013000488281 123 123 123
30.785095214844 7.070163726807 9.070007324219 125 125 125
30.785129547119 7.054538726807 9.139999389648 128 128 128
30.769470214844 7.070129394531 9.158996582031 141 141 141
30.769470214844 7.070129394531 9.208007812500 128 128 128
30.769470214844 7.070129394531 9.273010253906 128 128 128
30.785095214844 7.070163726807 9.357009887695 127 127 127
30.785095214844 7.070163726807 9.408996582031 122 122 122
30.785095214844 7.070163726807 9.467010498047 122 122 122
30.785095214844 7.070163726807 9.533004760742 118 118 118
30.777282714844 7.070144653320 9.587005615234 115 115 115
30.785095214844 7.070163726807 9.661010742188 120 120 120
30.785129547119 7.054538726807 9.736999511719 126 126 126
30.785095214844 7.070163726807 9.788009643555 134 134 134
30.769470214844 7.070129394531 9.818008422852 162 162 162
30.753776550293 7.101345062256 9.835998535156 146 146 146
30.730234146118 7.148166656494 9.839996337891 141 141 141
30.730268478394 7.132541656494 9.919006347656 146 146 146
30.785095214844 7.070163726807 10.119003295898 114 114 114
30.785095214844 7.070163726807 10.197006225586 106 106 106
30.785095214844 7.070163726807 10.262008666992 124 124 124
30.769470214844 7.070129394531 10.320999145508 119 119 119
30.785095214844 7.070163726807 10.501007080078 80 80 80
30.893503189087 7.507904052734 7.569000244141 84 84 84
30.877809524536 7.539119720459 7.583007812500 86 86 86
30.862184524536 7.539085388184 7.598007202148 153 153 153
30.846454620361 7.585926055908 7.598999023438 165 165 165
30.846420288086 7.601551055908 7.613006591797 174 174 174
30.830726623535 7.632766723633 7.615997314453 178 178 178
30.815103530884 7.632732391357 7.632003784180 190 190 190
30.807220458984 7.663961410522 7.647003173828 187 187 187
30.799373626709 7.679569244385 7.662002563477 193 193 193
30.783714294434 7.695159912109 7.676010131836 156 156 156
30.783714294434 7.695159912109 7.703002929688 71 71 71
30.760208129883 7.726358413696 7.714004516602 59 59 59
30.885690689087 7.507884979248 8.712997436523 110 110 110
30.885656356812 7.523509979248 8.730010986328 156 156 156
30.869997024536 7.539100646973 8.751998901367 164 164 164
30.854301452637 7.570316314697 8.757003784180 169 169 169
30.846420288086 7.601551055908 8.759002685547 167 167 167
30.815103530884 7.632732391357 8.757003784180 168 168 168
30.799407958984 7.663944244385 8.757003784180 169 169 169
30.783714294434 7.695159912109 8.746002197266 161 161 161
30.760139465332 7.757608413696 8.727005004883 111 111 111
30.760208129883 7.726358413696 8.820999145508 139 139 139
30.760208129883 7.726358413696 8.856002807617 157 157 157
30.752326965332 7.757591247559 8.865005493164 156 156 156
30.744480133057 7.773199081421 8.902999877930 156 156 156
30.744480133057 7.773199081421 8.960998535156 154 154 154
30.744480133057 7.773199081421 9.022003173828 154 154 154
30.752326965332 7.757591247559 9.091003417969 163 163 163
30.760139465332 7.757608413696 9.166000366211 163 163 163
30.768020629883 7.726375579834 9.294998168945 154 154 154
30.924890518188 7.445472717285 10.031005859375 106 106 106
30.901418685913 7.461044311523 10.048004150391 169 169 169
30.885690689087 7.507884979248 10.057998657227 177 177 177
30.877809524536 7.539119720459 10.072998046875 149 149 149
30.854335784912 7.554691314697 10.081008911133 68 68 68
30.870065689087 7.507850646973 10.332000732422 50 50 50
30.862184524536 7.539085388184 10.348007202148 114 114 114
30.846454620361 7.585926055908 10.363998413086 133 133 133
30.799373626709 7.679569244385 10.227005004883 150 150 150
30.760208129883 7.726358413696 10.193008422852 177 177 177
30.752326965332 7.757591247559 10.201004028320 192 192 192
30.728820800781 7.788789749146 10.225006103516 182 182 182
30.713127136230 7.820005416870 10.240005493164 153 153 153
30.697467803955 7.835596084595 10.262008666992 55 55 55
30.797962188721 8.320192337036 7.998001098633 103 103 103
30.790081024170 8.351425170898 7.995010375977 175 175 175
30.774456024170 8.351390838623 8.010009765625 195 195 195
30.766572952271 8.382623672485 8.023010253906 200 200 200
30.758726119995 8.398231506348 8.037002563477 146 146 146
30.743066787720 8.413822174072 8.053009033203 74 74 74
30.813655853271 8.288976669312 9.300003051758 63 63 63
30.797962188721 8.320192337036 9.291000366211 123 123 123
30.782268524170 8.351408004761 9.277999877930 131 131 131
30.766572952271 8.382623672485 9.296997070313 79 79 79
30.845077514648 8.210922241211 10.335006713867 85 85 85
30.837196350098 8.242155075073 10.354003906250 151 151 151
30.813724517822 8.257726669312 10.371002197266 165 165 165
30.798030853271 8.288942337036 10.371002197266 164 164 164
30.782302856445 8.335783004761 10.361007690430 160 160 160
30.766609191895 8.366998672485 10.370010375977 144 144 144
30.743066787720 8.413822174072 10.345001220703 81 81 81
30.743066787720 8.413822174072 10.442001342773 63 63 63
30.719560623169 8.445020675659 10.453002929688 111 111 111
30.711677551270 8.476253509521 10.483001708984 101 101 101
30.711677551270 8.476253509521 10.587997436523 88 88 88
30.711677551270 8.476253509521 10.720001220703 157 157 157
30.757312774658 9.038854598999 8.115005493164 59 59 59
30.749431610107 9.070087432861 8.115005493164 137 137 137
30.733806610107 9.070053100586 8.100006103516 170 170 170
30.725925445557 9.101285934448 8.095001220703 167 167 167
30.718112945557 9.101268768311 8.136001586914 159 159 159
30.725959777832 9.085660934448 8.289001464844 181 181 181
30.733806610107 9.070053100586 8.369003295898 180 180 180
30.725925445557 9.101285934448 8.387008666992 153 153 153
30.710300445557 9.101251602173 8.401000976563 91 91 91
30.796512603760 8.976440429688 9.281005859375 95 95 95
30.780853271484 8.992031097412 9.286010742188 147 147 147
30.772972106934 9.023263931274 9.279998779297 143 143 143
30.749500274658 9.038837432861 9.288009643555 77 77 77
30.716629028320 9.773141860962 8.095001220703 63 63 63
30.700969696045 9.788732528687 8.097000122070 140 140 140
30.693122863770 9.804340362549 8.092010498047 188 188 188
30.677463531494 9.819931030273 8.098999023438 205 205 205
30.661804199219 9.835521697998 8.104003906250 170 170 170
30.669582366943 9.851163864136 8.121002197266 132 132 132
30.778060913086 10.257654190063 9.283004760742 70 70 70
30.762332916260 10.304494857788 9.273010253906 147 147 147
30.746673583984 10.320085525513 9.274002075195 166 166 166
30.738792419434 10.351318359375 9.279006958008 127 127 127
30.699626922607 10.398105621338 9.057998657227 74 74 74
30.699558258057 10.429355621338 9.063003540039 128 128 128
30.676084518433 10.444929122925 9.070999145508 132 132 132
30.668203353882 10.476161956787 9.076004028320 113 113 113
30.777578353882 10.476402282715 9.266006469727 137 137 137
30.762022018433 10.445117950439 9.268005371094 165 165 165
30.746433258057 10.429458618164 9.268005371094 132 132 132
30.715320587158 10.366891860962 9.044998168945 89 89 89
30.699729919434 10.351232528687 9.074005126953 124 124 124
30.684173583984 10.319948196411 8.085998535156 163 163 163
30.676429748535 10.288681030273 8.089004516602 206 206 206
30.653026580811 10.273004531860 8.093002319336 177 177 177
30.653060913086 10.257379531860 8.096008300781 106 106 106
30.802257537842 9.913955688477 9.270004272461 43 43 43
30.802291870117 9.898330688477 9.274002075195 140 140 140
30.778888702393 9.882654190063 9.263000488281 163 163 163
30.755519866943 9.851352691650 9.270004272461 133 133 133
30.739997863770 9.804443359375 8.740005493164 124 124 124
30.740032196045 9.788818359375 8.736007690430 157 157 157
30.716629028320 9.773141860962 8.729003906250 148 148 148
30.708850860596 9.757499694824 8.725006103516 86 86 86
30.724407196045 9.788784027100 8.113998413086 68 68 68
30.716663360596 9.757516860962 8.100006103516 156 156 156
30.708850860596 9.757499694824 8.100006103516 200 200 200
30.701107025146 9.726232528687 8.091003417969 171 171 171
30.685518264771 9.710573196411 8.109008789063 95 95 95
30.811378479004 9.320224761963 9.279006958008 46 46 46
30.803565979004 9.320207595825 9.281005859375 141 141 141
30.795824050903 9.288940429688 9.270996093750 154 154 154
30.772455215454 9.257638931274 9.270996093750 120 120 120
30.772455215454 9.257638931274 8.473007202148 49 49 49
30.764677047729 9.241996765137 8.458999633789 142 142 142
30.764711380005 9.226371765137 8.441009521484 175 175 175
30.741344451904 9.195070266724 8.434005737305 163 163 163
30.733566284180 9.179428100586 8.434005737305 101 101 101
30.764711380005 9.226371765137 8.102996826172 71 71 71
30.756933212280 9.210729598999 8.094009399414 155 155 155
30.741344451904 9.195070266724 8.095001220703 177 177 177
30.725788116455 9.163785934448 8.095001220703 150 150 150
30.718009948730 9.148143768311 8.096008300781 69 69 69
30.828313827515 8.726511001587 9.288009643555 90 90 90
30.812759399414 8.695226669312 9.277008056641 140 140 140
30.789390563965 8.663925170898 9.279998779297 126 126 126
30.843938827515 8.726547241211 8.126998901367 86 86 86
30.797168731689 8.679567337036 8.189010620117 71 71 71
30.797203063965 8.663942337036 8.171005249023 137 137 137
30.797203063965 8.663942337036 8.126998901367 172 172 172
30.789424896240 8.648300170898 8.107009887695 163 163 163
30.758277893066 8.601356506348 8.160003662109 205 205 205
30.758277893066 8.601356506348 8.126007080078 104 104 104
30.891918182373 8.226650238037 10.341003417969 52 52 52
30.860736846924 8.195331573486 10.365005493164 141 141 141
30.845180511475 8.164047241211 10.363998413086 156 156 156
30.821846008301 8.117118835449 10.370010375977 150 150 150
30.814067840576 8.101476669312 10.363998413086 155 155 155
30.790699005127 8.070175170898 10.352005004883 149 149 149
30.767366409302 8.023250579834 10.345001220703 152 152 152
30.751775741577 8.007591247559 10.331008911133 158 158 158
30.728406906128 7.976289749146 10.317001342773 120 120 120
30.837436676025 8.132780075073 9.290008544922 83 83 83
30.821880340576 8.101493835449 9.287002563477 128 128 128
30.798511505127 8.070192337036 9.286010742188 97 97 97
30.829658508301 8.117136001587 7.908004760742 106 106 106
30.829692840576 8.101511001587 7.884002685547 174 174 174
30.821880340576 8.101493835449 7.865997314453 183 183 183
30.806324005127 8.070209503174 7.861999511719 167 167 167
30.798582077026 8.038944244385 7.855010986328 85 85 85
30.932117462158 7.711112976074 10.281997680664 118 118 118
30.924339294434 7.695470809937 10.216003417969 157 157 157
30.932151794434 7.695487976074 10.166000366211 161 161 161
30.893157958984 7.664152145386 10.152999877930 165 165 165
30.869823455811 7.617225646973 10.166000366211 154 154 154
30.854301452637 7.570316314697 10.190002441406 136 136 136
30.792011260986 7.476428985596 10.324005126953 65 65 65
30.799755096436 7.507698059082 10.042007446289 73 73 73
30.776454925537 7.445144653320 10.051010131836 149 149 149
30.760864257813 7.429485321045 10.033996582031 166 166 166
30.745307922363 7.398200988770 10.020996093750 138 138 138
30.971076965332 7.758073806763 9.128005981445 122 122 122
30.893157958984 7.664152145386 9.275009155273 141 141 141
30.869857788086 7.601600646973 9.298995971680 168 168 168
30.869892120361 7.585975646973 9.274002075195 171 171 171
30.846523284912 7.554676055908 9.275009155273 176 176 176
30.823156356812 7.523372650146 9.272003173828 174 174 174
30.807601928711 7.492088317871 9.274002075195 158 158 158
30.768642425537 7.445129394531 9.294006347656 66 66 66
30.908782958984 7.664186477661 8.742996215820 102 102 102
30.893226623535 7.632904052734 8.738998413086 156 156 156
30.869857788086 7.601600646973 8.746002197266 162 162 162
30.854301452637 7.570316314697 8.750000000000 163 163 163
30.830934524536 7.539016723633 8.753997802734 163 163 163
30.815380096436 7.507732391357 8.751007080078 162 162 162
30.792011260986 7.476428985596 8.740005493164 157 157 157
30.784233093262 7.460788726807 8.716003417969 123 123 123
30.901039123535 7.632919311523 7.664001464844 54 54 54
30.885482788086 7.601634979248 7.675003051758 128 128 128
30.885482788086 7.601634979248 7.634002685547 154 154 154
30.869926452637 7.570350646973 7.625000000000 170 170 170
30.862113952637 7.570335388184 7.605010986328 184 184 184
30.854335784912 7.554691314697 7.585998535156 179 179 179
30.838781356812 7.523406982422 7.579010009766 175 175 175
30.831003189087 7.507766723633 7.561996459961 156 156 156
30.799823760986 7.476448059082 7.569000244141 135 135 135
30.799823760986 7.476448059082 7.533004760742 91 91 91
30.886724472046 7.039134979248 10.488998413086 86 86 86
30.894468307495 7.070404052734 10.318008422852 134 134 134
30.902315139771 7.054794311523 10.260009765625 132 132 132
30.886724472046 7.039134979248 10.202011108398 107 107 107
30.917837142944 7.101703643799 10.026000976563 119 119 119
30.933391571045 7.132987976074 9.912002563477 151 151 151
30.941204071045 7.133007049561 9.835006713867 145 145 145
30.917837142944 7.101703643799 9.833007812500 148 148 148
30.910093307495 7.070438385010 9.827011108398 152 152 152
30.902315139771 7.054794311523 9.775009155273 134 134 134
30.886724472046 7.039134979248 9.725006103516 129 129 129
30.902315139771 7.054794311523 9.656997680664 111 111 111
30.886724472046 7.039134979248 9.598999023438 121 121 121
30.902315139771 7.054794311523 9.531005859375 121 121 121
30.886724472046 7.039134979248 9.481002807617 122 122 122
30.902315139771 7.054794311523 9.414001464844 125 125 125
30.902315139771 7.054794311523 9.345001220703 128 128 128
30.910093307495 7.070438385010 9.281997680664 128 128 128
30.910093307495 7.070438385010 9.208999633789 124 124 124
30.910093307495 7.070438385010 9.158004760742 138 138 138
30.902315139771 7.054794311523 9.128005981445 134 134 134
30.902315139771 7.054794311523 9.074996948242 130 130 130
30.902315139771 7.054794311523 9.020996093750 127 127 127
30.902315139771 7.054794311523 8.966003417969 133 133 133
30.910093307495 7.070438385010 8.906005859375 132 132 132
30.917905807495 7.070453643799 8.822998046875 134 134 134
30.917905807495 7.070453643799 8.776000976563 136 136 136
30.917905807495 7.070453643799 8.731002807617 143 143 143
30.910093307495 7.070438385010 8.702011108398 151 151 151
30.902315139771 7.054794311523 8.660003662109 129 129 129
30.910093307495 7.070438385010 8.602005004883 128 128 128
30.910093307495 7.070438385010 8.561004638672 135 135 135
30.910093307495 7.070438385010 8.509002685547 141 141 141
30.910093307495 7.070438385010 8.473007202148 136 136 136
30.910093307495 7.070438385010 8.421997070313 136 136 136
30.910093307495 7.070438385010 8.380996704102 142 142 142
30.910093307495 7.070438385010 8.337997436523 140 140 140
30.910093307495 7.070438385010 8.289001464844 146 146 146
30.910093307495 7.070438385010 8.244003295898 143 143 143
30.910093307495 7.070438385010 8.204010009766 144 144 144
30.910093307495 7.070438385010 8.163009643555 146 146 146
30.910093307495 7.070438385010 8.113006591797 142 142 142
30.910093307495 7.070438385010 8.072006225586 146 146 146
30.910093307495 7.070438385010 8.037002563477 144 144 144
30.910093307495 7.070438385010 7.995010375977 145 145 145
30.910093307495 7.070438385010 7.951004028320 146 146 146
30.910093307495 7.070438385010 7.912002563477 148 148 148
30.917905807495 7.070453643799 7.869003295898 148 148 148
30.910093307495 7.070438385010 7.835006713867 152 152 152
30.917905807495 7.070453643799 7.794006347656 149 149 149
30.910093307495 7.070438385010 7.757003784180 147 147 147
30.917905807495 7.070453643799 7.714996337891 150 150 150
30.917905807495 7.070453643799 7.680999755859 150 150 150
30.917905807495 7.070453643799 7.641006469727 150 150 150
30.917905807495 7.070453643799 7.608001708984 149 149 149
30.917905807495 7.070453643799 7.572006225586 149 149 149
30.917905807495 7.070453643799 7.533996582031 148 148 148
30.917905807495 7.070453643799 7.499008178711 149 149 149
30.917905807495 7.070453643799 7.462005615234 148 148 148
30.933496475220 7.086112976074 7.410003662109 145 145 145
30.941274642944 7.101757049561 7.367004394531 157 157 157
30.933496475220 7.086112976074 7.350006103516 161 161 161
30.933496475220 7.086112976074 7.316009521484 159 159 159
30.917905807495 7.070453643799 7.291000366211 150 150 150
30.917905807495 7.070453643799 7.259002685547 148 148 148
30.917905807495 7.070453643799 7.222000122070 150 150 150
30.917905807495 7.070453643799 7.191009521484 150 150 150
30.917905807495 7.070453643799 7.158996582031 149 149 149
30.925718307495 7.070472717285 7.128005981445 151 151 151
30.933496475220 7.086112976074 7.092010498047 151 151 151
30.925718307495 7.070472717285 7.063003540039 152 152 152
30.925718307495 7.070472717285 7.031997680664 147 147 147
30.883449554443 8.523508071899 10.605010986328 105 105 105
30.891262054443 8.523525238037 10.482009887695 127 127 127
30.883483886719 8.507883071899 10.412002563477 131 131 131
30.891365051270 8.476650238037 10.372009277344 154 154 154
30.883621215820 8.445383071899 10.365005493164 128 128 128
30.883689880371 8.414133071899 10.317001342773 61 61 61
30.891571044922 8.382900238037 10.303009033203 67 67 67
30.883829116821 8.351633071899 10.307998657227 73 73 73
30.891778945923 8.289150238037 10.322006225586 77 77 77
30.884037017822 8.257883071899 10.314010620117 93 93 93
30.884140014648 8.211008071899 10.324996948242 96 96 96
30.884208679199 8.179758071899 10.337005615234 103 103 103
30.884311676025 8.132883071899 10.332000732422 102 102 102
30.884380340576 8.101633071899 10.329010009766 109 109 109
30.884449005127 8.070383071899 10.333007812500 143 143 143
30.884552001953 8.023509979248 10.326004028320 147 147 147
30.884654998779 7.976634979248 10.319000244141 146 146 146
30.892538070679 7.945402145386 10.307998657227 146 146 146
30.884794235229 7.914134979248 10.307998657227 142 142 142
30.877050399780 7.882867813110 10.279998779297 147 147 147
30.877155303955 7.835992813110 10.302001953125 150 150 150
30.869445800781 7.789100646973 10.286010742188 153 153 153
30.885139465332 7.757884979248 10.286010742188 153 153 153
30.877395629883 7.726617813110 10.283996582031 152 152 152
30.877498626709 7.679742813110 10.262008666992 153 153 153
30.877567291260 7.648494720459 10.260009765625 159 159 159
30.877670288086 7.601619720459 10.259002685547 152 152 152
30.869960784912 7.554725646973 10.277008056641 157 157 157
30.885656356812 7.523509979248 10.249008178711 155 155 155
30.877946853638 7.476619720459 10.274002075195 161 161 161
30.878015518188 7.445369720459 10.257003784180 160 160 160
30.870342254639 7.382850646973 10.277008056641 159 159 159
30.870445251465 7.335975646973 10.285003662109 168 168 168
30.870548248291 7.289100646973 10.309005737305 152 152 152
30.870685577393 7.226600646973 10.305999755859 156 156 156
30.885002136230 7.820384979248 9.070007324219 118 118 118
30.885002136230 7.820384979248 9.003005981445 154 154 154
30.885002136230 7.820384979248 8.932998657227 157 157 157
30.885002136230 7.820384979248 8.875000000000 159 159 159
30.892814636230 7.820402145386 8.833999633789 149 149 149
30.892814636230 7.820402145386 8.773010253906 153 153 153
30.892883300781 7.789152145386 8.744003295898 163 163 163
30.892917633057 7.773527145386 8.735000610352 162 162 162
30.893020629883 7.726652145386 8.736999511719 166 166 166
30.893089294434 7.695402145386 8.745010375977 167 167 167
30.893157958984 7.664152145386 8.736999511719 163 163 163
30.893226623535 7.632904052734 8.735000610352 164 164 164
30.885482788086 7.601634979248 8.740997314453 165 165 165
30.893363952637 7.570404052734 8.742004394531 170 170 170
30.885690689087 7.507884979248 8.746002197266 165 165 165
30.885759353638 7.476634979248 8.742004394531 169 169 169
30.893640518188 7.445404052734 8.744003295898 164 164 164
30.893711090088 7.414154052734 8.745010375977 167 167 167
30.886001586914 7.367259979248 8.740997314453 166 166 166
30.893848419189 7.351654052734 8.742004394531 163 163 163
30.886138916016 7.304759979248 8.740005493164 170 170 170
30.878429412842 7.257869720459 8.738998413086 173 173 173
30.886276245117 7.242259979248 8.735000610352 171 171 171
30.886379241943 7.195384979248 8.742004394531 168 168 168
30.878635406494 7.164119720459 8.740005493164 156 156 156
30.878774642944 7.101619720459 8.738998413086 153 153 153
30.886587142944 7.101634979248 8.727005004883 175 175 175
30.886655807495 7.070384979248 8.697006225586 155 155 155
30.886655807495 7.070384979248 8.649002075195 129 129 129
30.886655807495 7.070384979248 8.587005615234 133 133 133
30.886655807495 7.070384979248 8.537002563477 135 135 135
30.886655807495 7.070384979248 8.485000610352 136 136 136
30.886724472046 7.039134979248 8.477996826172 117 117 117
30.886724472046 7.039134979248 8.427001953125 125 125 125
30.893295288086 7.601654052734 7.667999267578 100 100 100
30.878911972046 7.039119720459 8.337005615234 123 123 123
30.893363952637 7.570404052734 7.620010375977 106 106 106
30.893503189087 7.507904052734 7.652999877930 164 164 164
30.893537521362 7.492279052734 7.636001586914 163 163 163
30.893537521362 7.492279052734 7.600997924805 156 156 156
30.901453018188 7.445419311523 7.619003295898 153 153 153
30.901418685913 7.461044311523 7.567001342773 148 148 148
30.893676757813 7.429779052734 7.561004638672 151 151 151
30.886104583740 7.320384979248 7.643005371094 178 178 178
30.886621475220 7.086009979248 7.869003295898 151 151 151
30.886587142944 7.101634979248 7.824996948242 152 152 152
30.886621475220 7.086009979248 7.796005249023 150 150 150
30.894260406494 7.164154052734 7.650009155273 157 157 157
30.886587142944 7.101634979248 7.686004638672 154 154 154
30.886621475220 7.086009979248 7.669006347656 149 149 149
30.894399642944 7.101654052734 7.615997314453 152 152 152
30.894365310669 7.117279052734 7.557998657227 156 156 156
30.902072906494 7.164169311523 7.483001708984 163 163 163
30.894260406494 7.164154052734 7.432998657227 178 178 178
30.894260406494 7.164154052734 7.389999389648 184 184 184
30.902072906494 7.164169311523 7.376998901367 186 186 186
30.902141571045 7.132919311523 7.352996826172 193 193 193
30.902141571045 7.132919311523 7.328002929688 192 192 192
30.902177810669 7.117294311523 7.305007934570 196 196 196
30.894433975220 7.086029052734 7.305007934570 162 162 162
30.894433975220 7.086029052734 7.273010253906 163 163 163
30.894433975220 7.086029052734 7.234008789063 158 158 158
30.894433975220 7.086029052734 7.203002929688 158 158 158
30.894433975220 7.086029052734 7.171997070313 159 159 159
30.894433975220 7.086029052734 7.135009765625 152 152 152
30.894433975220 7.086029052734 7.100997924805 162 162 162
30.894433975220 7.086029052734 7.068008422852 159 159 159
30.894433975220 7.086029052734 7.037002563477 159 159 159
30.870891571045 7.132850646973 10.402008056641 116 116 116
30.878911972046 7.039119720459 8.382003784180 114 114 114
30.886724472046 7.039134979248 8.266998291016 121 121 121
30.573867797852 10.741579055786 7.986999511719 99 99 99
30.589424133301 10.772863388062 8.087997436523 171 171 171
30.597202301025 10.788505554199 8.092010498047 213 213 213
30.612792968750 10.804164886475 8.096008300781 170 170 170
30.620571136475 10.819807052612 8.191009521484 177 177 177
30.698348999023 10.976230621338 9.272003173828 168 168 168
30.713973999023 10.976264953613 9.266998291016 160 160 160
30.721717834473 11.007532119751 9.273010253906 71 71 71
30.628314971924 10.851076126099 9.350997924805 101 101 101
30.621810913086 10.257308959961 8.089996337891 113 113 113
30.621810913086 10.257308959961 8.089996337891 190 190 190
30.637401580811 10.272970199585 8.087997436523 195 195 195
30.637367248535 10.288595199585 8.098007202148 131 131 131
30.629589080811 10.272953033447 8.988006591797 89 89 89
30.637367248535 10.288595199585 8.988006591797 153 153 153
30.660736083984 10.319896697998 9.003997802734 157 157 157
30.676292419434 10.351181030273 9.018997192383 100 100 100
30.699661254883 10.382482528687 9.268005371094 93 93 93
30.699626922607 10.398105621338 9.261001586914 173 173 173
30.722995758057 10.429407119751 9.261001586914 165 165 165
30.746397018433 10.445083618164 9.268997192383 77 77 77
30.801670074463 10.179580688477 9.251998901367 71 71 71
30.785976409912 10.210796356201 9.246002197266 151 151 151
30.770317077637 10.226387023926 9.250000000000 163 163 163
30.770248413086 10.257637023926 9.257003784180 111 111 111
30.723236083984 10.320034027100 8.982009887695 119 119 119
30.715354919434 10.351266860962 8.997009277344 144 144 144
30.699695587158 10.366857528687 9.018005371094 134 134 134
30.691848754883 10.382465362549 9.025009155273 62 62 62
30.691848754883 10.382465362549 8.089996337891 118 118 118
30.676155090332 10.413679122925 8.065002441406 178 178 178
30.676120758057 10.429304122925 8.069000244141 206 206 206
30.660459518433 10.444894790649 8.064010620117 166 166 166
30.644834518433 10.444860458374 8.074005126953 98 98 98
30.802497863770 9.804580688477 9.260009765625 116 116 116
30.779026031494 9.820154190063 9.250000000000 159 159 159
30.778957366943 9.851404190063 9.249008178711 145 145 145
30.716217041016 9.960641860962 8.148010253906 158 158 158
30.716182708740 9.976266860962 8.076004028320 161 161 161
30.700489044189 10.007482528687 8.067001342773 205 205 205
30.692642211914 10.023090362549 8.074996948242 205 205 205
30.676980972290 10.038681030273 8.074996948242 154 154 154
30.661355972290 10.038646697998 8.069000244141 74 74 74
30.732772827148 9.538803100586 8.079010009766 69 69 69
30.732704162598 9.570053100586 8.078002929688 152 152 152
30.717010498047 9.601268768311 8.064010620117 186 186 186
30.716974258423 9.616891860962 8.074005126953 183 183 183
30.701314926147 9.632482528687 8.102005004883 154 154 154
30.709197998047 9.601251602173 8.376998901367 167 167 167
30.724857330322 9.585660934448 8.605010986328 133 133 133
30.709197998047 9.601251602173 8.641006469727 65 65 65
30.772731781006 9.132638931274 8.087005615234 65 65 65
30.757038116455 9.163854598999 8.070999145508 146 146 146
30.741413116455 9.163820266724 8.070999145508 172 172 172
30.733531951904 9.195053100586 8.077011108398 170 170 170
30.725683212280 9.210660934448 8.113006591797 152 152 152
30.757038116455 9.163854598999 8.330001831055 179 179 179
30.749225616455 9.163837432861 8.400009155273 175 175 175
30.733566284180 9.179428100586 8.415008544922 143 143 143
30.725719451904 9.195035934448 8.442001342773 66 66 66
30.819812774658 9.038991928101 9.246002197266 92 92 92
30.796306610107 9.070190429688 9.253997802734 146 146 146
30.788459777832 9.085798263550 9.258010864258 141 141 141
30.772800445557 9.101388931274 9.270004272461 78 78 78
30.804912567139 8.710834503174 8.068008422852 99 99 99
30.789253234863 8.726425170898 8.070007324219 157 157 157
30.781372070313 8.757658004761 8.068008422852 176 176 176
30.765747070313 8.757623672485 8.079010009766 166 166 166
30.750087738037 8.773214340210 8.091003417969 159 159 159
30.750087738037 8.773214340210 8.150009155273 153 153 153
30.750087738037 8.773214340210 8.208999633789 140 140 140
30.742238998413 8.788822174072 8.232009887695 73 73 73
30.820674896240 8.648368835449 9.259002685547 83 83 83
30.797203063965 8.663942337036 9.253005981445 140 140 140
30.781509399414 8.695158004761 9.255004882813 124 124 124
30.781440734863 8.726408004761 9.268005371094 46 46 46
30.883518218994 8.492258071899 10.408996582031 31 31 31
30.883518218994 8.492258071899 10.533004760742 151 151 151
30.875671386719 8.507865905762 10.594009399414 72 72 72
30.805843353271 8.288959503174 7.969009399414 72 72 72
30.805774688721 8.320209503174 7.973007202148 154 154 154
30.790115356445 8.335800170898 7.980010986328 190 190 190
30.782268524170 8.351408004761 7.990997314453 202 202 202
30.766609191895 8.366998672485 8.001998901367 155 155 155
30.766572952271 8.382623672485 8.036010742188 88 88 88
30.813724517822 8.257726669312 9.259002685547 91 91 91
30.805843353271 8.288959503174 9.263000488281 131 131 131
30.782337188721 8.320158004761 9.261001586914 115 115 115
30.774456024170 8.351390838623 9.266006469727 32 32 32
30.923545837402 8.054843902588 10.346008300781 31 31 31
30.876499176025 8.132865905762 10.305007934570 39 39 39
30.860805511475 8.164081573486 10.316009521484 119 119 119
30.837299346924 8.195280075073 10.344009399414 158 158 158
30.821605682373 8.226493835449 10.346008300781 161 161 161
30.813724517822 8.257726669312 10.343002319336 165 165 165
30.782371520996 8.304533004761 10.335006713867 167 167 167
30.758865356445 8.335731506348 10.314010620117 120 120 120
30.696052551270 8.476219177246 10.710998535156 171 171 171
30.837953567505 7.898406982422 7.758010864258 102 102 102
30.814483642578 7.913978576660 7.761001586914 160 160 160
30.814414978027 7.945228576660 7.774002075195 182 182 182
30.798789978027 7.945194244385 7.792007446289 174 174 174
30.783128738403 7.960784912109 7.800003051758 115 115 115
30.900764465332 7.757919311523 8.692001342773 33 33 33
30.892883300781 7.789152145386 8.703002929688 132 132 132
30.877258300781 7.789117813110 8.729003906250 153 153 153
30.861598968506 7.804708480835 8.751007080078 150 150 150
30.869445800781 7.789100646973 8.815002441406 148 148 148
30.853752136230 7.820316314697 8.844009399414 157 157 157
30.861564636230 7.820333480835 8.878005981445 153 153 153
30.861564636230 7.820333480835 8.941009521484 154 154 154
30.861564636230 7.820333480835 8.998001098633 152 152 152
30.853717803955 7.835941314697 9.039001464844 109 109 109
30.845870971680 7.851549148560 9.268997192383 75 75 75
30.822397232056 7.867120742798 9.268005371094 100 100 100
30.798858642578 7.913944244385 9.264007568359 126 126 126
30.798789978027 7.945194244385 9.275009155273 105 105 105
30.940032958984 7.664255142212 10.138000488281 74 74 74
30.916526794434 7.695453643799 10.149002075195 164 164 164
30.900833129883 7.726669311523 10.163009643555 187 187 187
30.877326965332 7.757867813110 10.176010131836 169 169 169
30.861633300781 7.789083480835 10.184997558594 101 101 101
30.869480133057 7.773475646973 10.294998168945 74 74 74
30.853820800781 7.789066314697 10.335006713867 134 134 134
30.838127136230 7.820281982422 10.350006103516 153 153 153
30.822433471680 7.851495742798 10.347000122070 149 149 149
30.791046142578 7.913927078247 10.317001342773 149 149 149
30.775352478027 7.945142745972 10.292999267578 172 172 172
30.744031906128 7.976324081421 10.304000854492 189 189 189
30.736150741577 8.007556915283 10.324005126953 185 185 185
30.712644577026 8.038755416870 10.339996337891 149 149 149
30.885828018188 7.445384979248 7.505004882813 124 124 124
30.878015518188 7.445369720459 7.526000976563 137 137 137
30.854509353638 7.476566314697 7.531997680664 162 162 162
30.838815689087 7.507781982422 7.531997680664 174 174 174
30.831003189087 7.507766723633 7.550003051758 189 189 189
30.823122024536 7.538997650146 7.561004638672 181 181 181
30.815311431885 7.538982391357 7.583999633789 184 184 184
30.799615859985 7.570198059082 7.596008300781 173 173 173
30.783922195435 7.601413726807 7.600006103516 164 164 164
30.783922195435 7.601413726807 7.635009765625 141 141 141
30.768228530884 7.632629394531 7.634002685547 123 123 123
30.768297195435 7.601379394531 7.695007324219 32 32 32
30.893779754639 7.382904052734 8.684997558594 106 106 106
30.878120422363 7.398494720459 8.712005615234 155 155 155
30.870273590088 7.414100646973 8.738006591797 163 163 163
30.854578018188 7.445316314697 8.733001708984 164 164 164
30.838884353638 7.476531982422 8.738006591797 156 156 156
30.831003189087 7.507766723633 8.738998413086 156 156 156
30.799650192261 7.554573059082 8.723007202148 165 165 165
30.768331527710 7.585754394531 8.712997436523 144 144 144
30.768262863159 7.617004394531 8.733001708984 86 86 86
30.870239257813 7.429725646973 9.264007568359 157 157 157
30.838918685913 7.460906982422 9.255004882813 176 176 176
30.815380096436 7.507732391357 9.244003295898 181 181 181
30.807498931885 7.538963317871 9.255004882813 178 178 178
30.783990859985 7.570163726807 9.251007080078 176 176 176
30.776144027710 7.585769653320 9.288009643555 170 170 170
30.760450363159 7.616985321045 9.294998168945 141 141 141
30.917354583740 7.320453643799 9.960006713867 149 149 149
30.901660919189 7.351669311523 9.973999023438 171 171 171
30.878086090088 7.414119720459 9.973007202148 129 129 129
30.878154754639 7.382869720459 10.307006835938 66 66 66
30.815448760986 7.476482391357 10.158004760742 138 138 138
30.791837692261 7.554553985596 10.102005004883 161 161 161
30.760484695435 7.601360321045 10.092010498047 177 177 177
30.744825363159 7.616950988770 10.111999511719 185 185 185
30.729129791260 7.648166656494 10.143005371094 173 173 173
30.736978530884 7.632560729980 10.242004394531 175 175 175
30.784061431885 7.538913726807 10.546005249023 152 152 152
30.784061431885 7.538913726807 10.638000488281 116 116 116
30.894468307495 7.070404052734 7.016998291016 154 154 154
30.886724472046 7.039134979248 7.055007934570 156 156 156
30.878877639771 7.054744720459 7.083007812500 154 154 154
30.886655807495 7.070384979248 7.107009887695 155 155 155
30.886655807495 7.070384979248 7.141998291016 152 152 152
30.878877639771 7.054744720459 7.177001953125 155 155 155
30.878877639771 7.054744720459 7.212005615234 153 153 153
30.878877639771 7.054744720459 7.242996215820 159 159 159
30.878877639771 7.054744720459 7.275009155273 156 156 156
30.878843307495 7.070369720459 7.291000366211 171 171 171
30.863149642944 7.101585388184 7.304000854492 188 188 188
30.847454071045 7.132801055908 7.320007324219 183 183 183
30.831794738770 7.148391723633 7.329010009766 189 189 189
30.831794738770 7.148391723633 7.363006591797 190 190 190
30.831794738770 7.148391723633 7.399002075195 179 179 179
30.831829071045 7.132766723633 7.436004638672 169 169 169
30.863218307495 7.070335388184 7.542999267578 152 152 152
30.878877639771 7.054744720459 7.589996337891 149 149 149
30.878877639771 7.054744720459 7.625000000000 149 149 149
30.871030807495 7.070350646973 7.658996582031 149 149 149
30.871030807495 7.070350646973 7.695999145508 149 149 149
30.871030807495 7.070350646973 7.733001708984 148 148 148
30.878877639771 7.054744720459 7.776000976563 154 154 154
30.871030807495 7.070350646973 7.809005737305 148 148 148
30.871030807495 7.070350646973 7.848999023438 147 147 147
30.878877639771 7.054744720459 7.891998291016 150 150 150
30.871030807495 7.070350646973 7.928009033203 148 148 148
30.878877639771 7.054744720459 7.969009399414 145 145 145
30.871030807495 7.070350646973 8.007003784180 145 145 145
30.871030807495 7.070350646973 8.046005249023 145 145 145
30.871030807495 7.070350646973 8.085998535156 143 143 143
30.871030807495 7.070350646973 8.128997802734 139 139 139
30.871030807495 7.070350646973 8.173995971680 139 139 139
30.878877639771 7.054744720459 8.223007202148 140 140 140
30.871030807495 7.070350646973 8.258010864258 136 136 136
30.871030807495 7.070350646973 8.302001953125 135 135 135
30.871030807495 7.070350646973 8.350997924805 140 140 140
30.871030807495 7.070350646973 8.395004272461 132 132 132
30.871030807495 7.070350646973 8.438003540039 135 135 135
30.871099472046 7.039100646973 8.492004394531 130 130 130
30.871030807495 7.070350646973 8.531997680664 136 136 136
30.863286972046 7.039085388184 8.582000732422 135 135 135
30.863218307495 7.070335388184 8.615005493164 129 129 129
30.863286972046 7.039085388184 8.676010131836 146 146 146
30.863218307495 7.070335388184 8.710006713867 159 159 159
30.847558975220 7.085926055908 8.729003906250 153 153 153
30.831829071045 7.132766723633 8.729003906250 156 156 156
30.800477981567 7.179573059082 8.708999633789 158 158 158
30.776971817017 7.210769653320 8.710998535156 149 149 149
30.792631149292 7.195178985596 8.775009155273 142 142 142
30.863218307495 7.070335388184 9.016998291016 123 123 123
30.863286972046 7.039085388184 9.085998535156 121 121 121
30.863218307495 7.070335388184 9.121002197266 170 170 170
30.831899642944 7.101516723633 9.128997802734 182 182 182
30.831829071045 7.132766723633 9.152999877930 185 185 185
30.816205978394 7.132732391357 9.173995971680 185 185 185
30.808393478394 7.132713317871 9.222000122070 172 172 172
30.824016571045 7.132747650146 9.305007934570 136 136 136
30.863286972046 7.039085388184 9.490997314453 118 118 118
30.863286972046 7.039085388184 9.552001953125 116 116 116
30.863286972046 7.039085388184 9.615997314453 118 118 118
30.855474472046 7.039066314697 9.675003051758 113 113 113
30.855474472046 7.039066314697 9.732009887695 144 144 144
30.855474472046 7.039066314697 9.798004150391 137 137 137
30.847558975220 7.085926055908 9.817001342773 145 145 145
30.808429718018 7.117088317871 9.811996459961 124 124 124
30.831899642944 7.101516723633 9.928009033203 114 114 114
30.800512313843 7.163948059082 9.883010864258 139 139 139
30.769193649292 7.195129394531 9.880004882813 180 180 180
30.753499984741 7.226345062256 9.911010742188 191 191 191
30.737804412842 7.257560729980 9.927001953125 184 184 184
30.808393478394 7.132713317871 10.346008300781 131 131 131
30.769193649292 7.195129394531 10.320007324219 58 58 58
30.847593307495 7.070301055908 10.416000366211 117 117 117
30.809082031250 6.820213317871 6.997009277344 144 144 144
30.801269531250 6.820198059082 7.018997192383 136 136 136
30.769847869873 6.898254394531 7.000000000000 113 113 113
30.777694702148 6.882644653320 7.036010742188 115 115 115
30.769882202148 6.882629394531 7.080001831055 121 121 121
30.801269531250 6.820198059082 7.149002075195 141 141 141
30.801269531250 6.820198059082 7.184997558594 147 147 147
30.801269531250 6.820198059082 7.216003417969 141 141 141
30.801269531250 6.820198059082 7.249008178711 142 142 142
30.801269531250 6.820198059082 7.283004760742 141 141 141
30.801269531250 6.820198059082 7.313003540039 142 142 142
30.801269531250 6.820198059082 7.352005004883 141 141 141
30.793457031250 6.820178985596 7.380996704102 138 138 138
30.793457031250 6.820178985596 7.415008544922 137 137 137
30.793457031250 6.820178985596 7.449005126953 140 140 140
30.793457031250 6.820178985596 7.481002807617 132 132 132
30.785610198975 6.835788726807 7.514999389648 131 131 131
30.777763366699 6.851394653320 7.544998168945 132 132 132
30.785610198975 6.835788726807 7.589004516602 131 131 131
30.777763366699 6.851394653320 7.615997314453 128 128 128
30.785575866699 6.851413726807 7.645996093750 131 131 131
30.785575866699 6.851413726807 7.684005737305 126 126 126
30.777763366699 6.851394653320 7.723007202148 124 124 124
30.777729034424 6.867019653320 7.753997802734 119 119 119
30.777729034424 6.867019653320 7.792999267578 124 124 124
30.777729034424 6.867019653320 7.833007812500 123 123 123
30.769882202148 6.882629394531 7.865005493164 123 123 123
30.769882202148 6.882629394531 7.901000976563 118 118 118
30.769882202148 6.882629394531 7.943008422852 109 109 109
30.762069702148 6.882610321045 7.975006103516 108 108 108
30.762069702148 6.882610321045 8.018005371094 109 109 109
30.762069702148 6.882610321045 8.053009033203 108 108 108
30.762069702148 6.882610321045 8.096008300781 98 98 98
30.762069702148 6.882610321045 8.137008666992 95 95 95
30.754257202148 6.882595062256 8.175003051758 106 106 106
30.754257202148 6.882595062256 8.214004516602 101 101 101
30.762069702148 6.882610321045 8.266006469727 100 100 100
30.762069702148 6.882610321045 8.309005737305 101 101 101
30.762069702148 6.882610321045 8.354003906250 98 98 98
30.762069702148 6.882610321045 8.402008056641 97 97 97
30.754257202148 6.882595062256 8.440002441406 89 89 89
30.754257202148 6.882595062256 8.486007690430 83 83 83
30.754291534424 6.866970062256 8.542007446289 83 83 83
30.754291534424 6.866970062256 8.589004516602 80 80 80
30.754291534424 6.866970062256 8.634002685547 76 76 76
30.754291534424 6.866970062256 8.690002441406 73 73 73
30.754291534424 6.866970062256 8.735000610352 69 69 69
30.754291534424 6.866970062256 8.787002563477 69 69 69
30.754291534424 6.866970062256 8.832000732422 68 68 68
30.754291534424 6.866970062256 8.893005371094 70 70 70
30.754291534424 6.866970062256 8.932006835938 63 63 63
30.754291534424 6.866970062256 8.984008789063 60 60 60
30.754291534424 6.866970062256 9.037002563477 59 59 59
30.762172698975 6.835735321045 9.133010864258 94 94 94
30.762138366699 6.851360321045 9.164001464844 106 106 106
30.738632202148 6.882560729980 9.178009033203 120 120 120
30.738632202148 6.882560729980 9.232009887695 73 73 73
30.754291534424 6.866970062256 9.311004638672 47 47 47
30.746444702148 6.882575988770 9.361999511719 42 42 42
30.754291534424 6.866970062256 9.436004638672 35 35 35
30.754291534424 6.866970062256 9.505996704102 30 30 30
30.754291534424 6.866970062256 9.550003051758 27 27 27
30.754291534424 6.866970062256 9.610000610352 25 25 25
30.746444702148 6.882575988770 9.667999267578 19 19 19
30.738632202148 6.882560729980 9.717010498047 16 16 16
30.745223999023 10.976333618164 9.324996948242 68 68 68
30.753107070923 10.945100784302 9.301010131836 81 81 81
30.745363235474 10.913833618164 9.292007446289 88 88 88
30.753244400024 10.882600784302 9.248001098633 92 92 92
