28.230649948120 25.916015625000 65.885986328125 82 82 82
28.268293380737 25.895175933838 65.751007080078 17 17 17
28.346225738525 25.964303970337 68.036010742188 108 108 108
28.349664688110 25.965206146240 67.878997802734 88 88 88
28.367069244385 25.957014083862 67.727996826172 44 44 44
28.357252120972 25.966018676758 67.567993164063 7 7 7
28.622943878174 15.481719970703 62.417999267578 41 41 41
28.615367889404 15.481395721436 62.562988281250 61 61 61
28.618869781494 15.485227584839 62.707000732422 76 76 76
28.626117706299 15.492883682251 62.850006103516 89 89 89
28.634830474854 15.500509262085 62.993011474609 88 88 88
28.654684066772 15.515218734741 63.135986328125 98 98 98
28.646841049194 15.513923645020 63.279998779297 96 96 96
28.667640686035 15.527149200439 63.423004150391 84 84 84
28.667736053467 15.531541824341 63.566009521484 100 100 100
28.669761657715 15.534915924072 63.709991455078 100 100 100
28.682699203491 15.545869827271 63.854003906250 104 104 104
28.688428878784 15.551116943359 63.997985839844 108 108 108
28.701122283936 15.562074661255 64.143005371094 109 109 109
28.692770004272 15.559814453125 64.286987304688 104 104 104
28.697767257690 15.565078735352 64.432006835938 108 108 108
28.701301574707 15.570373535156 64.576995849609 108 108 108
28.709058761597 15.578996658325 64.722991943359 116 116 116
28.733560562134 15.594095230103 64.871002197266 117 117 117
28.725973129272 15.593282699585 65.016998291016 105 105 105
28.754730224609 15.613170623779 65.166992187500 114 114 114
28.754529953003 15.615129470825 65.313995361328 115 115 115
28.765735626221 15.625143051147 65.463989257813 107 107 107
28.784614562988 15.639873504639 65.615997314453 103 103 103
28.780464172363 15.639963150024 65.764007568359 106 106 106
28.801803588867 15.655616760254 65.917999267578 104 104 104
28.821903228760 15.670322418213 66.074005126953 97 97 97
28.805402755737 15.663841247559 66.221008300781 104 104 104
28.811397552490 15.670061111450 66.375000000000 98 98 98
28.829999923706 15.683332443237 66.532989501953 68 68 68
28.846406936646 15.696653366089 66.691986083984 97 97 97
28.844993591309 15.699125289917 66.846984863281 99 99 99
28.861114501953 15.710496902466 67.007995605469 96 96 96
28.863416671753 15.715330123901 67.165985107422 95 95 95
28.887218475342 15.731908798218 67.332000732422 82 82 82
28.888534545898 15.736276626587 67.493011474609 89 89 89
28.913845062256 15.754774093628 67.662994384766 71 71 71
28.927511215210 15.765710830688 67.830993652344 52 52 52
28.941181182861 15.776647567749 68.000000000000 37 37 37
28.459407806396 15.507732391357 61.574005126953 176 176 176
28.466897964478 15.515384674072 61.717987060547 192 192 192
28.480546951294 15.525344848633 61.859985351563 195 195 195
28.477659225464 15.527360916138 62.003997802734 187 187 187
28.495540618896 15.541135787964 62.144989013672 187 187 187
28.498544692993 15.544488906860 62.287994384766 191 191 191
28.507011413574 15.552120208740 62.429992675781 197 197 197
28.521911621094 15.563518524170 62.570983886719 192 192 192
28.518281936646 15.565063476563 62.713989257813 193 193 193
28.530454635620 15.574567794800 62.855010986328 193 193 193
28.530273437500 15.577501296997 62.997985839844 193 193 193
28.546148300171 15.588878631592 63.139007568359 204 204 204
28.552408218384 15.596069335938 63.281005859375 201 201 201
28.564571380615 15.605085372925 63.423004150391 201 201 201
28.569334030151 15.610841751099 63.565002441406 200 200 200
28.564464569092 15.611434936523 63.708007812500 188 188 188
28.581823348999 15.623758316040 63.850006103516 192 192 192
28.587841033936 15.630952835083 63.993011474609 188 188 188
28.592329025269 15.635251998901 64.135986328125 191 191 191
28.611198425293 15.649494171143 64.279998779297 192 192 192
28.609775543213 15.651477813721 64.424011230469 165 165 165
28.629621505737 15.665700912476 64.569000244141 170 170 170
28.631635665894 15.668586730957 64.712982177734 165 165 165
28.637664794922 15.676271438599 64.858001708984 158 158 158
28.644147872925 15.682477951050 65.003997802734 162 162 162
28.653858184814 15.691059112549 65.151000976563 160 160 160
28.668512344360 15.702463150024 65.299011230469 161 161 161
28.664627075195 15.703523635864 65.445007324219 153 153 153
28.679527282715 15.714921951294 65.595001220703 159 159 159
28.698394775391 15.729166030884 65.746002197266 158 158 158
28.710546493530 15.737693786621 65.897003173828 166 166 166
28.715829849243 15.744905471802 66.048004150391 161 161 161
28.723054885864 15.751585006714 66.200012207031 136 136 136
28.733997344971 15.760627746582 66.352996826172 145 145 145
28.737520217896 15.765434265137 66.506011962891 135 135 135
28.757629394531 15.780628204346 66.664001464844 155 155 155
28.771543502808 15.791559219360 66.821990966797 159 159 159
28.776052474976 15.796834945679 66.979003906250 142 142 142
28.787492752075 15.806354522705 67.139007568359 148 148 148
28.797466278076 15.815906524658 67.299011230469 136 136 136
28.821290969849 15.833459854126 67.466003417969 150 150 150
28.831508636475 15.843006134033 67.630004882813 151 151 151
28.827360153198 15.843095779419 67.790008544922 152 152 152
28.844985961914 15.856388092041 67.958984375000 147 147 147
28.865083694458 15.871093750000 68.131988525391 48 48 48
28.409852981567 15.621137619019 61.585998535156 120 120 120
28.428209304810 15.634414672852 61.725982666016 113 113 113
28.441623687744 15.644868850708 61.868011474609 116 116 116
28.455547332764 15.656288146973 62.009002685547 106 106 106
28.471931457520 15.668630599976 62.149993896484 89 89 89
28.483839035034 15.677164077759 62.290985107422 77 77 77
28.489845275879 15.683872222900 62.432983398438 48 48 48
28.502525329590 15.694341659546 62.574005126953 22 22 22
28.780937194824 15.932014465332 66.519012451172 92 92 92
28.863815307617 15.992731094360 67.164001464844 12 12 12
28.773214340210 16.071372985840 66.519989013672 93 93 93
28.763093948364 16.212739944458 66.523986816406 98 98 98
28.825702667236 16.262176513672 67.162994384766 18 18 18
28.746507644653 16.348873138428 66.526000976563 101 101 101
28.745567321777 16.496877670288 66.529998779297 96 96 96
28.729631423950 16.629091262817 66.527984619141 98 98 98
28.713958740234 16.762271881104 66.522003173828 105 105 105
28.765087127686 16.800237655640 66.998992919922 27 27 27
28.695199966431 16.888198852539 66.511993408203 100 100 100
28.757980346680 16.934211730957 66.992004394531 24 24 24
28.683340072632 17.016902923584 66.503997802734 109 109 109
28.670938491821 17.143178939819 66.496002197266 90 90 90
28.673721313477 17.282798767090 66.493011474609 106 106 106
28.649295806885 17.406404495239 66.485992431641 109 109 109
28.632658004761 17.540098190308 66.484008789063 95 95 95
28.660961151123 17.561462402344 66.795989990234 36 36 36
28.623004913330 17.680477142334 66.485992431641 98 98 98
28.641670227051 17.696678161621 66.795989990234 20 20 20
28.619314193726 17.825611114502 66.490997314453 82 82 82
28.583955764771 17.951894760132 66.486999511719 64 64 64
28.583705902100 18.097930908203 66.489990234375 74 74 74
28.621620178223 18.123481750488 66.652008056641 23 23 23
28.558683395386 18.227897644043 66.484985351563 80 80 80
28.590169906616 18.249683380127 66.644012451172 34 34 34
28.550867080688 18.362865447998 66.481994628906 72 72 72
28.570264816284 18.379051208496 66.638000488281 13 13 13
28.538030624390 18.491592407227 66.473999023438 90 90 90
28.277276992798 18.471361160278 66.255004882813 1 1 1
28.517253875732 18.614629745483 66.463989257813 82 82 82
28.516492843628 18.748466491699 66.459991455078 98 98 98
28.500471115112 18.876773834229 66.453002929688 93 93 93
28.473871231079 19.001401901245 66.445983886719 89 89 89
28.255077362061 19.012985229492 66.247009277344 1 1 1
28.478490829468 19.146844863892 66.450988769531 92 92 92
28.247152328491 19.154302597046 66.248992919922 1 1 1
28.459444046021 19.282054901123 66.450988769531 81 81 81
28.247982025146 19.305198669434 66.255004882813 15 15 15
28.448612213135 19.424413681030 66.453002929688 79 79 79
28.201757431030 19.425859451294 66.247985839844 13 13 13
28.425426483154 19.560203552246 66.451995849609 65 65 65
28.168376922607 19.553077697754 66.243011474609 9 9 9
28.415040969849 19.700595855713 66.451995849609 80 80 80
28.190792083740 19.708389282227 66.247009277344 32 32 32
28.394180297852 19.830961227417 66.445983886719 79 79 79
28.188617706299 19.844699859619 66.243988037109 86 86 86
28.388813018799 19.966365814209 66.441986083984 72 72 72
28.157953262329 19.962091445923 66.231994628906 79 79 79
28.375455856323 20.093637466431 66.433990478516 81 81 81
28.148300170898 20.091238021851 66.225006103516 53 53 53
28.355138778687 20.215200424194 66.423004150391 94 94 94
28.127260208130 20.213304519653 66.217987060547 22 22 22
28.346958160400 20.344802856445 66.419982910156 92 92 92
28.337400436401 20.478342056274 66.416992187500 100 100 100
28.320732116699 20.610569000244 66.415008544922 96 96 96
28.305856704712 20.746667861938 66.415985107422 85 85 85
28.074359893799 20.758035659790 66.217987060547 5 5 5
28.276760101318 20.880140304565 66.415008544922 82 82 82
28.043565750122 20.892036437988 66.214996337891 10 10 10
28.277652740479 21.033966064453 66.419982910156 83 83 83
28.257907867432 21.170658111572 66.419006347656 85 85 85
28.242132186890 21.310194015503 66.415985107422 82 82 82
28.221004486084 21.439588546753 66.411010742188 97 97 97
28.207721710205 21.570278167725 66.406005859375 98 98 98
28.193643569946 21.698053359985 66.399993896484 99 99 99
28.174087524414 21.821065902710 66.389984130859 104 104 104
28.163734436035 21.951692581177 66.385986328125 111 111 111
28.159364700317 22.088048934937 66.382995605469 87 87 87
28.175348281860 22.239593505859 66.388000488281 87 87 87
28.176603317261 22.387550354004 66.389007568359 87 87 87
28.191781997681 22.546926498413 66.397003173828 92 92 92
28.046493530273 22.468513488770 66.647003173828 33 33 33
28.195592880249 22.700199127197 66.402008056641 90 90 90
28.062921524048 22.629327774048 66.654998779297 3 3 3
28.191976547241 22.848751068115 66.403991699219 98 98 98
28.090705871582 22.795757293701 66.666992187500 5 5 5
28.198165893555 22.999042510986 66.406982421875 82 82 82
28.203762054443 23.144464492798 66.406982421875 90 90 90
28.196439743042 23.144622802734 66.550994873047 11 11 11
28.218175888062 23.291158676147 66.406982421875 87 87 87
28.215776443481 23.293163299561 66.553009033203 13 13 13
28.215917587280 23.423561096191 66.402008056641 75 75 75
28.188051223755 23.410980224609 66.540008544922 29 29 29
28.153987884521 23.394136428833 66.675994873047 13 13 13
28.223796844482 23.561607360840 66.398010253906 56 56 56
28.227014541626 23.698776245117 66.393005371094 38 38 38
28.254880905151 23.722591400146 66.695007324219 34 34 34
28.232069015503 23.841768264771 66.390991210938 41 41 41
28.241188049316 23.991994857788 66.391998291016 5 5 5
28.268918991089 24.155982971191 66.398986816406 38 38 38
28.270648956299 24.168155670166 66.842987060547 23 23 23
28.274461746216 24.310195922852 66.402008056641 37 37 37
28.281000137329 24.465364456177 66.406982421875 57 57 57
28.266208648682 24.605367660522 66.406982421875 49 49 49
28.269140243530 24.751821517944 66.406982421875 52 52 52
28.299903869629 24.785341262817 67.010986328125 32 32 32
28.280380249023 24.898584365845 66.408996582031 30 30 30
28.320901870728 25.213209152222 67.160003662109 27 27 27
28.317920684814 25.627433776855 67.294006347656 23 23 23
28.139879226685 25.559013366699 62.738006591797 98 98 98
28.155290603638 25.571376800537 62.875000000000 120 120 120
28.157581329346 25.575721740723 63.011993408203 141 141 141
28.154939651489 25.577733993530 63.148986816406 74 74 74
28.240053176880 25.674057006836 65.087005615234 18 18 18
28.258666992188 25.687814712524 65.230987548828 55 55 55
28.257511138916 25.690771102905 65.372009277344 80 80 80
28.259080886841 25.695621490479 65.514007568359 83 83 83
28.268791198730 25.704200744629 65.657989501953 96 96 96
28.282978057861 25.716592788696 65.804992675781 95 95 95
28.268949508667 25.711523056030 65.945983886719 103 103 103
28.275209426880 25.718713760376 66.092010498047 107 107 107
28.283933639526 25.726827621460 66.238983154297 106 106 106
28.287733078003 25.733095169067 66.386993408203 114 114 114
28.295743942261 25.742198944092 66.536010742188 105 105 105
28.289388656616 25.741849899292 66.682006835938 110 110 110
28.307012557983 25.755144119263 66.835998535156 124 124 124
28.310791015625 25.760433197021 66.988006591797 132 132 132
28.329935073853 25.776134490967 67.145996093750 146 146 146
28.306026458740 25.765907287598 67.290008544922 110 110 110
28.341480255127 25.790536880493 67.455993652344 143 143 143
28.349948883057 25.798166275024 67.614990234375 158 158 158
28.355478286743 25.805372238159 67.773010253906 155 155 155
28.361759185791 25.813539505005 67.932983398438 159 159 159
28.363319396973 25.817901611328 68.092987060547 157 157 157
27.927986145020 25.550909042358 61.533996582031 177 177 177
27.944147109985 25.564233779907 61.667999267578 185 185 185
27.944211959839 25.567163467407 61.805999755859 181 181 181
27.951713562012 25.575304031372 61.941009521484 187 187 187
27.964649200439 25.586254119873 62.075988769531 191 191 191
27.966697692871 25.590606689453 62.212005615234 183 183 183
27.975664138794 25.598714828491 62.346008300781 193 193 193
27.985628128052 25.607778549194 62.480987548828 200 200 200
27.990648269653 25.614019393921 62.615997314453 195 195 195
27.990732192993 25.617925643921 62.751983642578 193 193 193
28.003147125244 25.627422332764 62.885986328125 196 196 196
28.018068313599 25.639799118042 63.019989013672 199 199 199
28.023353576660 25.647008895874 63.154998779297 201 201 201
28.038505554199 25.658889770508 63.290008544922 209 209 209
28.039577484131 25.663263320923 63.424987792969 196 196 196
28.050508499146 25.671817779541 63.561004638672 194 194 194
28.057024002075 25.679491043091 63.695983886719 195 195 195
28.058593750000 25.684339523315 63.832000732422 194 194 194
28.068059921265 25.692926406860 63.967987060547 196 196 196
28.077028274536 25.701034545898 64.105010986328 186 186 186
28.089464187622 25.711509704590 64.242004394531 186 186 186
28.089803695679 25.715896606445 64.377990722656 197 197 197
28.104713439941 25.727785110474 64.516998291016 190 190 190
28.115907669067 25.737308502197 64.654998779297 183 183 183
28.124885559082 25.745904922485 64.794006347656 187 187 187
28.128417968750 25.751201629639 64.932983398438 182 182 182
28.134925842285 25.758386611938 65.072998046875 179 179 179
28.148857116699 25.770294189453 65.213989257813 177 177 177
28.158832550049 25.779846191406 65.355987548828 181 181 181
28.162876129150 25.786106109619 65.497009277344 176 176 176
28.170366287231 25.793758392334 65.639984130859 177 177 177
28.188003540039 25.807540893555 65.785003662109 179 179 179
28.191781997681 25.812829971313 65.928985595703 172 172 172
28.196811676025 25.819559097290 66.074005126953 169 169 169
28.211975097656 25.831928253174 66.221984863281 162 162 162
28.215764999390 25.837707519531 66.368011474609 165 165 165
28.222269058228 25.844892501831 66.515991210938 165 165 165
28.238697052002 25.859188079834 66.667999267578 158 158 158
28.235776901245 25.859739303589 66.815002441406 138 138 138
28.240331649780 25.866966247559 66.966003417969 126 126 126
28.263177871704 25.884542465210 67.123992919922 124 124 124
28.269172668457 25.890760421753 67.277984619141 105 105 105
28.278160095215 25.899845123291 67.433990478516 103 103 103
28.301263809204 25.917903900146 67.596984863281 95 95 95
28.313987731934 25.930326461792 67.757995605469 79 79 79
28.324195861816 25.939384460449 67.919006347656 57 57 57
28.329469680786 25.946105957031 68.079986572266 47 47 47
27.865207672119 25.662647247314 61.549011230469 148 148 148
27.876157760620 25.672178268433 61.683990478516 150 150 150
27.890071868896 25.683111190796 61.817993164063 147 147 147
27.903038024902 25.695526123047 61.951995849609 145 145 145
27.900617599487 25.696556091309 62.087982177734 139 139 139
27.907146453857 25.704717636108 62.221984863281 136 136 136
27.920293807983 25.714200973511 62.355987548828 136 136 136
27.934480667114 25.726591110229 62.488983154297 133 133 133
27.943468093872 25.735675811768 62.622985839844 124 124 124
27.967271804810 25.752254486084 62.756011962891 131 131 131
27.969329833984 25.757091522217 62.890991210938 124 124 124
27.982286453247 25.769021987915 63.024993896484 112 112 112
27.990755081177 25.776653289795 63.158996582031 102 102 102
28.003181457520 25.786640167236 63.294006347656 100 100 100
28.009687423706 25.793825149536 63.428009033203 80 80 80
28.026081085205 25.806655883789 63.562988281250 70 70 70
28.015787124634 25.804924011230 63.699005126953 26 26 26
28.580110549927 15.499742507935 63.205993652344 10 10 10
28.573743820190 15.498903274536 63.083007812500 77 77 77
28.558834075928 15.498249053955 62.959991455078 108 108 108
28.539052963257 15.498189926147 62.837005615234 119 119 119
28.530488967896 15.497400283813 62.713989257813 134 134 134
28.520450592041 15.496152877808 62.592010498047 138 138 138
28.518486022949 15.495706558228 62.467987060547 157 157 157
28.503831863403 15.495534896851 62.346008300781 157 157 157
28.502334594727 15.494102478027 62.221984863281 162 162 162
28.489620208740 15.493402481079 62.098999023438 170 170 170
28.484251022339 15.493518829346 61.975006103516 170 170 170
28.465435028076 15.492948532104 61.852996826172 177 177 177
28.462251663208 15.492530822754 61.727996826172 185 185 185
28.456596374512 15.490699768066 61.604003906250 184 184 184
28.447067260742 15.490417480469 61.479003906250 181 181 181
28.759334564209 15.656538009644 66.273986816406 3 3 3
28.779827117920 15.655605316162 66.145996093750 27 27 27
28.748573303223 15.655794143677 66.005004882813 77 77 77
28.730724334717 15.654716491699 65.868988037109 99 99 99
28.702135086060 15.653871536255 65.731994628906 104 104 104
28.694791793823 15.653053283691 65.600006103516 132 132 132
28.688188552856 15.652709960938 65.470001220703 145 145 145
28.674499511719 15.652029037476 65.337982177734 167 167 167
28.671062469482 15.651126861572 65.209991455078 177 177 177
28.651258468628 15.650091171265 65.079010009766 177 177 177
28.643426895142 15.649284362793 64.950988769531 179 179 179
28.634141921997 15.648996353149 64.822998046875 179 179 179
28.617288589478 15.648874282837 64.695007324219 183 183 183
28.606771469116 15.648124694824 64.569000244141 181 181 181
28.594781875610 15.646919250488 64.442993164063 183 183 183
28.580846786499 15.646245956421 64.316986083984 184 184 184
28.573759078979 15.645910263062 64.191986083984 184 184 184
28.562997817993 15.645166397095 64.067993164063 185 185 185
28.552480697632 15.644418716431 63.944000244141 183 183 183
28.562467575073 15.643224716187 63.820983886719 186 186 186
28.543161392212 15.642667770386 63.696990966797 183 183 183
28.540224075317 15.642242431641 63.574005126953 177 177 177
28.530937194824 15.641954421997 63.450988769531 184 184 184
28.520898818970 15.640707015991 63.328002929688 196 196 196
28.517713546753 15.640287399292 63.205993652344 196 196 196
28.507209777832 15.640027999878 63.083007812500 201 201 201
28.508174896240 15.639518737793 62.959991455078 201 201 201
28.499111175537 15.638250350952 62.837982177734 202 202 202
28.494939804077 15.637363433838 62.714996337891 203 203 203
28.486631393433 15.637054443359 62.592987060547 202 202 202
28.486843109131 15.635585784912 62.468994140625 198 198 198
28.475616455078 15.635829925537 62.346984863281 201 201 201
28.472166061401 15.634437561035 62.222991943359 193 193 193
28.468017578125 15.634529113770 62.100006103516 192 192 192
28.463348388672 15.633165359497 61.975982666016 195 195 195
28.455993652344 15.631858825684 61.852996826172 192 192 192
28.451612472534 15.632442474365 61.727996826172 185 185 185
28.441095352173 15.631692886353 61.605010986328 187 187 187
28.431310653687 15.630928039551 61.480010986328 186 186 186
28.851058959961 15.809860229492 67.993988037109 121 121 121
28.844194412231 15.808542251587 67.843994140625 147 147 147
28.827585220337 15.808414459229 67.691009521484 155 155 155
28.818765640259 15.807140350342 67.541992187500 149 149 149
28.801649093628 15.806047439575 67.391998291016 155 155 155
28.780624389648 15.805036544800 67.243011474609 117 117 117
28.780117034912 15.804071426392 67.101989746094 151 151 151
28.770820617676 15.803297042847 66.959991455078 161 161 161
28.761024475098 15.802043914795 66.817993164063 154 154 154
28.746379852295 15.802360534668 66.677001953125 155 155 155
28.733400344849 15.800689697266 66.536987304688 147 147 147
28.734621047974 15.800662994385 66.402008056641 166 166 166
28.720941543579 15.800470352173 66.264007568359 165 165 165
28.711147308350 15.799217224121 66.128997802734 149 149 149
28.715995788574 15.797647476196 65.997985839844 159 159 159
28.705501556396 15.797876358032 65.863983154297 163 163 163
28.705236434937 15.796903610229 65.733001708984 156 156 156
28.682991027832 15.795921325684 65.597991943359 138 138 138
28.683958053589 15.795412063599 65.468994140625 127 127 127
28.669057846069 15.795246124268 65.337982177734 123 123 123
28.677082061768 15.793607711792 65.210998535156 109 109 109
28.673645019531 15.792705535889 65.082000732422 101 101 101
28.668506622314 15.792327880859 64.954986572266 96 96 96
28.676284790039 15.790695190430 64.829010009766 66 66 66
28.680191040039 15.790609359741 64.703002929688 10 10 10
28.862735748291 15.954170227051 68.000000000000 91 91 91
28.860538482666 15.954217910767 67.850982666016 63 63 63
28.870260238647 15.952054977417 67.708007812500 16 16 16
28.729986190796 15.947282791138 66.536987304688 58 58 58
28.748792648315 16.093881607056 66.546997070313 14 14 14
28.806537628174 16.245496749878 67.121002197266 39 39 39
28.748010635376 16.823562622070 66.962005615234 24 24 24
28.684453964233 16.820543289185 66.532989501953 6 6 6
28.741708755493 16.960937500000 66.954010009766 39 39 39
28.690591812134 16.957162857056 66.527984619141 13 13 13
28.666450500488 17.093948364258 66.514984130859 42 42 42
28.654281616211 17.230962753296 66.505004882813 54 54 54
28.636306762695 17.370546340942 66.496002197266 60 60 60
28.684362411499 17.514556884766 66.778991699219 15 15 15
28.623533248901 17.513433456421 66.490997314453 62 62 62
28.650915145874 17.661312103271 66.769012451172 23 23 23
28.623037338257 17.659475326538 66.490997314453 29 29 29
28.597419738770 17.807037353516 66.484985351563 36 36 36
28.562583923340 17.957242965698 66.477996826172 36 36 36
28.613895416260 18.105089187622 66.628997802734 11 11 11
28.570629119873 18.103099822998 66.483001708984 24 24 24
28.575790405273 18.250968933105 66.618011474609 56 56 56
28.561824798584 18.248832702637 66.480010986328 17 17 17
28.555915832520 18.393035888672 66.610992431641 9 9 9
28.541717529297 18.391389846802 66.472991943359 38 38 38
28.300954818726 18.392215728760 66.273986816406 14 14 14
28.513502120972 18.531682968140 66.460998535156 81 81 81
28.288106918335 18.531688690186 66.266998291016 24 24 24
28.511074066162 18.667509078979 66.454986572266 81 81 81
28.270578384399 18.669307708740 66.256988525391 21 21 21
28.499902725220 18.805479049683 66.445983886719 105 105 105
28.266963958740 18.806625366211 66.250000000000 15 15 15
28.479446411133 18.943162918091 66.433990478516 108 108 108
28.254316329956 18.944137573242 66.240997314453 15 15 15
28.464899063110 19.083160400391 66.425994873047 110 110 110
28.246837615967 19.083492279053 66.234985351563 20 20 20
28.447986602783 19.226627349854 66.420989990234 117 117 117
28.220905303955 19.227643966675 66.226989746094 10 10 10
28.437501907349 19.373861312866 66.417999267578 115 115 115
28.209455490112 19.375387191772 66.225006103516 20 20 20
28.430459976196 19.521997451782 66.419982910156 128 128 128
28.194091796875 19.522727966309 66.223999023438 21 21 21
28.401935577393 19.670600891113 66.415008544922 108 108 108
28.166553497314 19.671798706055 66.218994140625 63 63 63
28.377775192261 19.817644119263 66.411010742188 101 101 101
28.168266296387 19.818277359009 66.222991943359 114 114 114
28.379920959473 19.961673736572 66.412994384766 100 100 100
28.156986236572 19.962600708008 66.221008300781 117 117 117
28.363962173462 20.104143142700 66.406005859375 111 111 111
28.137845993042 20.104650497437 66.212982177734 93 93 93
28.353300094604 20.243078231812 66.399993896484 128 128 128
28.118375778198 20.242799758911 66.204986572266 28 28 28
28.336481094360 20.379705429077 66.389984130859 125 125 125
28.325309753418 20.517675399780 66.381011962891 117 117 117
28.310955047607 20.655225753784 66.372985839844 111 111 111
28.301811218262 20.796571731567 66.368011474609 114 114 114
28.264383316040 20.939994812012 66.358001708984 100 100 100
28.268047332764 21.086433410645 66.361999511719 117 117 117
28.240489959717 21.234527587891 66.356994628906 117 117 117
28.214639663696 21.382583618164 66.352996826172 116 116 116
28.200973510742 21.529397964478 66.351989746094 112 112 112
28.175306320190 21.674520492554 66.346008300781 116 116 116
28.099058151245 21.818296432495 66.322998046875 127 127 127
27.960222244263 21.958545684814 66.281005859375 119 119 119
28.063833236694 22.096958160400 66.305999755859 36 36 36
28.170330047607 22.233352661133 66.333007812500 1 1 1
27.981952667236 22.375165939331 66.656005859375 25 25 25
28.039178848267 22.514095306396 66.671997070313 80 80 80
28.061105728149 22.658184051514 66.678985595703 87 87 87
28.073747634888 22.801986694336 66.684997558594 94 94 94
28.088438034058 22.950139999390 66.694000244141 88 88 88
28.203901290894 22.948125839233 66.470001220703 60 60 60
28.111934661865 23.099079132080 66.707000732422 78 78 78
28.202245712280 23.097120285034 66.475006103516 30 30 30
28.222740173340 23.096189498901 66.351989746094 8 8 8
28.123441696167 23.246814727783 66.714996337891 86 86 86
28.214696884155 23.243370056152 66.352996826172 18 18 18
28.121248245239 23.393381118774 66.717010498047 59 59 59
28.155399322510 23.391662597656 66.597991943359 96 96 96
28.192499160767 23.390857696533 66.479003906250 48 48 48
28.226650238037 23.389141082764 66.359985351563 49 49 49
28.223947525024 23.534742355347 66.619995117188 57 57 57
28.220506668091 23.533840179443 66.359008789063 43 43 43
28.245077133179 23.675918579102 66.364990234375 8 8 8
28.241857528687 23.955352783203 66.750000000000 59 59 59
28.237043380737 24.093671798706 66.743988037109 3 3 3
28.262262344360 24.378347396851 66.882995605469 16 16 16
28.279075622559 24.523036956787 66.889984130859 43 43 43
28.306812286377 24.968830108643 67.046997070313 56 56 56
28.314683914185 25.399425506592 67.187011718750 59 59 59
28.046527862549 25.510732650757 62.001007080078 61 61 61
27.957818984985 25.507772445679 61.536010742188 21 21 21
28.126535415649 25.664306640625 64.597991943359 88 88 88
28.058309555054 25.659925460815 63.998992919922 166 166 166
28.054159164429 25.660015106201 63.881011962891 184 184 184
28.054138183594 25.659038543701 63.763000488281 194 194 194
28.032606124878 25.657066345215 63.644989013672 193 193 193
28.023330688477 25.657266616821 63.527984619141 195 195 195
28.005756378174 25.657648086548 63.411010742188 196 196 196
27.965154647827 25.654621124268 62.945983886719 196 196 196
27.957567214966 25.653808593750 62.829986572266 197 197 197
27.956325531006 25.652856826782 62.712982177734 200 200 200
27.939727783203 25.653217315674 62.597991943359 196 196 196
27.926759719849 25.652032852173 62.481994628906 200 200 200
27.920148849487 25.651201248169 62.365997314453 198 198 198
27.915733337402 25.650320053101 62.248992919922 202 202 202
27.903285980225 25.650590896606 62.134002685547 196 196 196
27.897172927856 25.650234222412 62.016998291016 189 189 189
27.882005691528 25.649097442627 61.902008056641 195 195 195
27.882961273193 25.648099899292 61.782989501953 197 197 197
27.868316650391 25.648416519165 61.666992187500 192 192 192
27.863393783569 25.646570205688 61.549987792969 190 190 190
28.133857727051 25.664148330688 64.718994140625 11 11 11
28.069313049316 25.660663604736 64.117004394531 94 94 94
27.995252609253 25.657386779785 63.294006347656 139 139 139
27.985191345215 25.655162811279 63.061004638672 76 76 76
28.343368530273 25.821266174316 68.031982421875 149 149 149
28.331884384155 25.821025848389 67.881988525391 146 146 146
28.332595825195 25.820034027100 67.739990234375 149 149 149
28.307170867920 25.818630218506 67.587982177734 156 156 156
28.296409606934 25.817888259888 67.445007324219 157 157 157
28.272212982178 25.816946029663 67.296997070313 131 131 131
28.268062591553 25.817035675049 67.158996582031 155 155 155
28.268762588501 25.815555572510 67.023986816406 169 169 169
28.249704360962 25.814994812012 66.882995605469 161 161 161
28.231855392456 25.813915252686 66.743988037109 164 164 164
28.225519180298 25.814540863037 66.610992431641 173 173 173
28.210330963135 25.812427520752 66.475006103516 174 174 174
28.202043533325 25.813097000122 66.342987060547 175 175 175
28.193204879761 25.810846328735 66.212005615234 178 178 178
28.182952880859 25.811067581177 66.082000732422 174 174 174
28.178304672241 25.810680389404 65.954010009766 173 173 173
28.168743133545 25.808933258057 65.825988769531 181 181 181
28.164339065552 25.808542251587 65.700012207031 176 176 176
28.147485733032 25.808420181274 65.571990966797 180 180 180
28.145013809204 25.807006835938 65.446990966797 181 181 181
28.140865325928 25.807096481323 65.324005126953 184 184 184
28.088514328003 25.802858352661 64.709991455078 184 184 184
28.090456008911 25.802330017090 64.589996337891 187 187 187
28.079950332642 25.802068710327 64.470001220703 191 191 191
28.054248809814 25.799207687378 63.876983642578 189 189 189
28.049333572388 25.797847747803 63.759002685547 180 180 180
28.042001724243 25.797519683838 63.641998291016 177 177 177
28.040048599243 25.797561645508 63.524993896484 178 178 178
28.036874771118 25.797630310059 63.407989501953 160 160 160
28.030254364014 25.796308517456 63.290008544922 159 159 159
28.022411346436 25.795013427734 63.174011230469 148 148 148
28.100528717041 25.793809890747 63.053985595703 226 226 226
28.132747650146 25.793109893799 62.934997558594 255 255 255
28.130294799805 25.792675018311 62.816986083984 253 253 253
28.122962951660 25.792345046997 62.699005126953 212 212 212
28.132036209106 25.805334091187 65.199005126953 107 107 107
28.119056701660 25.803661346436 64.833984375000 78 78 78
28.103872299194 25.801549911499 64.352996826172 64 64 64
28.064508438110 25.799472808838 63.994995117188 110 110 110
28.351076126099 25.962732315063 68.035003662109 93 93 93
28.334922790527 25.961128234863 67.882995605469 57 57 57
28.355426788330 25.960683822632 67.748992919922 59 59 59
28.342947006226 25.959489822388 67.601989746094 32 32 32
28.346851348877 25.959403991699 67.463989257813 17 17 17
28.380170822144 26.031942367554 68.031005859375 32 32 32
28.336124420166 25.926427841187 68.156982421875 152 152 152
28.329513549805 25.925594329834 68.009002685547 171 171 171
28.322614669800 25.922813415527 67.861999511719 175 175 175
28.305519104004 25.922695159912 67.712005615234 164 164 164
28.303024291992 25.920307159424 67.570983886719 169 169 169
28.290323257446 25.920093536377 67.427001953125 173 173 173
28.271230697632 25.918066024780 67.281982421875 158 158 158
28.266317367554 25.916707992554 67.144012451172 165 165 165
28.248468399048 25.915628433228 67.002990722656 169 169 169
28.251386642456 25.915077209473 66.869995117188 163 163 163
28.237174987793 25.912944793701 66.733001708984 172 172 172
28.222265243530 25.912290573120 66.596008300781 174 174 174
28.213701248169 25.911499023438 66.462982177734 170 170 170
28.205583572388 25.908744812012 66.332000732422 171 171 171
28.204097747803 25.907800674438 66.203002929688 173 173 173
28.193857192993 25.908510208130 66.072998046875 179 179 179
28.194803237915 25.907024383545 65.945983886719 180 180 180
28.184497833252 25.904808044434 65.817993164063 184 184 184
28.176177978516 25.904010772705 65.691009521484 181 181 181
28.166381835938 25.902757644653 65.563995361328 185 185 185
28.165872573853 25.901792526245 65.440002441406 187 187 187
28.150941848755 25.900161743164 65.315002441406 186 186 186
28.137178421021 25.896064758301 64.825988769531 186 186 186
28.130544662476 25.894254684448 64.704986572266 171 171 171
28.110010147095 25.893234252930 64.583007812500 176 176 176
28.106571197510 25.892332077026 64.462982177734 162 162 162
28.075933456421 25.887136459351 63.868988037109 120 120 120
28.070543289185 25.886276245117 63.751007080078 87 87 87
28.075159072876 25.885198593140 63.634002685547 42 42 42
28.169769287109 25.878753662109 63.042999267578 226 226 226
28.159729003906 25.877504348755 62.924987792969 236 236 236
28.151176452637 25.877202987671 62.805999755859 238 238 238
28.177017211914 25.875175476074 62.686004638672 19 19 19
28.044755935669 25.890743255615 64.337982177734 5 5 5
28.083520889282 25.887948989868 63.986999511719 74 74 74
28.271884918213 25.813047409058 67.282989501953 85 85 85
28.318492889404 25.811548233032 67.162994384766 13 13 13
28.311870574951 25.810226440430 67.024993896484 27 27 27
28.301088333130 25.808506011963 66.886993408203 48 48 48
28.276914596558 25.808542251587 66.746002197266 76 76 76
28.264902114868 25.806362152100 66.609985351563 82 82 82
28.203817367554 25.804756164551 66.460998535156 120 120 120
28.232608795166 25.803642272949 66.339996337891 106 106 106
28.226261138916 25.803779602051 66.208984375000 128 128 128
28.227205276489 25.802293777466 66.082000732422 139 139 139
28.212030410767 25.800668716431 65.950988769531 154 154 154
28.199052810669 25.798997879028 65.821990966797 167 167 167
28.205410003662 25.799348831177 65.697998046875 176 176 176
28.184131622314 25.797855377197 65.567993164063 177 177 177
28.170898437500 25.795700073242 65.441986083984 186 186 186
28.161611557007 25.795413970947 65.316986083984 188 188 188
28.149620056152 25.794208526611 65.191986083984 181 181 181
28.101165771484 25.789398193359 64.701995849609 191 191 191
28.092590332031 25.788118362427 64.580993652344 193 193 193
28.037523269653 25.782476425171 63.984985351563 196 196 196
28.033351898193 25.781589508057 63.867004394531 196 196 196
28.022590637207 25.780845642090 63.750000000000 199 199 199
28.016702651978 25.779510498047 63.631988525391 200 200 200
27.997611999512 25.777481079102 63.514984130859 194 194 194
27.996135711670 25.777025222778 63.398986816406 194 194 194
27.983665466309 25.776317596436 63.281982421875 203 203 203
27.983135223389 25.774375915527 63.165985107422 200 200 200
27.976533889771 25.774030685425 63.049987792969 203 203 203
27.966272354126 25.773763656616 62.933990478516 201 201 201
27.960828781128 25.770463943481 62.817993164063 207 207 207
27.949600219727 25.770708084106 62.701995849609 207 207 207
27.943700790405 25.768880844116 62.585998535156 207 207 207
27.943679809570 25.767904281616 62.468994140625 200 200 200
27.930000305176 25.767713546753 62.352996826172 202 202 202
27.931943893433 25.767183303833 62.235992431641 200 200 200
27.921638488770 25.764965057373 62.118988037109 205 205 205
27.913318634033 25.764169692993 62.002990722656 197 197 197
27.915016174316 25.763643264771 61.885009765625 196 196 196
27.903978347778 25.761440277100 61.768005371094 194 194 194
27.903713226318 25.760469436646 61.648986816406 187 187 187
27.921012878418 25.758628845215 61.527008056641 184 184 184
28.084993362427 25.786817550659 64.460998535156 126 126 126
28.060722351074 25.782461166382 64.104003906250 42 42 42
28.255992889404 25.699596405029 66.477996826172 73 73 73
28.085283279419 25.676435470581 63.871002197266 38 38 38
28.071849822998 25.676237106323 63.752990722656 96 96 96
28.055452346802 25.674638748169 63.635009765625 110 110 110
28.056407928467 25.673641204834 63.518005371094 132 132 132
28.002042770386 25.666517257690 62.816986083984 201 201 201
27.982971191406 25.665468215942 62.700988769531 195 195 195
27.968051910400 25.664325714111 62.584991455078 197 197 197
27.948726654053 25.662790298462 62.470001220703 197 197 197
27.947727203369 25.661834716797 62.352996826172 196 196 196
27.931587219238 25.660718917847 62.236999511719 199 199 199
27.919860839844 25.660486221313 62.121002197266 194 194 194
27.909090042114 25.659255981445 62.005004882813 196 196 196
27.899282455444 25.657514572144 61.889007568359 196 196 196
27.892927169800 25.657163619995 61.772003173828 190 190 190
27.880214691162 25.656461715698 61.654998779297 196 196 196
27.871141433716 25.654705047607 61.537994384766 163 163 163
28.040256500244 25.672039031982 63.399993896484 99 99 99
27.989849090576 25.667270660400 62.933990478516 90 90 90
28.246902465820 25.595764160156 66.476989746094 76 76 76
28.061635971069 25.554359436035 61.985992431641 12 12 12
28.266851425171 25.490814208984 66.485992431641 47 47 47
28.329172134399 25.391782760620 67.174011230469 56 56 56
28.260149002075 25.384490966797 66.484008789063 35 35 35
28.309480667114 25.283298492432 67.166992187500 14 14 14
28.268072128296 25.276870727539 66.486999511719 25 25 25
28.271356582642 25.169351577759 66.488006591797 34 34 34
28.270736694336 25.061918258667 66.486999511719 25 25 25
28.304628372192 24.958131790161 67.027984619141 57 57 57
28.245410919189 24.952579498291 66.477996826172 40 40 40
28.281763076782 24.849714279175 67.019989013672 48 48 48
28.268966674805 24.845109939575 66.485992431641 18 18 18
28.246387481689 24.738639831543 66.479003906250 11 11 11
28.248506546021 24.633588790894 66.480987548828 3 3 3
28.282661437988 24.530775070190 66.889007568359 52 52 52
28.276227951050 24.425420761108 66.889984130859 37 37 37
28.276945114136 24.109413146973 66.764007568359 13 13 13
28.242141723633 24.002231597900 66.753997802734 70 70 70
28.233686447144 23.567253112793 66.619995117188 59 59 59
28.130752563477 23.460084915161 66.718994140625 130 130 130
28.170549392700 23.459711074829 66.600982666016 162 162 162
28.193981170654 23.459201812744 66.479003906250 137 137 137
28.121664047241 23.356254577637 66.717987060547 117 117 117
28.122804641724 23.251224517822 66.720001220703 110 110 110
28.104175567627 23.146623611450 66.717010498047 96 96 96
28.222822189331 23.145027160645 66.493988037109 26 26 26
28.098514556885 23.043205261230 66.717987060547 69 69 69
28.213998794556 23.042165756226 66.493988037109 43 43 43
28.225904464722 23.039466857910 66.368011474609 4 4 4
28.088693618774 22.939390182495 66.717987060547 43 43 43
28.195358276367 22.937076568604 66.492004394531 11 11 11
28.202171325684 22.935951232910 66.363983154297 94 94 94
28.072727203369 22.833753585815 66.714996337891 36 36 36
28.216035842896 22.832111358643 66.371002197266 25 25 25
28.070693969727 22.728792190552 66.713989257813 20 20 20
28.203943252563 22.724925994873 66.367004394531 30 30 30
28.062030792236 22.622020721436 66.712005615234 11 11 11
28.203832626343 22.618457794189 66.368011474609 34 34 34
28.046512603760 22.514423370361 66.705993652344 10 10 10
28.070165634155 22.512933731079 66.584991455078 98 98 98
28.141693115234 22.511871337891 66.477996826172 101 101 101
28.187091827393 22.510887145996 66.361999511719 48 48 48
27.974565505981 22.406093597412 66.682006835938 14 14 14
28.196956634521 22.402736663818 66.364990234375 41 41 41
28.209506988525 22.294528961182 66.367004394531 34 34 34
28.186199188232 22.188077926636 66.360992431641 31 31 31
28.073287963867 22.082590103149 66.328002929688 89 89 89
27.989944458008 21.977926254272 66.305999755859 134 134 134
28.089771270752 21.874174118042 66.334991455078 137 137 137
28.148567199707 21.770336151123 66.354003906250 122 122 122
28.196615219116 21.666244506836 66.369995117188 126 126 126
28.231472015381 21.561948776245 66.381011962891 111 111 111
28.224060058594 21.456615447998 66.377990722656 117 117 117
28.239061355591 21.348842620850 66.381011962891 130 130 130
28.252344131470 21.240617752075 66.382995605469 117 117 117
28.270051956177 21.133764266968 66.385986328125 122 122 122
28.276000976563 21.025213241577 66.385986328125 116 116 116
28.299308776855 20.917747497559 66.390991210938 121 121 121
28.309003829956 20.813020706177 66.394012451172 110 110 110
28.318443298340 20.707811355591 66.398010253906 125 125 125
28.321113586426 20.605678558350 66.399993896484 129 129 129
28.344753265381 20.502113342285 66.408996582031 130 130 130
28.120069503784 20.501123428345 66.217987060547 6 6 6
28.347644805908 20.398998260498 66.412994384766 130 130 130
28.122453689575 20.397045135498 66.221008300781 30 30 30
28.362232208252 20.294654846191 66.419006347656 126 126 126
28.127286911011 20.293399810791 66.223999023438 59 59 59
28.365325927734 20.189582824707 66.419982910156 113 113 113
28.120849609375 20.188045501709 66.221984863281 85 85 85
28.368144989014 20.083049774170 66.420989990234 115 115 115
28.144681930542 20.082035064697 66.229003906250 99 99 99
28.387559890747 19.976158142090 66.425994873047 111 111 111
28.156530380249 19.975307464600 66.231994628906 109 109 109
28.401849746704 19.869380950928 66.428985595703 119 119 119
28.168878555298 19.869058609009 66.234008789063 98 98 98
28.406387329102 19.763299942017 66.428985595703 120 120 120
28.185110092163 19.761747360229 66.238006591797 44 44 44
28.423585891724 19.655479431152 66.433990478516 120 120 120
28.182823181152 19.656303405762 66.236999511719 14 14 14
28.432325363159 19.551750183105 66.436004638672 122 122 122
28.199087142944 19.550457000732 66.240997314453 16 16 16
28.440290451050 19.446084976196 66.438995361328 115 115 115
28.208019256592 19.444282531738 66.243988037109 21 21 21
28.456352233887 19.342193603516 66.444000244141 112 112 112
28.235086441040 19.341133117676 66.251983642578 19 19 19
28.468000411987 19.237424850464 66.447998046875 118 118 118
28.224510192871 19.236356735229 66.250000000000 19 19 19
28.477439880371 19.132215499878 66.451995849609 107 107 107
28.248617172241 19.131805419922 66.257995605469 26 26 26
28.486698150635 19.029941558838 66.454986572266 102 102 102
28.256647109985 19.029067993164 66.260009765625 16 16 16
28.491756439209 18.925313949585 66.455993652344 107 107 107
28.253383636475 18.923645019531 66.259002685547 18 18 18
28.514854431152 18.819320678711 66.462005615234 116 116 116
28.266250610352 18.818849563599 66.261993408203 16 16 16
28.516017913818 18.715265274048 66.460998535156 114 114 114
28.295228958130 18.713703155518 66.268005371094 13 13 13
28.521318435669 18.610633850098 66.462005615234 97 97 97
28.295404434204 18.609184265137 66.268005371094 19 19 19
28.577899932861 18.505867004395 66.610992431641 24 24 24
28.531457901001 18.503942489624 66.463989257813 109 109 109
28.314107894897 18.503284454346 66.273010253906 13 13 13
28.578773498535 18.399866104126 66.613006591797 65 65 65
28.541887283325 18.399200439453 66.467987060547 98 98 98
28.339893341064 18.397232055664 66.281005859375 18 18 18
28.602891921997 18.295803070068 66.618988037109 13 13 13
28.562808990479 18.294231414795 66.473999023438 106 106 106
28.571283340454 18.189529418945 66.476989746094 95 95 95
28.580457687378 18.083349227905 66.480010986328 94 94 94
28.598728179932 17.979902267456 66.486999511719 93 93 93
28.632183074951 17.878566741943 66.766998291016 5 5 5
28.598913192749 17.875869750977 66.488006591797 99 99 99
28.651906967163 17.774599075317 66.774993896484 36 36 36
28.606410980225 17.771188735962 66.492004394531 92 92 92
28.662111282349 17.670837402344 66.777984619141 36 36 36
28.622739791870 17.668272018433 66.497009277344 98 98 98
28.626798629761 17.562690734863 66.497009277344 88 88 88
28.639614105225 17.455453872681 66.500000000000 110 110 110
28.659296035767 17.349533081055 66.506011962891 93 93 93
28.686384201050 17.247360229492 66.919982910156 4 4 4
28.666526794434 17.243883132935 66.506011962891 106 106 106
28.739992141724 17.140705108643 66.934997558594 40 40 40
28.676170349121 17.136714935303 66.506988525391 111 111 111
28.741844177246 17.034683227539 66.934997558594 26 26 26
28.683403015137 17.031064987183 66.507995605469 121 121 121
28.696037292480 16.926763534546 66.511993408203 119 119 119
28.700351715088 16.821664810181 66.513000488281 132 132 132
28.719850540161 16.718679428101 66.519989013672 127 127 127
28.766815185547 16.620958328247 67.082000732422 8 8 8
28.725418090820 16.615018844604 66.520996093750 132 132 132
28.806798934937 16.516551971436 67.095001220703 40 40 40
28.740247726440 16.510667800903 66.523986816406 127 127 127
28.817216873169 16.411319732666 67.097991943359 14 14 14
28.755100250244 16.407295227051 66.527984619141 134 134 134
28.757188796997 16.300779342651 66.527984619141 136 136 136
28.773948669434 16.195409774780 66.531982421875 117 117 117
28.772640228271 16.089944839478 66.531005859375 136 136 136
28.859048843384 15.998207092285 67.975006103516 133 133 133
28.851217269897 15.997400283813 67.825012207031 107 107 107
28.843343734741 15.994640350342 67.675994873047 86 86 86
28.856760025024 15.993862152100 67.536010742188 54 54 54
28.778556823730 15.991161346436 67.222991943359 81 81 81
28.786960601807 15.984630584717 66.535003662109 135 135 135
28.847488403320 15.892963409424 67.971008300781 160 160 160
28.839633941650 15.891180038452 67.820983886719 161 161 161
28.824470520020 15.890043258667 67.669006347656 157 157 157
28.819059371948 15.888208389282 67.522003173828 162 162 162
28.810228347778 15.886445999146 67.376007080078 150 150 150
28.791179656982 15.886369705200 67.227996826172 137 137 137
28.783315658569 15.884099960327 67.084991455078 161 161 161
28.772556304932 15.883356094360 66.941986083984 157 157 157
28.758853912354 15.882188796997 66.799987792969 159 159 159
28.751968383789 15.879894256592 66.661010742188 160 160 160
28.734870910645 15.879777908325 66.519989013672 147 147 147
28.744113922119 15.878112792969 66.388000488281 164 164 164
28.733819961548 15.876380920410 66.251983642578 160 160 160
28.735763549805 15.875850677490 66.118988037109 153 153 153
28.728408813477 15.874546051025 65.984985351563 150 150 150
28.721553802490 15.873716354370 65.851989746094 145 145 145
28.722955703735 15.870756149292 65.721984863281 141 141 141
28.706346511841 15.870628356934 65.587982177734 118 118 118
28.700456619263 15.869291305542 65.458007812500 105 105 105
28.708225250244 15.867168426514 65.330993652344 96 96 96
28.684019088745 15.865739822388 65.199005126953 73 73 73
28.693281173706 15.865051269531 65.072998046875 51 51 51
28.823585510254 15.781639099121 67.238983154297 6 6 6
28.826473236084 15.779624938965 67.098999023438 67 67 67
28.814733505249 15.778902053833 66.955993652344 89 89 89
28.795166015625 15.777372360229 66.811004638672 104 104 104
28.779535293579 15.777221679688 66.669006347656 121 121 121
28.764347076416 15.775110244751 66.528991699219 109 109 109
28.765302658081 15.774112701416 66.394012451172 156 156 156
28.739885330200 15.773199081421 66.252990722656 166 166 166
28.723733901978 15.771595001221 66.115997314453 171 171 171
28.712697982788 15.769392013550 65.981994628906 172 172 172
28.699729919434 15.768207550049 65.846984863281 175 175 175
28.686750411987 15.766536712646 65.713989257813 173 173 173
28.684543609619 15.766096115112 65.583984375000 176 176 176
28.671831130981 15.765394210815 65.453002929688 166 166 166
28.654447555542 15.763328552246 65.320983886719 177 177 177
28.649776458740 15.761966705322 65.192993164063 167 167 167
28.637054443359 15.760776519775 65.063995361328 177 177 177
28.639707565308 15.759254455566 64.937988281250 174 174 174
28.624086380005 15.759592056274 64.809997558594 164 164 164
28.617197036743 15.757299423218 64.683990478516 163 163 163
28.610586166382 15.756465911865 64.557983398438 178 178 178
28.605207443237 15.756093978882 64.432983398438 185 185 185
28.594158172607 15.753402709961 64.307006835938 185 185 185
28.598043441772 15.752342224121 64.183990478516 192 192 192
28.585075378418 15.751159667969 64.058990478516 191 191 191
28.572616577148 15.750940322876 63.934997558594 188 188 188
28.567428588867 15.748123168945 63.811004638672 190 190 190
28.565464019775 15.747676849365 63.687988281250 188 188 188
