17.396825790405 9.012250900269 5.961997985840 153 153 153
17.379796981812 8.989812850952 6.004997253418 124 124 124
17.572511672974 8.813638687134 5.706001281738 175 175 175
17.572511672974 8.813638687134 5.749000549316 203 203 203
17.555959701538 8.798997879028 5.791999816895 175 175 175
17.555959701538 8.798997879028 5.836997985840 171 171 171
17.555959701538 8.798997879028 5.884002685547 135 135 135
17.524768829346 8.800909042358 5.916000366211 154 154 154
17.396179199219 8.746168136597 5.951004028320 121 121 121
17.379629135132 8.731527328491 5.986999511719 156 156 156
17.569955825806 8.516364097595 5.687004089355 102 102 102
17.538763046265 8.518274307251 5.725997924805 194 194 194
17.538763046265 8.518274307251 5.768997192383 184 184 184
17.538763046265 8.518274307251 5.814002990723 173 173 173
17.538763046265 8.518274307251 5.858001708984 172 172 172
17.538763046265 8.518274307251 5.903999328613 182 182 182
17.523166656494 8.519229888916 5.944000244141 67 67 67
17.410177230835 8.463533401489 5.941001892090 30 30 30
17.393625259399 8.448893547058 5.981002807617 163 163 163
17.393625259399 8.448893547058 6.026000976563 67 67 67
17.393625259399 8.448893547058 6.070999145508 98 98 98
17.505016326904 8.222909927368 5.698997497559 146 146 146
17.505016326904 8.222909927368 5.739997863770 201 201 201
17.505016326904 8.222909927368 5.787002563477 118 118 118
17.488466262817 8.208270072937 5.826004028320 116 116 116
17.488466262817 8.208270072937 5.874000549316 146 146 146
17.472869873047 8.209225654602 5.915000915527 153 153 153
17.407621383667 8.166259765625 5.967002868652 146 146 146
17.391071319580 8.151618957520 6.008003234863 138 138 138
17.391071319580 8.151618957520 6.147003173828 105 105 105
17.471271514893 7.927546024323 5.706001281738 65 65 65
17.406021118164 7.884579658508 5.952003479004 63 63 63
17.373874664307 7.870894908905 5.985000610352 166 166 166
17.390424728394 7.885534763336 6.225997924805 120 120 120
17.452165603638 7.615630626678 5.675003051758 94 94 94
17.452165603638 7.615630626678 5.720001220703 14 14 14
17.387870788574 7.588260173798 5.969001770020 157 157 157
17.372274398804 7.589215278625 6.006004333496 129 129 129
17.404422760010 7.602900505066 6.301002502441 125 125 125
17.403776168823 7.336817264557 5.688003540039 137 137 137
17.387228012085 7.322176933289 5.958000183105 76 76 76
17.370676040649 7.307536602020 5.989997863770 163 163 163
17.370676040649 7.307536602020 6.374000549316 109 109 109
17.400266647339 7.023946762085 5.674003601074 95 95 95
17.384670257568 7.024901866913 5.708000183105 48 48 48
17.384670257568 7.024901866913 5.979003906250 156 156 156
17.368120193481 7.010261535645 6.020004272461 96 96 96
17.384670257568 7.024901866913 6.459999084473 97 97 97
17.383071899414 6.743222236633 5.696998596191 141 141 141
17.366519927979 6.728582382202 5.967002868652 119 119 119
17.349969863892 6.713941574097 6.007003784180 155 155 155
17.383071899414 6.743222236633 6.544998168945 50 50 50
17.383071899414 6.743222236633 6.590003967285 41 41 41
17.412664413452 6.459632873535 5.961997985840 76 76 76
17.349325180054 6.447858333588 5.986999511719 129 129 129
17.349325180054 6.447858333588 6.031997680664 79 79 79
17.349325180054 6.447858333588 6.655998229980 107 107 107
17.347724914551 6.166179656982 5.973999023438 103 103 103
17.346769332886 6.150583267212 6.012001037598 120 120 120
17.347724914551 6.166179656982 6.740997314453 115 115 115
17.345170974731 5.868904113770 5.999000549316 145 145 145
17.361721038818 5.883544921875 6.830001831055 96 96 96
17.313978195190 5.870814800262 6.857002258301 55 55 55
17.310468673706 5.557944297791 1.353004455566 162 162 162
17.293916702271 5.543303966522 1.399002075195 163 163 163
17.342615127563 5.571629524231 1.428001403809 159 159 159
17.293916702271 5.543303966522 1.526000976563 173 173 173
17.293916702271 5.543303966522 1.565002441406 164 164 164
17.293916702271 5.543303966522 1.609001159668 173 173 173
17.293916702271 5.543303966522 1.649002075195 180 180 180
17.293916702271 5.543303966522 1.688003540039 175 175 175
17.293916702271 5.543303966522 1.729003906250 176 176 176
17.293916702271 5.543303966522 1.770004272461 176 176 176
17.293916702271 5.543303966522 1.810997009277 178 178 178
17.293916702271 5.543303966522 1.850997924805 180 180 180
17.293916702271 5.543303966522 1.891998291016 176 176 176
17.293916702271 5.543303966522 1.931999206543 184 184 184
17.293916702271 5.543303966522 1.972000122070 185 185 185
17.293916702271 5.543303966522 2.013000488281 181 181 181
17.293916702271 5.543303966522 2.052001953125 183 183 183
17.293916702271 5.543303966522 2.093002319336 186 186 186
17.293916702271 5.543303966522 2.133003234863 190 190 190
17.294872283936 5.558899402618 2.170997619629 188 188 188
17.294872283936 5.558899402618 2.211997985840 189 189 189
17.293916702271 5.543303966522 2.251998901367 188 188 188
17.293916702271 5.543303966522 2.291999816895 188 188 188
17.294872283936 5.558899402618 2.331001281738 192 192 192
17.293916702271 5.543303966522 2.371002197266 189 189 189
17.293916702271 5.543303966522 2.411003112793 196 196 196
17.293916702271 5.543303966522 2.450004577637 195 195 195
17.293916702271 5.543303966522 2.488998413086 195 195 195
17.294872283936 5.558899402618 2.527999877930 198 198 198
17.294872283936 5.558899402618 2.567001342773 199 199 199
17.293916702271 5.543303966522 2.607002258301 204 204 204
17.294872283936 5.558899402618 2.646003723145 196 196 196
17.294872283936 5.558899402618 2.684997558594 191 191 191
17.294872283936 5.558899402618 2.723999023438 195 195 195
17.294872283936 5.558899402618 2.763999938965 202 202 202
17.294872283936 5.558899402618 2.803001403809 197 197 197
17.294872283936 5.558899402618 2.842002868652 202 202 202
17.294872283936 5.558899402618 2.881004333496 195 195 195
17.294872283936 5.558899402618 2.919998168945 200 200 200
17.294872283936 5.558899402618 2.958999633789 203 203 203
17.294872283936 5.558899402618 2.998001098633 195 195 195
17.294872283936 5.558899402618 3.037002563477 191 191 191
17.294872283936 5.558899402618 3.076004028320 201 201 201
17.294872283936 5.558899402618 3.114997863770 197 197 197
17.293916702271 5.543303966522 3.153999328613 201 201 201
17.294872283936 5.558899402618 3.193000793457 199 199 199
17.294872283936 5.558899402618 3.233001708984 199 199 199
17.294872283936 5.558899402618 3.272003173828 200 200 200
17.294872283936 5.558899402618 3.310997009277 202 202 202
17.294872283936 5.558899402618 3.349998474121 197 197 197
17.310468673706 5.557944297791 3.388999938965 200 200 200
17.294872283936 5.558899402618 3.428001403809 195 195 195
17.294872283936 5.558899402618 3.467002868652 197 197 197
17.294872283936 5.558899402618 3.506004333496 199 199 199
17.294872283936 5.558899402618 3.544998168945 183 183 183
17.294872283936 5.558899402618 3.584999084473 180 180 180
17.294872283936 5.558899402618 3.624000549316 194 194 194
17.294872283936 5.558899402618 3.663002014160 194 194 194
17.294872283936 5.558899402618 3.702003479004 201 201 201
17.294872283936 5.558899402618 3.742004394531 195 195 195
17.310468673706 5.557944297791 3.781997680664 200 200 200
17.294872283936 5.558899402618 3.820999145508 200 200 200
17.310468673706 5.557944297791 3.861000061035 195 195 195
17.294872283936 5.558899402618 3.900001525879 195 195 195
17.294872283936 5.558899402618 3.940002441406 195 195 195
17.294872283936 5.558899402618 3.979003906250 200 200 200
17.294872283936 5.558899402618 4.018997192383 201 201 201
17.294872283936 5.558899402618 4.058998107910 194 194 194
17.294872283936 5.558899402618 4.098999023438 202 202 202
17.294872283936 5.558899402618 4.138000488281 200 200 200
17.294872283936 5.558899402618 4.179000854492 198 198 198
17.294872283936 5.558899402618 4.218002319336 195 195 195
17.294872283936 5.558899402618 4.258003234863 197 197 197
17.294872283936 5.558899402618 4.299003601074 190 190 190
17.294872283936 5.558899402618 4.337997436523 189 189 189
17.294872283936 5.558899402618 4.377998352051 190 190 190
17.294872283936 5.558899402618 4.419998168945 185 185 185
17.294872283936 5.558899402618 4.459999084473 186 186 186
17.294872283936 5.558899402618 4.501998901367 187 187 187
17.294872283936 5.558899402618 4.541000366211 187 187 187
17.294872283936 5.558899402618 4.581001281738 189 189 189
17.294872283936 5.558899402618 4.622001647949 189 189 189
17.294872283936 5.558899402618 4.662002563477 179 179 179
17.294872283936 5.558899402618 4.705001831055 182 182 182
17.294872283936 5.558899402618 4.746002197266 182 182 182
17.294872283936 5.558899402618 4.787002563477 186 186 186
17.294872283936 5.558899402618 4.830001831055 181 181 181
17.294872283936 5.558899402618 4.871002197266 181 181 181
17.294872283936 5.558899402618 4.912002563477 182 182 182
17.294872283936 5.558899402618 4.954002380371 182 182 182
17.294872283936 5.558899402618 4.994003295898 185 185 185
17.294872283936 5.558899402618 5.037002563477 179 179 179
17.294872283936 5.558899402618 5.078002929688 178 178 178
17.294872283936 5.558899402618 5.123001098633 178 178 178
17.294872283936 5.558899402618 5.165000915527 177 177 177
17.294872283936 5.558899402618 5.208000183105 176 176 176
17.294872283936 5.558899402618 5.249000549316 176 176 176
17.294872283936 5.558899402618 5.293998718262 179 179 179
17.294872283936 5.558899402618 5.334999084473 177 177 177
17.294872283936 5.558899402618 5.377998352051 181 181 181
17.294872283936 5.558899402618 5.424003601074 167 167 167
17.294872283936 5.558899402618 5.469001770020 163 163 163
17.294872283936 5.558899402618 5.511001586914 176 176 176
17.294872283936 5.558899402618 5.555000305176 181 181 181
17.294872283936 5.558899402618 5.600997924805 181 181 181
17.294872283936 5.558899402618 5.645004272461 181 181 181
17.294872283936 5.558899402618 5.690002441406 178 178 178
17.294872283936 5.558899402618 5.734001159668 177 177 177
17.294872283936 5.558899402618 5.779998779297 163 163 163
17.294872283936 5.558899402618 5.827003479004 175 175 175
17.294872283936 5.558899402618 5.868003845215 178 178 178
17.294872283936 5.558899402618 5.916000366211 178 178 178
17.294872283936 5.558899402618 5.959999084473 173 173 173
17.294872283936 5.558899402618 6.004997253418 137 137 137
17.294872283936 5.558899402618 6.055999755859 170 170 170
17.294872283936 5.558899402618 6.100997924805 170 170 170
17.294872283936 5.558899402618 6.148002624512 174 174 174
17.294872283936 5.558899402618 6.194999694824 177 177 177
17.294872283936 5.558899402618 6.243003845215 167 167 167
17.327020645142 5.572584629059 6.294998168945 160 160 160
17.294872283936 5.558899402618 6.340003967285 170 170 170
17.294872283936 5.558899402618 6.389999389648 174 174 174
17.294872283936 5.558899402618 6.435997009277 177 177 177
17.294872283936 5.558899402618 6.484001159668 187 187 187
17.294872283936 5.558899402618 6.531997680664 188 188 188
17.294872283936 5.558899402618 6.583000183105 185 185 185
17.294872283936 5.558899402618 6.632003784180 185 185 185
17.295827865601 5.574495315552 6.681999206543 183 183 183
17.295827865601 5.574495315552 6.728004455566 181 181 181
17.295827865601 5.574495315552 6.777999877930 180 180 180
17.295827865601 5.574495315552 6.829002380371 178 178 178
17.295827865601 5.574495315552 6.879997253418 135 135 135
17.295827865601 5.574495315552 6.929000854492 182 182 182
17.278799057007 5.552057266235 6.980003356934 183 183 183
17.295827865601 5.574495315552 7.032997131348 178 178 178
17.295827865601 5.574495315552 7.089004516602 180 180 180
17.295827865601 5.574495315552 7.137001037598 184 184 184
17.278799057007 5.552057266235 7.187004089355 120 120 120
17.342615127563 5.571629524231 1.469001770020 162 162 162
17.223308563232 12.568575859070 5.959999084473 71 71 71
17.129255294800 12.566510200500 5.948997497559 155 155 155
17.082468032837 12.569375991821 5.964004516602 128 128 128
17.035680770874 12.572241783142 5.974998474121 97 97 97
17.223308563232 12.568575859070 6.869003295898 58 58 58
17.160446166992 12.564599037170 6.850997924805 112 112 112
17.098062515259 12.568420410156 6.867004394531 91 91 91
17.051275253296 12.571286201477 6.875999450684 115 115 115
17.127655029297 12.284831047058 5.943000793457 164 164 164
17.127655029297 12.284831047058 5.979003906250 140 140 140
17.143251419067 12.283875465393 6.795997619629 96 96 96
17.188438415527 11.999330520630 5.912002563477 24 24 24
17.140697479248 11.986599922180 5.940002441406 176 176 176
17.141651153564 12.002196311951 5.979003906250 139 139 139
17.204513549805 12.006173133850 6.674003601074 19 19 19
17.172842025757 12.000286102295 6.700004577637 107 107 107
17.232194900513 11.691391944885 5.923004150391 34 34 34
17.184928894043 11.686459541321 5.948997497559 173 173 173
17.170288085938 11.703010559082 5.978004455566 114 114 114
17.232194900513 11.691391944885 6.586997985840 59 59 59
17.184928894043 11.686459541321 6.609001159668 87 87 87
17.277379989624 11.406847000122 5.656997680664 156 156 156
17.214998245239 11.410667419434 5.917999267578 59 59 59
17.199401855469 11.411623001099 5.943000793457 175 175 175
17.199401855469 11.411623001099 5.984001159668 103 103 103
17.214998245239 11.410667419434 6.484001159668 98 98 98
17.199401855469 11.411623001099 6.520004272461 50 50 50
17.322568893433 11.122302055359 5.656997680664 155 155 155
17.260185241699 11.126123428345 5.919998168945 46 46 46
17.244590759277 11.127078056335 5.947998046875 175 175 175
17.228994369507 11.128033638000 5.984001159668 100 100 100
17.260185241699 11.126123428345 6.401000976563 115 115 115
17.244590759277 11.127078056335 6.427001953125 18 18 18
17.320014953613 10.825026512146 5.655998229980 149 149 149
17.272272109985 10.812296867371 5.918998718262 31 31 31
17.242034912109 10.829803466797 5.946998596191 171 171 171
17.242034912109 10.829803466797 5.982002258301 100 100 100
17.272272109985 10.812296867371 6.307998657227 111 111 111
17.348649978638 10.525841712952 5.647003173828 135 135 135
17.317457199097 10.527751922607 5.677001953125 35 35 35
17.301862716675 10.528707504272 5.924003601074 42 42 42
17.286266326904 10.529663085938 5.942001342773 170 170 170
17.286266326904 10.529663085938 5.986000061035 96 96 96
17.301862716675 10.528707504272 6.219001770020 101 101 101
17.347049713135 10.244161605835 5.646003723145 72 72 72
17.331455230713 10.245117187500 5.927001953125 55 55 55
17.284667968750 10.247982978821 5.943000793457 171 171 171
17.284667968750 10.247982978821 5.981002807617 85 85 85
17.300262451172 10.247027397156 6.131004333496 104 104 104
17.391283035278 9.944021224976 5.652999877930 148 148 148
17.392238616943 9.959616661072 5.690002441406 201 201 201
17.375686645508 9.944976806641 5.730003356934 184 184 184
17.375686645508 9.944976806641 5.770004272461 152 152 152
17.392238616943 9.959616661072 5.816001892090 165 165 165
17.376642227173 9.960572242737 5.851997375488 199 199 199
17.360092163086 9.945932388306 5.888999938965 120 120 120
17.361047744751 9.961527824402 5.924003601074 70 70 70
17.329854965210 9.963438034058 5.945999145508 171 171 171
17.314260482788 9.964393615723 5.983001708984 59 59 59
17.361047744751 9.961527824402 6.042999267578 109 109 109
17.435993194580 9.651679039001 5.657997131348 149 149 149
17.435993194580 9.651679039001 5.695999145508 201 201 201
17.420396804810 9.652633666992 5.734001159668 169 169 169
17.420396804810 9.652633666992 5.775001525879 163 163 163
17.404323577881 9.645791053772 5.809997558594 58 58 58
17.420396804810 9.652633666992 5.855003356934 193 193 193
17.388729095459 9.646746635437 5.888000488281 112 112 112
17.373132705688 9.647701263428 5.920997619629 103 103 103
17.357536315918 9.648656845093 5.946998596191 176 176 176
17.357536315918 9.648656845093 5.993003845215 19 19 19
17.449989318848 9.369043350220 5.655998229980 156 156 156
17.449989318848 9.369043350220 5.695999145508 201 201 201
17.449989318848 9.369043350220 5.737998962402 168 168 168
17.449989318848 9.369043350220 5.775001525879 204 204 204
17.434392929077 9.369998931885 5.807998657227 200 200 200
17.433437347412 9.354403495789 5.854003906250 201 201 201
17.402246475220 9.356313705444 5.888999938965 127 127 127
17.403202056885 9.371909141541 5.918998718262 87 87 87
17.371532440186 9.366023063660 5.946998596191 173 173 173
17.355936050415 9.366977691650 5.985000610352 39 39 39
17.509815216064 9.067947387695 5.661003112793 160 160 160
17.508859634399 9.052350997925 5.706001281738 202 202 202
17.508859634399 9.052350997925 5.750000000000 108 108 108
17.493265151978 9.053306579590 5.785003662109 139 139 139
17.509815216064 9.067947387695 5.830001831055 145 145 145
17.494220733643 9.068902969360 5.864997863770 189 189 189
17.463983535767 9.086409568787 5.896003723145 88 88 88
17.431837081909 9.072724342346 5.918998718262 69 69 69
17.400646209717 9.074635505676 5.944000244141 183 183 183
17.400646209717 9.074635505676 5.988998413086 53 53 53
17.585241317749 8.765895843506 5.647003173828 89 89 89
17.569644927979 8.766851425171 5.682998657227 192 192 192
17.569644927979 8.766851425171 5.726997375488 193 193 193
17.554048538208 8.767807006836 5.763999938965 175 175 175
17.554048538208 8.767807006836 5.807998657227 181 181 181
17.554048538208 8.767807006836 5.845001220703 174 174 174
17.538452148438 8.768762588501 5.884002685547 178 178 178
17.429283142090 8.775449752808 5.912002563477 39 39 39
17.382495880127 8.778314590454 5.937004089355 176 176 176
17.366422653198 8.771471977234 5.973999023438 86 86 86
17.552450180054 8.486127853394 5.664001464844 149 149 149
17.536853790283 8.487083435059 5.703002929688 203 203 203
17.536853790283 8.487083435059 5.746002197266 149 149 149
17.552450180054 8.486127853394 5.790000915527 114 114 114
17.536853790283 8.487083435059 5.826004028320 179 179 179
17.536853790283 8.487083435059 5.868003845215 189 189 189
17.521257400513 8.488039016724 5.907997131348 92 92 92
17.412088394165 8.494726181030 5.931999206543 160 160 160
17.380895614624 8.496636390686 5.966003417969 120 120 120
17.396492004395 8.495680809021 6.015998840332 122 122 122
17.518701553345 8.190763473511 5.643997192383 17 17 17
17.518701553345 8.190763473511 5.676002502441 177 177 177
17.503105163574 8.191719055176 5.709999084473 205 205 205
17.503105163574 8.191719055176 5.752998352051 185 185 185
17.503105163574 8.191719055176 5.794998168945 189 189 189
17.503105163574 8.191719055176 5.836997985840 187 187 187
17.487510681152 8.192673683167 5.875999450684 178 178 178
17.393936157227 8.198406219482 5.926002502441 117 117 117
17.378339767456 8.199360847473 5.951004028320 178 178 178
17.393936157227 8.198406219482 6.095001220703 136 136 136
17.484954833984 7.895399093628 5.643997192383 35 35 35
17.391380310059 7.901130676270 5.944999694824 174 174 174
17.391380310059 7.901130676270 5.983001708984 107 107 107
17.422573089600 7.899220466614 6.175003051758 111 111 111
17.436569213867 7.616585731506 5.650001525879 146 146 146
17.420972824097 7.617541313171 5.932998657227 137 137 137
17.374185562134 7.620407104492 5.958999633789 169 169 169
17.420972824097 7.617541313171 6.240997314453 60 60 60
17.374185562134 7.620407104492 6.273002624512 78 78 78
17.419372558594 7.335862159729 5.633003234863 54 54 54
17.403776168823 7.336817264557 5.665000915527 119 119 119
17.403776168823 7.336817264557 5.921997070313 67 67 67
17.356988906860 7.339683055878 5.950004577637 178 178 178
17.356988906860 7.339683055878 5.993003845215 44 44 44
17.372585296631 7.338727951050 6.354003906250 103 103 103
17.384670257568 7.024901866913 5.647003173828 130 130 130
17.384670257568 7.024901866913 5.691001892090 34 34 34
17.384670257568 7.024901866913 5.944000244141 147 147 147
17.384670257568 7.024901866913 5.973999023438 167 167 167
17.384670257568 7.024901866913 6.434997558594 121 121 121
17.383071899414 6.743222236633 5.636001586914 25 25 25
17.383071899414 6.743222236633 5.671997070313 142 142 142
17.383071899414 6.743222236633 5.932998657227 92 92 92
17.351881027222 6.745133399963 5.958000183105 175 175 175
17.383071899414 6.743222236633 6.514999389648 97 97 97
17.442901611328 6.442126274109 5.937004089355 31 31 31
17.365877151489 6.462498664856 5.948997497559 133 133 133
17.333730697632 6.448813438416 5.972999572754 128 128 128
17.412664413452 6.459632873535 6.597000122070 29 29 29
17.350278854370 6.463454246521 6.620002746582 67 67 67
17.363321304321 6.165224075317 5.939002990723 74 74 74
17.348680496216 6.181775093079 5.966003417969 151 151 151
17.347724914551 6.166179656982 6.706001281738 107 107 107
17.360765457153 5.867949008942 5.954002380371 147 147 147
17.345170974731 5.868904113770 5.986999511719 101 101 101
17.361721038818 5.883544921875 6.787002563477 93 93 93
17.233922958374 5.586114406586 1.584999084473 182 182 182
17.265113830566 5.584203720093 1.612998962402 184 184 184
17.265113830566 5.584203720093 1.648002624512 182 182 182
17.265113830566 5.584203720093 1.681999206543 184 184 184
17.265113830566 5.584203720093 1.718002319336 179 179 179
17.265113830566 5.584203720093 1.756004333496 183 183 183
17.265113830566 5.584203720093 1.791000366211 181 181 181
17.265113830566 5.584203720093 1.825004577637 182 182 182
17.265113830566 5.584203720093 1.859001159668 182 182 182
17.265113830566 5.584203720093 1.895004272461 183 183 183
17.265113830566 5.584203720093 1.930999755859 188 188 188
17.265113830566 5.584203720093 1.965003967285 184 184 184
17.296783447266 5.590091228485 1.998001098633 187 187 187
17.265113830566 5.584203720093 2.035003662109 184 184 184
17.265113830566 5.584203720093 2.069000244141 185 185 185
17.265113830566 5.584203720093 2.104003906250 184 184 184
17.265113830566 5.584203720093 2.138000488281 186 186 186
17.265113830566 5.584203720093 2.173004150391 187 187 187
17.265113830566 5.584203720093 2.207000732422 187 187 187
17.265113830566 5.584203720093 2.242004394531 182 182 182
17.265113830566 5.584203720093 2.276000976563 188 188 188
17.265113830566 5.584203720093 2.309997558594 188 188 188
17.265113830566 5.584203720093 2.345001220703 189 189 189
17.265113830566 5.584203720093 2.378997802734 188 188 188
17.265113830566 5.584203720093 2.413002014160 188 188 188
17.265113830566 5.584203720093 2.446998596191 188 188 188
17.296783447266 5.590091228485 2.481002807617 188 188 188
17.265113830566 5.584203720093 2.514999389648 193 193 193
17.265113830566 5.584203720093 2.550003051758 190 190 190
17.296783447266 5.590091228485 2.583999633789 189 189 189
17.296783447266 5.590091228485 2.618003845215 190 190 190
17.265113830566 5.584203720093 2.652000427246 188 188 188
17.265113830566 5.584203720093 2.685997009277 188 188 188
17.296783447266 5.590091228485 2.720001220703 191 191 191
17.265113830566 5.584203720093 2.753997802734 192 192 192
17.296783447266 5.590091228485 2.788002014160 192 192 192
17.296783447266 5.590091228485 2.821998596191 194 194 194
17.296783447266 5.590091228485 2.856002807617 194 194 194
17.296783447266 5.590091228485 2.889999389648 189 189 189
17.296783447266 5.590091228485 2.924003601074 192 192 192
17.296783447266 5.590091228485 2.958000183105 193 193 193
17.265113830566 5.584203720093 2.992004394531 193 193 193
17.296783447266 5.590091228485 3.026000976563 191 191 191
17.296783447266 5.590091228485 3.059997558594 182 182 182
17.296783447266 5.590091228485 3.094001770020 184 184 184
17.296783447266 5.590091228485 3.127998352051 189 189 189
17.296783447266 5.590091228485 3.163002014160 187 187 187
17.296783447266 5.590091228485 3.195999145508 186 186 186
17.296783447266 5.590091228485 3.231002807617 186 186 186
17.296783447266 5.590091228485 3.264999389648 187 187 187
17.296783447266 5.590091228485 3.299003601074 190 190 190
17.296783447266 5.590091228485 3.333000183105 189 189 189
17.296783447266 5.590091228485 3.367004394531 192 192 192
17.296783447266 5.590091228485 3.402000427246 192 192 192
17.296783447266 5.590091228485 3.435997009277 189 189 189
17.296783447266 5.590091228485 3.470001220703 185 185 185
17.296783447266 5.590091228485 3.504997253418 192 192 192
17.296783447266 5.590091228485 3.539001464844 192 192 192
17.296783447266 5.590091228485 3.573997497559 185 185 185
17.296783447266 5.590091228485 3.608001708984 179 179 179
17.296783447266 5.590091228485 3.641998291016 189 189 189
17.296783447266 5.590091228485 3.677001953125 193 193 193
17.296783447266 5.590091228485 3.711997985840 191 191 191
17.265113830566 5.584203720093 3.745002746582 186 186 186
17.296783447266 5.590091228485 3.780998229980 186 186 186
17.296783447266 5.590091228485 3.815002441406 188 188 188
17.296783447266 5.590091228485 3.850997924805 186 186 186
17.296783447266 5.590091228485 3.885002136230 183 183 183
17.296783447266 5.590091228485 3.920997619629 183 183 183
17.296783447266 5.590091228485 3.957000732422 185 185 185
17.296783447266 5.590091228485 3.990997314453 181 181 181
17.296783447266 5.590091228485 4.026000976563 183 183 183
17.296783447266 5.590091228485 4.062004089355 184 184 184
17.296783447266 5.590091228485 4.096000671387 187 187 187
17.296783447266 5.590091228485 4.132003784180 191 191 191
17.296783447266 5.590091228485 4.167999267578 188 188 188
17.296783447266 5.590091228485 4.204002380371 181 181 181
17.296783447266 5.590091228485 4.236999511719 179 179 179
17.296783447266 5.590091228485 4.277000427246 180 180 180
17.296783447266 5.590091228485 4.312004089355 180 180 180
17.296783447266 5.590091228485 4.347999572754 179 179 179
17.296783447266 5.590091228485 4.384002685547 175 175 175
17.296783447266 5.590091228485 4.420997619629 178 178 178
17.296783447266 5.590091228485 4.454002380371 179 179 179
17.296783447266 5.590091228485 4.493003845215 179 179 179
17.296783447266 5.590091228485 4.527000427246 180 180 180
17.296783447266 5.590091228485 4.565002441406 180 180 180
17.296783447266 5.590091228485 4.601997375488 176 176 176
17.296783447266 5.590091228485 4.637001037598 180 180 180
17.296783447266 5.590091228485 4.677001953125 172 172 172
17.296783447266 5.590091228485 4.714004516602 177 177 177
17.296783447266 5.590091228485 4.750000000000 174 174 174
17.296783447266 5.590091228485 4.789001464844 180 180 180
17.296783447266 5.590091228485 4.826004028320 178 178 178
17.296783447266 5.590091228485 4.861999511719 173 173 173
17.296783447266 5.590091228485 4.901000976563 178 178 178
17.296783447266 5.590091228485 4.938003540039 176 176 176
17.296783447266 5.590091228485 4.975997924805 177 177 177
17.296783447266 5.590091228485 5.013999938965 172 172 172
17.296783447266 5.590091228485 5.053001403809 172 172 172
17.296783447266 5.590091228485 5.093002319336 174 174 174
17.296783447266 5.590091228485 5.132003784180 170 170 170
17.296783447266 5.590091228485 5.167999267578 169 169 169
17.296783447266 5.590091228485 5.206001281738 172 172 172
17.296783447266 5.590091228485 5.247001647949 172 172 172
17.296783447266 5.590091228485 5.285003662109 175 175 175
17.296783447266 5.590091228485 5.329002380371 173 173 173
17.296783447266 5.590091228485 5.368003845215 171 171 171
17.296783447266 5.590091228485 5.403999328613 159 159 159
17.296783447266 5.590091228485 5.448997497559 168 168 168
17.312379837036 5.589136123657 5.490997314453 172 172 172
17.296783447266 5.590091228485 5.527999877930 175 175 175
17.296783447266 5.590091228485 5.566001892090 174 174 174
17.296783447266 5.590091228485 5.611999511719 176 176 176
17.296783447266 5.590091228485 5.653999328613 177 177 177
17.296783447266 5.590091228485 5.694999694824 177 177 177
17.296783447266 5.590091228485 5.737998962402 166 166 166
17.296783447266 5.590091228485 5.777999877930 163 163 163
17.312379837036 5.589136123657 5.823997497559 174 174 174
17.296783447266 5.590091228485 5.860000610352 172 172 172
17.296783447266 5.590091228485 5.905998229980 173 173 173
17.296783447266 5.590091228485 5.945999145508 162 162 162
17.296783447266 5.590091228485 5.992004394531 138 138 138
17.312379837036 5.589136123657 6.038002014160 175 175 175
17.312379837036 5.589136123657 6.081001281738 175 175 175
17.312379837036 5.589136123657 6.125999450684 177 177 177
17.312379837036 5.589136123657 6.170997619629 172 172 172
17.296783447266 5.590091228485 6.212997436523 159 159 159
17.312379837036 5.589136123657 6.259002685547 153 153 153
17.312379837036 5.589136123657 6.307998657227 167 167 167
17.312379837036 5.589136123657 6.357002258301 169 169 169
17.312379837036 5.589136123657 6.399002075195 171 171 171
17.312379837036 5.589136123657 6.444999694824 179 179 179
17.312379837036 5.589136123657 6.488998413086 180 180 180
17.312379837036 5.589136123657 6.539001464844 175 175 175
17.312379837036 5.589136123657 6.582000732422 180 180 180
17.312379837036 5.589136123657 6.634002685547 178 178 178
17.312379837036 5.589136123657 6.678001403809 177 177 177
17.312379837036 5.589136123657 6.728004455566 177 177 177
17.312379837036 5.589136123657 6.778999328613 176 176 176
17.312379837036 5.589136123657 6.823997497559 147 147 147
17.296783447266 5.590091228485 6.872001647949 167 167 167
17.296783447266 5.590091228485 6.919998168945 174 174 174
17.312379837036 5.589136123657 6.972999572754 177 177 177
17.296783447266 5.590091228485 7.021003723145 180 180 180
17.296783447266 5.590091228485 7.068000793457 179 179 179
17.296783447266 5.590091228485 7.121002197266 155 155 155
17.265113830566 5.584203720093 7.157997131348 17 17 17
17.267980575562 5.630990982056 7.124000549316 37 37 37
17.283576965332 5.630035400391 7.082000732422 154 154 154
17.267980575562 5.630990982056 7.020004272461 164 164 164
17.267980575562 5.630990982056 6.971000671387 172 172 172
17.283576965332 5.630035400391 6.924003601074 169 169 169
17.283576965332 5.630035400391 6.873001098633 169 169 169
17.267980575562 5.630990982056 6.818000793457 140 140 140
17.267980575562 5.630990982056 6.766998291016 168 168 168
17.268936157227 5.646586894989 6.717002868652 175 175 175
17.268936157227 5.646586894989 6.666999816895 175 175 175
17.298692703247 5.621282577515 6.622001647949 173 173 173
17.268936157227 5.646586894989 6.566001892090 174 174 174
17.283576965332 5.630035400391 6.521003723145 172 172 172
17.283576965332 5.630035400391 6.469001770020 172 172 172
17.283576965332 5.630035400391 6.419998168945 178 178 178
17.283576965332 5.630035400391 6.373001098633 177 177 177
17.283576965332 5.630035400391 6.326004028320 173 173 173
17.283576965332 5.630035400391 6.277999877930 168 168 168
17.283576965332 5.630035400391 6.229003906250 151 151 151
17.283576965332 5.630035400391 6.181999206543 157 157 157
17.283576965332 5.630035400391 6.131004333496 171 171 171
17.283576965332 5.630035400391 6.083999633789 171 171 171
17.283576965332 5.630035400391 6.037002563477 171 171 171
17.268936157227 5.646586894989 5.988998413086 163 163 163
17.237745285034 5.648497581482 5.928001403809 131 131 131
17.283576965332 5.630035400391 5.900001525879 164 164 164
17.268936157227 5.646586894989 5.847000122070 163 163 163
17.283576965332 5.630035400391 5.807998657227 171 171 171
17.283576965332 5.630035400391 5.760002136230 153 153 153
17.298692703247 5.621282577515 5.720001220703 162 162 162
17.283576965332 5.630035400391 5.669998168945 157 157 157
17.283576965332 5.630035400391 5.625000000000 166 166 166
17.268936157227 5.646586894989 5.579002380371 160 160 160
17.283576965332 5.630035400391 5.536003112793 166 166 166
17.299648284912 5.636878490448 5.495002746582 169 169 169
17.268936157227 5.646586894989 5.445999145508 166 166 166
17.299648284912 5.636878490448 5.406997680664 162 162 162
17.283576965332 5.630035400391 5.358001708984 160 160 160
17.283576965332 5.630035400391 5.315002441406 156 156 156
17.283576965332 5.630035400391 5.272003173828 159 159 159
17.283576965332 5.630035400391 5.226997375488 158 158 158
17.283576965332 5.630035400391 5.185997009277 161 161 161
17.285009384155 5.653429031372 5.142997741699 156 156 156
17.283576965332 5.630035400391 5.098999023438 153 153 153
17.285009384155 5.653429031372 5.055999755859 158 158 158
17.283576965332 5.630035400391 5.013000488281 151 151 151
17.285009384155 5.653429031372 4.972000122070 166 166 166
17.285009384155 5.653429031372 4.928001403809 169 169 169
17.299648284912 5.636878490448 4.888000488281 163 163 163
17.283576965332 5.630035400391 4.843002319336 164 164 164
17.285009384155 5.653429031372 4.802001953125 162 162 162
17.299648284912 5.636878490448 4.761001586914 158 158 158
17.285009384155 5.653429031372 4.718002319336 167 167 167
17.285009384155 5.653429031372 4.677001953125 163 163 163
17.299648284912 5.636878490448 4.638000488281 171 171 171
17.299648284912 5.636878490448 4.595001220703 170 170 170
17.285009384155 5.653429031372 4.552001953125 169 169 169
17.299648284912 5.636878490448 4.513000488281 163 163 163
17.285009384155 5.653429031372 4.469001770020 168 168 168
17.299648284912 5.636878490448 4.430000305176 164 164 164
17.285009384155 5.653429031372 4.386001586914 166 166 166
17.299648284912 5.636878490448 4.347000122070 170 170 170
17.299648284912 5.636878490448 4.306999206543 166 166 166
17.299648284912 5.636878490448 4.265998840332 172 172 172
17.299648284912 5.636878490448 4.223999023438 170 170 170
17.299648284912 5.636878490448 4.183998107910 172 172 172
17.299648284912 5.636878490448 4.142997741699 173 173 173
17.299648284912 5.636878490448 4.103004455566 174 174 174
17.314289093018 5.620326995850 4.063003540039 175 175 175
17.299648284912 5.636878490448 4.022003173828 168 168 168
17.299648284912 5.636878490448 3.982002258301 172 172 172
17.299648284912 5.636878490448 3.941001892090 164 164 164
17.299648284912 5.636878490448 3.901000976563 168 168 168
17.285009384155 5.653429031372 3.860000610352 177 177 177
17.299648284912 5.636878490448 3.820999145508 175 175 175
17.299648284912 5.636878490448 3.780998229980 175 175 175
17.285009384155 5.653429031372 3.739997863770 172 172 172
17.285009384155 5.653429031372 3.698997497559 179 179 179
17.299648284912 5.636878490448 3.660003662109 182 182 182
17.299648284912 5.636878490448 3.620002746582 185 185 185
17.316200256348 5.651518821716 3.581001281738 178 178 178
17.285009384155 5.653429031372 3.540000915527 179 179 179
17.285009384155 5.653429031372 3.500000000000 178 178 178
17.316200256348 5.651518821716 3.460998535156 184 184 184
17.316200256348 5.651518821716 3.420997619629 181 181 181
17.285009384155 5.653429031372 3.381004333496 181 181 181
17.330841064453 5.634967803955 3.342002868652 177 177 177
17.316200256348 5.651518821716 3.302001953125 175 175 175
17.316200256348 5.651518821716 3.262001037598 171 171 171
17.316200256348 5.651518821716 3.222000122070 180 180 180
17.316200256348 5.651518821716 3.181999206543 177 177 177
17.316200256348 5.651518821716 3.142997741699 173 173 173
17.316200256348 5.651518821716 3.103004455566 174 174 174
17.316200256348 5.651518821716 3.063003540039 175 175 175
17.300603866577 5.652473926544 3.023002624512 169 169 169
17.316200256348 5.651518821716 2.983001708984 166 166 166
17.285009384155 5.653429031372 2.944000244141 177 177 177
17.316200256348 5.651518821716 2.903999328613 180 180 180
17.300603866577 5.652473926544 2.863998413086 176 176 176
17.316200256348 5.651518821716 2.823997497559 178 178 178
17.300603866577 5.652473926544 2.785003662109 170 170 170
17.300603866577 5.652473926544 2.745002746582 175 175 175
17.300603866577 5.652473926544 2.705001831055 174 174 174
17.300603866577 5.652473926544 2.665000915527 176 176 176
17.316200256348 5.651518821716 2.625000000000 176 176 176
17.300603866577 5.652473926544 2.584999084473 177 177 177
17.300603866577 5.652473926544 2.545997619629 178 178 178
17.300603866577 5.652473926544 2.504997253418 173 173 173
17.300603866577 5.652473926544 2.465003967285 174 174 174
17.300603866577 5.652473926544 2.425003051758 165 165 165
17.300603866577 5.652473926544 2.385002136230 166 166 166
17.300603866577 5.652473926544 2.345001220703 167 167 167
17.300603866577 5.652473926544 2.304000854492 167 167 167
17.300603866577 5.652473926544 2.263999938965 164 164 164
17.300603866577 5.652473926544 2.223999023438 164 164 164
17.300603866577 5.652473926544 2.182998657227 170 170 170
17.300603866577 5.652473926544 2.141998291016 165 165 165
17.300603866577 5.652473926544 2.101997375488 165 165 165
17.300603866577 5.652473926544 2.060997009277 167 167 167
17.300603866577 5.652473926544 2.021003723145 166 166 166
17.300603866577 5.652473926544 1.981002807617 163 163 163
17.316200256348 5.651518821716 1.938003540039 166 166 166
17.300603866577 5.652473926544 1.898002624512 166 166 166
17.300603866577 5.652473926544 1.857002258301 162 162 162
17.300603866577 5.652473926544 1.816001892090 162 162 162
17.300603866577 5.652473926544 1.774002075195 163 163 163
17.300603866577 5.652473926544 1.732002258301 164 164 164
17.316200256348 5.651518821716 1.690002441406 161 161 161
17.300603866577 5.652473926544 1.649002075195 158 158 158
17.300603866577 5.652473926544 1.608001708984 161 161 161
17.300603866577 5.652473926544 1.524002075195 158 158 158
17.300603866577 5.652473926544 1.481002807617 160 160 160
17.316200256348 5.651518821716 1.437004089355 154 154 154
17.300603866577 5.652473926544 1.397003173828 155 155 155
17.300603866577 5.652473926544 1.357002258301 152 152 152
17.334350585938 5.947838783264 6.723999023438 64 64 64
17.335306167603 5.963434219360 5.938003540039 132 132 132
17.334350585938 5.947838783264 5.897003173828 81 81 81
17.340726852417 6.307496547699 6.637001037598 77 77 77
17.356323242188 6.306541442871 5.960998535156 27 27 27
17.340726852417 6.307496547699 5.910003662109 142 142 142
17.347105026245 6.667154312134 6.509002685547 95 95 95
17.348058700562 6.682750701904 5.927001953125 161 161 161
17.392936706543 6.648692607880 5.896003723145 92 92 92
17.362699508667 6.666199207306 5.614997863770 122 122 122
17.369075775146 7.025856971741 6.424003601074 21 21 21
17.384670257568 7.024901866913 6.387001037598 29 29 29
17.354434967041 7.042408466339 5.942001342773 117 117 117
17.369075775146 7.025856971741 5.902000427246 146 146 146
17.384670257568 7.024901866913 5.632003784180 88 88 88
17.400266647339 7.023946762085 5.596000671387 32 32 32
17.376407623291 7.401111125946 6.304000854492 109 109 109
17.360811233521 7.402066230774 5.915000915527 160 160 160
17.375452041626 7.385515213013 5.878997802734 63 63 63
17.392004013062 7.400156021118 5.611000061035 141 141 141
17.367187500000 7.761724472046 6.170997619629 69 69 69
17.367187500000 7.761724472046 5.931999206543 148 148 148
17.367187500000 7.761724472046 5.888999938965 125 125 125
17.412065505981 7.727666854858 5.638999938965 63 63 63
17.442300796509 7.710160255432 5.603004455566 52 52 52
17.403799057007 8.103876113892 6.096000671387 121 121 121
17.373563766479 8.121381759644 5.947998046875 71 71 71
17.373563766479 8.121381759644 5.898002624512 152 152 152
17.463317871094 8.053267478943 5.847000122070 151 151 151
17.463317871094 8.053267478943 5.800003051758 196 196 196
17.479869842529 8.067907333374 5.759002685547 205 205 205
17.479869842529 8.067907333374 5.710998535156 203 203 203
17.478914260864 8.052311897278 5.667999267578 199 199 199
17.478914260864 8.052311897278 5.625000000000 151 151 151
17.378984451294 8.465444564819 5.971000671387 63 63 63
17.379940032959 8.481040954590 5.913002014160 157 157 157
17.378984451294 8.465444564819 5.877998352051 86 86 86
17.499931335449 8.395419120789 5.833000183105 174 174 174
17.499931335449 8.395419120789 5.791000366211 148 148 148
17.499931335449 8.395419120789 5.746002197266 180 180 180
17.499931335449 8.395419120789 5.698997497559 194 194 194
17.531122207642 8.393508911133 5.656997680664 193 193 193
17.529211044312 8.362316131592 5.617004394531 111 111 111
17.370243072510 8.833855628967 5.925003051758 148 148 148
17.386316299438 8.840698242188 5.885002136230 130 130 130
17.505350112915 8.739480972290 5.858001708984 111 111 111
17.536540985107 8.737569808960 5.817001342773 185 185 185
17.536540985107 8.737569808960 5.773002624512 166 166 166
17.536540985107 8.737569808960 5.725997924805 116 116 116
17.535585403442 8.721975326538 5.684997558594 188 188 188
17.535585403442 8.721975326538 5.638999938965 167 167 167
17.565824508667 8.704468727112 5.603004455566 18 18 18
17.346384048462 9.211019515991 5.926002502441 130 130 130
17.361980438232 9.210064888000 5.885002136230 137 137 137
17.468759536743 9.164388656616 5.835998535156 148 148 148
17.468759536743 9.164388656616 5.790000915527 160 160 160
17.467805862427 9.148793220520 5.748001098633 178 178 178
17.467805862427 9.148793220520 5.707000732422 143 143 143
17.467805862427 9.148793220520 5.660003662109 185 185 185
17.483402252197 9.147837638855 5.617004394531 137 137 137
17.339075088501 9.602825164795 5.929000854492 142 142 142
17.353713989258 9.586274147034 5.891998291016 142 142 142
17.398590087891 9.552216529846 5.864997863770 26 26 26
17.399545669556 9.567811965942 5.818000793457 173 173 173
17.429306030273 9.542508125305 5.788002014160 69 69 69
17.414665222168 9.559059143066 5.736000061035 173 173 173
17.429306030273 9.542508125305 5.698997497559 80 80 80
17.429306030273 9.542508125305 5.652000427246 186 186 186
17.429306030273 9.542508125305 5.610000610352 108 108 108
17.315214157104 9.979989051819 6.023002624512 78 78 78
17.361047744751 9.961527824402 5.997001647949 15 15 15
17.300573348999 9.996541023254 5.920997619629 146 146 146
17.329854965210 9.963438034058 5.888999938965 109 109 109
17.361047744751 9.961527824402 5.860000610352 59 59 59
17.360092163086 9.945932388306 5.820999145508 175 175 175
17.360092163086 9.945932388306 5.775001525879 157 157 157
17.359136581421 9.930335998535 5.732002258301 153 153 153
17.360092163086 9.945932388306 5.685997009277 163 163 163
17.390327453613 9.928424835205 5.648002624512 178 178 178
17.390327453613 9.928424835205 5.601997375488 93 93 93
17.274803161621 10.342513084412 6.112998962402 115 115 115
17.244567871094 10.360019683838 5.916999816895 157 157 157
17.275758743286 10.358109474182 5.879997253418 90 90 90
17.336231231689 10.323096275330 5.637001037598 86 86 86
17.335275650024 10.307500839233 5.596000671387 67 67 67
17.250944137573 10.719677925110 6.247001647949 102 102 102
17.221662521362 10.752779960632 5.954002380371 15 15 15
17.237257003784 10.751825332642 5.913002014160 154 154 154
17.251899719238 10.735273361206 5.877998352051 56 56 56
17.313327789307 10.715856552124 5.635002136230 116 116 116
17.312372207642 10.700260162354 5.597000122070 43 43 43
17.244590759277 11.127078056335 6.382003784180 54 54 54
17.242679595947 11.095886230469 6.344001770020 68 68 68
17.213397979736 11.128989219666 5.947998046875 47 47 47
17.228994369507 11.128033638000 5.909004211426 155 155 155
17.242679595947 11.095886230469 5.886001586914 25 25 25
17.305061340332 11.092064857483 5.638000488281 93 93 93
17.304105758667 11.076470375061 5.598999023438 72 72 72
17.220729827881 11.504241943359 6.480003356934 90 90 90
17.159780502319 11.531456947327 5.943000793457 82 82 82
17.190492630005 11.521749496460 5.909004211426 151 151 151
17.265607833862 11.470185279846 5.640998840332 86 86 86
17.265607833862 11.470185279846 5.597000122070 84 84 84
17.180797576904 11.874564170837 6.618003845215 110 110 110
17.135919570923 11.908621788025 5.944999694824 94 94 94
17.151515960693 11.907667160034 5.904998779297 160 160 160
17.180797576904 11.874564170837 5.882003784180 16 16 16
17.141340255737 12.252683639526 6.753997802734 95 95 95
17.096464157104 12.286741256714 5.942001342773 120 120 120
17.112060546875 12.285786628723 5.901000976563 145 145 145
17.042367935181 12.681412696838 6.944000244141 17 17 17
17.012130737305 12.698918342590 6.869003295898 63 63 63
17.058917999268 12.696052551270 6.847000122070 111 111 111
17.072603225708 12.663906097412 6.809997558594 131 131 131
17.103794097900 12.661995887756 6.775001525879 129 129 129
17.058917999268 12.696052551270 6.696998596191 71 71 71
17.058917999268 12.696052551270 6.649002075195 90 90 90
17.043323516846 12.697008132935 6.595001220703 92 92 92
17.043323516846 12.697008132935 6.543998718262 94 94 94
17.043323516846 12.697008132935 6.496002197266 105 105 105
17.043323516846 12.697008132935 6.456001281738 118 118 118
17.043323516846 12.697008132935 6.400001525879 126 126 126
17.043323516846 12.697008132935 6.353004455566 122 122 122
17.043323516846 12.697008132935 6.310997009277 126 126 126
17.043323516846 12.697008132935 6.271003723145 127 127 127
17.043323516846 12.697008132935 6.219001770020 131 131 131
17.027727127075 12.697962760925 6.166999816895 138 138 138
17.043323516846 12.697008132935 6.128997802734 139 139 139
17.027727127075 12.697962760925 6.080001831055 150 150 150
17.043323516846 12.697008132935 6.037002563477 154 154 154
17.027727127075 12.697962760925 5.990997314453 152 152 152
17.027727127075 12.697962760925 5.946998596191 132 132 132
17.027727127075 12.697962760925 5.903999328613 153 153 153
17.027727127075 12.697962760925 5.861000061035 160 160 160
17.043323516846 12.697008132935 5.819000244141 157 157 157
17.027727127075 12.697962760925 5.774002075195 164 164 164
17.027727127075 12.697962760925 5.733001708984 166 166 166
17.028682708740 12.713559150696 5.685997009277 168 168 168
17.027727127075 12.697962760925 5.647003173828 172 172 172
17.028682708740 12.713559150696 5.601997375488 170 170 170
17.027727127075 12.697962760925 5.564002990723 170 170 170
17.028682708740 12.713559150696 5.520004272461 174 174 174
17.028682708740 12.713559150696 5.478004455566 171 171 171
17.027727127075 12.697962760925 5.439002990723 173 173 173
17.028682708740 12.713559150696 5.395004272461 172 172 172
17.028682708740 12.713559150696 5.355003356934 173 173 173
17.028682708740 12.713559150696 5.315002441406 177 177 177
17.028682708740 12.713559150696 5.272003173828 176 176 176
17.028682708740 12.713559150696 5.232002258301 174 174 174
17.029638290405 12.729155540466 5.191001892090 177 177 177
17.029638290405 12.729155540466 5.151000976563 174 174 174
17.027727127075 12.697962760925 5.114997863770 174 174 174
17.028682708740 12.713559150696 5.072998046875 174 174 174
17.028682708740 12.713559150696 5.034004211426 179 179 179
17.029638290405 12.729155540466 4.990997314453 178 178 178
17.029638290405 12.729155540466 4.953002929688 180 180 180
17.028682708740 12.713559150696 4.915000915527 182 182 182
17.029638290405 12.729155540466 4.874000549316 182 182 182
17.014041900635 12.730110168457 4.833999633789 183 183 183
17.029638290405 12.729155540466 4.795997619629 179 179 179
17.029638290405 12.729155540466 4.758003234863 180 180 180
17.014041900635 12.730110168457 4.718002319336 179 179 179
17.029638290405 12.729155540466 4.681999206543 171 171 171
17.029638290405 12.729155540466 4.645004272461 175 175 175
17.014041900635 12.730110168457 4.603004455566 176 176 176
17.014041900635 12.730110168457 4.567001342773 177 177 177
17.014041900635 12.730110168457 4.527000427246 182 182 182
17.014041900635 12.730110168457 4.489997863770 184 184 184
17.014041900635 12.730110168457 4.453002929688 188 188 188
17.014041900635 12.730110168457 4.415000915527 187 187 187
17.014041900635 12.730110168457 4.377998352051 185 185 185
16.999402999878 12.746661186218 4.339004516602 186 186 186
17.014041900635 12.730110168457 4.303001403809 181 181 181
17.014041900635 12.730110168457 4.265998840332 178 178 178
17.014041900635 12.730110168457 4.228004455566 186 186 186
17.014041900635 12.730110168457 4.192001342773 186 186 186
17.014041900635 12.730110168457 4.154998779297 188 188 188
17.014041900635 12.730110168457 4.120002746582 189 189 189
17.014041900635 12.730110168457 4.081001281738 188 188 188
16.999402999878 12.746661186218 4.043998718262 188 188 188
17.014041900635 12.730110168457 4.009002685547 188 188 188
16.999402999878 12.746661186218 3.971000671387 193 193 193
16.999402999878 12.746661186218 3.933998107910 195 195 195
17.014041900635 12.730110168457 3.899002075195 196 196 196
17.014041900635 12.730110168457 3.861999511719 193 193 193
16.999402999878 12.746661186218 3.825004577637 192 192 192
16.999402999878 12.746661186218 3.789001464844 192 192 192
16.999402999878 12.746661186218 3.752998352051 192 192 192
16.999402999878 12.746661186218 3.717002868652 194 194 194
17.014041900635 12.730110168457 3.681999206543 197 197 197
