7.038089275360 15.135297775269 61.894989013672 61 61 61
7.047427654266 15.128829956055 61.755004882813 39 39 39
7.038089275360 15.135297775269 61.609985351563 37 37 37
6.935904026031 15.103185653687 69.053009033203 61 61 61
6.930655956268 15.106731414795 68.889007568359 68 68 68
6.940964221954 15.100152969360 68.720001220703 69 69 69
6.945970058441 15.096634864807 68.553985595703 70 70 70
6.953720569611 15.091330528259 68.389007568359 70 70 70
6.942496776581 15.098504066467 68.234008789063 80 80 80
6.954041004181 15.089818954468 68.070983886719 86 86 86
6.949144840240 15.094307899475 67.915985107422 87 87 87
6.962761402130 15.084404945374 67.755004882813 67 67 67
6.950920581818 15.092632293701 67.605010986328 82 82 82
6.959961414337 15.085705757141 67.447998046875 102 102 102
6.966851711273 15.081481933594 67.294006347656 104 104 104
6.968086719513 15.079375267029 67.141998291016 91 91 91
6.972684383392 15.074430465698 66.989990234375 104 104 104
6.975484371185 15.073128700256 66.839996337891 105 105 105
6.969861507416 15.077699661255 66.694000244141 108 108 108
6.977987766266 15.071369171143 66.544006347656 89 89 89
6.976101398468 15.072074890137 66.398010253906 103 103 103
6.984525203705 15.066203117371 66.251007080078 112 112 112
6.976101398468 15.072074890137 66.108001708984 114 114 114
6.974216938019 15.072781562805 65.963989257813 124 124 124
6.973841190338 15.073806762695 65.820007324219 116 116 116
6.980809688568 15.068099975586 65.675994873047 128 128 128
6.974216938019 15.072781562805 65.533996582031 109 109 109
6.979277133942 15.069747924805 65.391998291016 120 120 120
6.985197544098 15.065634727478 65.248992919922 117 117 117
6.982882022858 15.066881179810 65.108001708984 121 121 121
6.972331523895 15.073488235474 64.968994140625 108 108 108
6.976421833038 15.070565223694 64.828002929688 130 130 130
6.978307247162 15.069858551025 64.687011718750 109 109 109
6.970126628876 15.075703620911 64.548004150391 116 116 116
6.977391719818 15.070454597473 64.407989501953 123 123 123
6.974536418915 15.071270942688 64.268005371094 125 125 125
6.976421833038 15.070565223694 64.128997802734 116 116 116
6.965495586395 15.078196525574 63.989990234375 116 116 116
6.961758136749 15.082061767578 63.850982666016 99 99 99
6.973620891571 15.071866035461 63.710998535156 123 123 123
6.972893238068 15.071949005127 63.571990966797 112 112 112
6.981426715851 15.067047119141 63.432983398438 117 117 117
6.957479953766 15.085496902466 63.291992187500 91 91 91
6.964469432831 15.077821731567 63.152984619141 105 105 105
6.966354846954 15.077116012573 63.013000488281 96 96 96
6.965384960175 15.077226638794 62.872985839844 100 100 100
6.963499546051 15.077932357788 62.733001708984 91 91 91
6.956718921661 15.083126068115 62.591003417969 82 82 82
6.956718921661 15.083126068115 62.450012207031 80 80 80
6.955749034882 15.083236694336 62.308990478516 83 83 83
6.953863620758 15.083943367004 62.166992187500 75 75 75
6.967645168304 15.075494766235 62.027008056641 78 78 78
6.944557666779 15.092864036560 61.880004882813 29 29 29
6.949772357941 15.086864471436 61.738006591797 15 15 15
6.958923816681 15.080909729004 61.596008300781 11 11 11
7.115210056305 21.232063293457 66.492004394531 70 70 70
7.057988643646 21.104904174805 66.352996826172 190 190 190
7.129421710968 21.141006469727 66.488006591797 31 31 31
7.010426998138 20.980577468872 66.212005615234 4 4 4
7.058052539825 21.006118774414 66.352996826172 202 202 202
7.121954441071 21.038654327393 66.488983154297 27 27 27
7.017349720001 20.885927200317 66.210998535156 4 4 4
7.066972255707 20.911733627319 66.350982666016 144 144 144
7.125912189484 20.943849563599 66.488983154297 31 31 31
7.062228679657 20.809562683105 66.351989746094 197 197 197
7.132581233978 20.844806671143 66.486999511719 30 30 30
7.066339015961 20.711791992188 66.350982666016 135 135 135
7.147057056427 20.751752853394 66.481994628906 39 39 39
7.073361873627 20.613691329956 66.346984863281 193 193 193
7.124063968658 20.640356063843 66.485992431641 58 58 58
7.081949710846 20.516391754150 66.345001220703 155 155 155
7.138860225677 20.545793533325 66.481994628906 51 51 51
7.072794437408 20.407844543457 66.194000244141 23 23 23
7.107055187225 20.426061630249 66.337005615234 207 207 207
7.155222415924 20.452032089233 66.475982666016 60 60 60
7.073960781097 20.307950973511 66.192993164063 34 34 34
7.127365589142 20.336767196655 66.330993652344 144 144 144
7.155175685883 20.352277755737 66.475006103516 60 60 60
7.087930202484 20.216922760010 66.190002441406 31 31 31
7.138335704803 20.243129730225 66.329010009766 184 184 184
7.152946949005 20.252771377563 66.475982666016 31 31 31
7.079437732697 20.114196777344 66.191986083984 9 9 9
7.104822635651 20.129981994629 66.335998535156 173 173 173
7.164379596710 20.161046981812 66.471984863281 21 21 21
7.082910060883 20.019445419312 66.191986083984 23 23 23
7.095117092133 20.027395248413 66.339996337891 172 172 172
7.129730701447 20.046554565430 66.480987548828 35 35 35
7.098158359528 19.933183670044 66.337982177734 169 169 169
7.159171581268 19.964084625244 66.472991943359 80 80 80
7.051004886627 19.810287475586 66.199005126953 27 27 27
7.092070102692 19.832151412964 66.339996337891 168 168 168
7.125008106232 19.849536895752 66.481994628906 35 35 35
7.044563770294 19.708311080933 66.201995849609 28 28 28
7.084602832794 19.729801177979 66.342987060547 174 174 174
7.137599468231 19.757188796997 66.480010986328 43 43 43
7.041308879852 19.608427047729 66.201995849609 28 28 28
7.081105709076 19.629945755005 66.342987060547 194 194 194
7.115421772003 19.648649215698 66.484985351563 44 44 44
7.042795658112 19.507024765015 66.200012207031 25 25 25
7.082702159882 19.529512405396 66.341003417969 119 119 119
7.119146823883 19.547481536865 66.480987548828 58 58 58
7.034996509552 19.401763916016 66.199005126953 19 19 19
7.077385425568 19.424461364746 66.338989257813 117 117 117
7.109352588654 19.441953659058 66.480987548828 56 56 56
7.030704975128 19.297084808350 66.199005126953 20 20 20
7.072012424469 19.318922042847 66.338989257813 133 133 133
7.102469921112 19.336097717285 66.480987548828 66 66 66
7.049658298492 19.204505920410 66.191009521484 13 13 13
7.061975955963 19.213422775269 66.337982177734 127 127 127
7.109194278717 19.237537384033 66.475982666016 76 76 76
7.049258708954 19.103807449341 66.188995361328 21 21 21
7.069350719452 19.116264343262 66.333984375000 222 222 222
7.094624996185 19.131080627441 66.477996826172 70 70 70
7.035694599152 18.999692916870 66.191009521484 16 16 16
7.077729701996 19.021446228027 66.329986572266 37 37 37
7.105539798737 19.036958694458 66.472991943359 86 86 86
7.061186313629 18.912757873535 66.184997558594 28 28 28
7.062199115753 18.815830230713 66.183990478516 17 17 17
7.075891971588 18.629495620728 66.326995849609 45 45 45
7.087371349335 18.637527465820 66.472991943359 53 53 53
7.097316265106 18.040288925171 66.454986572266 32 32 32
7.118322849274 18.052148818970 66.598999023438 12 12 12
7.110613346100 17.949827194214 66.598999023438 15 15 15
7.011761188507 17.605768203735 66.322998046875 57 57 57
7.027640819550 17.615756988525 66.467987060547 57 57 57
7.103022098541 17.656324386597 66.746002197266 3 3 3
7.068720340729 17.242509841919 66.597991943359 4 4 4
7.059557437897 17.244043350220 66.899993896484 11 11 11
7.040251255035 16.832454681396 67.044982910156 23 23 23
7.013450145721 16.523445129395 67.196990966797 27 27 27
7.007502079010 16.229263305664 67.346984863281 23 23 23
7.005213260651 15.932699203491 67.496002197266 33 33 33
6.981852054596 15.619366645813 67.649993896484 75 75 75
6.990985393524 15.308727264404 61.630004882813 52 52 52
6.995550632477 15.312138557434 61.773986816406 52 52 52
7.002740383148 15.319183349609 61.917999267578 99 99 99
6.985715389252 15.314240455627 62.057983398438 83 83 83
6.984182834625 15.315889358521 62.200012207031 75 75 75
6.981327533722 15.316705703735 62.342010498047 95 95 95
6.968161106110 15.313288688660 62.481994628906 66 66 66
6.968305110931 15.316712379456 62.622985839844 58 58 58
6.961590290070 15.316001892090 62.763000488281 16 16 16
7.055513858795 15.240939140320 61.645996093750 76 76 76
7.057542324066 15.243657112122 61.789001464844 83 83 83
7.064788341522 15.251187324524 61.932006835938 105 105 105
7.062229633331 15.252460479736 62.072998046875 118 118 118
7.058105945587 15.252929687500 62.213989257813 124 124 124
7.065241336823 15.259490013123 62.355010986328 129 129 129
7.056717395782 15.258001327515 62.493988037109 137 137 137
7.044467449188 15.253990173340 62.632995605469 137 137 137
7.039670467377 15.255026817322 62.773010253906 148 148 148
7.047179698944 15.260560989380 62.912994384766 140 140 140
7.044974803925 15.262777328491 63.052001953125 143 143 143
7.047247409821 15.265468597412 63.191009521484 156 156 156
7.028954029083 15.260177612305 63.329986572266 126 126 126
7.031336307526 15.263838768005 63.468994140625 148 148 148
7.033772945404 15.267983436584 63.608001708984 129 129 129
7.022118091583 15.264887809753 63.747009277344 131 131 131
7.027444362640 15.270669937134 63.885986328125 131 131 131
7.020729541779 15.269959449768 64.024993896484 129 129 129
7.006912708282 15.265142440796 64.165008544922 109 109 109
7.006273746490 15.268163681030 64.303985595703 112 112 112
7.009681224823 15.272198677063 64.444000244141 116 116 116
7.006880283356 15.273500442505 64.583984375000 102 102 102
7.016198635101 15.279811859131 64.722991943359 60 60 60
7.007002353668 15.278892517090 64.863983154297 92 92 92
6.999019145966 15.277834892273 65.006011962891 83 83 83
6.981938838959 15.272406578064 65.148986816406 53 53 53
6.988775730133 15.278509140015 65.290008544922 65 65 65
6.984652042389 15.278978347778 65.432006835938 57 57 57
6.968652248383 15.274410247803 65.578002929688 33 33 33
6.968443393707 15.276890754700 65.721008300781 50 50 50
6.951065540314 15.271005630493 65.868011474609 3 3 3
7.053463459015 15.333070755005 66.570007324219 25 25 25
7.054062366486 15.355607986450 67.770996093750 4 4 4
7.070674419403 15.151739120483 61.652984619141 16 16 16
7.053406238556 15.146823883057 61.792999267578 20 20 20
7.066098690033 15.154717445374 61.936004638672 41 41 41
7.059681415558 15.154463768005 62.076995849609 64 64 64
7.073565006256 15.164187431335 62.220001220703 93 93 93
7.075351238251 15.166933059692 62.359985351563 112 112 112
7.077678203583 15.170107841492 62.500000000000 136 136 136
7.078119754791 15.173989295959 62.639984130859 148 148 148
7.076829433441 15.175610542297 62.778991699219 172 172 172
7.087582111359 15.183724403381 62.919006347656 140 140 140
7.082190036774 15.183846473694 63.057006835938 157 157 157
7.079390048981 15.185148239136 63.195983886719 160 160 160
7.079124927521 15.187143325806 63.333984375000 192 192 192
7.072762966156 15.187376976013 63.471984863281 144 144 144
7.076655864716 15.191355705261 63.609985351563 169 169 169
7.080548763275 15.195336341858 63.748992919922 136 136 136
7.072268009186 15.193820953369 63.886993408203 154 154 154
7.080427646637 15.200756072998 64.024993896484 148 148 148
7.072445392609 15.199698448181 64.164001464844 143 143 143
7.069733142853 15.203937530518 64.441009521484 160 160 160
7.068200588226 15.205587387085 64.579986572266 155 155 155
7.064076900482 15.206056594849 64.718994140625 177 177 177
7.065377712250 15.208856582642 64.859008789063 148 148 148
7.060096263885 15.209949493408 64.998992919922 126 126 126
7.062755107880 15.216034889221 65.278991699219 156 156 156
7.049643993378 15.213104248047 65.421997070313 126 126 126
7.045166492462 15.212630271912 65.565002441406 137 137 137
7.061047077179 15.222618103027 65.704010009766 120 120 120
7.040272235870 15.217119216919 65.850006103516 136 136 136
7.045377254486 15.220960617065 65.992004394531 115 115 115
7.038607120514 15.219764709473 66.138000488281 135 135 135
7.038453578949 15.222731590271 66.281982421875 126 126 126
7.032146930695 15.223448753357 66.429992675781 131 131 131
7.072428226471 15.244912147522 66.565002441406 106 106 106
7.029268741608 15.226232528687 66.723999023438 98 98 98
7.031033992767 15.230947494507 66.871002197266 110 110 110
7.028233051300 15.232248306274 67.019989013672 120 120 120
7.028619289398 15.235644340515 67.169982910156 133 133 133
7.023525714874 15.236224174500 67.321990966797 129 129 129
7.012597560883 15.233044624329 67.477996826172 118 118 118
7.018519878387 15.239741325378 67.628997802734 107 107 107
7.058879375458 15.259721755981 67.768005371094 95 95 95
6.993511676788 15.233740806580 67.949005126953 114 114 114
6.993357181549 15.236707687378 68.105987548828 93 93 93
7.011772632599 15.247388839722 68.256011962891 109 109 109
7.007031917572 15.248911857605 68.417999267578 101 101 101
6.997427463531 15.246564865112 68.583007812500 112 112 112
6.986533641815 15.245838165283 68.751007080078 90 90 90
6.988860607147 15.249013900757 68.914001464844 110 110 110
7.002258777618 15.258791923523 69.074005126953 88 88 88
7.061627864838 15.197488784790 64.303009033203 86 86 86
7.045254230499 15.204757690430 65.140991210938 105 105 105
7.072717189789 15.087620735168 63.337982177734 29 29 29
7.065086841583 15.087507247925 63.475982666016 37 37 37
7.059286594391 15.086200714111 63.614990234375 43 43 43
7.064965724945 15.092925071716 63.752990722656 69 69 69
7.050123691559 15.087734222412 63.890991210938 46 46 46
7.057931423187 15.093725204468 64.029998779297 86 86 86
7.057877063751 15.104051589966 64.583984375000 102 102 102
7.067978382111 15.110766410828 64.721984863281 85 85 85
7.073546886444 15.116520881653 64.860992431641 110 110 110
7.063910961151 15.122531890869 65.421997070313 117 117 117
7.062566280365 15.123667716980 65.563995361328 112 112 112
7.071752071381 15.130976676941 65.704010009766 120 120 120
7.060206890106 15.128849983215 65.847991943359 128 128 128
7.061265468597 15.131677627563 65.990997314453 129 129 129
7.050339221954 15.128499031067 66.136993408203 137 137 137
7.056260585785 15.135196685791 66.279998779297 127 127 127
7.059557437897 15.138261795044 66.424011230469 119 119 119
7.070662975311 15.147317886353 66.566986083984 108 108 108
7.058466434479 15.143791198730 66.717010498047 136 136 136
7.056207180023 15.145523071289 66.864990234375 137 137 137
7.049546718597 15.145297050476 67.014984130859 128 128 128
7.068370342255 15.157406806946 67.157989501953 134 134 134
7.054553508759 15.152590751648 67.312988281250 136 136 136
7.050727367401 15.153517723083 67.464996337891 132 132 132
7.043770313263 15.152833938599 67.621002197266 123 123 123
7.048368930817 15.158699989319 67.772003173828 94 94 94
7.039062023163 15.156809806824 67.930999755859 129 129 129
7.034023761749 15.157875061035 68.088989257813 114 114 114
7.039481639862 15.162659645081 68.244995117188 125 125 125
7.031553745270 15.162087440491 68.406982421875 123 123 123
7.028864383698 15.164359092712 68.569000244141 131 131 131
7.029790401459 15.168185234070 68.730987548828 135 135 135
7.034763813019 15.173024177551 68.891998291016 125 125 125
7.036529064178 15.177739143372 69.055999755859 124 124 124
7.076225757599 15.109827995300 64.444000244141 68 68 68
7.078763484955 15.121333122253 65.000000000000 50 50 50
7.046397686005 21.167160034180 66.218994140625 7 7 7
7.089360713959 21.285621643066 66.359985351563 105 105 105
7.032579898834 21.326480865479 66.221984863281 22 22 22
7.050041675568 21.467008590698 66.221984863281 22 22 22
7.145817279816 21.552925109863 66.509002685547 20 20 20
7.071870326996 21.607042312622 66.223999023438 16 16 16
7.147734165192 21.708000183105 66.515991210938 59 59 59
7.106940746307 21.738195419312 66.373992919922 28 28 28
7.077932834625 21.759679794312 66.229003906250 22 22 22
7.137831211090 21.869333267212 66.524993896484 23 23 23
7.077048778534 21.916053771973 66.234985351563 22 22 22
7.138743877411 22.022064208984 66.527984619141 32 32 32
7.099516391754 22.053064346313 66.233001708984 20 20 20
7.118951320648 22.185014724731 66.536987304688 23 23 23
7.088709354401 22.208604812622 66.238006591797 7 7 7
7.130634784698 22.322267532349 66.531982421875 57 57 57
7.056744098663 22.376869201660 66.243988037109 12 12 12
7.114082813263 22.476987838745 66.531982421875 8 8 8
7.087658405304 22.773868560791 66.842987060547 10 10 10
7.094229221344 22.771154403687 66.529998779297 20 20 20
7.090773105621 23.066898345947 66.531982421875 8 8 8
7.085710048676 23.223258972168 66.541992187500 23 23 23
7.063139438629 23.396352767944 66.557983398438 25 25 25
7.059841632843 23.557426452637 66.569000244141 50 50 50
7.058847904205 23.712831497192 66.579986572266 50 50 50
7.041403293610 23.876987457275 66.588989257813 61 61 61
7.054090976715 24.016584396362 66.587982177734 60 60 60
6.991298198700 24.201135635376 67.570983886719 1 1 1
7.035686969757 24.174463272095 66.592010498047 60 60 60
7.019211292267 24.327699661255 66.591003417969 38 38 38
7.020387172699 24.467622756958 66.587005615234 23 23 23
7.005367755890 24.620693206787 66.589996337891 22 22 22
6.994526386261 24.773778915405 66.593994140625 19 19 19
6.982273578644 24.923091888428 67.904998779297 39 39 39
6.972285747528 24.938970565796 66.602996826172 62 62 62
6.943632602692 24.972208023071 64.738983154297 14 14 14
6.953026294708 24.966226577759 64.585998535156 56 56 56
6.963335514069 24.959648132324 64.432006835938 60 60 60
6.953004360199 24.968193054199 64.279998779297 75 75 75
6.955860614777 24.967376708984 64.127990722656 93 93 93
6.962751865387 24.963151931763 63.975006103516 92 92 92
6.958771228790 24.967046737671 63.822998046875 112 112 112
6.968407154083 24.961034774780 63.670989990234 113 113 113
6.968760967255 24.961978912354 63.519012451172 114 114 114
6.968760967255 24.961978912354 63.367004394531 114 114 114
6.983214855194 24.952962875366 63.216003417969 114 114 114
6.978507518768 24.956937789917 63.063995361328 122 122 122
6.984890460968 24.954736709595 62.911987304688 124 124 124
6.995089054108 24.947187423706 62.760009765625 128 128 128
6.997646808624 24.945915222168 62.608001708984 129 129 129
7.005806446075 24.942037582397 62.455993652344 143 143 143
7.001098155975 24.946012496948 62.303009033203 127 127 127
7.007074832916 24.942384719849 62.149993896484 129 129 129
6.998739719391 24.951196670532 61.994995117188 123 123 123
7.011198520660 24.941915512085 61.842987060547 102 102 102
7.012113094330 24.941318511963 61.688995361328 105 105 105
7.004505634308 24.950048446655 61.531982421875 119 119 119
7.013042926788 25.048837661743 68.930999755859 123 123 123
7.014927387238 25.048131942749 68.753997802734 134 134 134
7.016251087189 25.048965454102 68.580993652344 135 135 135
7.015634059906 25.050016403198 68.408996582031 137 137 137
7.017872333527 25.050254821777 68.236999511719 143 143 143
7.020353794098 25.050462722778 68.066986083984 132 132 132
7.028589725494 25.045103073120 67.895996093750 123 123 123
7.019548892975 25.052028656006 67.733001708984 137 137 137
7.030099391937 25.045423507690 67.563995361328 137 137 137
7.032955646515 25.044607162476 67.398986816406 135 135 135
7.022084712982 25.052724838257 67.238983154297 123 123 123
7.034576892853 25.045896530151 67.072998046875 139 139 139
7.031456470490 25.048709869385 66.912994384766 153 153 153
7.042790889740 25.042505264282 66.750000000000 151 151 151
7.049626827240 25.037796020508 66.588989257813 121 121 121
7.035580158234 25.048240661621 66.434997558594 159 159 159
7.039108753204 25.046855926514 66.276000976563 157 157 157
7.038733959198 25.047882080078 66.119995117188 167 167 167
7.040409564972 25.049655914307 65.962982177734 153 153 153
7.053541660309 25.039808273315 65.804992675781 147 147 147
7.044853687286 25.047676086426 65.652008056641 165 165 165
7.045823574066 25.047565460205 65.497985839844 155 155 155
7.056132793427 25.040987014771 65.342010498047 148 148 148
7.056727886200 25.041902542114 65.188995361328 152 152 152
7.060498714447 25.040491104126 65.036010742188 158 158 158
7.054633617401 25.045089721680 64.885009765625 156 156 156
7.053453922272 25.047681808472 64.733001708984 157 157 157
7.062119960785 25.041780471802 64.579986572266 178 178 178
7.058140277863 25.045673370361 64.428985595703 174 174 174
7.069661617279 25.038957595825 64.277008056641 179 179 179
7.073751926422 25.036033630371 64.126007080078 175 175 175
7.068856716156 25.040523529053 63.975982666016 169 169 169
7.072252750397 25.040136337280 63.825012207031 173 173 173
7.072252750397 25.040136337280 63.674011230469 176 176 176
7.072363376617 25.041105270386 63.523986816406 194 194 194
7.079552173615 25.037338256836 63.372985839844 184 184 184
7.080224514008 25.036771774292 63.221984863281 167 167 167
7.087391376495 25.034973144531 63.071990966797 183 183 183
7.083410739899 25.038866043091 62.920989990234 172 172 172
7.079992771149 25.041221618652 62.769989013672 186 186 186
7.081316471100 25.042053222656 62.618011474609 167 167 167
7.084436893463 25.039241790771 62.467010498047 164 164 164
7.086917400360 25.039449691772 62.315002441406 166 166 166
7.091978549957 25.036418914795 62.164001464844 164 164 164
7.092331409454 25.037359237671 62.010986328125 132 132 132
7.097634792328 25.034299850464 61.859008789063 80 80 80
7.007074832916 21.059097290039 66.307983398438 205 205 205
7.016057491302 21.205011367798 66.311004638672 179 179 179
7.055799961090 21.226045608521 66.454010009766 71 71 71
7.027442455292 21.752155303955 66.319000244141 35 35 35
7.030475139618 21.757215499878 66.471984863281 65 65 65
7.063094615936 22.290145874023 66.460998535156 14 14 14
7.041378498077 22.418914794922 66.623992919922 23 23 23
7.046609401703 22.706789016724 66.790008544922 18 18 18
6.989897251129 23.102455139160 66.980010986328 30 30 30
6.991568088531 23.225124359131 66.510009765625 16 16 16
6.969683170319 23.751970291138 67.312011718750 27 27 27
6.939269542694 24.152015686035 67.497985839844 30 30 30
6.928037166595 24.433408737183 67.679992675781 28 28 28
6.885700702667 24.553712844849 67.700988769531 25 25 25
6.913150310516 24.842498779297 67.868011474609 49 49 49
6.927454471588 24.950950622559 66.558990478516 5 5 5
6.899890422821 24.967847824097 67.875000000000 60 60 60
6.961224079132 25.008047103882 68.359985351563 14 14 14
6.939369678497 25.001688003540 68.540985107422 29 29 29
6.950529575348 25.011228561401 68.709991455078 45 45 45
6.940308094025 25.009935379028 68.889007568359 48 48 48
7.036668300629 25.021087646484 61.800994873047 20 20 20
7.042292118073 25.027326583862 61.954986572266 76 76 76
7.030803203583 25.025686264038 62.106994628906 105 105 105
7.031244754791 25.029567718506 62.259002685547 115 115 115
7.022346019745 25.029104232788 62.411010742188 130 130 130
7.034013271332 25.036623001099 62.563995361328 128 128 128
7.021608829498 25.035577774048 62.714996337891 148 148 148
7.033066272736 25.045576095581 62.867004394531 159 159 159
7.038877964020 25.051303863525 63.018005371094 152 152 152
7.028303623199 25.049068450928 63.169006347656 136 136 136
7.019757747650 25.049547195435 63.320007324219 157 157 157
7.013042926788 25.048837661743 63.470001220703 176 176 176
7.012106418610 25.051401138306 63.621002197266 179 179 179
7.017730236053 25.057641983032 63.772003173828 159 159 159
7.010452747345 25.058469772339 63.924011230469 164 164 164
7.009273052216 25.061061859131 64.075012207031 152 152 152
7.012305736542 25.066122055054 64.225982666016 179 179 179
7.013905048370 25.069379806519 64.376983642578 172 172 172
7.016320705414 25.075492858887 64.527984619141 167 167 167
7.007013797760 25.073604583740 64.680999755859 162 162 162
7.004919528961 25.076791763306 64.833007812500 158 158 158
6.998799800873 25.076995849609 64.985992431641 152 152 152
7.009606838226 25.085594177246 65.138000488281 159 159 159
6.992934703827 25.081592559814 65.292999267578 163 163 163
6.998613834381 25.088319778442 65.445983886719 159 159 159
6.998647212982 25.090774536133 65.600982666016 161 161 161
6.992582798004 25.091463088989 65.756988525391 153 153 153
6.989517688751 25.094760894775 65.912994384766 146 146 146
6.984424114227 25.095340728760 66.070007324219 154 154 154
6.975823879242 25.095335006714 66.229003906250 145 145 145
6.989222049713 25.105113983154 66.382995605469 148 148 148
6.977732181549 25.103471755981 66.544006347656 141 141 141
6.980764865875 25.108533859253 66.703002929688 152 152 152
6.982717037201 25.112733840942 66.861999511719 126 126 126
6.972849369049 25.112380981445 67.026000976563 140 140 140
6.966894626617 25.114042282104 67.190002441406 119 119 119
6.956264972687 25.111320495605 67.356994628906 120 120 120
6.967424869537 25.120862960815 67.516998291016 115 115 115
6.950697422028 25.116376876831 67.688995361328 141 141 141
6.954326152802 25.122352600098 67.854003906250 121 121 121
6.947159290314 25.124151229858 68.024993896484 145 145 145
6.938150882721 25.122718811035 68.196990966797 134 134 134
6.929791927338 25.122686386108 68.372009277344 140 140 140
6.925106525421 25.124692916870 68.546997070313 140 140 140
6.921335697174 25.126106262207 68.721984863281 140 140 140
6.907662868500 25.124713897705 68.903991699219 122 122 122
7.011322498322 25.133069992065 61.632995605469 130 130 130
7.010385990143 25.135631561279 61.787994384766 127 127 127
7.010286808014 25.139083862305 61.941986083984 148 148 148
7.000660419464 25.138704299927 62.095001220703 176 176 176
6.987550258636 25.135772705078 62.246002197266 180 180 180
6.992446422577 25.142097473145 62.399993896484 163 163 163
6.994939327240 25.146726608276 62.553009033203 169 169 169
6.987606525421 25.147069931030 62.704986572266 198 198 198
6.993715763092 25.153255462646 62.856994628906 181 181 181
6.979038715363 25.149518966675 63.007995605469 171 171 171
6.976889133453 25.152219772339 63.160003662109 196 196 196
6.980463504791 25.157711029053 63.312011718750 182 182 182
6.985491275787 25.163034439087 63.463989257813 181 181 181
6.980805873871 25.165042877197 63.614990234375 170 170 170
6.976924419403 25.165483474731 63.766998291016 148 148 148
6.973749637604 25.167812347412 63.919006347656 156 156 156
6.967497348785 25.169013977051 64.070983886719 150 150 150
6.967883586884 25.172410964966 64.222991943359 150 150 150
6.966814517975 25.175971984863 64.375000000000 133 133 133
6.957750797272 25.174055099487 64.527984619141 139 139 139
6.956979274750 25.178073883057 64.680999755859 137 137 137
6.954476833344 25.179832458496 64.833984375000 135 135 135
6.942017078400 25.178302764893 64.988983154297 129 129 129
6.951070308685 25.186609268188 65.140991210938 121 121 121
6.948622226715 25.188852310181 65.295989990234 113 113 113
6.928763866425 25.182758331299 65.454010009766 115 115 115
6.939085483551 25.191411972046 65.606994628906 107 107 107
6.921818256378 25.186496734619 65.765991210938 96 96 96
6.933220386505 25.196010589600 65.920989990234 89 89 89
6.917572498322 25.192384719849 66.080993652344 99 99 99
6.910912990570 25.192159652710 66.239990234375 80 80 80
6.916835308075 25.198858261108 66.398010253906 81 81 81
6.901729106903 25.195661544800 66.561004638672 61 61 61
6.893127918243 25.195657730103 66.723999023438 54 54 54
6.885145664215 25.194601058960 66.886993408203 22 22 22
6.883999347687 25.199645996094 67.049987792969 3 3 3
7.001751422882 21.085748672485 66.220001220703 175 175 175
7.005133152008 21.223455429077 66.216003417969 139 139 139
7.034352779388 21.221113204956 66.345001220703 184 184 184
7.079097270966 21.217006683350 66.467987060547 153 153 153
7.010675907135 21.362882614136 66.214996337891 185 185 185
7.028302669525 21.504865646362 66.212982177734 157 157 157
7.049547672272 21.648405075073 66.212982177734 126 126 126
7.039734363556 21.648538589478 66.350982666016 93 93 93
7.088039875031 21.645500183105 66.473999023438 101 101 101
7.041121006012 21.796792984009 66.220001220703 104 104 104
7.043852329254 21.943910598755 66.225006103516 107 107 107
7.082587718964 21.940979003906 66.488006591797 26 26 26
7.052483081818 22.088884353638 66.226989746094 99 99 99
7.090302944183 22.086547851563 66.489990234375 44 44 44
7.040516376495 22.234233856201 66.233001708984 96 96 96
7.084400653839 22.231208801270 66.493988037109 103 103 103
7.035385608673 22.374877929688 66.234008789063 90 90 90
7.062774181366 22.373725891113 66.501007080078 31 31 31
7.055122852325 22.375579833984 66.640991210938 35 35 35
7.009546756744 22.514925003052 66.238006591797 93 93 93
7.062219142914 22.511390686035 66.498992919922 5 5 5
7.027074337006 22.649549484253 66.230010986328 84 84 84
7.024516582489 22.650823593140 66.368011474609 71 71 71
7.033194065094 22.649343490601 66.502990722656 77 77 77
7.042147159576 22.650291442871 66.778991699219 31 31 31
7.037552356720 22.923069000244 66.915985107422 38 38 38
7.021284580231 23.063009262085 66.501983642578 19 19 19
6.996979236603 23.212223052979 67.075988769531 43 43 43
6.983842372894 23.507101058960 67.238006591797 30 30 30
7.000124454498 23.650220870972 66.527008056641 25 25 25
6.987485408783 23.796138763428 66.535003662109 30 30 30
6.997350215912 23.939006805420 66.533996582031 9 9 9
6.971302509308 24.081537246704 66.542999267578 27 27 27
6.981641292572 24.219926834106 66.537994384766 6 6 6
6.955101490021 24.226385116577 67.558990478516 9 9 9
6.926844120026 24.502836227417 67.714996337891 13 13 13
6.929196834564 24.782684326172 67.867004394531 102 102 102
6.939972400665 24.892520904541 61.584991455078 181 181 181
7.007684230804 24.887275695801 61.729003906250 46 46 46
6.996635913849 24.889514923096 61.860992431641 68 68 68
6.992866039276 24.890926361084 61.993988037109 77 77 77
7.004024028778 24.889657974243 62.127990722656 93 93 93
6.991575717926 24.892547607422 62.259002685547 98 98 98
6.984408855438 24.894346237183 62.389984130859 110 110 110
6.987804889679 24.893959045410 62.522003173828 105 105 105
7.004707813263 24.893510818481 62.654998779297 99 99 99
6.995192050934 24.894102096558 62.785003662109 104 104 104
6.956526279449 24.912752151489 65.569000244141 89 89 89
6.961002826691 24.913227081299 65.704986572266 74 74 74
6.951839923859 24.914760589600 65.843994140625 80 80 80
6.957231998444 24.914636611938 65.980987548828 66 66 66
6.956316471100 24.915233612061 66.119995117188 75 75 75
6.946183681488 24.916877746582 66.261993408203 71 71 71
6.943382740021 24.918180465698 66.402984619141 65 65 65
6.933140277863 24.918853759766 66.548004150391 89 89 89
6.961124897003 24.918619155884 66.682006835938 77 77 77
6.947485446930 24.919677734375 66.829010009766 68 68 68
6.946569919586 24.920274734497 66.973999023438 76 76 76
6.941883563995 24.922281265259 67.121002197266 77 77 77
6.944122791290 24.922517776489 67.266998291016 71 71 71
6.948896884918 24.923448562622 67.412994384766 95 95 95
6.948896884918 24.923448562622 67.562011718750 88 88 88
6.942943096161 24.925109863281 67.713989257813 88 88 88
6.946691989899 24.925666809082 67.863983154297 112 112 112
6.955049991608 24.925697326660 68.014007568359 97 97 97
6.944002628326 24.927936553955 68.173004150391 106 106 106
6.942116260529 24.928642272949 68.329986572266 112 112 112
6.945512294769 24.928256988525 68.485992431641 116 116 116
6.934111118317 24.929553985596 68.651000976563 119 119 119
6.939856052399 24.930374145508 68.808990478516 118 118 118
6.937056064606 24.931676864624 68.972991943359 131 131 131
6.988037586212 24.900321960449 63.833007812500 91 91 91
6.988985538483 24.902179718018 63.964996337891 96 96 96
6.991224765778 24.902416229248 64.096008300781 99 99 99
6.993219852448 24.902681350708 64.226989746094 86 86 86
7.000497341156 24.901853561401 64.358001708984 30 30 30
6.963263034821 24.911495208740 65.432006835938 31 31 31
7.056581974030 25.027666091919 61.601989746094 100 100 100
7.056581974030 25.027666091919 61.734985351563 96 96 96
7.067587375641 25.029363632202 61.869995117188 123 123 123
7.064786434174 25.030664443970 62.001007080078 172 172 172
7.054895877838 25.032281875610 62.131988525391 191 191 191
7.061931133270 25.031482696533 62.264984130859 185 185 185
7.055249691010 25.033224105835 62.395996093750 164 164 164
7.059726238251 25.033699035645 62.527008056641 183 183 183
7.054687023163 25.034761428833 62.657989501953 182 182 182
7.043880939484 25.036975860596 62.787994384766 187 187 187
7.045822620392 25.036754608154 62.919006347656 185 185 185
7.048303127289 25.036962509155 63.049011230469 188 188 188
7.032359600067 25.043691635132 63.833007812500 183 183 183
7.036781787872 25.043680191040 63.962982177734 165 165 165
7.034896373749 25.044385910034 64.093994140625 159 159 159
7.017132282257 25.045915603638 64.226989746094 181 181 181
7.005798816681 25.052120208740 65.156982421875 165 165 165
7.020463466644 25.051433563232 65.289001464844 171 171 171
7.003053188324 25.053905487061 65.427001953125 151 151 151
7.018203258514 25.053165435791 65.559997558594 158 158 158
7.014432430267 25.054576873779 65.696990966797 142 142 142
7.000848293304 25.056121826172 65.837005615234 157 157 157
7.013815402985 25.055629730225 65.971008300781 157 157 157
6.997077465057 25.057533264160 66.113006591797 147 147 147
7.001179218292 25.059034347534 66.251983642578 135 135 135
6.996868610382 25.060014724731 66.393005371094 142 142 142
6.988621234894 25.060953140259 66.536010742188 120 120 120
7.003715991974 25.059726715088 66.674011230469 125 125 125
7.000000476837 25.061624526978 66.817993164063 107 107 107
6.987683773041 25.063518524170 66.964996337891 112 112 112
6.978521823883 25.065050125122 67.113983154297 110 110 110
6.976878643036 25.065729141235 67.260986328125 98 98 98
6.981355190277 25.066202163696 67.406005859375 88 88 88
6.952135562897 25.068544387817 67.566009521484 100 100 100
6.967451572418 25.069257736206 67.710998535156 101 101 101
6.954727649689 25.069725036621 67.867004394531 85 85 85
6.953194141388 25.071372985840 68.020996093750 90 90 90
6.940878391266 25.073265075684 68.180999755859 61 61 61
6.921527385712 25.075958251953 68.345001220703 40 40 40
6.945894718170 25.074169158936 68.493011474609 12 12 12
7.034608364105 25.037538528442 63.178985595703 115 115 115
7.035491466522 25.045299530029 64.356994628906 168 168 168
6.985036373138 25.051040649414 64.759002685547 51 51 51
6.873220920563 25.078996658325 61.489990234375 4 4 4
7.065074443817 24.955442428589 61.523010253906 108 108 108
7.068283557892 24.955570220947 61.656982421875 93 93 93
7.050200939178 24.958608627319 61.787994384766 98 98 98
7.061358928680 24.957340240479 61.921997070313 121 121 121
7.055592060089 24.958488464355 62.053009033203 181 181 181
7.058502674103 24.958156585693 62.186004638672 192 192 192
7.050552845001 24.959552764893 62.316009521484 174 174 174
7.053707599640 24.959194183350 62.447998046875 174 174 174
7.053707599640 24.959194183350 62.579010009766 186 186 186
7.053707599640 24.959194183350 62.709991455078 191 191 191
7.053707599640 24.959194183350 62.839996337891 192 192 192
7.054732799530 24.959568023682 62.971008300781 190 190 190
7.040068149567 24.960254669189 63.100982666016 202 202 202
7.039858341217 24.962734222412 63.884002685547 181 181 181
7.029019832611 24.962493896484 64.014984130859 171 171 171
7.030530452728 24.962814331055 64.145996093750 171 171 171
7.030530452728 24.962814331055 64.277984619141 183 183 183
7.015766620636 24.966951370239 65.208007812500 162 162 162
7.011642932892 24.967420578003 65.342987060547 170 170 170
7.018677234650 24.966619491577 65.475982666016 157 157 157
7.017035007477 24.967298507690 65.611999511719 161 161 161
7.010914325714 24.967502593994 65.750000000000 143 143 143
7.017035007477 24.967298507690 65.885009765625 157 157 157
7.009999752045 24.968097686768 66.024993896484 152 152 152
7.008114337921 24.968803405762 66.164001464844 163 163 163
6.999569416046 24.969284057617 66.304992675781 149 149 149
6.996768474579 24.970586776733 66.445983886719 152 152 152
6.998653888702 24.969879150391 66.587005615234 141 141 141
7.007143497467 24.968914031982 66.725982666016 139 139 139
6.999006748199 24.970823287964 66.872009277344 128 128 128
7.000892162323 24.970117568970 67.014984130859 129 129 129
6.994155406952 24.971374511719 67.161987304688 120 120 120
6.985962390900 24.972797393799 67.311004638672 113 113 113
6.976800441742 24.974332809448 67.462005615234 108 108 108
6.988873958588 24.972467422485 67.606994628906 121 121 121
6.985103130341 24.973878860474 67.757995605469 113 113 113
6.969412326813 24.974189758301 67.915985107422 95 95 95
6.968497753143 24.974784851074 68.070007324219 118 118 118
6.968497753143 24.974784851074 68.225006103516 113 113 113
6.964130878448 24.975280761719 68.382995605469 113 113 113
6.958364009857 24.976430892944 68.542999267578 112 112 112
6.951087474823 24.977258682251 68.705993652344 113 113 113
6.953325748444 24.977493286133 68.867004394531 103 103 103
6.971254825592 24.977418899536 69.020996093750 13 13 13
7.026218891144 24.963794708252 64.408996582031 154 154 154
7.014685153961 24.966091156006 65.074005126953 15 15 15
7.019192218781 24.854515075684 61.516998291016 106 106 106
7.010834217072 24.854482650757 61.649993896484 129 129 129
7.011804103851 24.854372024536 61.782989501953 112 112 112
6.998518466949 24.856374740601 61.915008544922 126 126 126
7.008033275604 24.855785369873 62.049011230469 152 152 152
6.998518466949 24.856374740601 62.179992675781 159 159 159
6.994746685028 24.857786178589 62.312011718750 163 163 163
6.992508411407 24.857551574707 62.442993164063 184 184 184
6.997955799103 24.857912063599 62.575012207031 166 166 166
6.997955799103 24.857912063599 62.707000732422 164 164 164
7.002024173737 24.856958389282 62.837982177734 172 172 172
7.005586147308 24.858028411865 63.885009765625 136 136 136
7.013216495514 24.858142852783 64.015991210938 139 139 139
6.986323833466 24.863660812378 65.480987548828 103 103 103
6.980876445770 24.863296508789 65.618011474609 116 116 116
6.973598957062 24.864124298096 65.756011962891 105 105 105
6.970501422882 24.864967346191 65.893005371094 101 101 101
6.970501422882 24.864967346191 66.031982421875 105 105 105
6.973598957062 24.864124298096 66.169006347656 105 105 105
6.981230258942 24.864240646362 66.307006835938 104 104 104
6.960312366486 24.866127014160 66.453002929688 94 94 94
6.982553005219 24.865070343018 66.587982177734 111 111 111
6.973037242889 24.865663528442 66.733001708984 102 102 102
6.959750652313 24.867664337158 66.880004882813 101 101 101
6.958780765533 24.867774963379 67.024993896484 98 98 98
6.970424175262 24.866451263428 67.166992187500 96 96 96
6.960665225983 24.867069244385 67.316986083984 106 106 106
6.954899311066 24.868217468262 67.467010498047 108 108 108
6.961316585541 24.868471145630 67.613006591797 113 113 113
6.961316585541 24.868471145630 67.764007568359 113 113 113
6.997008800507 24.866867065430 67.901000976563 113 113 113
6.942583560944 24.870111465454 68.075988769531 124 124 124
6.949298381805 24.870820999146 68.227996826172 130 130 130
6.953366756439 24.869865417480 68.382995605469 132 132 132
6.959728717804 24.869634628296 68.536987304688 129 129 129
6.959728717804 24.869634628296 68.696990966797 136 136 136
6.950565814972 24.871168136597 68.863006591797 139 139 139
6.964205265045 24.870105743408 69.019989013672 102 102 102
7.016016483307 24.856842041016 62.970001220703 44 44 44
7.001814365387 24.859439849854 64.148010253906 151 151 151
7.009445667267 24.859556198120 64.277984619141 141 141 141
6.997690677643 24.859909057617 64.411010742188 127 127 127
6.997690677643 24.859909057617 64.542999267578 63 63 63
7.006644725800 24.860855102539 65.074005126953 17 17 17
6.950254917145 24.762598037720 66.596008300781 102 102 102
6.959208011627 24.763544082642 67.912994384766 28 28 28
6.952026844025 24.657228469849 66.593994140625 91 91 91
6.962322711945 24.553348541260 66.591003417969 104 104 104
6.962000370026 24.451168060303 66.589996337891 99 99 99
6.918821811676 24.456079483032 67.772003173828 53 53 53
6.966905117035 24.347410202026 66.587005615234 95 95 95
6.985712528229 24.240594863892 66.579986572266 94 94 94
6.988455295563 24.135114669800 66.578002929688 92 92 92
6.948783397675 24.140611648560 67.602996826172 42 42 42
6.987262248993 24.029594421387 66.575012207031 95 95 95
6.989035129547 23.924226760864 66.570983886719 92 92 92
7.001744747162 23.815649032593 66.563995361328 84 84 84
6.954795360565 23.821973800659 67.441009521484 42 42 42
7.008854389191 23.709672927856 66.558990478516 71 71 71
7.004153728485 23.603567123413 66.557006835938 75 75 75
7.020216464996 23.498540878296 66.550994873047 72 72 72
6.980864048004 23.502525329590 67.274993896484 39 39 39
7.014337062836 23.395025253296 66.550994873047 60 60 60
7.025007724762 23.290119171143 66.546997070313 61 61 61
7.023340702057 23.189073562622 66.546997070313 70 70 70
6.999567508698 23.191778182983 67.118988037109 43 43 43
7.021342754364 23.085119247437 66.546997070313 79 79 79
7.034384250641 22.979452133179 66.541992187500 66 66 66
7.036751270294 22.874998092651 66.539001464844 25 25 25
7.041901111603 22.874904632568 66.957000732422 43 43 43
7.043320178986 22.768592834473 66.533996582031 45 45 45
7.053230762482 22.661317825317 66.528991699219 32 32 32
7.019365787506 22.558036804199 66.257995605469 91 91 91
7.039312839508 22.556259155273 66.527984619141 23 23 23
7.050151348114 22.556501388550 66.803009033203 52 52 52
7.028867244720 22.449333190918 66.251983642578 86 86 86
7.043775081635 22.448619842529 66.523010253906 12 12 12
7.029371738434 22.343616485596 66.248992919922 90 90 90
7.056650638580 22.341497421265 66.515991210938 4 4 4
7.035565853119 22.238239288330 66.244995117188 89 89 89
7.060308933258 22.235424041748 66.511993408203 9 9 9
7.058423519135 22.236127853394 66.651000976563 27 27 27
7.026984691620 22.132574081421 66.246002197266 90 90 90
7.075047969818 22.129564285278 66.506011962891 28 28 28
7.045902729034 22.026729583740 66.240997314453 92 92 92
7.075530529022 22.025815963745 66.506011962891 6 6 6
7.046793460846 21.924409866333 66.239990234375 101 101 101
7.086498737335 21.921369552612 66.501983642578 8 8 8
7.047574520111 21.821121215820 66.239990234375 101 101 101
7.083155155182 21.818548202515 66.502990722656 9 9 9
7.057274341583 21.716325759888 66.236999511719 105 105 105
7.083748340607 21.715770721436 66.501983642578 5 5 5
7.044173717499 21.614124298096 66.239990234375 123 123 123
7.051990985870 21.613727569580 66.373992919922 119 119 119
7.099701404572 21.609773635864 66.496002197266 122 122 122
7.042064189911 21.509199142456 66.238006591797 144 144 144
7.092256069183 21.505453109741 66.496002197266 6 6 6
7.023725032806 21.404151916504 66.242004394531 169 169 169
7.104701519012 21.398870468140 66.492004394531 9 9 9
7.000963687897 21.299119949341 66.244995117188 186 186 186
6.998149394989 21.192306518555 66.243988037109 158 158 158
7.028990268707 21.191255569458 66.371002197266 23 23 23
6.989325046539 21.086669921875 66.243988037109 187 187 187
7.022668361664 21.083858489990 66.371002197266 210 210 210
6.986641407013 25.015476226807 68.960998535156 93 93 93
6.988769054413 25.014741897583 68.785003662109 98 98 98
6.995008945465 25.009119033813 68.608001708984 109 109 109
6.988879680634 25.015712738037 68.438995361328 118 118 118
6.993212223053 25.012762069702 68.266998291016 118 118 118
6.992650508881 25.014299392700 68.097991943359 118 118 118
7.009386539459 25.001585006714 67.923004150391 98 98 98
7.007611751556 25.003259658813 67.757995605469 124 124 124
6.993565082550 25.013706207275 67.596984863281 126 126 126
7.002903461456 25.007236480713 67.429992675781 121 121 121
6.998251438141 25.011697769165 67.269012451172 110 110 110
7.011007785797 25.002874374390 67.102996826172 139 139 139
7.009232997894 25.004550933838 66.942993164063 140 140 140
7.016983509064 24.999246597290 66.779998779297 141 141 141
7.019838809967 24.998430252075 66.621002197266 125 125 125
7.012088298798 25.003734588623 66.463989257813 152 152 152
7.009883403778 25.005952835083 66.307983398438 152 152 152
7.017336368561 25.000188827515 66.148986816406 156 156 156
7.014625072479 25.004428863525 65.993988037109 146 146 146
7.017689228058 25.001132965088 65.837982177734 139 139 139
7.019574642181 25.000425338745 65.682983398438 154 154 154
7.020544528961 25.000314712524 65.528991699219 152 152 152
7.022430896759 24.999608993530 65.375000000000 147 147 147
7.024635791779 24.997394561768 65.221984863281 144 144 144
7.023081302643 25.001008987427 65.070007324219 151 151 151
7.032066822052 24.993598937988 64.915985107422 145 145 145
7.026200771332 24.998197555542 64.764984130859 153 153 153
7.035837650299 24.992187500000 64.613006591797 164 164 164
7.040842533112 24.988668441772 64.460998535156 154 154 154
7.034062862396 24.993864059448 64.311004638672 172 172 172
7.029409885406 24.998325347900 64.160003662109 165 165 165
7.039310932159 24.990318298340 64.009002685547 167 167 167
7.041195392609 24.989610671997 63.858001708984 161 161 161
7.041195392609 24.989610671997 63.708007812500 168 168 168
7.034096240997 24.996316909790 63.557006835938 194 194 194
7.042519092560 24.990444183350 63.406982421875 186 186 186
7.044404506683 24.989738464355 63.256011962891 172 172 172
7.046289920807 24.989032745361 63.105987548828 181 181 181
7.041902065277 24.991497039795 62.954986572266 164 164 164
7.044515132904 24.990707397461 62.803985595703 172 172 172
7.052265644073 24.985403060913 62.652984619141 171 171 171
7.052265644073 24.985403060913 62.501983642578 169 169 169
7.056599140167 24.982452392578 62.350006103516 152 152 152
7.049851894379 24.990100860596 62.196990966797 163 163 163
7.051890850067 24.986429214478 62.044982910156 134 134 134
7.058837413788 24.982690811157 61.893005371094 64 64 64
7.067316532135 24.977302551270 61.740997314453 43 43 43
7.071648120880 24.974353790283 61.587982177734 53 53 53
6.938644886017 24.941324234009 68.983001708984 132 132 132
6.940530300140 24.940618515015 68.807006835938 133 133 133
6.941126346588 24.941534042358 68.631988525391 138 138 138
6.931544780731 24.948030471802 68.463989257813 147 147 147
6.943010807037 24.940826416016 68.287994384766 141 141 141
6.939648151398 24.943666458130 68.118988037109 125 125 125
6.969978809357 24.923017501831 67.937988281250 85 85 85
6.938116550446 24.945316314697 67.783996582031 121 121 121
6.946539402008 24.939443588257 67.614990234375 122 122 122
6.948424816132 24.938735961914 67.449005126953 126 126 126
6.944334506989 24.941659927368 67.286987304688 115 115 115
6.948832988739 24.940164566040 67.122985839844 131 131 131
6.946947574615 24.940872192383 66.962005615234 129 129 129
6.951633930206 24.938863754272 66.799987792969 133 133 133
6.975315570831 24.922410964966 66.632995605469 80 80 80
6.953518390656 24.938158035278 66.480010986328 125 125 125
6.949429035187 24.941080093384 66.322998046875 130 130 130
6.949429035187 24.941080093384 66.165985107422 129 129 129
6.951313495636 24.940374374390 66.009002685547 123 123 123
6.960409641266 24.933933258057 65.850982666016 128 128 128
6.960090160370 24.935443878174 65.695983886719 130 130 130
6.965095996857 24.931926727295 65.540008544922 135 135 135
6.956672191620 24.937797546387 65.386993408203 140 140 140
6.962946414948 24.934629440308 65.231994628906 151 151 151
6.963860988617 24.934032440186 65.079010009766 163 163 163
6.970156192780 24.928894042969 64.924987792969 158 158 158
6.973199367523 24.927564620972 64.772003173828 155 155 155
6.972637653351 24.929101943970 64.619995117188 177 177 177
6.972637653351 24.929101943970 64.467987060547 179 179 179
6.970752239227 24.929809570313 64.316009521484 178 178 178
6.976727962494 24.926179885864 64.164001464844 182 182 182
6.976353168488 24.927206039429 64.013000488281 185 185 185
6.972317218781 24.930612564087 63.861999511719 183 183 183
6.979208469391 24.926389694214 63.709991455078 186 186 186
6.977323055267 24.927095413208 63.558990478516 191 191 191
6.981094837189 24.925682067871 63.407989501953 189 189 189
6.978646755219 24.927927017212 63.256988525391 182 182 182
6.984269618988 24.923357009888 63.105010986328 190 190 190
6.996110439301 24.915128707886 62.954986572266 187 187 187
6.986099720001 24.922164916992 62.802001953125 187 187 187
6.997621059418 24.915447235107 62.651000976563 182 182 182
6.984622478485 24.924299240112 62.497985839844 193 193 193
6.996706485748 24.916044235229 62.346984863281 177 177 177
