21.567661285400 35.329059600830 7.809005737305 156 156 156
21.602176666260 35.334472656250 7.740005493164 150 150 150
21.602176666260 35.334472656250 7.669998168945 160 160 160
21.572196960449 35.322696685791 7.610000610352 154 154 154
21.572196960449 35.322696685791 7.541000366211 159 159 159
21.576728820801 35.316333770752 7.475006103516 159 159 159
21.564006805420 35.307266235352 7.411010742188 159 159 159
21.576728820801 35.316333770752 7.341003417969 144 144 144
21.593990325928 35.319042205811 7.268005371094 94 94 94
21.551282882690 35.298194885254 7.210006713867 156 156 156
21.551282882690 35.298194885254 7.143997192383 161 161 161
21.551282882690 35.298194885254 7.078002929688 156 156 156
21.538558959961 35.289127349854 7.014007568359 153 153 153
21.534904479980 35.267333984375 6.952011108398 163 163 163
21.534904479980 35.267333984375 6.885009765625 166 166 166
21.534904479980 35.267333984375 6.820007324219 166 166 166
21.525835037231 35.280059814453 6.757003784180 164 164 164
21.517646789551 35.264625549316 6.692001342773 169 169 169
21.517646789551 35.264625549316 6.626007080078 164 164 164
21.517646789551 35.264625549316 6.561996459961 163 163 163
21.504922866821 35.255558013916 6.500000000000 162 162 162
21.522180557251 35.258262634277 6.432006835938 150 150 150
21.504922866821 35.255558013916 6.370010375977 154 154 154
21.504922866821 35.255558013916 6.305007934570 152 152 152
21.496734619141 35.240127563477 6.242004394531 155 155 155
21.496734619141 35.240127563477 6.178009033203 156 156 156
21.488544464111 35.224697113037 6.117004394531 158 158 158
21.488544464111 35.224697113037 6.053009033203 155 155 155
21.488544464111 35.224697113037 5.988006591797 155 155 155
21.466751098633 35.228351593018 5.925003051758 156 156 156
21.488544464111 35.224697113037 5.860000610352 159 159 159
21.471286773682 35.221988677979 5.796997070313 151 151 151
21.471286773682 35.221988677979 5.734008789063 155 155 155
21.463096618652 35.206558227539 5.669998168945 157 157 157
21.463096618652 35.206558227539 5.607009887695 160 160 160
21.463096618652 35.206558227539 5.542999267578 157 157 157
21.450372695923 35.197490692139 5.480010986328 148 148 148
21.442184448242 35.182060241699 5.417999267578 166 166 166
21.442184448242 35.182060241699 5.355010986328 155 155 155
21.437648773193 35.188419342041 5.292007446289 155 155 155
21.424924850464 35.179351806641 5.229003906250 157 157 157
21.424924850464 35.179351806641 5.166000366211 153 153 153
21.424924850464 35.179351806641 5.102005004883 153 153 153
21.424924850464 35.179351806641 5.038009643555 148 148 148
21.412200927734 35.170280456543 4.975997924805 145 145 145
21.416736602783 35.163921356201 4.913009643555 145 145 145
21.416736602783 35.163921356201 4.848999023438 142 142 142
21.408546447754 35.148490905762 4.786010742188 141 141 141
21.391288757324 35.145782470703 4.723007202148 140 140 140
21.391288757324 35.145782470703 4.660003662109 128 128 128
21.391288757324 35.145782470703 4.596008300781 133 133 133
21.395824432373 35.139419555664 4.533004760742 128 128 128
21.395824432373 35.139419555664 4.470001220703 128 128 128
21.365840911865 35.127647399902 4.406005859375 118 118 118
21.365840911865 35.127647399902 4.343002319336 114 114 114
21.365840911865 35.127647399902 4.279006958008 110 110 110
21.365840911865 35.127647399902 4.216003417969 110 110 110
21.370376586914 35.121284484863 4.152008056641 123 123 123
21.370376586914 35.121284484863 4.087997436523 114 114 114
21.357650756836 35.112213134766 4.025009155273 109 109 109
21.349464416504 35.096782684326 3.960998535156 107 107 107
21.349464416504 35.096782684326 3.897003173828 111 111 111
21.340394973755 35.109504699707 3.833007812500 104 104 104
21.332204818726 35.094074249268 3.768005371094 108 108 108
21.324016571045 35.078643798828 3.704010009766 108 108 108
21.319480895996 35.085006713867 3.639007568359 98 98 98
21.319480895996 35.085006713867 3.574996948242 99 99 99
21.319480895996 35.085006713867 3.511001586914 101 101 101
21.319480895996 35.085006713867 3.447006225586 99 99 99
21.324016571045 35.078643798828 3.382003784180 97 97 97
21.298568725586 35.060508728027 3.316009521484 82 82 82
21.303104400635 35.054145812988 3.251007080078 68 68 68
21.277656555176 35.036006927490 3.117004394531 110 110 110
21.224435806274 45.340328216553 2.247009277344 196 196 196
21.415157318115 45.341953277588 2.286010742188 200 200 200
21.337053298950 45.343849182129 2.212997436523 176 176 176
21.544898986816 45.213768005371 8.820007324219 19 19 19
21.540363311768 45.220130920410 8.783004760742 167 167 167
21.510381698608 45.208351135254 8.738998413086 167 167 167
21.510381698608 45.208351135254 8.688003540039 164 164 164
21.540363311768 45.220130920410 8.628005981445 143 143 143
21.510381698608 45.208351135254 8.583007812500 167 167 167
21.510381698608 45.208351135254 8.533996582031 153 153 153
21.510381698608 45.208351135254 8.484008789063 151 151 151
21.510381698608 45.208351135254 8.436996459961 152 152 152
21.501312255859 45.221076965332 8.391998291016 153 153 153
21.514915466309 45.201992034912 8.342010498047 145 145 145
21.493124008179 45.205646514893 8.296005249023 150 150 150
21.493124008179 45.205646514893 8.247009277344 151 151 151
21.493124008179 45.205646514893 8.199005126953 154 154 154
21.493124008179 45.205646514893 8.152008056641 153 153 153
21.514915466309 45.201992034912 8.100997924805 149 149 149
21.493124008179 45.205646514893 8.059997558594 149 149 149
21.497657775879 45.199283599854 8.016998291016 148 148 148
21.493124008179 45.205646514893 7.966003417969 151 151 151
21.497657775879 45.199283599854 7.923995971680 149 149 149
21.480400085449 45.196578979492 7.884002685547 147 147 147
21.480400085449 45.196578979492 7.837997436523 145 145 145
21.480400085449 45.196578979492 7.792999267578 141 141 141
21.497657775879 45.199283599854 7.745010375977 141 141 141
21.480400085449 45.196578979492 7.706008911133 137 137 137
21.480400085449 45.196578979492 7.662002563477 141 141 141
21.480400085449 45.196578979492 7.619003295898 135 135 135
21.480400085449 45.196578979492 7.574996948242 135 135 135
21.480400085449 45.196578979492 7.531005859375 134 134 134
21.480400085449 45.196578979492 7.488998413086 127 127 127
21.480400085449 45.196578979492 7.445007324219 122 122 122
21.463140487671 45.193870544434 7.406005859375 117 117 117
21.480400085449 45.196578979492 7.360000610352 127 127 127
21.463140487671 45.193870544434 7.320007324219 126 126 126
21.480400085449 45.196578979492 7.277008056641 123 123 123
21.523984909058 45.189266204834 7.208007812500 105 105 105
21.523984909058 45.189266204834 7.165008544922 142 142 142
21.484933853149 45.190216064453 7.152008056641 138 138 138
21.454952239990 45.178440093994 7.117004394531 122 122 122
21.454952239990 45.178440093994 7.077011108398 101 101 101
21.454952239990 45.178440093994 7.037002563477 102 102 102
21.454952239990 45.178440093994 6.994003295898 102 102 102
21.450416564941 45.184803009033 6.958007812500 93 93 93
21.450416564941 45.184803009033 6.916000366211 94 94 94
21.450416564941 45.184803009033 6.878005981445 88 88 88
21.450416564941 45.184803009033 6.841003417969 82 82 82
21.450416564941 45.184803009033 6.800003051758 71 71 71
21.450416564941 45.184803009033 6.761001586914 70 70 70
21.459486007690 45.172077178955 6.717010498047 78 78 78
21.450416564941 45.184803009033 6.680999755859 66 66 66
21.454952239990 45.178440093994 6.643997192383 55 55 55
21.454952239990 45.178440093994 6.604003906250 48 48 48
21.454952239990 45.178440093994 6.565002441406 45 45 45
21.424968719482 45.166664123535 6.533004760742 31 31 31
21.424968719482 45.166664123535 6.492996215820 35 35 35
21.454952239990 45.178440093994 6.453002929688 35 35 35
21.420434951782 45.173027038574 6.421005249023 27 27 27
21.454952239990 45.178440093994 6.376998901367 26 26 26
21.454952239990 45.178440093994 6.337005615234 39 39 39
21.424968719482 45.166664123535 6.303009033203 36 36 36
21.424968719482 45.166664123535 6.266998291016 26 26 26
21.424968719482 45.166664123535 6.227996826172 16 16 16
21.424968719482 45.166664123535 6.191009521484 42 42 42
21.424968719482 45.166664123535 6.156005859375 20 20 20
21.452922821045 44.965927124023 8.577011108398 69 69 69
21.471059799194 44.940475463867 7.171997070313 143 143 143
21.423818588257 44.925994873047 7.145004272461 94 94 94
21.469909667969 44.699810028076 8.447998046875 32 32 32
21.452651977539 44.697105407715 8.406997680664 96 96 96
21.457185745239 44.690742492676 7.193008422852 74 74 74
21.457185745239 44.690742492676 7.150009155273 154 154 154
21.468759536743 44.459140777588 8.279998779297 83 83 83
21.486898422241 44.433692932129 7.152999877930 165 165 165
21.476678848267 44.205753326416 8.145004272461 84 84 84
21.473024368286 44.183956146240 7.158004760742 161 161 161
21.484598159790 43.952358245850 8.003005981445 60 60 60
21.450082778931 43.946945190430 7.972000122070 75 75 75
21.454616546631 43.940582275391 7.158996582031 167 167 167
21.454616546631 43.940582275391 7.124008178711 17 17 17
21.466190338135 43.708984375000 7.833007812500 101 101 101
21.470724105835 43.702621459961 7.164001464844 136 136 136
21.458002090454 43.693550109863 7.120010375977 70 70 70
21.474107742310 43.455596923828 7.695999145508 102 102 102
21.465921401978 43.440162658691 7.166000366211 133 133 133
21.461385726929 43.446525573730 7.121002197266 71 71 71
21.477493286133 43.208564758301 7.598007202148 63 63 63
21.464771270752 43.199493408203 7.550003051758 31 31 31
21.491096496582 43.189479827881 7.152008056641 188 188 188
21.456581115723 43.184062957764 7.119003295898 17 17 17
21.463621139526 42.958827972412 7.449005126953 103 103 103
21.489948272705 42.948810577393 7.147003173828 169 169 169
21.484264373779 42.714500427246 7.339996337891 68 68 68
21.471540451050 42.705432891846 7.292999267578 28 28 28
21.488798141479 42.708145141602 7.184005737305 23 23 23
21.488798141479 42.708145141602 7.136001586914 157 157 157
21.424299240112 42.690952301025 6.865997314453 111 111 111
21.479459762573 42.452041625977 7.230010986328 23 23 23
21.496717453003 42.454750061035 7.173995971680 88 88 88
21.474924087524 42.458404541016 7.126007080078 145 145 145
21.474924087524 42.458404541016 7.083999633789 31 31 31
21.410425186157 42.441215515137 6.850006103516 138 138 138
21.495567321777 42.214080810547 7.163009643555 139 139 139
21.478309631348 42.211376190186 7.115005493164 49 49 49
21.456516265869 42.215026855469 6.874008178711 31 31 31
21.443792343140 42.205959320068 6.826004028320 70 70 70
21.481693267822 41.964344024658 7.145004272461 158 158 158
21.481693267822 41.964344024658 6.845001220703 131 131 131
21.502336502075 41.720024108887 7.176010131836 77 77 77
21.502336502075 41.720024108887 7.123001098633 120 120 120
21.502336502075 41.720024108887 6.865005493164 74 74 74
21.518444061279 41.482063293457 7.154006958008 151 151 151
21.492996215820 41.463924407959 6.839004516602 123 123 123
21.513639450073 41.219600677490 7.182006835938 17 17 17
21.509105682373 41.225963592529 7.135009765625 132 132 132
21.474588394165 41.220550537109 7.089996337891 74 74 74
21.474588394165 41.220550537109 7.035003662109 201 201 201
21.474588394165 41.220550537109 6.981002807617 202 202 202
21.474588394165 41.220550537109 6.927001953125 178 178 178
21.483657836914 41.207824707031 6.871002197266 193 193 193
21.457330703735 41.217842102051 6.822998046875 20 20 20
21.525213241577 40.988002777100 7.154998779297 139 139 139
21.460714340210 40.970813751221 7.064010620117 177 177 177
21.460714340210 40.970813751221 7.007003784180 128 128 128
21.460714340210 40.970813751221 6.951004028320 183 183 183
21.482507705688 40.967155456543 6.893997192383 195 195 195
21.482507705688 40.967155456543 6.837997436523 104 104 104
21.520408630371 40.725543975830 7.179000854492 50 50 50
21.498615264893 40.729194641113 7.128997802734 83 83 83
21.472288131714 40.739215850830 7.083999633789 129 129 129
21.472288131714 40.739215850830 7.029006958008 178 178 178
21.476821899414 40.732852935791 6.970001220703 173 173 173
21.476821899414 40.732852935791 6.913009643555 192 192 192
21.476821899414 40.732852935791 6.858001708984 151 151 151
21.519258499146 40.484874725342 7.149002075195 139 139 139
21.467483520508 40.476753234863 7.104003906250 36 36 36
21.462947845459 40.483116149902 7.051010131836 188 188 188
21.467483520508 40.476753234863 6.992996215820 167 167 167
21.489276885986 40.473098754883 6.930999755859 166 166 166
21.489276885986 40.473098754883 6.873001098633 188 188 188
21.522644042969 40.237846374512 7.171005249023 102 102 102
21.488126754761 40.232429504395 7.125000000000 24 24 24
21.453609466553 40.227016448975 7.078002929688 162 162 162
21.458143234253 40.220653533936 7.016998291016 180 180 180
21.458143234253 40.220653533936 6.958999633789 159 159 159
21.488126754761 40.232429504395 6.897003173828 201 201 201
21.458143234253 40.220653533936 6.841003417969 111 111 111
21.513303756714 39.981742858887 7.197006225586 11 11 11
21.517837524414 39.975387573242 7.139999389648 107 107 107
21.474252700806 39.982696533203 7.098007202148 79 79 79
21.439735412598 39.977279663086 7.044006347656 188 188 188
21.461528778076 39.973625183105 6.982009887695 155 155 155
21.461528778076 39.973625183105 6.923004150391 174 174 174
21.478786468506 39.976333618164 6.861007690430 171 171 171
21.516687393188 39.734718322754 7.158996582031 136 136 136
21.482172012329 39.729301452637 7.111007690430 12 12 12
21.434932708740 39.714817047119 7.063003540039 188 188 188
21.464912414551 39.726593017578 7.001998901367 72 72 72
21.464912414551 39.726593017578 6.942001342773 177 177 177
21.469448089600 39.720230102539 6.880004882813 194 194 194
21.434932708740 39.714817047119 6.827011108398 10 10 10
21.537330627441 39.490394592285 7.173995971680 128 128 128
21.468297958374 39.479564666748 7.070999145508 184 184 184
21.472831726074 39.473201751709 7.011001586914 73 73 73
21.485555648804 39.482269287109 6.947006225586 134 134 134
21.485555648804 39.482269287109 6.886001586914 192 192 192
21.536180496216 39.249725341797 7.186996459961 103 103 103
21.501663208008 39.244312286377 7.137008666992 59 59 59
21.501663208008 39.244312286377 7.074996948242 159 159 159
21.501663208008 39.244312286377 7.014999389648 173 173 173
21.501663208008 39.244312286377 6.951004028320 174 174 174
21.510732650757 39.231586456299 6.889007568359 156 156 156
21.531375885010 38.987266540527 7.203002929688 47 47 47
21.526842117310 38.993629455566 7.145996093750 54 54 54
21.496858596802 38.981849670410 6.902999877930 56 56 56
21.534761428833 38.740234375000 7.163009643555 111 111 111
21.492055892944 38.719390869141 6.858001708984 27 27 27
21.542678833008 38.486843109131 7.176010131836 126 126 126
21.529954910278 38.477775573730 6.925003051758 5 5 5
21.503627777100 38.487792968750 6.867004394531 15 15 15
21.533340454102 38.230743408203 7.184005737305 129 129 129
21.533340454102 38.230743408203 6.926010131836 25 25 25
21.536724090576 37.983715057373 7.262008666992 43 43 43
21.536724090576 37.983715057373 7.197006225586 136 136 136
21.558517456055 37.980060577393 6.929000854492 39 39 39
21.531040191650 37.749408721924 7.412002563477 64 64 64
21.531040191650 37.749408721924 7.210006713867 128 128 128
21.530771255493 37.480587005615 7.564010620117 71 71 71
21.548028945923 37.483291625977 7.219009399414 121 121 121
21.546880722046 37.242626190186 7.714996337891 30 30 30
21.546880722046 37.242626190186 7.231002807617 101 101 101
21.533006668091 36.992889404297 7.242004394531 104 104 104
21.553649902344 36.748565673828 7.956008911133 52 52 52
21.558181762695 36.742202758789 7.246002197266 112 112 112
21.569755554199 36.510604858398 8.117996215820 13 13 13
21.539775848389 36.498828887939 7.250000000000 107 107 107
21.573139190674 36.263576507568 8.203002929688 25 25 25
21.538623809814 36.258163452148 7.253997802734 105 105 105
21.589248657227 36.025615692139 8.367996215820 39 39 39
21.546543121338 36.004768371582 7.259002685547 110 110 110
21.592632293701 35.778583526611 8.536010742188 22 22 22
21.549928665161 35.757740020752 7.260009765625 88 88 88
21.622344970703 35.521537780762 8.623001098633 45 45 45
21.540588378906 35.501640319824 7.264007568359 80 80 80
21.672969818115 35.288993835449 8.790008544922 133 133 133
21.672969818115 35.288993835449 8.712005615234 115 115 115
21.677505493164 35.282630920410 8.626998901367 140 140 140
21.672969818115 35.288993835449 8.548995971680 142 142 142
21.672969818115 35.288993835449 8.470001220703 144 144 144
21.664781570435 35.273563385010 8.393997192383 143 143 143
21.672969818115 35.288993835449 8.311996459961 143 143 143
21.664781570435 35.273563385010 8.236007690430 154 154 154
21.664781570435 35.273563385010 8.158996582031 158 158 158
21.642990112305 35.277214050293 8.083999633789 158 158 158
21.647521972656 35.270854949951 8.009002685547 165 165 165
21.647521972656 35.270854949951 7.930007934570 159 159 159
21.647521972656 35.270854949951 7.852996826172 166 166 166
21.642990112305 35.277214050293 7.779006958008 163 163 163
21.642990112305 35.277214050293 7.704010009766 162 162 162
21.634799957275 35.261787414551 7.628997802734 162 162 162
21.634799957275 35.261787414551 7.550003051758 165 165 165
21.617542266846 35.259078979492 7.477996826172 167 167 167
21.617542266846 35.259078979492 7.401000976563 171 171 171
21.634799957275 35.261787414551 7.322998046875 149 149 149
21.595748901367 35.262733459473 7.253997802734 165 165 165
21.595748901367 35.262733459473 7.179000854492 168 168 168
21.583024978638 35.253662109375 7.108001708984 165 165 165
21.583024978638 35.253662109375 7.033004760742 164 164 164
21.583024978638 35.253662109375 6.958999633789 169 169 169
21.565767288208 35.250957489014 6.886001586914 152 152 152
21.583024978638 35.253662109375 6.809005737305 155 155 155
21.565767288208 35.250957489014 6.736999511719 153 153 153
21.548507690430 35.248249053955 6.664001464844 142 142 142
21.548507690430 35.248249053955 6.589996337891 145 145 145
21.531250000000 35.245544433594 6.518005371094 135 135 135
21.531250000000 35.245544433594 6.444000244141 123 123 123
21.513990402222 35.242835998535 6.373001098633 125 125 125
21.513990402222 35.242835998535 6.300003051758 111 111 111
21.496463775635 34.971305847168 5.100006103516 109 109 109
21.491928100586 34.977668762207 5.026000976563 121 121 121
21.496463775635 34.971305847168 4.952011108398 129 129 129
21.496463775635 34.971305847168 4.878997802734 132 132 132
21.496463775635 34.971305847168 4.805007934570 145 145 145
21.496463775635 34.971305847168 4.732009887695 146 146 146
21.405637741089 34.964130401611 4.139999389648 152 152 152
21.449222564697 34.956821441650 4.067001342773 179 179 179
21.449222564697 34.956821441650 3.994003295898 168 168 168
21.449222564697 34.956821441650 3.919998168945 169 169 169
21.449222564697 34.956821441650 3.845001220703 177 177 177
21.449222564697 34.956821441650 3.770996093750 179 179 179
21.449222564697 34.956821441650 3.695999145508 178 178 178
21.453758239746 34.950462341309 3.622009277344 167 167 167
21.449222564697 34.956821441650 3.548004150391 178 178 178
21.449222564697 34.956821441650 3.473007202148 168 168 168
21.453758239746 34.950462341309 3.398010253906 167 167 167
21.453758239746 34.950462341309 3.322998046875 170 170 170
21.431964874268 34.954113006592 3.248001098633 164 164 164
21.431964874268 34.954113006592 3.173004150391 167 167 167
21.453758239746 34.950462341309 3.098999023438 167 167 167
21.419240951538 34.945045471191 3.022003173828 167 167 167
21.419240951538 34.945045471191 2.947006225586 159 159 159
21.419240951538 34.945045471191 2.872009277344 85 85 85
21.441034317017 34.941390991211 2.663009643555 175 175 175
21.453758239746 34.950462341309 2.738006591797 179 179 179
21.449222564697 34.956821441650 2.814010620117 180 180 180
21.444688796997 34.963180541992 2.889007568359 168 168 168
21.444688796997 34.963180541992 2.962997436523 183 183 183
21.440155029297 34.969543457031 3.037002563477 182 182 182
21.452877044678 34.978614807129 3.111999511719 185 185 185
21.452877044678 34.978614807129 3.186004638672 185 185 185
21.448341369629 34.984977722168 3.261001586914 188 188 188
21.456531524658 35.000408172607 3.335006713867 186 186 186
21.456531524658 35.000408172607 3.408996582031 189 189 189
21.469257354736 35.009475708008 3.483001708984 169 169 169
21.469257354736 35.009475708008 3.557006835938 181 181 181
21.456531524658 35.000408172607 3.628997802734 186 186 186
21.464721679688 35.015838623047 3.704010009766 189 189 189
21.472911834717 35.031269073486 3.777008056641 186 186 186
21.472911834717 35.031269073486 3.850006103516 191 191 191
21.472911834717 35.031269073486 3.923004150391 191 191 191
21.468376159668 35.037631988525 3.996002197266 203 203 203
21.463840484619 35.043994903564 4.069000244141 199 199 199
21.463840484619 35.043994903564 4.141998291016 199 199 199
21.472030639648 35.059425354004 4.214996337891 199 199 199
21.472030639648 35.059425354004 4.288009643555 200 200 200
21.480218887329 35.074851989746 4.360000610352 203 203 203
21.484754562378 35.068492889404 4.432998657227 201 201 201
21.480218887329 35.074851989746 4.505004882813 204 204 204
21.492942810059 35.083923339844 4.578002929688 204 204 204
21.501132965088 35.099353790283 4.650009155273 207 207 207
21.492942810059 35.083923339844 4.723007202148 209 209 209
21.496599197388 35.105716705322 4.794998168945 209 209 209
21.496599197388 35.105716705322 4.867004394531 211 211 211
21.492063522339 35.112079620361 4.939010620117 211 211 211
21.500253677368 35.127510070801 5.011001586914 220 220 220
21.500253677368 35.127510070801 5.083007812500 218 218 218
21.500253677368 35.127510070801 5.156005859375 213 213 213
21.508441925049 35.142940521240 5.227996826172 216 216 216
21.512977600098 35.136577606201 5.298995971680 218 218 218
21.512977600098 35.136577606201 5.372009277344 213 213 213
21.512977600098 35.136577606201 5.444000244141 215 215 215
21.512977600098 35.136577606201 5.516998291016 209 209 209
21.516632080078 35.158370971680 5.587997436523 216 216 216
21.529354095459 35.167442321777 5.660003662109 217 217 217
21.524822235107 35.173805236816 5.732009887695 216 216 216
21.524822235107 35.173805236816 5.805007934570 216 216 216
21.524822235107 35.173805236816 5.876998901367 212 212 212
21.520286560059 35.180164337158 5.949005126953 209 209 209
21.520286560059 35.180164337158 6.020996093750 216 216 216
21.528476715088 35.195594787598 6.093002319336 216 216 216
21.528476715088 35.195594787598 6.167007446289 213 213 213
21.536663055420 35.211025238037 6.238998413086 213 213 213
21.536663055420 35.211025238037 6.311004638672 208 208 208
21.549386978149 35.220092773438 6.384002685547 207 207 207
21.549386978149 35.220092773438 6.456008911133 208 208 208
21.553043365479 35.241889953613 6.527999877930 201 201 201
21.553043365479 35.241889953613 6.600997924805 210 210 210
21.557577133179 35.235527038574 6.676010131836 207 207 207
21.548507690430 35.248249053955 6.748001098633 204 204 204
21.548507690430 35.248249053955 6.820007324219 198 198 198
21.543973922729 35.254611968994 6.893005371094 195 195 195
21.569421768188 35.272750854492 6.964004516602 194 194 194
21.552162170410 35.270042419434 7.040008544922 176 176 176
21.552162170410 35.270042419434 7.115005493164 189 189 189
21.564886093140 35.279109954834 7.186996459961 185 185 185
21.568542480469 35.300903320313 7.258010864258 147 147 147
21.560352325439 35.285472869873 7.333999633789 163 163 163
21.568542480469 35.300903320313 7.408004760742 182 182 182
21.568542480469 35.300903320313 7.483001708984 184 184 184
21.581264495850 35.309974670410 7.555999755859 193 193 193
21.572196960449 35.322696685791 7.628997802734 178 178 178
21.572196960449 35.322696685791 7.706008911133 180 180 180
21.572196960449 35.322696685791 7.779998779297 180 180 180
21.567661285400 35.329059600830 7.854003906250 184 184 184
21.575851440430 35.344490051270 7.929000854492 169 169 169
21.567661285400 35.329059600830 8.007003784180 183 183 183
21.575851440430 35.344490051270 8.081008911133 176 176 176
21.593109130859 35.347198486328 8.158004760742 175 175 175
21.593109130859 35.347198486328 8.235000610352 178 178 178
21.593109130859 35.347198486328 8.309997558594 167 167 167
21.609487533569 35.378059387207 8.384002685547 170 170 170
21.604951858521 35.384422302246 8.460006713867 167 167 167
21.604951858521 35.384422302246 8.538009643555 173 173 173
21.600418090820 35.390781402588 8.611999511719 167 167 167
21.616796493530 35.421646118164 8.680007934570 100 100 100
21.608606338501 35.406211853027 8.768997192383 170 170 170
21.616796493530 35.421646118164 8.839004516602 18 18 18
21.568336486816 36.001113891602 7.270004272461 30 30 30
21.604747772217 36.084632873535 8.359008789063 19 19 19
21.536254882813 36.611446380615 7.219009399414 20 20 20
21.568130493164 36.701324462891 7.975006103516 14 14 14
21.545997619629 37.270782470703 7.199005126953 39 39 39
21.586944580078 37.347934722900 7.249008178711 42 42 42
21.545118331909 37.298934936523 7.671005249023 26 26 26
21.546674728394 37.942836761475 6.910003662109 27 27 27
21.482042312622 37.791236877441 7.145996093750 20 20 20
21.527521133423 37.862026214600 7.193008422852 32 32 32
21.555744171143 37.930114746094 7.305999755859 3 3 3
21.531175613403 37.883819580078 7.385009765625 18 18 18
21.552764892578 38.580375671387 6.906997680664 10 10 10
21.536386489868 38.549514770508 7.167007446289 18 18 18
21.531646728516 39.256088256836 6.839996337891 54 54 54
21.527992248535 39.234291076660 6.904006958008 149 149 149
21.527992248535 39.234291076660 6.964004516602 133 133 133
21.515268325806 39.225223541260 7.027999877930 107 107 107
21.515268325806 39.225223541260 7.089996337891 47 47 47
21.510732650757 39.231586456299 7.147003173828 52 52 52
21.527111053467 39.262451171875 7.197006225586 26 26 26
21.465929031372 39.832851409912 6.854003906250 90 90 90
21.470462799072 39.826488494873 6.914001464844 136 136 136
21.449550628662 39.801986694336 6.977996826172 151 151 151
21.458618164063 39.789268493652 7.042999267578 150 150 150
21.449550628662 39.801986694336 7.094009399414 103 103 103
21.544166564941 39.965366363525 7.160003662109 43 43 43
21.495706558228 40.544837951660 6.857009887695 92 92 92
21.470258712769 40.526702880859 6.919998168945 158 158 158
21.474792480469 40.520339965820 6.979003906250 130 130 130
21.479328155518 40.513977050781 7.037002563477 144 144 144
21.479328155518 40.513977050781 7.094009399414 66 66 66
21.512084960938 40.575698852539 7.130004882813 19 19 19
21.532115936279 40.628356933594 7.167007446289 30 30 30
21.488191604614 41.201461791992 6.863006591797 122 122 122
21.484537124634 41.179672241211 6.921997070313 162 162 162
21.480882644653 41.157878875732 6.981002807617 155 155 155
21.463623046875 41.155170440674 7.040008544922 152 152 152
21.476346969604 41.164237976074 7.085998535156 50 50 50
21.484537124634 41.179672241211 7.135009765625 25 25 25
21.525484085083 41.256828308105 7.160003662109 39 39 39
21.494281768799 41.839004516602 6.861007690430 81 81 81
21.494281768799 41.839004516602 6.913009643555 68 68 68
21.494281768799 41.839004516602 6.964996337891 55 55 55
21.481557846069 41.829933166504 7.016998291016 36 36 36
21.468833923340 41.820865631104 7.074005126953 18 18 18
21.468833923340 41.820865631104 7.124008178711 47 47 47
21.509780883789 41.898021697998 7.147003173828 62 62 62
21.433097839355 42.409404754639 6.833999633789 36 36 36
21.482233047485 42.501991271973 7.094009399414 106 106 106
21.477697372437 42.508350372314 7.137008666992 129 129 129
21.498611450195 42.532852172852 7.182006835938 99 99 99
21.498611450195 42.532852172852 7.231002807617 99 99 99
21.472957611084 43.214927673340 7.134002685547 70 70 70
21.531164169312 43.294784545898 7.145996093750 110 110 110
21.526628494263 43.301147460938 7.190002441406 23 23 23
21.457460403442 43.155906677246 7.546997070313 38 38 38
21.482027053833 43.202201843262 7.574996948242 112 112 112
21.493871688843 43.239425659180 7.609008789063 18 18 18
21.453601837158 43.834327697754 7.143005371094 90 90 90
21.478170394897 43.880619049072 7.164001464844 90 90 90
21.469980239868 43.865188598633 7.928009033203 107 107 107
21.481824874878 43.902412414551 7.958007812500 85 85 85
21.450622558594 44.484588623047 7.154998779297 113 113 113
21.475189208984 44.530883789063 7.176010131836 80 80 80
21.437898635864 44.475521087646 8.281997680664 14 14 14
21.454277038574 44.506385803223 8.307998657227 114 114 114
21.478845596313 44.552677154541 8.333999633789 86 86 86
21.492242813110 45.233798980713 6.171005249023 16 16 16
21.496778488159 45.227439880371 6.281997680664 30 30 30
21.492242813110 45.233798980713 6.317001342773 47 47 47
21.500432968140 45.249233245850 6.352005004883 52 52 52
21.496778488159 45.227439880371 6.395004272461 67 67 67
21.496778488159 45.227439880371 6.430999755859 79 79 79
21.492242813110 45.233798980713 6.467010498047 88 88 88
21.500432968140 45.249233245850 6.503005981445 85 85 85
21.492242813110 45.233798980713 6.541000366211 84 84 84
21.492242813110 45.233798980713 6.581008911133 102 102 102
21.500432968140 45.249233245850 6.611999511719 118 118 118
21.500432968140 45.249233245850 6.651000976563 98 98 98
21.500432968140 45.249233245850 6.690002441406 103 103 103
21.500432968140 45.249233245850 6.729003906250 112 112 112
21.500432968140 45.249233245850 6.768005371094 114 114 114
21.500432968140 45.249233245850 6.805007934570 102 102 102
21.500432968140 45.249233245850 6.844009399414 116 116 116
21.508623123169 45.264663696289 6.882003784180 122 122 122
21.500432968140 45.249233245850 6.923004150391 135 135 135
21.500432968140 45.249233245850 6.964004516602 123 123 123
21.508623123169 45.264663696289 6.998001098633 122 122 122
21.508623123169 45.264663696289 7.039001464844 125 125 125
21.492242813110 45.233798980713 7.091003417969 144 144 144
21.500432968140 45.249233245850 7.124008178711 155 155 155
21.500432968140 45.249233245850 7.164001464844 140 140 140
21.508623123169 45.264663696289 7.203002929688 127 127 127
21.504087448120 45.271026611328 7.240005493164 137 137 137
21.508623123169 45.264663696289 7.285003662109 144 144 144
21.508623123169 45.264663696289 7.328002929688 148 148 148
21.504087448120 45.271026611328 7.361007690430 156 156 156
21.504087448120 45.271026611328 7.408996582031 148 148 148
21.504087448120 45.271026611328 7.451004028320 148 148 148
21.504087448120 45.271026611328 7.490997314453 151 151 151
21.504087448120 45.271026611328 7.533004760742 154 154 154
21.508623123169 45.264663696289 7.583007812500 155 155 155
21.504087448120 45.271026611328 7.623001098633 162 162 162
21.504087448120 45.271026611328 7.660003662109 165 165 165
21.504087448120 45.271026611328 7.706008911133 161 161 161
21.499553680420 45.277385711670 7.747009277344 155 155 155
21.499553680420 45.277385711670 7.790008544922 154 154 154
21.499553680420 45.277385711670 7.835998535156 157 157 157
21.507740020752 45.292816162109 7.878005981445 159 159 159
21.499553680420 45.277385711670 7.928009033203 166 166 166
21.499553680420 45.277385711670 7.971008300781 168 168 168
21.507740020752 45.292816162109 8.016006469727 160 160 160
21.507740020752 45.292816162109 8.059997558594 155 155 155
21.515930175781 45.308250427246 8.102005004883 159 159 159
21.507740020752 45.292816162109 8.152999877930 153 153 153
21.515930175781 45.308250427246 8.197998046875 156 156 156
21.515930175781 45.308250427246 8.245010375977 158 158 158
21.515930175781 45.308250427246 8.292007446289 155 155 155
21.515930175781 45.308250427246 8.344009399414 158 158 158
21.515930175781 45.308250427246 8.389999389648 166 166 166
21.515930175781 45.308250427246 8.442001342773 151 151 151
21.515930175781 45.308250427246 8.492004394531 149 149 149
21.515930175781 45.308250427246 8.541000366211 147 147 147
21.515930175781 45.308250427246 8.587997436523 147 147 147
21.515930175781 45.308250427246 8.638000488281 138 138 138
21.515930175781 45.308250427246 8.694000244141 167 167 167
21.515930175781 45.308250427246 8.742996215820 174 174 174
21.515930175781 45.308250427246 8.794998168945 161 161 161
21.511396408081 45.314609527588 8.842010498047 45 45 45
21.346258163452 45.465538024902 2.220001220703 197 197 197
21.346258163452 45.465538024902 2.258010864258 195 195 195
21.342603683472 45.443740844727 2.290008544922 197 197 197
21.318035125732 45.397449493408 2.307006835938 201 201 201
21.301656723022 45.366588592529 2.333999633789 220 220 220
21.277090072632 45.320293426514 2.352005004883 167 167 167
21.273435592651 45.298503875732 2.383010864258 180 180 180
21.260711669922 45.289432525635 2.414001464844 126 126 126
21.260711669922 45.289432525635 2.452011108398 125 125 125
21.260711669922 45.289432525635 2.490005493164 122 122 122
21.260711669922 45.289432525635 2.527999877930 118 118 118
21.260711669922 45.289432525635 2.568008422852 107 107 107
21.260711669922 45.289432525635 2.604003906250 106 106 106
21.260711669922 45.289432525635 2.641006469727 94 94 94
21.260711669922 45.289432525635 2.791000366211 33 33 33
21.223106384277 34.977935791016 2.943008422852 207 207 207
21.240364074707 34.980644226074 3.009002685547 242 242 242
21.324895858765 35.050491333008 3.216003417969 61 61 61
21.324895858765 35.050491333008 3.279998779297 90 90 90
21.324895858765 35.050491333008 3.344009399414 97 97 97
21.324895858765 35.050491333008 3.408004760742 109 109 109
21.346689224243 35.046836853027 3.473999023438 113 113 113
21.342153549194 35.053195953369 3.539001464844 118 118 118
21.346689224243 35.046836853027 3.602005004883 112 112 112
21.367601394653 35.071334838867 3.667007446289 126 126 126
21.363067626953 35.077697753906 3.731002807617 126 126 126
21.363067626953 35.077697753906 3.794998168945 121 121 121
21.363067626953 35.077697753906 3.859008789063 124 124 124
21.363067626953 35.077697753906 3.923004150391 127 127 127
21.393047332764 35.089473724365 3.986999511719 128 128 128
21.388515472412 35.095832824707 4.050003051758 128 128 128
21.393047332764 35.089473724365 4.113998413086 136 136 136
21.401237487793 35.104904174805 4.178009033203 139 139 139
21.393047332764 35.089473724365 4.240997314453 136 136 136
21.401237487793 35.104904174805 4.304000854492 133 133 133
21.401237487793 35.104904174805 4.367996215820 148 148 148
21.413963317871 35.113971710205 4.430999755859 146 146 146
21.401237487793 35.104904174805 4.494003295898 157 157 157
21.422149658203 35.129402160645 4.557006835938 146 146 146
21.422149658203 35.129402160645 4.620010375977 160 160 160
21.422149658203 35.129402160645 4.682998657227 161 161 161
21.443943023682 35.125747680664 4.746002197266 165 165 165
21.439409255981 35.132110595703 4.809005737305 163 163 163
21.439409255981 35.132110595703 4.873001098633 163 163 163
21.434873580933 35.138473510742 4.934997558594 166 166 166
21.464857101440 35.150249481201 4.998001098633 172 172 172
21.460321426392 35.156612396240 5.061004638672 180 180 180
21.460321426392 35.156612396240 5.124008178711 185 185 185
21.477581024170 35.159317016602 5.186996459961 181 181 181
21.460321426392 35.156612396240 5.251007080078 180 180 180
21.477581024170 35.159317016602 5.313003540039 180 180 180
21.473045349121 35.165679931641 5.375000000000 186 186 186
21.473045349121 35.165679931641 5.440002441406 189 189 189
21.473045349121 35.165679931641 5.503005981445 182 182 182
21.485767364502 35.174751281738 5.564010620117 193 193 193
21.485767364502 35.174751281738 5.628005981445 195 195 195
21.485767364502 35.174751281738 5.691009521484 189 189 189
21.493957519531 35.190177917480 5.753997802734 193 193 193
21.493957519531 35.190177917480 5.818008422852 191 191 191
21.511215209961 35.192886352539 5.880996704102 199 199 199
21.493957519531 35.190177917480 5.947006225586 200 200 200
21.506683349609 35.199249267578 6.008010864258 198 198 198
21.511215209961 35.192886352539 6.074005126953 200 200 200
21.536663055420 35.211025238037 6.133010864258 195 195 195
21.536663055420 35.211025238037 6.199005126953 197 197 197
21.536663055420 35.211025238037 6.263000488281 197 197 197
21.532129287720 35.217388153076 6.324996948242 194 194 194
21.532129287720 35.217388153076 6.389007568359 192 192 192
21.532129287720 35.217388153076 6.454010009766 193 193 193
21.557577133179 35.235527038574 6.516998291016 193 193 193
21.557577133179 35.235527038574 6.582000732422 191 191 191
21.553043365479 35.241889953613 6.645996093750 198 198 198
21.553043365479 35.241889953613 6.708999633789 189 189 189
21.553043365479 35.241889953613 6.773010253906 184 184 184
21.565767288208 35.250957489014 6.837005615234 178 178 178
21.565767288208 35.250957489014 6.902008056641 179 179 179
21.561231613159 35.257316589355 6.967010498047 182 182 182
21.583024978638 35.253662109375 7.031005859375 177 177 177
21.578491210938 35.260025024414 7.096008300781 176 176 176
21.591213226318 35.269096374512 7.161010742188 175 175 175
21.608470916748 35.271800994873 7.225997924805 135 135 135
21.599403381348 35.284526824951 7.288009643555 127 127 127
21.603939056396 35.278163909912 7.357009887695 177 177 177
21.603939056396 35.278163909912 7.423995971680 176 176 176
21.608470916748 35.271800994873 7.488006591797 181 181 181
21.616661071777 35.287231445313 7.555999755859 178 178 178
21.629386901855 35.296302795410 7.619003295898 178 178 178
21.616661071777 35.287231445313 7.689010620117 169 169 169
21.616661071777 35.287231445313 7.757003784180 171 171 171
21.629386901855 35.296302795410 7.820007324219 170 170 170
21.629386901855 35.296302795410 7.888000488281 158 158 158
21.637573242188 35.311733245850 7.955001831055 164 164 164
21.637573242188 35.311733245850 8.025009155273 164 164 164
21.654832839966 35.314441680908 8.089996337891 162 162 162
21.650297164917 35.320800781250 8.156005859375 154 154 154
21.650297164917 35.320800781250 8.225997924805 159 159 159
21.650297164917 35.320800781250 8.298004150391 157 157 157
21.645763397217 35.327163696289 8.363998413086 158 158 158
21.675745010376 35.338939666748 8.430999755859 156 156 156
21.675745010376 35.338939666748 8.500000000000 155 155 155
21.675745010376 35.338939666748 8.572006225586 162 162 162
21.696659088135 35.363441467285 8.630996704102 119 119 119
21.675745010376 35.338939666748 8.712005615234 168 168 168
21.696659088135 35.363441467285 8.775009155273 101 101 101
21.427089691162 35.526275634766 3.161010742188 15 15 15
21.548912048340 35.651481628418 7.212997436523 46 46 46
21.587083816528 35.678691864014 7.266998291016 16 16 16
21.578014373779 35.691413879395 8.488006591797 12 12 12
21.562042236328 36.063785552979 7.231002807617 83 83 83
21.595678329468 36.097354888916 8.277999877930 39 39 39
21.541534423828 36.442520141602 7.191009521484 50 50 50
21.541534423828 36.442520141602 7.255004882813 19 19 19
21.562446594238 36.467018127441 8.081008911133 48 48 48
21.563732147217 36.842098236084 7.197006225586 94 94 94
21.576456069946 36.851165771484 7.893005371094 42 42 42
21.537811279297 37.255348205566 7.163009643555 70 70 70
21.593238830566 37.285263061523 7.199005126953 16 16 16
21.542345046997 37.248989105225 7.649002075195 59 59 59
21.568197250366 37.670356750488 7.178009033203 70 70 70
21.520957946777 37.655876159668 7.427001953125 81 81 81
21.559534072876 38.086318969727 6.850006103516 40 40 40
21.508638381958 38.050041198730 7.096008300781 60 60 60
21.538619995117 38.061817169189 7.145004272461 98 98 98
21.529550552368 38.074539184570 7.204010009766 91 91 91
21.539024353027 38.465049743652 6.869003295898 88 88 88
21.547214508057 38.480480194092 7.149002075195 82 82 82
21.493070602417 38.825645446777 6.831008911133 20 20 20
21.488534927368 38.832008361816 6.883010864258 11 11 11
21.463087081909 38.813869476318 7.063003540039 18 18 18
21.463087081909 38.813869476318 7.120010375977 41 41 41
21.543966293335 38.861923217773 7.148010253906 83 83 83
21.531646728516 39.256088256836 6.822006225586 94 94 94
21.506198883057 39.237949371338 6.878005981445 189 189 189
21.506198883057 39.237949371338 6.932998657227 180 180 180
21.501663208008 39.244312286377 6.992004394531 178 178 178
21.501663208008 39.244312286377 7.048004150391 150 150 150
21.501663208008 39.244312286377 7.106002807617 69 69 69
21.544370651245 39.265155792236 7.139007568359 92 92 92
21.463899612427 39.620338439941 6.796005249023 14 14 14
21.459363937378 39.626701354980 6.847000122070 190 190 190
21.463899612427 39.620338439941 6.902008056641 166 166 166
21.463899612427 39.620338439941 6.956008911133 163 163 163
21.463899612427 39.620338439941 7.014999389648 188 188 188
21.463899612427 39.620338439941 7.066009521484 79 79 79
21.514793395996 39.656616210938 7.097000122070 24 24 24
21.540241241455 39.674751281738 7.137008666992 79 79 79
21.472492218018 40.039001464844 6.803009033203 44 44 44
21.472492218018 40.039001464844 6.854003906250 183 183 183
21.477027893066 40.032638549805 6.912002563477 138 138 138
21.477027893066 40.032638549805 6.962005615234 195 195 195
21.455234527588 40.036296844482 7.016998291016 194 194 194
21.472492218018 40.039001464844 7.063003540039 95 95 95
21.506130218506 40.072570800781 7.100997924805 36 36 36
21.523387908936 40.075279235840 7.143997192383 70 70 70
21.468362808228 40.448600769043 6.809997558594 35 35 35
21.485620498657 40.451305389404 6.850006103516 187 187 187
21.481086730957 40.457668304443 6.900009155273 124 124 124
21.468362808228 40.448600769043 6.958999633789 166 166 166
21.468362808228 40.448600769043 7.013000488281 185 185 185
21.468362808228 40.448600769043 7.061996459961 86 86 86
21.506534576416 40.475807189941 7.098007202148 45 45 45
21.519258499146 40.484874725342 7.139007568359 76 76 76
21.486026763916 40.854537963867 6.841003417969 172 172 172
21.494215011597 40.869968414307 6.889999389648 187 187 187
21.486026763916 40.854537963867 6.943008422852 140 140 140
21.477838516235 40.839111328125 6.995010375977 149 149 149
21.473304748535 40.845466613770 7.051010131836 138 138 138
21.519662857056 40.888107299805 7.122009277344 95 95 95
21.495502471924 41.245048522949 6.822998046875 139 139 139
21.500036239624 41.238689422607 6.873001098633 190 190 190
21.478242874146 41.242340087891 6.925003051758 193 193 193
21.465518951416 41.233272552490 6.977005004883 198 198 198
21.460985183716 41.239635467529 7.026000976563 189 189 189
21.465518951416 41.233272552490 7.072006225586 14 14 14
21.490966796875 41.251411437988 7.109008789063 86 86 86
21.516414642334 41.269550323486 7.152999877930 34 34 34
21.483182907104 41.639213562012 6.807006835938 79 79 79
21.483182907104 41.639213562012 7.091003417969 49 49 49
21.508630752563 41.657352447510 7.126007080078 92 92 92
21.445417404175 42.015239715576 6.807998657227 76 76 76
21.470865249634 42.033378601074 6.848999023438 15 15 15
21.491775512695 42.057880401611 7.111999511719 100 100 100
21.428564071655 42.415767669678 6.804000854492 64 64 64
21.454011917114 42.433906555176 6.841003417969 36 36 36
21.483114242554 42.473834991455 7.085998535156 102 102 102
21.500370025635 42.476543426514 7.122009277344 113 113 113
21.504905700684 42.470180511475 7.177001953125 73 73 73
21.407176971436 42.822654724121 6.827011108398 125 125 125
21.411710739136 42.816291809082 6.874008178711 107 107 107
21.437156677246 42.834430694580 6.910003662109 117 117 117
21.437156677246 42.834430694580 6.955001831055 121 121 121
21.407176971436 42.822654724121 7.005004882813 125 125 125
21.437156677246 42.834430694580 7.042999267578 116 116 116
21.432622909546 42.840793609619 7.083999633789 120 120 120
21.488052368164 42.870708465576 7.100997924805 100 100 100
21.483518600464 42.877071380615 7.141006469727 78 78 78
21.483518600464 42.877071380615 7.371002197266 112 112 112
21.475732803345 43.264869689941 7.100006103516 108 108 108
21.501180648804 43.283012390137 7.122009277344 113 113 113
21.513904571533 43.292079925537 7.164001464844 16 16 16
21.463008880615 43.255802154541 7.563003540039 84 84 84
21.471199035645 43.271232604980 7.596008300781 62 62 62
21.447036743164 43.628173828125 7.108001708984 91 91 91
21.472484588623 43.646312713623 7.136001586914 124 124 124
21.472484588623 43.646312713623 7.766006469727 107 107 107
21.467950820923 43.652675628662 7.809005737305 18 18 18
21.477424621582 44.043186187744 7.123001098633 136 136 136
21.425649642944 44.035064697266 7.995010375977 39 39 39
21.468355178833 44.055908203125 8.020004272461 106 106 106
21.460571289063 44.443714141846 7.117996215820 135 135 135
21.468759536743 44.459140777588 7.156997680664 80 80 80
21.446966171265 44.462799072266 8.234008789063 119 119 119
21.430994033813 44.835170745850 7.115005493164 73 73 73
21.456441879272 44.853309631348 7.137008666992 133 133 133
21.442838668823 44.872394561768 8.486007690430 118 118 118
21.391334533691 45.133094787598 2.712005615234 106 106 106
21.386798858643 45.139457702637 2.746002197266 108 108 108
21.386798858643 45.139457702637 2.779006958008 107 107 107
21.404058456421 45.142162322998 2.814010620117 110 110 110
21.386798858643 45.139457702637 2.844009399414 114 114 114
21.386798858643 45.139457702637 2.874008178711 126 126 126
21.416782379150 45.151229858398 2.910003662109 124 124 124
21.416782379150 45.151229858398 2.973007202148 130 130 130
21.416782379150 45.151229858398 3.005996704102 132 132 132
21.394989013672 45.154888153076 3.033996582031 126 126 126
21.416782379150 45.151229858398 3.068008422852 131 131 131
21.416782379150 45.151229858398 3.098999023438 139 139 139
21.416782379150 45.151229858398 3.128997802734 140 140 140
21.412246704102 45.157592773438 3.162002563477 136 136 136
21.412246704102 45.157592773438 3.192001342773 143 143 143
21.412246704102 45.157592773438 3.223007202148 145 145 145
21.412246704102 45.157592773438 3.255004882813 138 138 138
21.412246704102 45.157592773438 3.283996582031 145 145 145
21.412246704102 45.157592773438 3.316009521484 142 142 142
21.412246704102 45.157592773438 3.346008300781 144 144 144
21.424968719482 45.166664123535 3.378005981445 148 148 148
21.424968719482 45.166664123535 3.408996582031 148 148 148
21.424968719482 45.166664123535 3.439010620117 147 147 147
21.424968719482 45.166664123535 3.468002319336 148 148 148
21.420434951782 45.173027038574 3.498001098633 150 150 150
21.420434951782 45.173027038574 3.527999877930 153 153 153
21.424968719482 45.166664123535 3.557998657227 151 151 151
21.424968719482 45.166664123535 3.589004516602 148 148 148
21.424968719482 45.166664123535 3.619003295898 154 154 154
21.420434951782 45.173027038574 3.650009155273 158 158 158
21.420434951782 45.173027038574 3.680007934570 159 159 159
21.420434951782 45.173027038574 3.708999633789 163 163 163
21.428623199463 45.188453674316 3.738998413086 167 167 167
21.420434951782 45.173027038574 3.768997192383 167 167 167
21.445882797241 45.191165924072 3.798995971680 168 168 168
21.428623199463 45.188453674316 3.828002929688 171 171 171
21.428623199463 45.188453674316 3.858001708984 171 171 171
21.441347122192 45.197525024414 3.888000488281 172 172 172
21.441347122192 45.197525024414 3.917007446289 174 174 174
21.441347122192 45.197525024414 3.947006225586 177 177 177
21.441347122192 45.197525024414 3.975997924805 176 176 176
21.441347122192 45.197525024414 4.005004882813 180 180 180
21.441347122192 45.197525024414 4.035003662109 183 183 183
21.454071044922 45.206592559814 4.064010620117 185 185 185
21.454071044922 45.206592559814 4.094009399414 182 182 182
21.441347122192 45.197525024414 4.123001098633 186 186 186
21.454071044922 45.206592559814 4.152008056641 188 188 188
21.454071044922 45.206592559814 4.180999755859 189 189 189
21.449537277222 45.212955474854 4.210998535156 192 192 192
21.454071044922 45.206592559814 4.240005493164 196 196 196
21.454071044922 45.206592559814 4.268997192383 194 194 194
21.454071044922 45.206592559814 4.298995971680 193 193 193
21.454071044922 45.206592559814 4.328002929688 200 200 200
21.454071044922 45.206592559814 4.357009887695 201 201 201
21.449537277222 45.212955474854 4.386001586914 202 202 202
21.466794967651 45.215660095215 4.415008544922 198 198 198
21.449537277222 45.212955474854 4.445007324219 204 204 204
