29.000000000000 16.750000000000 4.219999790192 102 102 102
29.000000000000 16.750000000000 4.335999965668 104 104 104
29.062500000000 16.812500000000 4.453000068665 106 106 106
29.000000000000 16.750000000000 4.568999767303 96 96 96
29.000000000000 16.750000000000 4.683000087738 97 97 97
29.000000000000 16.750000000000 4.802999973297 103 103 103
29.000000000000 16.750000000000 4.920000076294 112 112 112
29.000000000000 16.750000000000 5.035999774933 108 108 108
29.000000000000 16.750000000000 5.151999950409 107 107 107
29.000000000000 16.750000000000 5.273999691010 106 106 106
29.000000000000 16.750000000000 5.391999721527 100 100 100
29.000000000000 16.750000000000 5.513000011444 101 101 101
29.000000000000 16.750000000000 5.634999752045 101 101 101
29.000000000000 16.750000000000 5.756999492645 103 103 103
29.000000000000 16.750000000000 5.879000186920 97 97 97
29.000000000000 16.750000000000 6.002000331879 92 92 92
29.000000000000 16.750000000000 6.122000217438 84 84 84
29.000000000000 16.750000000000 6.247999668121 75 75 75
29.000000000000 16.750000000000 6.372999668121 76 76 76
29.000000000000 16.750000000000 6.500999927521 65 65 65
29.000000000000 16.750000000000 6.627999782562 64 64 64
29.000000000000 16.750000000000 6.754000186920 56 56 56
29.000000000000 16.750000000000 6.881999492645 50 50 50
29.000000000000 16.750000000000 7.011000156403 39 39 39
29.000000000000 16.750000000000 7.148000240326 19 19 19
29.125000000000 16.750000000000 2.015999794006 103 103 103
29.125000000000 16.750000000000 2.133999824524 104 104 104
29.125000000000 16.750000000000 2.251999855042 105 105 105
29.125000000000 16.750000000000 2.369999885559 99 99 99
29.125000000000 16.750000000000 2.486999988556 110 110 110
29.125000000000 16.750000000000 2.604000091553 96 96 96
29.125000000000 16.750000000000 2.719999790192 97 97 97
29.125000000000 16.750000000000 2.836999893188 101 101 101
29.125000000000 16.750000000000 2.953000068665 101 101 101
29.125000000000 16.750000000000 3.069999694824 104 104 104
29.125000000000 16.750000000000 3.185999870300 104 104 104
29.125000000000 16.750000000000 3.302000045776 101 101 101
29.125000000000 16.750000000000 3.419000148773 90 90 90
29.187500000000 16.812500000000 3.536999702454 133 133 133
29.187500000000 16.812500000000 3.653999805450 130 130 130
29.187500000000 16.750000000000 3.769999980927 91 91 91
29.125000000000 16.750000000000 3.884999752045 67 67 67
29.125000000000 16.750000000000 4.000999927521 64 64 64
29.125000000000 16.750000000000 4.118000030518 63 63 63
29.125000000000 16.750000000000 4.236000061035 60 60 60
29.125000000000 16.750000000000 4.354000091553 46 46 46
29.125000000000 16.750000000000 4.472000122070 32 32 32
29.125000000000 16.750000000000 4.588999748230 14 14 14
29.250000000000 16.750000000000 2.000000000000 17 17 17
29.312500000000 16.750000000000 3.542999744415 163 163 163
29.312500000000 16.750000000000 3.661999702454 155 155 155
29.312500000000 16.750000000000 3.779999732971 62 62 62
29.312500000000 16.687500000000 3.544000148773 132 132 132
29.312500000000 16.687500000000 3.663000106812 124 124 124
29.312500000000 16.687500000000 3.782000064850 22 22 22
29.375000000000 31.125000000000 3.554999828339 46 46 46
29.375000000000 31.062500000000 3.436999797821 147 147 147
29.437500000000 31.062500000000 3.317999839783 142 142 142
29.312500000000 31.000000000000 3.554999828339 68 68 68
29.375000000000 31.000000000000 3.435999870300 153 153 153
29.375000000000 30.937500000000 3.316999912262 157 157 157
29.187500000000 30.937500000000 4.973999977112 6 6 6
29.250000000000 30.937500000000 4.855000019073 15 15 15
29.250000000000 30.937500000000 4.736999988556 21 21 21
29.250000000000 30.937500000000 4.615999698639 24 24 24
29.250000000000 30.937500000000 4.498000144958 21 21 21
29.187500000000 30.937500000000 4.376999855042 24 24 24
29.187500000000 30.937500000000 4.257999897003 33 33 33
29.187500000000 30.937500000000 4.138999938965 40 40 40
29.250000000000 31.000000000000 4.021999835968 46 46 46
29.250000000000 31.000000000000 3.904999732971 43 43 43
29.187500000000 30.937500000000 3.785999774933 41 41 41
29.187500000000 31.000000000000 3.667999744415 40 40 40
29.250000000000 30.937500000000 3.552000045776 75 75 75
29.250000000000 30.937500000000 3.434999942780 114 114 114
29.312500000000 30.937500000000 3.316999912262 110 110 110
29.187500000000 31.000000000000 3.199999809265 56 56 56
29.187500000000 31.000000000000 3.082999706268 54 54 54
29.187500000000 31.000000000000 2.966000080109 59 59 59
29.187500000000 31.000000000000 2.848999977112 70 70 70
29.187500000000 31.000000000000 2.730999946594 68 68 68
29.187500000000 31.000000000000 2.613999843597 80 80 80
29.187500000000 31.000000000000 2.494999885559 79 79 79
29.187500000000 31.000000000000 2.378999710083 78 78 78
29.187500000000 31.000000000000 2.260999679565 75 75 75
29.187500000000 31.000000000000 2.143000125885 75 75 75
29.187500000000 31.000000000000 2.023999691010 77 77 77
29.187500000000 31.000000000000 1.907999992371 69 69 69
29.187500000000 31.000000000000 1.788000106812 66 66 66
29.125000000000 30.875000000000 9.575999259949 4 4 4
29.125000000000 30.875000000000 9.421998977661 12 12 12
29.125000000000 30.875000000000 9.253999710083 16 16 16
29.125000000000 30.875000000000 9.109000205994 25 25 25
29.125000000000 30.875000000000 8.949999809265 32 32 32
29.125000000000 30.875000000000 8.791999816895 37 37 37
29.125000000000 30.875000000000 8.644999504089 45 45 45
29.125000000000 30.875000000000 8.498999595642 42 42 42
29.125000000000 30.875000000000 8.345999717712 41 41 41
29.125000000000 30.875000000000 8.197999954224 43 43 43
29.125000000000 30.875000000000 8.054000854492 47 47 47
29.125000000000 30.875000000000 7.915999889374 60 60 60
29.125000000000 30.875000000000 7.769999980927 48 48 48
29.125000000000 30.875000000000 7.629999637604 55 55 55
29.125000000000 30.875000000000 7.492999553680 61 61 61
29.125000000000 30.875000000000 7.351999759674 62 62 62
29.125000000000 30.875000000000 7.223000049591 66 66 66
29.125000000000 30.875000000000 7.089000225067 78 78 78
29.125000000000 30.875000000000 6.957000255585 73 73 73
29.125000000000 30.875000000000 6.823999881744 78 78 78
29.125000000000 30.875000000000 6.688000202179 78 78 78
29.125000000000 30.875000000000 6.556000232697 71 71 71
29.125000000000 30.875000000000 6.429000377655 73 73 73
29.125000000000 30.875000000000 6.306000232697 75 75 75
29.125000000000 30.875000000000 6.174999713898 76 76 76
29.125000000000 30.875000000000 6.051999568939 70 70 70
29.125000000000 30.937500000000 5.924999713898 78 78 78
29.062500000000 30.875000000000 5.796999454498 70 70 70
29.125000000000 30.937500000000 5.676999568939 77 77 77
29.125000000000 30.937500000000 5.552999973297 84 84 84
29.125000000000 30.937500000000 5.431999683380 78 78 78
29.062500000000 30.875000000000 5.309999942780 80 80 80
29.062500000000 30.937500000000 5.189000129700 80 80 80
29.125000000000 30.937500000000 5.072000026703 89 89 89
29.125000000000 30.937500000000 4.953000068665 85 85 85
29.062500000000 30.937500000000 4.830999851227 86 86 86
29.125000000000 30.937500000000 4.713999748230 86 86 86
29.125000000000 30.937500000000 4.595999717712 83 83 83
29.062500000000 30.937500000000 4.477999687195 89 89 89
29.062500000000 30.937500000000 4.361000061035 85 85 85
29.125000000000 30.937500000000 4.243999958038 80 80 80
29.125000000000 30.937500000000 4.127999782562 76 76 76
29.062500000000 30.937500000000 4.010999679565 81 81 81
29.125000000000 30.937500000000 3.894999980927 85 85 85
29.125000000000 30.937500000000 3.778999805450 82 82 82
29.125000000000 30.937500000000 3.663000106812 82 82 82
29.125000000000 30.937500000000 3.546999931335 82 82 82
29.125000000000 30.937500000000 3.431999683380 84 84 84
29.125000000000 30.937500000000 3.315999984741 87 87 87
29.125000000000 30.937500000000 3.199999809265 85 85 85
29.125000000000 30.937500000000 3.084000110626 86 86 86
29.125000000000 30.937500000000 2.967999935150 79 79 79
29.125000000000 30.937500000000 2.852999687195 71 71 71
29.125000000000 30.937500000000 2.736000061035 69 69 69
29.125000000000 30.937500000000 2.619999885559 66 66 66
29.125000000000 30.937500000000 2.502999782562 62 62 62
29.125000000000 30.937500000000 2.387000083923 63 63 63
29.125000000000 30.937500000000 2.269999980927 86 86 86
29.125000000000 30.937500000000 2.151000022888 51 51 51
29.125000000000 30.937500000000 2.033999919891 52 52 52
29.125000000000 30.937500000000 1.916999816895 42 42 42
29.125000000000 30.937500000000 1.796999931335 43 43 43
29.000000000000 30.812500000000 9.666000366211 68 68 68
29.000000000000 30.812500000000 9.499999046326 69 69 69
29.000000000000 30.812500000000 9.340999603271 67 67 67
29.000000000000 30.812500000000 9.183000564575 75 75 75
29.000000000000 30.812500000000 9.030000686646 74 74 74
29.000000000000 30.875000000000 8.872000694275 71 71 71
29.000000000000 30.875000000000 8.723999023438 74 74 74
29.000000000000 30.875000000000 8.571999549866 72 72 72
29.000000000000 30.812500000000 8.430999755859 79 79 79
29.000000000000 30.812500000000 8.287000656128 75 75 75
29.000000000000 30.875000000000 8.138998985291 80 80 80
29.000000000000 30.875000000000 7.997999668121 81 81 81
29.000000000000 30.812500000000 7.861999988556 74 74 74
29.000000000000 30.875000000000 7.719999790192 78 78 78
29.000000000000 30.812500000000 7.585999965668 68 68 68
29.000000000000 30.875000000000 7.447000026703 72 72 72
29.000000000000 30.875000000000 7.311000347137 64 64 64
29.000000000000 30.812500000000 7.181000232697 62 62 62
29.000000000000 30.812500000000 7.051999568939 58 58 58
29.000000000000 30.812500000000 6.919999599457 59 59 59
29.062500000000 30.875000000000 6.792000293732 86 86 86
29.062500000000 30.875000000000 6.662999629974 54 54 54
29.062500000000 30.875000000000 6.537999629974 44 44 44
29.062500000000 30.875000000000 6.407000064850 42 42 42
29.000000000000 30.812500000000 6.280000209808 39 39 39
29.062500000000 30.875000000000 6.157000064850 41 41 41
29.062500000000 30.875000000000 6.032000064850 41 41 41
29.062500000000 30.875000000000 5.912000179291 32 32 32
29.062500000000 30.875000000000 5.787999629974 32 32 32
29.062500000000 30.812500000000 5.669000148773 72 72 72
29.062500000000 30.812500000000 5.546999454498 95 95 95
29.062500000000 30.875000000000 5.421999454498 15 15 15
29.000000000000 30.875000000000 5.296999931335 10 10 10
29.062500000000 30.812500000000 4.476999759674 36 36 36
29.062500000000 30.812500000000 4.360000133514 102 102 102
29.312500000000 30.687500000000 3.554999828339 71 71 71
29.375000000000 30.687500000000 3.435999870300 154 154 154
29.062500000000 30.812500000000 3.315999984741 109 109 109
29.062500000000 30.812500000000 3.199999809265 62 62 62
29.187500000000 30.812500000000 2.268000125885 83 83 83
29.062500000000 30.750000000000 9.655999183655 68 68 68
29.062500000000 30.750000000000 9.505000114441 77 77 77
29.062500000000 30.750000000000 9.359999656677 82 82 82
29.062500000000 30.750000000000 9.203999519348 85 85 85
29.062500000000 30.750000000000 9.051000595093 89 89 89
29.062500000000 30.750000000000 8.905999183655 93 93 93
29.062500000000 30.750000000000 8.747000694275 96 96 96
29.062500000000 30.750000000000 8.598999023438 98 98 98
29.125000000000 30.750000000000 8.461999893188 97 97 97
29.125000000000 30.750000000000 8.313999176025 102 102 102
29.062500000000 30.750000000000 8.135999679565 75 75 75
29.125000000000 30.750000000000 8.027999877930 104 104 104
29.125000000000 30.750000000000 7.888999462128 98 98 98
29.125000000000 30.750000000000 7.752000331879 94 94 94
29.125000000000 30.750000000000 7.615999698639 99 99 99
29.125000000000 30.687500000000 7.485000133514 101 101 101
29.125000000000 30.687500000000 7.353000164032 101 101 101
29.125000000000 30.687500000000 7.224999904633 107 107 107
29.125000000000 30.687500000000 7.089999675751 96 96 96
29.125000000000 30.687500000000 6.960999965668 104 104 104
29.062500000000 30.750000000000 6.790999889374 96 96 96
29.187500000000 30.687500000000 6.703999996185 92 92 92
29.187500000000 30.687500000000 6.575000286102 93 93 93
29.187500000000 30.687500000000 6.450999736786 98 98 98
29.187500000000 30.687500000000 6.322999477386 94 94 94
29.187500000000 30.687500000000 6.197000026703 100 100 100
29.187500000000 30.687500000000 6.072999477386 100 100 100
29.187500000000 30.687500000000 5.947999477386 101 101 101
29.187500000000 30.687500000000 5.825999736786 97 97 97
29.125000000000 30.750000000000 5.679999828339 99 99 99
29.062500000000 30.750000000000 5.546000003815 100 100 100
29.187500000000 30.687500000000 5.457000255585 96 96 96
29.187500000000 30.687500000000 5.334999561310 101 101 101
29.187500000000 30.625000000000 5.213999748230 99 99 99
29.187500000000 30.687500000000 5.091000080109 101 101 101
29.187500000000 30.625000000000 4.972000122070 104 104 104
29.187500000000 30.687500000000 4.850999832153 103 103 103
29.187500000000 30.625000000000 4.733999729156 97 97 97
29.187500000000 30.625000000000 4.613999843597 95 95 95
29.187500000000 30.687500000000 4.489999771118 90 90 90
29.125000000000 30.750000000000 4.360000133514 90 90 90
29.187500000000 30.625000000000 4.257999897003 89 89 89
29.187500000000 30.625000000000 4.138999938965 88 88 88
29.250000000000 30.625000000000 4.021999835968 87 87 87
29.250000000000 30.687500000000 3.903999805450 83 83 83
29.250000000000 30.687500000000 3.785999774933 84 84 84
29.250000000000 30.687500000000 3.667999744415 82 82 82
29.250000000000 30.625000000000 3.551000118256 87 87 87
29.250000000000 30.625000000000 3.434000015259 115 115 115
29.125000000000 30.750000000000 3.315000057220 102 102 102
29.125000000000 30.750000000000 3.198999881744 85 85 85
29.250000000000 30.625000000000 3.080999851227 62 62 62
29.250000000000 30.625000000000 2.962999820709 71 71 71
29.250000000000 30.625000000000 2.843999862671 68 68 68
29.250000000000 30.625000000000 2.725999832153 68 68 68
29.250000000000 30.625000000000 2.607999801636 61 61 61
29.250000000000 30.625000000000 2.490999698639 66 66 66
29.250000000000 30.625000000000 2.371999740601 56 56 56
29.125000000000 30.750000000000 2.268000125885 81 81 81
29.250000000000 30.687500000000 2.137000083923 58 58 58
29.250000000000 30.625000000000 2.013000011444 53 53 53
29.250000000000 30.625000000000 1.893000125885 57 57 57
29.062500000000 30.625000000000 8.711999893188 10 10 10
29.062500000000 30.687500000000 8.559000015259 10 10 10
29.062500000000 30.687500000000 8.407999038696 11 11 11
29.062500000000 30.625000000000 8.273999214172 13 13 13
29.062500000000 30.687500000000 8.116999626160 50 50 50
29.062500000000 30.625000000000 8.013998985291 51 51 51
29.062500000000 30.625000000000 7.858999729156 29 29 29
29.062500000000 30.625000000000 7.717999935150 25 25 25
29.062500000000 30.625000000000 7.582000255585 30 30 30
29.062500000000 30.625000000000 7.443000316620 40 40 40
29.062500000000 30.625000000000 7.311000347137 43 43 43
29.062500000000 30.625000000000 7.174999713898 41 41 41
29.062500000000 30.625000000000 7.044999599457 49 49 49
29.062500000000 30.625000000000 6.910000324249 56 56 56
29.062500000000 30.687500000000 6.782999515533 75 75 75
29.062500000000 30.625000000000 6.665999889374 46 46 46
29.062500000000 30.625000000000 6.535000324249 51 51 51
29.062500000000 30.625000000000 6.403999805450 46 46 46
29.062500000000 30.625000000000 6.280999660492 57 57 57
29.062500000000 30.625000000000 6.153999805450 63 63 63
29.062500000000 30.625000000000 6.032000064850 66 66 66
29.062500000000 30.625000000000 5.907000064850 57 57 57
29.062500000000 30.625000000000 5.785999774933 63 63 63
29.062500000000 30.625000000000 5.662999629974 67 67 67
29.062500000000 30.625000000000 5.542999744415 66 66 66
29.062500000000 30.625000000000 5.424999713898 59 59 59
29.062500000000 30.625000000000 5.302999973297 67 67 67
29.062500000000 30.625000000000 5.184999942780 68 68 68
29.062500000000 30.625000000000 5.064000129700 68 68 68
29.062500000000 30.625000000000 4.944999694824 70 70 70
29.062500000000 30.625000000000 4.827000141144 67 67 67
29.062500000000 30.625000000000 4.710000038147 78 78 78
29.062500000000 30.625000000000 4.593999862671 69 69 69
29.062500000000 30.625000000000 4.474999904633 78 78 78
29.062500000000 30.625000000000 4.360000133514 75 75 75
29.062500000000 30.625000000000 4.243000030518 76 76 76
29.062500000000 30.625000000000 4.125000000000 80 80 80
29.062500000000 30.625000000000 4.009999752045 87 87 87
29.125000000000 30.625000000000 3.894000053406 86 86 86
29.125000000000 30.625000000000 3.778999805450 92 92 92
29.062500000000 30.625000000000 3.661999702454 91 91 91
29.125000000000 30.625000000000 3.546999931335 94 94 94
29.125000000000 30.625000000000 3.430999755859 92 92 92
29.125000000000 30.625000000000 3.315000057220 90 90 90
29.125000000000 30.625000000000 3.198999881744 80 80 80
29.125000000000 30.625000000000 3.084000110626 85 85 85
29.125000000000 30.625000000000 2.967999935150 85 85 85
29.125000000000 30.625000000000 2.850999832153 91 91 91
29.125000000000 30.625000000000 2.735000133514 90 90 90
29.125000000000 30.625000000000 2.619999885559 87 87 87
29.125000000000 30.625000000000 2.501999855042 92 92 92
29.125000000000 30.625000000000 2.383999824524 92 92 92
29.125000000000 30.625000000000 2.268000125885 88 88 88
29.125000000000 30.625000000000 2.150000095367 86 86 86
29.125000000000 30.625000000000 2.029999732971 91 91 91
29.125000000000 30.625000000000 1.913000106812 89 89 89
29.125000000000 30.625000000000 1.794000148773 88 88 88
29.125000000000 30.500000000000 8.030000686646 45 45 45
29.125000000000 30.437500000000 8.022999763489 18 18 18
29.125000000000 30.125000000000 7.881999492645 17 17 17
29.125000000000 29.875000000000 7.737999439240 15 15 15
29.125000000000 29.562500000000 7.591000080109 14 14 14
29.125000000000 29.250000000000 7.453999996185 21 21 21
29.125000000000 29.000000000000 7.311000347137 19 19 19
29.125000000000 28.750000000000 6.792000293732 5 5 5
29.125000000000 28.687500000000 7.174000263214 18 18 18
29.125000000000 28.687500000000 6.789999485016 8 8 8
29.125000000000 28.562500000000 6.780999660492 19 19 19
29.062500000000 28.500000000000 6.773999691010 19 19 19
29.125000000000 28.375000000000 7.032999515533 15 15 15
29.125000000000 28.375000000000 6.778999805450 26 26 26
29.125000000000 28.250000000000 6.778000354767 33 33 33
29.062500000000 28.187500000000 6.905999660492 11 11 11
29.062500000000 28.187500000000 6.773000240326 36 36 36
29.125000000000 28.062500000000 6.778000354767 28 28 28
29.062500000000 28.000000000000 6.775000095367 66 66 66
29.062500000000 27.875000000000 6.773000240326 21 21 21
29.125000000000 27.812500000000 6.775000095367 20 20 20
29.062500000000 27.750000000000 6.771000385284 19 19 19
29.062500000000 27.625000000000 6.775000095367 14 14 14
29.125000000000 27.500000000000 6.776999950409 14 14 14
29.062500000000 27.437500000000 6.768000125885 13 13 13
29.062500000000 27.250000000000 6.769999980927 10 10 10
29.062500000000 27.125000000000 6.768999576569 6 6 6
29.062500000000 26.812500000000 6.785000324249 70 70 70
29.062500000000 26.812500000000 6.651999950409 16 16 16
29.062500000000 26.375000000000 6.771999835968 5 5 5
29.125000000000 26.312500000000 6.662999629974 73 73 73
29.125000000000 26.312500000000 6.535999774933 59 59 59
29.062500000000 26.312500000000 6.405000209808 61 61 61
29.062500000000 26.312500000000 6.276999950409 45 45 45
29.062500000000 26.250000000000 6.275999546051 17 17 17
29.000000000000 26.125000000000 6.268999576569 20 20 20
29.062500000000 26.062500000000 6.269999980927 29 29 29
29.062500000000 26.000000000000 6.269999980927 14 14 14
29.000000000000 25.875000000000 6.275000095367 36 36 36
29.062500000000 25.750000000000 6.271999835968 37 37 37
29.062500000000 25.625000000000 6.273000240326 44 44 44
29.000000000000 25.562500000000 6.269999980927 52 52 52
29.062500000000 25.437500000000 6.271000385284 58 58 58
29.000000000000 25.375000000000 6.768999576569 11 11 11
29.062500000000 25.312500000000 6.662999629974 49 49 49
29.062500000000 25.375000000000 6.532000064850 15 15 15
29.000000000000 25.375000000000 6.268999576569 63 63 63
29.000000000000 25.250000000000 6.768000125885 11 11 11
29.000000000000 25.250000000000 6.264999866486 65 65 65
29.000000000000 25.187500000000 6.269999980927 63 63 63
29.000000000000 25.062500000000 6.266000270844 70 70 70
28.937500000000 25.000000000000 6.759999752045 10 10 10
29.000000000000 25.000000000000 6.268000125885 88 88 88
28.937500000000 24.875000000000 6.763999462128 11 11 11
29.062500000000 24.875000000000 6.662000179291 52 52 52
29.062500000000 24.812500000000 6.537999629974 49 49 49
29.062500000000 24.812500000000 6.412000179291 59 59 59
29.062500000000 24.875000000000 6.271000385284 80 80 80
29.000000000000 24.750000000000 6.764999866486 12 12 12
29.062500000000 24.750000000000 6.407999515533 187 187 187
29.062500000000 24.750000000000 6.282999515533 177 177 177
29.000000000000 24.687500000000 6.763000011444 17 17 17
29.000000000000 24.625000000000 6.405000209808 128 128 128
29.062500000000 24.625000000000 6.282000064850 171 171 171
28.937500000000 24.562500000000 6.764999866486 26 26 26
29.062500000000 24.562500000000 6.401999950409 36 36 36
29.062500000000 24.562500000000 6.276999950409 169 169 169
29.000000000000 24.500000000000 6.759000301361 41 41 41
29.000000000000 24.437500000000 6.396999835968 107 107 107
29.062500000000 24.500000000000 6.275000095367 162 162 162
29.000000000000 24.375000000000 6.766000270844 41 41 41
29.000000000000 24.375000000000 6.403999805450 32 32 32
29.000000000000 24.375000000000 6.271000385284 158 158 158
28.937500000000 24.312500000000 6.761999607086 35 35 35
29.000000000000 24.250000000000 6.396999835968 128 128 128
29.000000000000 24.250000000000 6.271999835968 150 150 150
29.000000000000 24.250000000000 6.759999752045 37 37 37
29.000000000000 24.187500000000 6.393999576569 165 165 165
29.000000000000 24.187500000000 6.271000385284 150 150 150
28.937500000000 24.125000000000 6.759999752045 21 21 21
29.000000000000 24.125000000000 6.396000385284 107 107 107
29.000000000000 24.125000000000 6.273000240326 162 162 162
28.937500000000 24.000000000000 6.761999607086 22 22 22
28.937500000000 24.000000000000 6.396000385284 157 157 157
29.000000000000 24.000000000000 6.273999691010 168 168 168
29.000000000000 23.937500000000 6.761999607086 57 57 57
29.000000000000 23.875000000000 6.653000354767 54 54 54
29.000000000000 23.875000000000 6.521000385284 60 60 60
29.000000000000 23.875000000000 6.394999980927 151 151 151
29.000000000000 23.875000000000 6.266000270844 112 112 112
28.937500000000 23.812500000000 6.764999866486 52 52 52
29.000000000000 23.812500000000 6.518999576569 25 25 25
29.000000000000 23.812500000000 6.391999721527 175 175 175
29.000000000000 23.812500000000 6.266999721527 129 129 129
28.937500000000 23.750000000000 6.759000301361 64 64 64
28.937500000000 23.750000000000 6.509000301361 57 57 57
28.937500000000 23.687500000000 6.388000011444 116 116 116
28.937500000000 23.687500000000 6.263000011444 118 118 118
28.937500000000 23.625000000000 6.759999752045 65 65 65
28.937500000000 23.625000000000 6.495999813080 77 77 77
29.000000000000 23.625000000000 6.381999492645 175 175 175
29.000000000000 23.625000000000 6.264999866486 98 98 98
28.937500000000 23.500000000000 6.756000041962 72 72 72
28.937500000000 23.500000000000 6.500999927521 81 81 81
28.937500000000 23.500000000000 6.379999637604 139 139 139
28.937500000000 23.500000000000 6.261999607086 97 97 97
28.937500000000 23.437500000000 6.752999782562 70 70 70
28.937500000000 23.437500000000 6.499000072479 86 86 86
28.937500000000 23.375000000000 6.384000301361 165 165 165
28.937500000000 23.375000000000 6.266000270844 89 89 89
28.937500000000 23.312500000000 6.761000156403 66 66 66
28.937500000000 23.312500000000 6.504999637604 87 87 87
29.000000000000 23.312500000000 6.388000011444 142 142 142
29.000000000000 23.312500000000 6.266999721527 96 96 96
28.937500000000 23.250000000000 6.761000156403 69 69 69
28.937500000000 23.250000000000 6.511000156403 70 70 70
28.937500000000 23.250000000000 6.384000301361 102 102 102
28.937500000000 23.187500000000 6.269999980927 97 97 97
28.937500000000 23.125000000000 6.761000156403 70 70 70
28.937500000000 23.125000000000 6.519999980927 55 55 55
28.937500000000 23.125000000000 6.394999980927 107 107 107
28.937500000000 23.125000000000 6.269999980927 89 89 89
28.937500000000 23.000000000000 6.766999721527 81 81 81
29.000000000000 23.000000000000 6.528999805450 50 50 50
29.000000000000 23.000000000000 6.400000095367 139 139 139
29.000000000000 23.000000000000 6.280999660492 93 93 93
28.937500000000 22.937500000000 6.766000270844 80 80 80
29.000000000000 22.875000000000 6.530000209808 55 55 55
29.000000000000 22.875000000000 6.403999805450 160 160 160
29.000000000000 22.875000000000 6.280000209808 92 92 92
28.937500000000 22.812500000000 6.768000125885 81 81 81
28.937500000000 22.812500000000 6.523999691010 47 47 47
28.937500000000 22.750000000000 6.407999515533 163 163 163
28.937500000000 22.750000000000 6.285000324249 83 83 83
28.937500000000 22.750000000000 6.766999721527 76 76 76
29.000000000000 22.687500000000 6.664000034332 36 36 36
29.000000000000 22.687500000000 6.535999774933 86 86 86
29.000000000000 22.687500000000 6.410999774933 177 177 177
29.000000000000 22.687500000000 6.285000324249 71 71 71
28.937500000000 22.625000000000 6.764999866486 82 82 82
29.000000000000 22.562500000000 6.285000324249 35 35 35
28.937500000000 22.500000000000 6.766000270844 67 67 67
28.937500000000 22.500000000000 6.285000324249 16 16 16
28.937500000000 22.437500000000 6.764999866486 74 74 74
29.000000000000 22.375000000000 6.282000064850 17 17 17
28.937500000000 22.375000000000 6.766000270844 70 70 70
29.000000000000 22.250000000000 6.287999629974 15 15 15
28.875000000000 22.250000000000 6.763000011444 82 82 82
28.937500000000 22.187500000000 6.667000293732 30 30 30
28.937500000000 22.187500000000 6.539000034332 34 34 34
29.062500000000 22.187500000000 6.421000003815 29 29 29
29.000000000000 22.187500000000 6.292000293732 20 20 20
28.937500000000 22.125000000000 6.763999462128 79 79 79
29.000000000000 22.125000000000 6.290999889374 29 29 29
28.937500000000 22.062500000000 6.768000125885 71 71 71
29.000000000000 22.000000000000 6.296000003815 25 25 25
28.875000000000 21.937500000000 6.771000385284 62 62 62
29.062500000000 21.875000000000 6.304000377655 9 9 9
28.937500000000 21.875000000000 6.773000240326 56 56 56
28.875000000000 21.750000000000 6.769999980927 52 52 52
28.875000000000 21.625000000000 6.775000095367 44 44 44
28.937500000000 21.500000000000 6.780000209808 24 24 24
28.937500000000 21.437500000000 6.775999546051 11 11 11
28.875000000000 21.125000000000 6.766999721527 25 25 25
28.937500000000 21.000000000000 6.898999691010 36 36 36
28.937500000000 20.937500000000 6.773999691010 29 29 29
28.875000000000 20.500000000000 6.891000270844 17 17 17
28.812500000000 20.375000000000 6.875999927521 49 49 49
28.875000000000 20.250000000000 6.882999897003 46 46 46
28.812500000000 20.187500000000 6.874999523163 60 60 60
28.812500000000 20.125000000000 6.874000072479 79 79 79
28.875000000000 20.000000000000 6.874999523163 69 69 69
28.875000000000 19.875000000000 6.879000186920 82 82 82
28.812500000000 19.812500000000 6.877999782562 82 82 82
28.875000000000 19.687500000000 6.884000301361 87 87 87
28.812500000000 19.625000000000 7.002999782562 15 15 15
28.812500000000 19.625000000000 6.879000186920 81 81 81
28.812500000000 19.500000000000 6.881000041962 72 72 72
28.875000000000 19.375000000000 6.884999752045 66 66 66
28.875000000000 19.312500000000 7.131999492645 37 37 37
28.875000000000 19.312500000000 6.884000301361 54 54 54
28.937500000000 19.187500000000 6.886000156403 55 55 55
28.937500000000 19.125000000000 7.264999866486 8 8 8
28.937500000000 19.125000000000 6.881999492645 54 54 54
28.937500000000 19.000000000000 7.273999691010 20 20 20
28.937500000000 19.000000000000 6.882999897003 44 44 44
28.937500000000 18.875000000000 6.889999866486 37 37 37
28.937500000000 18.812500000000 7.405000209808 23 23 23
28.937500000000 18.812500000000 6.886999607086 27 27 27
28.875000000000 18.687500000000 7.400000095367 10 10 10
28.937500000000 18.687500000000 6.893999576569 34 34 34
28.875000000000 18.625000000000 6.889999866486 20 20 20
28.937500000000 18.500000000000 7.544000148773 34 34 34
28.937500000000 18.500000000000 6.889999866486 34 34 34
28.937500000000 18.437500000000 6.891000270844 25 25 25
28.875000000000 18.312500000000 6.894999980927 24 24 24
28.937500000000 18.250000000000 7.683000087738 29 29 29
28.937500000000 18.250000000000 6.900000095367 26 26 26
28.937500000000 18.125000000000 6.901999950409 31 31 31
28.875000000000 18.000000000000 7.811999797821 26 26 26
28.875000000000 18.000000000000 6.893000125885 15 15 15
28.937500000000 17.937500000000 6.893000125885 11 11 11
28.937500000000 17.812500000000 6.896999835968 16 16 16
28.875000000000 17.750000000000 7.947000026703 19 19 19
28.875000000000 17.750000000000 6.891000270844 14 14 14
28.937500000000 17.625000000000 6.900000095367 16 16 16
28.875000000000 17.562500000000 8.080999374390 27 27 27
28.937500000000 17.500000000000 6.900000095367 16 16 16
29.312500000000 17.312500000000 3.697000026703 78 78 78
29.312500000000 17.312500000000 3.578000068665 64 64 64
29.312500000000 17.250000000000 3.460999965668 87 87 87
28.875000000000 17.375000000000 6.900999546051 32 32 32
29.250000000000 17.187500000000 3.698999881744 154 154 154
29.250000000000 17.187500000000 3.579999923706 121 121 121
29.312500000000 17.187500000000 3.461999893188 144 144 144
28.937500000000 17.312500000000 6.900000095367 40 40 40
29.312500000000 17.125000000000 3.581999778748 119 119 119
29.312500000000 17.125000000000 3.463999748230 153 153 153
29.187500000000 17.125000000000 2.993000030518 15 15 15
29.187500000000 17.125000000000 2.875999927521 21 21 21
29.187500000000 17.125000000000 2.757999897003 25 25 25
29.187500000000 17.125000000000 2.640999794006 47 47 47
29.187500000000 17.125000000000 2.523999691010 56 56 56
29.187500000000 17.125000000000 2.403999805450 43 43 43
29.187500000000 17.125000000000 2.286999702454 49 49 49
29.187500000000 17.125000000000 2.169000148773 58 58 58
29.187500000000 17.125000000000 2.048999786377 73 73 73
29.187500000000 17.125000000000 1.929999828339 71 71 71
29.312500000000 17.125000000000 3.699999809265 5 5 5
28.875000000000 17.250000000000 8.223000526428 19 19 19
28.937500000000 17.250000000000 6.905999660492 47 47 47
29.125000000000 17.125000000000 4.865999698639 7 7 7
29.125000000000 17.125000000000 4.748000144958 21 21 21
29.125000000000 17.125000000000 4.630000114441 27 27 27
29.125000000000 17.125000000000 4.513000011444 39 39 39
29.125000000000 17.125000000000 4.394000053406 41 41 41
29.125000000000 17.125000000000 4.278999805450 38 38 38
29.062500000000 17.125000000000 4.158999919891 49 49 49
29.125000000000 17.125000000000 4.042999744415 62 62 62
29.125000000000 17.125000000000 3.927000045776 73 73 73
29.062500000000 17.125000000000 2.882999897003 82 82 82
29.062500000000 17.125000000000 2.766999721527 80 80 80
29.062500000000 17.125000000000 2.651000022888 84 84 84
29.062500000000 17.125000000000 2.534999847412 80 80 80
29.062500000000 17.125000000000 2.416999816895 85 85 85
29.062500000000 17.125000000000 2.301000118256 85 85 85
29.062500000000 17.125000000000 2.184000015259 81 81 81
29.062500000000 17.125000000000 2.065999984741 74 74 74
29.125000000000 17.125000000000 1.946000099182 67 67 67
29.062500000000 17.125000000000 3.809000015259 7 7 7
29.062500000000 17.125000000000 3.462999820709 63 63 63
29.125000000000 17.125000000000 2.999000072479 58 58 58
28.875000000000 17.125000000000 8.230000495911 10 10 10
28.937500000000 17.125000000000 6.914000034332 80 80 80
29.000000000000 17.062500000000 6.804999828339 8 8 8
29.062500000000 17.062500000000 6.686000347137 17 17 17
29.062500000000 17.062500000000 6.556000232697 21 21 21
29.000000000000 17.062500000000 6.426999568939 32 32 32
29.062500000000 17.062500000000 6.301999568939 37 37 37
29.062500000000 17.062500000000 6.176999568939 44 44 44
29.000000000000 17.062500000000 6.051999568939 50 50 50
29.000000000000 17.062500000000 5.929000377655 57 57 57
29.062500000000 17.062500000000 5.806999683380 77 77 77
29.000000000000 17.062500000000 5.683999538422 74 74 74
29.000000000000 17.062500000000 5.561000347137 79 79 79
29.000000000000 17.062500000000 5.440000057220 72 72 72
29.000000000000 17.125000000000 5.316999912262 74 74 74
29.000000000000 17.125000000000 5.198999881744 78 78 78
29.000000000000 17.125000000000 5.080999851227 81 81 81
29.000000000000 17.125000000000 4.960999965668 78 78 78
29.000000000000 17.125000000000 4.844999790192 79 79 79
29.000000000000 17.125000000000 4.725999832153 77 77 77
29.000000000000 17.125000000000 4.611000061035 81 81 81
29.000000000000 17.125000000000 4.494999885559 79 79 79
29.000000000000 17.062500000000 4.381000041962 87 87 87
29.000000000000 17.125000000000 4.263999938965 87 87 87
29.000000000000 17.062500000000 4.150000095367 86 86 86
29.000000000000 17.062500000000 4.033999919891 79 79 79
29.062500000000 17.062500000000 3.114999771118 9 9 9
29.125000000000 17.000000000000 2.531000137329 94 94 94
29.125000000000 17.062500000000 2.416999816895 75 75 75
29.000000000000 17.062500000000 3.919000148773 53 53 53
29.062500000000 17.062500000000 3.805999755859 34 34 34
28.937500000000 17.000000000000 8.844000816345 9 9 9
28.937500000000 17.062500000000 8.680999755859 19 19 19
28.937500000000 17.000000000000 8.544000625610 31 31 31
28.937500000000 17.000000000000 8.399999618530 29 29 29
28.937500000000 17.000000000000 8.252999305725 75 75 75
28.937500000000 17.062500000000 8.102999687195 54 54 54
28.937500000000 17.062500000000 7.964999675751 54 54 54
28.937500000000 17.000000000000 7.837999820709 62 62 62
28.937500000000 17.000000000000 7.691999912262 69 69 69
28.937500000000 17.000000000000 7.556999683380 70 70 70
28.937500000000 17.062500000000 7.417999744415 73 73 73
28.875000000000 17.000000000000 7.278999805450 70 70 70
28.937500000000 17.062500000000 7.148999691010 70 70 70
28.875000000000 17.062500000000 7.013999462128 75 75 75
28.875000000000 17.062500000000 6.881999492645 81 81 81
28.937500000000 17.062500000000 6.761000156403 77 77 77
28.937500000000 17.062500000000 6.636000156403 75 75 75
28.937500000000 17.062500000000 6.509000301361 83 83 83
28.937500000000 17.062500000000 6.384999752045 74 74 74
28.937500000000 17.062500000000 6.263000011444 79 79 79
28.937500000000 17.000000000000 6.143000125885 83 83 83
28.937500000000 17.000000000000 6.019999980927 80 80 80
28.937500000000 17.000000000000 5.898000240326 80 80 80
28.937500000000 17.000000000000 5.782000064850 82 82 82
28.937500000000 17.000000000000 5.658999919891 60 60 60
28.937500000000 17.000000000000 5.539999485016 54 54 54
28.937500000000 17.000000000000 5.422999858856 48 48 48
28.937500000000 17.000000000000 5.303999900818 42 42 42
28.937500000000 17.000000000000 5.189000129700 33 33 33
28.937500000000 17.000000000000 5.072999954224 26 26 26
28.937500000000 17.000000000000 4.954999923706 7 7 7
29.000000000000 17.000000000000 4.610000133514 91 91 91
29.312500000000 16.812500000000 3.702000141144 153 153 153
28.812500000000 17.000000000000 9.852999687195 66 66 66
28.812500000000 17.000000000000 9.692999839783 71 71 71
28.812500000000 17.000000000000 9.542999267578 81 81 81
28.812500000000 17.000000000000 9.381999015808 70 70 70
28.812500000000 17.000000000000 9.215999603271 68 68 68
28.812500000000 17.000000000000 9.065999984741 76 76 76
28.812500000000 17.000000000000 8.906999588013 73 73 73
28.812500000000 17.000000000000 8.756999015808 74 74 74
28.812500000000 17.000000000000 8.622000694275 73 73 73
28.812500000000 17.000000000000 8.469999313354 75 75 75
28.812500000000 17.000000000000 8.319999694824 77 77 77
28.812500000000 17.000000000000 8.189999580383 71 71 71
28.812500000000 17.000000000000 8.052999496460 76 76 76
28.812500000000 17.000000000000 7.927999973297 76 76 76
28.812500000000 16.937500000000 7.792999744415 73 73 73
28.875000000000 17.000000000000 7.662000179291 73 73 73
28.875000000000 16.937500000000 7.539000034332 73 73 73
28.875000000000 16.937500000000 7.405999660492 73 73 73
28.875000000000 16.937500000000 7.289000034332 63 63 63
28.875000000000 16.937500000000 7.151999950409 71 71 71
28.875000000000 16.937500000000 7.007999897003 100 100 100
28.937500000000 16.875000000000 6.926999568939 46 46 46
29.000000000000 16.875000000000 6.808000087738 45 45 45
29.000000000000 16.875000000000 6.681999683380 51 51 51
29.000000000000 16.875000000000 6.558000087738 51 51 51
29.000000000000 16.875000000000 6.431999683380 59 59 59
29.000000000000 16.875000000000 6.309999942780 56 56 56
29.000000000000 16.875000000000 6.186999797821 57 57 57
29.000000000000 16.875000000000 6.061999797821 56 56 56
29.000000000000 16.875000000000 5.927999973297 68 68 68
28.937500000000 16.937500000000 5.778000354767 79 79 79
29.062500000000 16.875000000000 5.702000141144 58 58 58
29.062500000000 16.875000000000 5.578999996185 69 69 69
29.062500000000 16.875000000000 5.459000110626 71 71 71
29.125000000000 16.812500000000 5.339999675751 77 77 77
29.125000000000 16.812500000000 5.219999790192 83 83 83
29.125000000000 16.812500000000 5.101999759674 95 95 95
29.125000000000 16.812500000000 4.981999874115 94 94 94
29.125000000000 16.812500000000 4.863999843597 89 89 89
29.125000000000 16.812500000000 4.745999813080 84 84 84
29.187500000000 16.812500000000 2.054999828339 91 91 91
29.187500000000 16.750000000000 1.933000087738 95 95 95
28.937500000000 16.875000000000 4.608999729156 69 69 69
29.125000000000 16.812500000000 4.512000083923 57 57 57
29.125000000000 16.812500000000 4.394999980927 39 39 39
29.125000000000 16.812500000000 2.414999961853 25 25 25
29.125000000000 16.812500000000 2.296999931335 48 48 48
29.187500000000 16.812500000000 2.173999786377 64 64 64
28.687500000000 16.937500000000 9.949999809265 52 52 52
28.750000000000 16.937500000000 9.812999725342 66 66 66
28.750000000000 16.875000000000 9.677999496460 83 83 83
28.750000000000 16.875000000000 9.517999649048 80 80 80
28.812500000000 16.875000000000 9.376000404358 80 80 80
28.812500000000 16.875000000000 9.226000785828 85 85 85
28.812500000000 16.875000000000 9.080999374390 90 90 90
28.812500000000 16.875000000000 8.942999839783 92 92 92
28.812500000000 16.875000000000 8.802000045776 93 93 93
28.812500000000 16.875000000000 8.657999038696 100 100 100
28.812500000000 16.875000000000 8.494999885559 99 99 99
28.812500000000 16.875000000000 8.326999664307 91 91 91
28.875000000000 16.875000000000 8.227000236511 91 91 91
28.875000000000 16.875000000000 8.087999343872 95 95 95
28.875000000000 16.875000000000 7.945999622345 96 96 96
28.875000000000 16.875000000000 7.811999797821 97 97 97
28.875000000000 16.875000000000 7.679000377655 103 103 103
28.875000000000 16.812500000000 7.551000118256 98 98 98
28.875000000000 16.812500000000 7.417000293732 97 97 97
28.875000000000 16.875000000000 7.278999805450 103 103 103
28.875000000000 16.812500000000 7.151999950409 99 99 99
28.812500000000 16.875000000000 7.002999782562 87 87 87
28.875000000000 16.812500000000 6.898000240326 87 87 87
28.875000000000 16.812500000000 6.771000385284 92 92 92
28.875000000000 16.812500000000 6.638999462128 96 96 96
28.875000000000 16.812500000000 6.513999462128 89 89 89
28.875000000000 16.812500000000 6.393000125885 97 97 97
28.875000000000 16.812500000000 6.268999576569 96 96 96
28.875000000000 16.812500000000 6.141999721527 92 92 92
28.875000000000 16.812500000000 6.021999835968 98 98 98
28.875000000000 16.812500000000 5.893999576569 89 89 89
28.875000000000 16.812500000000 5.778999805450 82 82 82
28.875000000000 16.812500000000 5.658999919891 94 94 94
29.062500000000 16.750000000000 3.225999832153 20 20 20
29.062500000000 16.750000000000 3.111000061035 38 38 38
29.062500000000 16.750000000000 2.994999885559 34 34 34
29.062500000000 16.750000000000 2.880000114441 30 30 30
29.062500000000 16.750000000000 2.763999938965 18 18 18
29.062500000000 16.750000000000 2.647999763489 12 12 12
28.875000000000 16.812500000000 5.542000293732 74 74 74
28.937500000000 16.812500000000 5.426000118256 63 63 63
28.687500000000 16.875000000000 9.945999145508 25 25 25
28.687500000000 16.875000000000 9.788000106812 41 41 41
28.687500000000 16.812500000000 9.636999130249 43 43 43
28.687500000000 16.812500000000 9.480999946594 39 39 39
28.750000000000 16.812500000000 9.333999633789 37 37 37
28.750000000000 16.812500000000 9.180999755859 36 36 36
28.750000000000 16.812500000000 9.022999763489 31 31 31
28.750000000000 16.812500000000 8.878999710083 31 31 31
28.750000000000 16.812500000000 8.737000465393 24 24 24
28.750000000000 16.812500000000 8.598999023438 28 28 28
28.750000000000 16.812500000000 8.455999374390 16 16 16
28.750000000000 16.812500000000 8.309999465942 13 13 13
28.750000000000 16.812500000000 8.180000305176 14 14 14
28.750000000000 16.812500000000 8.042999267578 10 10 10
28.750000000000 16.875000000000 9.940999984741 35 35 35
28.750000000000 16.875000000000 9.784000396729 74 74 74
28.750000000000 16.875000000000 9.628999710083 78 78 78
28.750000000000 16.875000000000 9.469999313354 81 81 81
28.750000000000 16.875000000000 9.319000244141 84 84 84
28.750000000000 16.875000000000 9.159999847412 76 76 76
28.750000000000 16.875000000000 9.014999389648 72 72 72
28.750000000000 16.875000000000 8.863999366760 69 69 69
28.750000000000 16.875000000000 8.721999168396 69 69 69
28.750000000000 16.875000000000 8.583999633789 75 75 75
28.812500000000 16.875000000000 8.442999839783 65 65 65
28.750000000000 16.875000000000 8.296998977661 66 66 66
28.812500000000 16.875000000000 8.162000656128 59 59 59
28.812500000000 16.875000000000 8.027999877930 66 66 66
28.812500000000 16.875000000000 7.891000270844 64 64 64
28.812500000000 16.812500000000 7.759000301361 60 60 60
28.812500000000 16.812500000000 7.625999927521 68 68 68
28.812500000000 16.812500000000 7.490000247955 56 56 56
28.812500000000 16.812500000000 7.355000019073 48 48 48
28.812500000000 16.812500000000 7.230999469757 60 60 60
28.875000000000 16.812500000000 7.113999843597 61 61 61
28.812500000000 16.812500000000 6.976999759674 54 54 54
28.812500000000 16.812500000000 6.848999500275 51 51 51
28.875000000000 16.812500000000 6.724999904633 52 52 52
28.875000000000 16.812500000000 6.601999759674 52 52 52
28.875000000000 16.812500000000 6.478000164032 48 48 48
28.875000000000 16.812500000000 6.351999759674 38 38 38
28.937500000000 16.812500000000 6.230999469757 38 38 38
28.937500000000 16.750000000000 6.115999698639 37 37 37
28.937500000000 16.812500000000 5.986999988556 36 36 36
28.937500000000 16.750000000000 5.872999668121 25 25 25
28.937500000000 16.750000000000 5.749999523163 25 25 25
28.937500000000 16.750000000000 5.629999637604 15 15 15
28.937500000000 16.750000000000 5.511000156403 15 15 15
28.750000000000 17.000000000000 9.924999237061 25 25 25
28.750000000000 17.000000000000 9.776999473572 70 70 70
28.750000000000 16.937500000000 9.633999824524 80 80 80
28.812500000000 16.937500000000 9.494000434875 77 77 77
28.812500000000 16.937500000000 9.352999687195 81 81 81
28.812500000000 16.875000000000 9.205999374390 84 84 84
28.812500000000 16.875000000000 9.064999580383 89 89 89
28.812500000000 16.875000000000 8.914999008179 94 94 94
28.875000000000 16.875000000000 8.777999877930 90 90 90
28.875000000000 16.875000000000 8.647999763489 89 89 89
28.875000000000 16.875000000000 8.494999885559 94 94 94
28.812500000000 16.937500000000 8.304000854492 93 93 93
28.875000000000 16.875000000000 8.228999137878 86 86 86
28.937500000000 16.875000000000 8.089999198914 89 89 89
28.875000000000 16.875000000000 7.943000316620 96 96 96
28.937500000000 16.875000000000 7.808999538422 95 95 95
28.937500000000 16.875000000000 7.671999454498 97 97 97
28.937500000000 16.875000000000 7.539000034332 102 102 102
28.937500000000 16.875000000000 7.405000209808 102 102 102
28.937500000000 16.875000000000 7.269999980927 104 104 104
28.937500000000 16.875000000000 7.136000156403 95 95 95
28.875000000000 16.875000000000 6.980000019073 96 96 96
28.937500000000 16.875000000000 6.879000186920 89 89 89
28.937500000000 16.875000000000 6.756999492645 96 96 96
28.937500000000 16.875000000000 6.624000072479 95 95 95
28.937500000000 16.875000000000 6.500999927521 96 96 96
28.937500000000 16.875000000000 6.375999927521 100 100 100
28.937500000000 16.875000000000 6.250999927521 98 98 98
28.937500000000 16.875000000000 6.129999637604 97 97 97
28.937500000000 16.812500000000 6.011999607086 101 101 101
28.937500000000 16.875000000000 5.884999752045 94 94 94
28.937500000000 16.875000000000 5.752999782562 84 84 84
28.937500000000 16.875000000000 5.643000125885 89 89 89
29.125000000000 16.812500000000 2.731999874115 62 62 62
29.125000000000 16.812500000000 2.615999698639 64 64 64
29.125000000000 16.812500000000 2.498000144958 64 64 64
29.125000000000 16.812500000000 2.381000041962 58 58 58
29.125000000000 16.812500000000 2.263000011444 64 64 64
29.125000000000 16.812500000000 2.146999835968 59 59 59
29.125000000000 16.750000000000 2.026000022888 57 57 57
29.062500000000 16.812500000000 5.535000324249 76 76 76
29.062500000000 16.812500000000 5.412000179291 61 61 61
28.937500000000 16.812500000000 5.283999919891 49 49 49
28.937500000000 16.875000000000 5.150000095367 7 7 7
29.062500000000 16.812500000000 3.078999996185 11 11 11
29.125000000000 16.812500000000 2.962999820709 20 20 20
29.125000000000 16.812500000000 2.847000122070 34 34 34
28.812500000000 17.000000000000 9.824999809265 66 66 66
28.812500000000 17.000000000000 9.666999816895 76 76 76
28.812500000000 17.000000000000 9.510999679565 78 78 78
28.812500000000 17.000000000000 9.346999168396 71 71 71
28.812500000000 17.000000000000 9.188999176025 75 75 75
28.812500000000 17.000000000000 9.037000656128 76 76 76
28.812500000000 17.000000000000 8.884999275208 73 73 73
28.812500000000 17.000000000000 8.741000175476 75 75 75
28.812500000000 17.000000000000 8.590999603271 75 75 75
28.812500000000 17.000000000000 8.444999694824 69 69 69
28.812500000000 17.000000000000 8.291999816895 76 76 76
28.812500000000 17.000000000000 8.166999816895 73 73 73
28.812500000000 17.000000000000 8.024999618530 77 77 77
28.812500000000 17.000000000000 7.893000125885 78 78 78
28.875000000000 17.000000000000 7.769999980927 73 73 73
28.875000000000 17.000000000000 7.641999721527 74 74 74
28.875000000000 17.000000000000 7.513000011444 72 72 72
28.875000000000 17.000000000000 7.384000301361 68 68 68
28.937500000000 17.000000000000 7.259999752045 71 71 71
28.875000000000 16.937500000000 7.122999668121 71 71 71
28.875000000000 17.000000000000 6.983000278473 99 99 99
28.937500000000 16.937500000000 6.891000270844 55 55 55
29.000000000000 16.875000000000 6.776999950409 48 48 48
29.000000000000 16.875000000000 6.660999774933 45 45 45
29.000000000000 16.875000000000 6.533999919891 51 51 51
29.000000000000 16.875000000000 6.407000064850 55 55 55
29.000000000000 16.875000000000 6.282000064850 55 55 55
29.062500000000 16.875000000000 6.158999919891 60 60 60
29.062500000000 16.875000000000 6.037000179291 52 52 52
29.000000000000 16.875000000000 5.910000324249 58 58 58
28.937500000000 16.937500000000 5.749999523163 79 79 79
29.062500000000 16.875000000000 5.674000263214 53 53 53
29.062500000000 16.875000000000 5.551000118256 62 62 62
29.062500000000 16.875000000000 5.427999973297 61 61 61
29.062500000000 16.875000000000 5.311999797821 67 67 67
29.062500000000 16.875000000000 5.190000057220 71 71 71
29.062500000000 16.875000000000 5.072999954224 73 73 73
29.062500000000 16.875000000000 4.954999923706 75 75 75
29.062500000000 16.875000000000 4.835999965668 72 72 72
29.062500000000 16.875000000000 4.717000007629 69 69 69
29.000000000000 16.937500000000 4.580999851227 79 79 79
29.062500000000 16.875000000000 4.480999946594 63 63 63
