29.765625000000 17.843750000000 8.145000457764 111 111 111
29.765625000000 17.843750000000 8.560001373291 12 12 12
29.765625000000 17.843750000000 8.612003326416 32 32 32
29.750000000000 18.156250000000 8.118999481201 104 104 104
29.750000000000 18.156250000000 8.174999237061 28 28 28
29.765625000000 18.156250000000 8.712001800537 67 67 67
29.750000000000 18.468750000000 8.150005340576 140 140 140
29.796875000000 18.468750000000 8.808002471924 82 82 82
29.765625000000 18.781250000000 8.130001068115 110 110 110
29.734375000000 18.781250000000 8.178005218506 41 41 41
29.796875000000 18.796875000000 8.902004241943 58 58 58
29.734375000000 19.109375000000 8.152004241943 130 130 130
29.765625000000 19.125000000000 9.054004669189 34 34 34
29.796875000000 19.421875000000 8.141002655029 111 111 111
29.671875000000 19.437500000000 8.160999298096 111 111 111
29.765625000000 19.437500000000 8.781002044678 26 26 26
29.765625000000 19.437500000000 8.840000152588 61 61 61
29.765625000000 19.437500000000 8.898998260498 80 80 80
29.765625000000 19.437500000000 8.951999664307 106 106 106
29.765625000000 19.437500000000 9.025005340576 128 128 128
29.765625000000 19.437500000000 9.079998016357 134 134 134
29.703125000000 19.437500000000 9.118000030518 130 130 130
29.765625000000 19.437500000000 9.198001861572 121 121 121
29.765625000000 19.437500000000 9.262004852295 132 132 132
29.765625000000 19.437500000000 9.326000213623 147 147 147
29.765625000000 19.437500000000 9.391002655029 170 170 170
29.765625000000 19.437500000000 9.453998565674 171 171 171
29.765625000000 19.437500000000 9.514003753662 174 174 174
29.750000000000 19.437500000000 9.573001861572 71 71 71
29.546875000000 19.703125000000 3.511001586914 200 200 200
29.546875000000 19.687500000000 3.563003540039 195 195 195
29.546875000000 19.703125000000 3.616001129150 195 195 195
29.546875000000 19.703125000000 3.668003082275 189 189 189
29.546875000000 19.718750000000 3.720001220703 191 191 191
29.562500000000 19.703125000000 3.772003173828 194 194 194
29.562500000000 19.703125000000 3.823001861572 202 202 202
29.562500000000 19.703125000000 3.876003265381 201 201 201
29.562500000000 19.703125000000 3.927001953125 196 196 196
29.562500000000 19.703125000000 3.979000091553 198 198 198
29.562500000000 19.703125000000 4.031002044678 199 199 199
29.562500000000 19.703125000000 4.083000183105 196 196 196
29.609375000000 19.718750000000 4.131999969482 193 193 193
29.609375000000 19.718750000000 4.183002471924 184 184 184
29.578125000000 19.703125000000 4.236000061035 198 198 198
29.578125000000 19.718750000000 4.288002014160 208 208 208
29.578125000000 19.703125000000 4.339000701904 200 200 200
29.609375000000 19.718750000000 4.390003204346 194 194 194
29.578125000000 19.703125000000 4.442001342773 190 190 190
29.609375000000 19.718750000000 4.493000030518 192 192 192
29.609375000000 19.718750000000 4.543003082275 192 192 192
29.609375000000 19.703125000000 4.594001770020 191 191 191
29.609375000000 19.718750000000 4.645999908447 181 181 181
29.609375000000 19.703125000000 4.697002410889 159 159 159
29.625000000000 19.718750000000 4.746002197266 179 179 179
29.609375000000 19.718750000000 4.799003601074 184 184 184
29.625000000000 19.718750000000 4.849002838135 179 179 179
29.625000000000 19.718750000000 4.901000976563 173 173 173
29.625000000000 19.718750000000 4.952003479004 162 162 162
29.640625000000 19.718750000000 5.003002166748 152 152 152
29.640625000000 19.718750000000 5.054000854492 144 144 144
29.671875000000 19.718750000000 5.105003356934 94 94 94
29.671875000000 19.718750000000 5.156002044678 64 64 64
29.671875000000 19.718750000000 5.208000183105 69 69 69
29.671875000000 19.718750000000 5.258998870850 34 34 34
29.703125000000 19.718750000000 5.311000823975 10 10 10
29.515625000000 19.687500000000 3.086002349854 151 151 151
29.515625000000 19.703125000000 3.144001007080 108 108 108
29.546875000000 19.687500000000 3.457000732422 168 168 168
29.765625000000 19.531250000000 9.609004974365 179 179 179
29.765625000000 19.531250000000 9.536998748779 177 177 177
29.734375000000 19.531250000000 9.466999053955 191 191 191
29.765625000000 19.531250000000 9.398998260498 198 198 198
29.734375000000 19.531250000000 9.331005096436 194 194 194
29.734375000000 19.531250000000 9.261005401611 199 199 199
29.734375000000 19.531250000000 9.190998077393 139 139 139
29.734375000000 19.531250000000 9.125003814697 186 186 186
29.734375000000 19.531250000000 9.054004669189 192 192 192
29.734375000000 19.531250000000 8.987003326416 187 187 187
29.734375000000 19.531250000000 8.919002532959 188 188 188
29.718750000000 19.531250000000 8.851001739502 189 189 189
29.703125000000 19.531250000000 8.783000946045 186 186 186
29.718750000000 19.531250000000 8.719005584717 188 188 188
29.718750000000 19.531250000000 8.652004241943 193 193 193
29.703125000000 19.531250000000 8.584003448486 195 195 195
29.703125000000 19.531250000000 8.519001007080 194 194 194
29.703125000000 19.531250000000 8.452999114990 189 189 189
29.703125000000 19.531250000000 8.386005401611 197 197 197
29.703125000000 19.531250000000 8.322002410889 199 199 199
29.703125000000 19.531250000000 8.257999420166 195 195 195
29.703125000000 19.531250000000 8.193004608154 174 174 174
29.703125000000 19.531250000000 8.131000518799 198 198 198
29.703125000000 19.531250000000 8.063999176025 194 194 194
29.703125000000 19.531250000000 8.001003265381 199 199 199
29.703125000000 19.531250000000 7.938999176025 200 200 200
29.703125000000 19.531250000000 7.874004364014 198 198 198
29.703125000000 19.531250000000 7.810001373291 196 196 196
29.703125000000 19.531250000000 7.745998382568 203 203 203
29.703125000000 19.531250000000 7.684001922607 201 201 201
29.703125000000 19.531250000000 7.620998382568 204 204 204
29.703125000000 19.531250000000 7.558002471924 203 203 203
29.687500000000 19.531250000000 7.494998931885 205 205 205
29.687500000000 19.531250000000 7.432003021240 206 206 206
29.687500000000 19.531250000000 7.370998382568 205 205 205
29.671875000000 19.546875000000 7.308002471924 207 207 207
29.687500000000 19.531250000000 7.245998382568 190 190 190
29.687500000000 19.531250000000 7.185001373291 206 206 206
29.687500000000 19.531250000000 7.124004364014 209 209 209
29.671875000000 19.546875000000 7.062000274658 210 210 210
29.671875000000 19.531250000000 7.000003814697 206 206 206
29.671875000000 19.546875000000 6.938999176025 208 208 208
29.671875000000 19.531250000000 6.878002166748 207 207 207
29.671875000000 19.546875000000 6.815998077393 211 211 211
29.671875000000 19.562500000000 6.754001617432 209 209 209
29.671875000000 19.546875000000 6.695003509521 209 209 209
29.671875000000 19.546875000000 6.634998321533 213 213 213
29.671875000000 19.546875000000 6.574001312256 215 215 215
29.640625000000 19.546875000000 6.512004852295 210 210 210
29.640625000000 19.546875000000 6.451999664307 215 215 215
29.640625000000 19.546875000000 6.392002105713 215 215 215
29.640625000000 19.562500000000 6.331005096436 217 217 217
29.640625000000 19.562500000000 6.270999908447 219 219 219
29.640625000000 19.546875000000 6.212001800537 205 205 205
29.640625000000 19.562500000000 6.151004791260 214 214 214
29.609375000000 19.562500000000 6.090999603271 217 217 217
29.609375000000 19.562500000000 6.031002044678 221 221 221
29.609375000000 19.562500000000 5.972003936768 220 220 220
29.609375000000 19.562500000000 5.911998748779 218 218 218
29.609375000000 19.562500000000 5.853000640869 225 225 225
29.609375000000 19.562500000000 5.793003082275 223 223 223
29.609375000000 19.562500000000 5.733005523682 222 222 222
29.609375000000 19.562500000000 5.673999786377 223 223 223
29.609375000000 19.562500000000 5.615001678467 218 218 218
29.578125000000 19.562500000000 5.555004119873 218 218 218
29.578125000000 19.562500000000 5.495998382568 220 220 220
29.578125000000 19.562500000000 5.437000274658 221 221 221
29.578125000000 19.562500000000 5.377002716064 221 221 221
29.578125000000 19.562500000000 5.318004608154 218 218 218
29.578125000000 19.562500000000 5.258998870850 210 210 210
29.578125000000 19.562500000000 5.200000762939 211 211 211
29.578125000000 19.562500000000 5.140003204346 221 221 221
29.578125000000 19.562500000000 5.081001281738 221 221 221
29.578125000000 19.562500000000 5.022003173828 224 224 224
29.578125000000 19.562500000000 4.963001251221 222 222 222
29.578125000000 19.562500000000 4.903003692627 222 222 222
29.578125000000 19.578125000000 4.845001220703 212 212 212
29.578125000000 19.562500000000 4.785003662109 212 212 212
29.578125000000 19.562500000000 4.726001739502 216 216 216
29.546875000000 19.562500000000 4.667003631592 212 212 212
29.546875000000 19.578125000000 4.608001708984 212 212 212
29.546875000000 19.562500000000 4.547000885010 217 217 217
29.546875000000 19.562500000000 4.488002777100 217 217 217
29.546875000000 19.562500000000 4.428001403809 202 202 202
29.546875000000 19.578125000000 4.370002746582 203 203 203
29.546875000000 19.578125000000 4.309001922607 206 206 206
29.546875000000 19.578125000000 4.250000000000 210 210 210
29.546875000000 19.578125000000 4.190002441406 207 207 207
29.546875000000 19.578125000000 4.131000518799 207 207 207
29.546875000000 19.578125000000 4.071002960205 206 206 206
29.546875000000 19.578125000000 4.011001586914 209 209 209
29.531250000000 19.593750000000 3.951000213623 212 212 212
29.546875000000 19.578125000000 3.890003204346 211 211 211
29.531250000000 19.593750000000 3.832000732422 208 208 208
29.546875000000 19.578125000000 3.769001007080 213 213 213
29.531250000000 19.593750000000 3.710002899170 214 214 214
29.531250000000 19.593750000000 3.649002075195 215 215 215
29.515625000000 19.593750000000 3.590000152588 211 211 211
29.515625000000 19.593750000000 3.528003692627 208 208 208
29.515625000000 19.593750000000 3.470001220703 214 214 214
29.515625000000 19.593750000000 3.409000396729 208 208 208
29.515625000000 19.593750000000 3.349002838135 209 209 209
29.515625000000 19.593750000000 3.286003112793 211 211 211
29.515625000000 19.593750000000 3.226001739502 212 212 212
29.515625000000 19.593750000000 3.164001464844 212 212 212
29.484375000000 19.593750000000 3.106002807617 209 209 209
29.484375000000 19.578125000000 3.041000366211 207 207 207
29.484375000000 19.578125000000 2.979000091553 205 205 205
29.484375000000 19.593750000000 2.918003082275 206 206 206
29.515625000000 19.562500000000 2.842002868652 180 180 180
29.484375000000 19.562500000000 2.789001464844 174 174 174
29.484375000000 19.593750000000 2.733001708984 184 184 184
29.828125000000 19.187500000000 9.111003875732 41 41 41
29.765625000000 19.203125000000 8.237003326416 59 59 59
29.765625000000 19.187500000000 8.178005218506 57 57 57
29.796875000000 18.875000000000 9.003002166748 78 78 78
29.765625000000 18.890625000000 8.206005096436 127 127 127
29.796875000000 18.562500000000 8.901004791260 63 63 63
29.765625000000 18.593750000000 8.236003875732 45 45 45
29.765625000000 18.562500000000 8.175998687744 81 81 81
29.796875000000 18.281250000000 8.797000885010 72 72 72
29.765625000000 18.281250000000 8.199001312256 126 126 126
29.765625000000 17.968750000000 8.686000823975 62 62 62
29.734375000000 17.968750000000 8.225002288818 24 24 24
29.765625000000 17.968750000000 8.165004730225 78 78 78
29.765625000000 17.656250000000 8.588001251221 67 67 67
29.765625000000 17.656250000000 8.195003509521 96 96 96
29.843750000000 17.625000000000 8.150005340576 27 27 27
29.765625000000 17.343750000000 8.488002777100 64 64 64
29.734375000000 17.375000000000 8.221004486084 18 18 18
29.750000000000 17.359375000000 8.160999298096 86 86 86
29.765625000000 17.046875000000 8.389003753662 71 71 71
29.750000000000 17.046875000000 8.190998077393 106 106 106
29.890625000000 16.968750000000 7.908000946045 100 100 100
29.765625000000 16.734375000000 8.284999847412 71 71 71
29.734375000000 16.750000000000 8.212001800537 18 18 18
29.765625000000 16.734375000000 8.156002044678 74 74 74
29.890625000000 16.656250000000 7.870998382568 66 66 66
29.734375000000 16.437500000000 8.176998138428 88 88 88
29.859375000000 16.375000000000 7.890003204346 94 94 94
29.765625000000 16.125000000000 8.216999053955 9 9 9
29.765625000000 16.125000000000 8.152004241943 109 109 109
29.828125000000 16.093750000000 8.104000091553 98 98 98
29.796875000000 16.093750000000 8.036998748779 91 91 91
29.828125000000 16.062500000000 7.980998992920 89 89 89
29.843750000000 16.062500000000 7.920001983643 88 88 88
29.843750000000 16.062500000000 7.855998992920 92 92 92
29.765625000000 15.812500000000 8.178005218506 79 79 79
29.843750000000 15.750000000000 7.889003753662 84 84 84
29.734375000000 15.515625000000 8.145999908447 101 101 101
29.796875000000 15.468750000000 8.102001190186 122 122 122
29.828125000000 15.468750000000 8.042003631592 167 167 167
29.828125000000 15.453125000000 7.981998443604 176 176 176
29.843750000000 15.437500000000 7.921001434326 214 214 214
29.859375000000 15.437500000000 7.860004425049 101 101 101
29.734375000000 15.203125000000 8.173000335693 79 79 79
29.796875000000 15.171875000000 8.126003265381 24 24 24
29.828125000000 15.156250000000 8.071002960205 194 194 194
29.828125000000 15.156250000000 8.009998321533 50 50 50
29.828125000000 15.156250000000 7.947002410889 196 196 196
29.859375000000 15.125000000000 7.889003753662 206 206 206
29.734375000000 14.906250000000 8.138004302979 93 93 93
29.796875000000 14.843750000000 8.094005584717 101 101 101
29.828125000000 14.843750000000 8.035999298096 224 224 224
29.828125000000 14.843750000000 7.974002838135 220 220 220
29.859375000000 14.828125000000 7.914005279541 206 206 206
29.859375000000 14.828125000000 7.852001190186 106 106 106
29.734375000000 14.593750000000 8.167003631592 55 55 55
29.796875000000 14.562500000000 8.117000579834 33 33 33
29.828125000000 14.546875000000 8.062999725342 205 205 205
29.859375000000 14.531250000000 8.006999969482 174 174 174
29.859375000000 14.531250000000 7.944004058838 180 180 180
29.859375000000 14.531250000000 7.882999420166 201 201 201
29.734375000000 14.281250000000 8.139003753662 103 103 103
29.796875000000 14.250000000000 8.094005584717 122 122 122
29.828125000000 14.234375000000 8.034000396729 208 208 208
29.828125000000 14.218750000000 7.973003387451 218 218 218
29.828125000000 14.218750000000 7.910999298096 210 210 210
29.828125000000 14.218750000000 7.851001739502 127 127 127
29.734375000000 13.968750000000 8.166004180908 49 49 49
29.734375000000 13.968750000000 8.108005523682 51 51 51
29.796875000000 13.937500000000 8.061000823975 187 187 187
29.812500000000 13.921875000000 7.999004364014 134 134 134
29.828125000000 13.906250000000 7.940998077393 177 177 177
29.859375000000 13.906250000000 7.881999969482 211 211 211
29.703125000000 13.671875000000 8.130001068115 98 98 98
29.796875000000 13.625000000000 8.091999053955 107 107 107
29.796875000000 13.625000000000 8.029003143311 214 214 214
29.828125000000 13.625000000000 7.970005035400 201 201 201
29.828125000000 13.593750000000 7.909000396729 181 181 181
29.859375000000 13.593750000000 7.850002288818 124 124 124
29.734375000000 13.375000000000 8.161998748779 55 55 55
29.734375000000 13.343750000000 8.103000640869 46 46 46
29.843750000000 13.281250000000 7.879001617432 30 30 30
29.734375000000 13.062500000000 8.131000518799 125 125 125
29.796875000000 13.015625000000 8.087001800537 108 108 108
29.828125000000 13.000000000000 8.030002593994 106 106 106
29.796875000000 13.000000000000 7.964000701904 95 95 95
29.828125000000 13.000000000000 7.903003692627 84 84 84
29.828125000000 12.968750000000 7.847003936768 113 113 113
29.734375000000 12.750000000000 8.159999847412 44 44 44
29.734375000000 12.734375000000 8.101001739502 63 63 63
29.796875000000 12.687500000000 7.869998931885 88 88 88
29.734375000000 12.437500000000 8.261005401611 77 77 77
29.734375000000 12.437500000000 8.127002716064 102 102 102
29.796875000000 12.406250000000 7.832004547119 94 94 94
29.734375000000 12.125000000000 8.352001190186 40 40 40
29.703125000000 12.125000000000 8.152004241943 59 59 59
29.734375000000 12.125000000000 8.095005035400 36 36 36
29.796875000000 12.093750000000 7.856998443604 76 76 76
29.750000000000 11.812500000000 8.448001861572 62 62 62
29.703125000000 11.812500000000 8.119998931885 106 106 106
29.750000000000 11.500000000000 8.546001434326 34 34 34
29.718750000000 11.531250000000 8.152004241943 80 80 80
29.718750000000 11.531250000000 8.090000152588 20 20 20
29.734375000000 11.218750000000 8.698001861572 14 14 14
29.734375000000 11.218750000000 8.122005462646 106 106 106
29.765625000000 10.890625000000 8.803005218506 30 30 30
29.703125000000 10.906250000000 8.146999359131 109 109 109
29.765625000000 10.562500000000 8.904003143311 64 64 64
29.703125000000 10.593750000000 8.116001129150 105 105 105
29.765625000000 10.281250000000 9.002002716064 104 104 104
29.703125000000 10.281250000000 8.145000457764 120 120 120
29.750000000000 9.968750000000 9.099002838135 90 90 90
29.703125000000 9.984375000000 8.175998687744 45 45 45
29.703125000000 9.968750000000 8.117000579834 78 78 78
29.671875000000 9.718750000000 9.562999725342 58 58 58
29.703125000000 9.718750000000 9.502002716064 96 96 96
29.671875000000 9.718750000000 9.428005218506 111 111 111
29.671875000000 9.718750000000 9.363002777100 119 119 119
29.671875000000 9.718750000000 9.294002532959 131 131 131
29.671875000000 9.718750000000 9.225002288818 131 131 131
29.671875000000 9.718750000000 9.160999298096 100 100 100
29.671875000000 9.718750000000 9.094005584717 140 140 140
29.671875000000 9.718750000000 9.026004791260 159 159 159
29.671875000000 9.703125000000 8.965000152588 167 167 167
29.671875000000 9.718750000000 8.897998809814 176 176 176
29.656250000000 9.718750000000 8.829998016357 183 183 183
29.656250000000 9.718750000000 8.765003204346 188 188 188
29.671875000000 9.703125000000 8.701999664307 186 186 186
29.671875000000 9.703125000000 8.638004302979 191 191 191
29.656250000000 9.718750000000 8.572002410889 154 154 154
29.640625000000 9.718750000000 8.505001068115 165 165 165
29.656250000000 9.718750000000 8.444004058838 194 194 194
29.656250000000 9.718750000000 8.379001617432 204 204 204
29.640625000000 9.718750000000 8.312999725342 206 206 206
29.640625000000 9.718750000000 8.252002716064 177 177 177
29.640625000000 9.718750000000 8.187000274658 139 139 139
29.656250000000 9.718750000000 8.128002166748 171 171 171
29.640625000000 9.718750000000 8.063999176025 200 200 200
29.656250000000 9.718750000000 8.003002166748 204 204 204
29.671875000000 9.703125000000 7.942005157471 208 208 208
29.640625000000 9.718750000000 7.877002716064 204 204 204
29.640625000000 9.703125000000 7.815998077393 200 200 200
29.640625000000 9.718750000000 7.753002166748 200 200 200
29.640625000000 9.703125000000 7.693004608154 193 193 193
29.640625000000 9.687500000000 7.632999420166 180 180 180
29.640625000000 9.703125000000 7.571002960205 188 188 188
29.640625000000 9.718750000000 7.508998870850 193 193 193
29.640625000000 9.687500000000 7.451000213623 191 191 191
29.640625000000 9.703125000000 7.389003753662 196 196 196
29.640625000000 9.687500000000 7.329998016357 187 187 187
29.640625000000 9.703125000000 7.268001556396 200 200 200
29.640625000000 9.703125000000 7.207004547119 206 206 206
29.640625000000 9.687500000000 7.148998260498 197 197 197
29.640625000000 9.687500000000 7.088001251221 200 200 200
29.640625000000 9.687500000000 7.028003692627 200 200 200
29.640625000000 9.687500000000 6.969005584717 203 203 203
29.640625000000 9.687500000000 6.909000396729 208 208 208
29.640625000000 9.687500000000 6.851001739502 195 195 195
29.640625000000 9.687500000000 6.790004730225 206 206 206
29.640625000000 9.687500000000 6.730998992920 206 206 206
29.640625000000 9.687500000000 6.672000885010 214 214 214
29.640625000000 9.687500000000 6.612003326416 214 214 214
29.640625000000 9.687500000000 6.553005218506 202 202 202
29.656250000000 9.687500000000 6.494998931885 209 209 209
29.640625000000 9.687500000000 6.435001373291 208 208 208
29.640625000000 9.687500000000 6.375003814697 204 204 204
29.656250000000 9.687500000000 6.317005157471 195 195 195
29.640625000000 9.687500000000 6.257999420166 206 206 206
29.656250000000 9.687500000000 6.199001312256 211 211 211
29.640625000000 9.687500000000 6.140003204346 208 208 208
29.671875000000 9.671875000000 6.082004547119 199 199 199
29.656250000000 9.687500000000 6.022998809814 197 197 197
29.671875000000 9.671875000000 5.964000701904 198 198 198
29.671875000000 9.671875000000 5.905002593994 195 195 195
29.671875000000 9.671875000000 5.847003936768 188 188 188
29.656250000000 9.671875000000 5.787998199463 200 200 200
29.671875000000 9.671875000000 5.729000091553 198 198 198
29.671875000000 9.656250000000 5.671001434326 202 202 202
29.656250000000 9.671875000000 5.612003326416 196 196 196
29.671875000000 9.656250000000 5.553005218506 183 183 183
29.671875000000 9.656250000000 5.493999481201 183 183 183
29.671875000000 9.656250000000 5.436000823975 175 175 175
29.671875000000 9.656250000000 5.377002716064 167 167 167
29.671875000000 9.656250000000 5.318004608154 150 150 150
29.671875000000 9.656250000000 5.259998321533 140 140 140
29.671875000000 9.656250000000 5.201000213623 155 155 155
29.671875000000 9.656250000000 5.142002105713 156 156 156
29.671875000000 9.656250000000 5.083000183105 158 158 158
29.671875000000 9.656250000000 5.024002075195 160 160 160
29.671875000000 9.656250000000 4.965000152588 153 153 153
29.671875000000 9.656250000000 4.906002044678 142 142 142
29.671875000000 9.656250000000 4.847000122070 137 137 137
29.671875000000 9.656250000000 4.788002014160 131 131 131
29.671875000000 9.656250000000 4.729000091553 136 136 136
29.671875000000 9.656250000000 4.670001983643 155 155 155
29.671875000000 9.656250000000 4.610000610352 146 146 146
29.671875000000 9.656250000000 4.551002502441 118 118 118
29.671875000000 9.640625000000 4.491001129150 121 121 121
29.671875000000 9.625000000000 4.431003570557 107 107 107
29.671875000000 9.656250000000 4.373001098633 97 97 97
29.671875000000 9.656250000000 4.314002990723 69 69 69
29.671875000000 9.656250000000 4.254001617432 59 59 59
29.671875000000 9.640625000000 4.193000793457 41 41 41
29.671875000000 9.625000000000 4.133003234863 38 38 38
29.671875000000 9.640625000000 4.074001312256 69 69 69
29.671875000000 9.625000000000 4.013000488281 92 92 92
29.656250000000 9.625000000000 3.955001831055 73 73 73
29.671875000000 9.625000000000 3.893001556396 37 37 37
29.640625000000 9.640625000000 3.836002349854 52 52 52
29.671875000000 9.625000000000 3.770999908447 53 53 53
29.671875000000 9.625000000000 3.712001800537 72 72 72
29.671875000000 9.625000000000 3.649002075195 47 47 47
29.671875000000 9.625000000000 3.590000152588 34 34 34
29.671875000000 9.625000000000 3.528003692627 21 21 21
29.671875000000 9.625000000000 3.469001770020 11 11 11
29.687500000000 19.500000000000 4.479000091553 19 19 19
29.687500000000 19.500000000000 4.539001464844 20 20 20
29.671875000000 19.500000000000 4.599002838135 60 60 60
29.687500000000 19.500000000000 4.658000946045 83 83 83
29.671875000000 19.500000000000 4.719001770020 98 98 98
29.640625000000 19.500000000000 4.779003143311 135 135 135
29.640625000000 19.500000000000 4.839000701904 133 133 133
29.640625000000 19.500000000000 4.898002624512 130 130 130
29.640625000000 19.500000000000 4.957000732422 135 135 135
29.640625000000 19.500000000000 5.017002105713 157 157 157
29.640625000000 19.484375000000 5.076000213623 159 159 159
29.640625000000 19.468750000000 5.136001586914 155 155 155
29.640625000000 19.484375000000 5.195003509521 171 171 171
29.640625000000 19.484375000000 5.254001617432 181 181 181
29.640625000000 19.484375000000 5.312999725342 189 189 189
29.640625000000 19.484375000000 5.372005462646 194 194 194
29.640625000000 19.484375000000 5.431003570557 202 202 202
29.640625000000 19.484375000000 5.490001678467 207 207 207
29.640625000000 19.484375000000 5.548999786377 199 199 199
29.640625000000 19.484375000000 5.608005523682 191 191 191
29.640625000000 19.484375000000 5.667003631592 194 194 194
29.640625000000 19.484375000000 5.726001739502 204 204 204
29.640625000000 19.484375000000 5.784999847412 212 212 212
29.640625000000 19.484375000000 5.844005584717 214 214 214
29.640625000000 19.484375000000 5.903003692627 220 220 220
29.640625000000 19.484375000000 5.962001800537 215 215 215
29.640625000000 19.484375000000 6.020999908447 211 211 211
29.640625000000 19.484375000000 6.079998016357 213 213 213
29.640625000000 19.484375000000 6.140003204346 213 213 213
29.640625000000 19.500000000000 6.199001312256 213 213 213
29.640625000000 19.484375000000 6.257999420166 214 214 214
29.640625000000 19.484375000000 6.317005157471 213 213 213
29.640625000000 19.500000000000 6.377002716064 216 216 216
29.640625000000 19.484375000000 6.436000823975 205 205 205
29.640625000000 19.484375000000 6.495998382568 211 211 211
29.640625000000 19.484375000000 6.556003570557 215 215 215
29.640625000000 19.500000000000 6.616001129150 217 217 217
29.640625000000 19.500000000000 6.675998687744 210 210 210
29.640625000000 19.484375000000 6.735004425049 200 200 200
29.640625000000 19.500000000000 6.797000885010 204 204 204
29.640625000000 19.500000000000 6.856998443604 201 201 201
29.640625000000 19.500000000000 6.917003631592 202 202 202
29.640625000000 19.500000000000 6.976001739502 204 204 204
29.640625000000 19.500000000000 7.036998748779 201 201 201
29.640625000000 19.500000000000 7.098003387451 205 205 205
29.640625000000 19.500000000000 7.159000396729 205 205 205
29.640625000000 19.500000000000 7.220005035400 200 200 200
29.640625000000 19.500000000000 7.280002593994 192 192 192
29.640625000000 19.500000000000 7.341999053955 191 191 191
29.671875000000 19.500000000000 7.405002593994 198 198 198
29.640625000000 19.500000000000 7.464000701904 199 199 199
29.671875000000 19.500000000000 7.528003692627 201 201 201
29.640625000000 19.500000000000 7.587001800537 200 200 200
29.640625000000 19.500000000000 7.648998260498 197 197 197
29.671875000000 19.500000000000 7.712001800537 200 200 200
29.671875000000 19.500000000000 7.773998260498 201 201 201
29.671875000000 19.500000000000 7.836002349854 200 200 200
29.671875000000 19.500000000000 7.901004791260 200 200 200
29.671875000000 19.500000000000 7.963001251221 198 198 198
29.671875000000 19.500000000000 8.025005340576 194 194 194
29.687500000000 19.500000000000 8.090999603271 189 189 189
29.671875000000 19.500000000000 8.150005340576 183 183 183
29.640625000000 19.500000000000 8.210002899170 144 144 144
29.671875000000 19.500000000000 8.278003692627 186 186 186
29.687500000000 19.500000000000 8.345005035400 186 186 186
29.671875000000 19.500000000000 8.406002044678 187 187 187
29.687500000000 19.500000000000 8.473003387451 190 190 190
29.671875000000 19.500000000000 8.536998748779 166 166 166
29.703125000000 19.515625000000 8.605998992920 177 177 177
29.687500000000 19.500000000000 8.669002532959 180 180 180
29.703125000000 19.515625000000 8.736003875732 175 175 175
29.718750000000 19.531250000000 8.806003570557 177 177 177
29.703125000000 19.515625000000 8.869998931885 170 170 170
29.703125000000 19.515625000000 8.937000274658 158 158 158
29.703125000000 19.515625000000 9.002002716064 150 150 150
29.718750000000 19.531250000000 9.071002960205 138 138 138
29.718750000000 19.531250000000 9.139003753662 119 119 119
29.718750000000 19.531250000000 9.206005096436 72 72 72
29.718750000000 19.531250000000 9.276004791260 81 81 81
29.718750000000 19.531250000000 9.348003387451 55 55 55
29.718750000000 19.531250000000 9.416004180908 37 37 37
29.718750000000 19.531250000000 9.480998992920 31 31 31
29.718750000000 19.218750000000 8.198001861572 93 93 93
29.781250000000 19.250000000000 9.128002166748 75 75 75
29.750000000000 19.234375000000 9.185001373291 30 30 30
29.765625000000 18.906250000000 8.166004180908 8 8 8
29.734375000000 18.906250000000 8.224002838135 103 103 103
29.796875000000 18.937500000000 9.028003692627 22 22 22
29.734375000000 18.593750000000 8.196002960205 112 112 112
29.765625000000 18.593750000000 8.914005279541 52 52 52
29.765625000000 18.281250000000 8.164005279541 44 44 44
29.734375000000 18.265625000000 8.221004486084 74 74 74
29.765625000000 18.296875000000 8.814998626709 63 63 63
29.734375000000 17.968750000000 8.190998077393 105 105 105
29.734375000000 17.968750000000 8.713001251221 54 54 54
29.734375000000 17.656250000000 8.161998748779 29 29 29
29.703125000000 17.640625000000 8.216999053955 51 51 51
29.734375000000 17.656250000000 8.614002227783 52 52 52
29.718750000000 17.343750000000 8.184001922607 107 107 107
29.734375000000 17.343750000000 8.509998321533 38 38 38
29.859375000000 17.093750000000 7.937999725342 20 20 20
29.828125000000 17.078125000000 7.990001678467 54 54 54
29.828125000000 17.062500000000 8.048999786377 69 69 69
29.796875000000 17.062500000000 8.111003875732 94 94 94
29.765625000000 17.031250000000 8.160999298096 92 92 92
29.734375000000 17.015625000000 8.213001251221 53 53 53
29.734375000000 17.031250000000 8.409999847412 24 24 24
29.828125000000 16.781250000000 7.898998260498 80 80 80
29.703125000000 16.687500000000 8.181003570557 98 98 98
29.734375000000 16.718750000000 8.251003265381 8 8 8
29.828125000000 16.468750000000 7.872005462646 82 82 82
29.734375000000 16.390625000000 8.153003692627 75 75 75
29.734375000000 16.390625000000 8.215000152588 8 8 8
29.796875000000 16.125000000000 7.891002655029 59 59 59
29.734375000000 16.078125000000 8.118000030518 89 89 89
29.703125000000 16.062500000000 8.173999786377 110 110 110
29.828125000000 15.812500000000 7.855998992920 74 74 74
29.703125000000 15.765625000000 8.143001556396 68 68 68
29.703125000000 15.750000000000 8.202999114990 16 16 16
29.828125000000 15.500000000000 7.887004852295 188 188 188
29.828125000000 15.500000000000 7.947002410889 179 179 179
29.796875000000 15.500000000000 8.006000518799 194 194 194
29.796875000000 15.500000000000 8.067005157471 196 196 196
29.765625000000 15.468750000000 8.120998382568 44 44 44
29.703125000000 15.437500000000 8.168003082275 84 84 84
29.828125000000 15.187500000000 7.858005523682 83 83 83
29.796875000000 15.187500000000 7.916004180908 206 206 206
29.796875000000 15.187500000000 7.978000640869 147 147 147
29.796875000000 15.171875000000 8.036998748779 173 173 173
29.765625000000 15.156250000000 8.097003936768 142 142 142
29.703125000000 15.125000000000 8.140003204346 73 73 73
29.703125000000 15.125000000000 8.201000213623 8 8 8
29.796875000000 14.875000000000 7.826000213623 4 4 4
29.796875000000 14.875000000000 7.889003753662 203 203 203
29.796875000000 14.875000000000 7.951000213623 130 130 130
29.796875000000 14.875000000000 8.008998870850 157 157 157
29.765625000000 14.859375000000 8.069004058838 182 182 182
29.734375000000 14.828125000000 8.118000030518 34 34 34
29.703125000000 14.812500000000 8.169002532959 61 61 61
29.828125000000 14.562500000000 7.856998443604 122 122 122
29.796875000000 14.562500000000 7.915004730225 189 189 189
29.796875000000 14.562500000000 7.973003387451 194 194 194
29.796875000000 14.562500000000 8.036998748779 137 137 137
29.765625000000 14.531250000000 8.091999053955 120 120 120
29.703125000000 14.500000000000 8.138004302979 101 101 101
29.796875000000 14.250000000000 7.880001068115 197 197 197
29.796875000000 14.250000000000 7.943004608154 169 169 169
29.796875000000 14.250000000000 8.001003265381 162 162 162
29.765625000000 14.234375000000 8.059001922607 188 188 188
29.734375000000 14.218750000000 8.112003326416 41 41 41
29.703125000000 14.187500000000 8.161998748779 89 89 89
29.828125000000 13.937500000000 7.850002288818 133 133 133
29.796875000000 13.937500000000 7.909000396729 204 204 204
29.796875000000 13.937500000000 7.970005035400 168 168 168
29.765625000000 13.921875000000 8.030002593994 180 180 180
29.765625000000 13.906250000000 8.084003448486 113 113 113
29.703125000000 13.875000000000 8.129001617432 94 94 94
29.828125000000 13.640625000000 7.822002410889 3 3 3
29.796875000000 13.625000000000 7.881999969482 195 195 195
29.796875000000 13.625000000000 7.942005157471 194 194 194
29.796875000000 13.625000000000 7.999004364014 212 212 212
29.765625000000 13.609375000000 8.059001922607 189 189 189
29.703125000000 13.562500000000 8.104999542236 39 39 39
29.703125000000 13.562500000000 8.161998748779 64 64 64
29.796875000000 13.312500000000 7.851001739502 116 116 116
29.703125000000 13.250000000000 8.133998870850 100 100 100
29.828125000000 13.000000000000 7.822002410889 10 10 10
29.796875000000 13.000000000000 7.879001617432 119 119 119
29.796875000000 13.000000000000 7.939998626709 109 109 109
29.765625000000 12.984375000000 7.998004913330 96 96 96
29.765625000000 12.968750000000 8.057003021240 89 89 89
29.734375000000 12.953125000000 8.105998992920 90 90 90
29.703125000000 12.937500000000 8.161998748779 40 40 40
29.796875000000 12.687500000000 7.841999053955 89 89 89
29.703125000000 12.625000000000 8.073001861572 89 89 89
29.671875000000 12.625000000000 8.124004364014 117 117 117
29.703125000000 12.625000000000 8.188999176025 104 104 104
29.765625000000 12.343750000000 7.863002777100 81 81 81
29.703125000000 12.328125000000 8.102001190186 42 42 42
29.671875000000 12.296875000000 8.153003692627 57 57 57
29.703125000000 12.312500000000 8.286998748779 81 81 81
29.734375000000 12.031250000000 7.832004547119 100 100 100
29.734375000000 12.015625000000 7.890003204346 45 45 45
29.734375000000 12.015625000000 7.951999664307 29 29 29
29.734375000000 12.015625000000 8.013004302979 17 17 17
29.734375000000 12.031250000000 8.079998016357 14 14 14
29.671875000000 11.984375000000 8.124004364014 107 107 107
29.734375000000 12.015625000000 8.391002655029 71 71 71
29.703125000000 11.687500000000 8.096004486084 76 76 76
29.640625000000 11.656250000000 8.144001007080 98 98 98
29.703125000000 11.687500000000 8.483005523682 70 70 70
29.671875000000 11.375000000000 8.123004913330 116 116 116
29.734375000000 11.406250000000 8.582004547119 69 69 69
29.703125000000 11.078125000000 8.097003936768 15 15 15
29.671875000000 11.062500000000 8.151004791260 102 102 102
29.734375000000 11.093750000000 8.679004669189 24 24 24
29.703125000000 10.750000000000 8.125003814697 100 100 100
29.734375000000 10.781250000000 8.838001251221 25 25 25
29.703125000000 10.437500000000 8.102001190186 20 20 20
29.671875000000 10.421875000000 8.153003692627 155 155 155
29.734375000000 10.468750000000 8.936000823975 72 72 72
29.671875000000 10.125000000000 8.123004913330 106 106 106
29.734375000000 10.156250000000 9.036998748779 76 76 76
29.328125000000 9.593750000000 2.958000183105 210 210 210
29.609375000000 9.765625000000 8.133998870850 133 133 133
29.578125000000 9.734375000000 8.182003021240 51 51 51
29.796875000000 9.875000000000 9.096004486084 95 95 95
29.671875000000 9.812500000000 9.109004974365 108 108 108
29.640625000000 9.781250000000 9.162998199463 55 55 55
29.640625000000 9.781250000000 9.235004425049 40 40 40
29.640625000000 9.781250000000 9.297000885010 67 67 67
29.640625000000 9.781250000000 9.365001678467 68 68 68
29.671875000000 9.796875000000 9.436000823975 93 93 93
29.640625000000 9.781250000000 9.500003814697 93 93 93
29.640625000000 9.781250000000 9.569004058838 78 78 78
29.515625000000 9.406250000000 2.931003570557 172 172 172
29.578125000000 9.437500000000 2.982002258301 166 166 166
29.578125000000 9.437500000000 3.043003082275 176 176 176
29.578125000000 9.437500000000 3.102001190186 178 178 178
29.578125000000 9.437500000000 3.163002014160 176 176 176
29.578125000000 9.437500000000 3.225002288818 177 177 177
29.578125000000 9.437500000000 3.286003112793 184 184 184
29.578125000000 9.437500000000 3.345001220703 186 186 186
29.578125000000 9.437500000000 3.405002593994 179 179 179
29.578125000000 9.437500000000 3.463001251221 182 182 182
29.578125000000 9.437500000000 3.525001525879 183 183 183
29.578125000000 9.437500000000 3.583000183105 178 178 178
29.578125000000 9.437500000000 3.644001007080 186 186 186
29.578125000000 9.437500000000 3.702003479004 194 194 194
29.578125000000 9.437500000000 3.762001037598 191 191 191
29.578125000000 9.437500000000 3.821002960205 186 186 186
29.578125000000 9.437500000000 3.878002166748 189 189 189
29.578125000000 9.437500000000 3.938003540039 194 194 194
29.578125000000 9.437500000000 3.997001647949 181 181 181
29.578125000000 9.437500000000 4.055000305176 187 187 187
29.578125000000 9.437500000000 4.114002227783 163 163 163
29.578125000000 9.437500000000 4.172000885010 171 171 171
29.578125000000 9.437500000000 4.230003356934 166 166 166
29.578125000000 9.437500000000 4.289001464844 170 170 170
29.578125000000 9.437500000000 4.346000671387 186 186 186
29.578125000000 9.437500000000 4.406002044678 196 196 196
29.609375000000 9.453125000000 4.463001251221 204 204 204
29.578125000000 9.437500000000 4.520999908447 206 206 206
29.609375000000 9.453125000000 4.579002380371 204 204 204
29.609375000000 9.453125000000 4.637001037598 202 202 202
29.609375000000 9.453125000000 4.695003509521 198 198 198
29.609375000000 9.453125000000 4.753002166748 196 196 196
29.609375000000 9.468750000000 4.810001373291 187 187 187
29.609375000000 9.468750000000 4.869003295898 196 196 196
29.609375000000 9.468750000000 4.927001953125 204 204 204
29.609375000000 9.453125000000 4.985000610352 203 203 203
29.609375000000 9.468750000000 5.042003631592 207 207 207
29.609375000000 9.468750000000 5.100002288818 208 208 208
29.609375000000 9.468750000000 5.158000946045 205 205 205
29.609375000000 9.468750000000 5.215999603271 212 212 212
29.640625000000 9.468750000000 5.272998809814 208 208 208
29.640625000000 9.468750000000 5.331005096436 214 214 214
29.640625000000 9.468750000000 5.389003753662 218 218 218
29.640625000000 9.468750000000 5.447002410889 209 209 209
29.640625000000 9.468750000000 5.505001068115 208 208 208
29.640625000000 9.468750000000 5.562999725342 206 206 206
29.640625000000 9.468750000000 5.620998382568 198 198 198
29.640625000000 9.484375000000 5.679004669189 187 187 187
29.640625000000 9.468750000000 5.737003326416 193 193 193
29.640625000000 9.484375000000 5.795001983643 200 200 200
29.640625000000 9.484375000000 5.854000091553 207 207 207
29.640625000000 9.468750000000 5.910999298096 212 212 212
29.640625000000 9.484375000000 5.970005035400 216 216 216
29.640625000000 9.484375000000 6.028003692627 213 213 213
29.640625000000 9.484375000000 6.086002349854 209 209 209
29.671875000000 9.500000000000 6.145000457764 206 206 206
29.640625000000 9.484375000000 6.203998565674 196 196 196
29.671875000000 9.500000000000 6.263004302979 158 158 158
29.671875000000 9.500000000000 6.322002410889 169 169 169
29.671875000000 9.500000000000 6.381000518799 154 154 154
29.671875000000 9.500000000000 6.438999176025 156 156 156
29.671875000000 9.500000000000 6.499004364014 180 180 180
29.671875000000 9.500000000000 6.557003021240 173 173 173
29.671875000000 9.500000000000 6.616001129150 167 167 167
29.671875000000 9.500000000000 6.674999237061 161 161 161
29.703125000000 9.500000000000 6.736003875732 157 157 157
29.671875000000 9.500000000000 6.795001983643 157 157 157
29.703125000000 9.500000000000 6.854999542236 147 147 147
29.703125000000 9.500000000000 6.916004180908 131 131 131
29.703125000000 9.515625000000 6.975002288818 118 118 118
29.703125000000 9.515625000000 7.035999298096 109 109 109
29.703125000000 9.515625000000 7.096004486084 113 113 113
29.703125000000 9.515625000000 7.155002593994 104 104 104
29.703125000000 9.515625000000 7.215999603271 104 104 104
29.734375000000 9.531250000000 7.278003692627 102 102 102
29.703125000000 9.515625000000 7.338001251221 104 104 104
29.734375000000 9.531250000000 7.401004791260 89 89 89
29.703125000000 9.515625000000 7.459003448486 58 58 58
29.734375000000 9.531250000000 7.520999908447 52 52 52
29.734375000000 9.531250000000 7.584003448486 39 39 39
29.734375000000 9.531250000000 7.646999359131 27 27 27
29.734375000000 9.531250000000 7.707004547119 14 14 14
29.500000000000 19.593750000000 3.548000335693 204 204 204
29.500000000000 19.593750000000 3.599002838135 207 207 207
29.500000000000 19.593750000000 3.651000976563 203 203 203
29.500000000000 19.593750000000 3.703002929688 204 204 204
29.500000000000 19.593750000000 3.755001068115 202 202 202
29.500000000000 19.593750000000 3.808002471924 203 203 203
29.500000000000 19.593750000000 3.859001159668 203 203 203
29.500000000000 19.593750000000 3.911003112793 200 200 200
29.515625000000 19.593750000000 3.963001251221 206 206 206
29.515625000000 19.593750000000 4.013999938965 206 206 206
29.515625000000 19.593750000000 4.065002441406 203 203 203
29.515625000000 19.593750000000 4.117000579834 201 201 201
29.515625000000 19.593750000000 4.168003082275 199 199 199
29.515625000000 19.593750000000 4.220001220703 206 206 206
29.515625000000 19.593750000000 4.270000457764 205 205 205
29.515625000000 19.593750000000 4.322002410889 207 207 207
29.515625000000 19.593750000000 4.373001098633 206 206 206
29.515625000000 19.593750000000 4.424003601074 201 201 201
29.546875000000 19.593750000000 4.474002838135 208 208 208
29.546875000000 19.593750000000 4.526000976563 208 208 208
29.546875000000 19.593750000000 4.576000213623 208 208 208
29.546875000000 19.593750000000 4.628002166748 212 212 212
29.546875000000 19.593750000000 4.678001403809 207 207 207
29.546875000000 19.593750000000 4.730003356934 212 212 212
29.546875000000 19.593750000000 4.780002593994 210 210 210
29.546875000000 19.593750000000 4.831001281738 211 211 211
29.562500000000 19.593750000000 4.881999969482 211 211 211
29.562500000000 19.593750000000 4.932003021240 214 214 214
29.546875000000 19.609375000000 4.984001159668 218 218 218
29.562500000000 19.593750000000 5.034000396729 219 219 219
29.562500000000 19.593750000000 5.085002899170 215 215 215
29.578125000000 19.593750000000 5.136001586914 215 215 215
29.578125000000 19.593750000000 5.187000274658 211 211 211
29.578125000000 19.593750000000 5.238002777100 200 200 200
29.562500000000 19.593750000000 5.289005279541 205 205 205
29.578125000000 19.593750000000 5.340000152588 207 207 207
29.578125000000 19.593750000000 5.391002655029 211 211 211
29.578125000000 19.593750000000 5.442005157471 205 205 205
29.578125000000 19.593750000000 5.493000030518 211 211 211
29.578125000000 19.593750000000 5.544002532959 213 213 213
29.578125000000 19.593750000000 5.595005035400 201 201 201
29.578125000000 19.593750000000 5.646999359131 203 203 203
29.578125000000 19.593750000000 5.698001861572 205 205 205
29.578125000000 19.593750000000 5.749004364014 204 204 204
29.578125000000 19.593750000000 5.799999237061 206 206 206
29.578125000000 19.593750000000 5.852001190186 208 208 208
29.609375000000 19.593750000000 5.904003143311 205 205 205
29.578125000000 19.593750000000 5.954998016357 204 204 204
29.609375000000 19.593750000000 6.006999969482 204 204 204
29.609375000000 19.593750000000 6.059001922607 204 204 204
29.609375000000 19.593750000000 6.110004425049 204 204 204
29.609375000000 19.593750000000 6.162998199463 203 203 203
29.609375000000 19.593750000000 6.215000152588 201 201 201
29.609375000000 19.593750000000 6.266002655029 203 203 203
29.609375000000 19.593750000000 6.319004058838 203 203 203
29.640625000000 19.593750000000 6.370998382568 195 195 195
29.640625000000 19.593750000000 6.423000335693 194 194 194
29.640625000000 19.593750000000 6.475002288818 201 201 201
29.640625000000 19.593750000000 6.528003692627 203 203 203
29.640625000000 19.593750000000 6.582004547119 200 200 200
29.640625000000 19.593750000000 6.633998870850 200 200 200
29.640625000000 19.593750000000 6.687999725342 198 198 198
29.640625000000 19.593750000000 6.741001129150 185 185 185
29.640625000000 19.593750000000 6.794002532959 188 188 188
29.640625000000 19.593750000000 6.846004486084 191 191 191
29.640625000000 19.593750000000 6.901004791260 192 192 192
29.671875000000 19.593750000000 6.956005096436 192 192 192
29.671875000000 19.593750000000 7.011005401611 192 192 192
29.671875000000 19.593750000000 7.062999725342 193 193 193
29.671875000000 19.593750000000 7.118000030518 188 188 188
29.671875000000 19.593750000000 7.172000885010 186 186 186
29.671875000000 19.593750000000 7.228000640869 182 182 182
29.671875000000 19.593750000000 7.283000946045 181 181 181
29.671875000000 19.593750000000 7.338001251221 180 180 180
29.671875000000 19.593750000000 7.392002105713 181 181 181
29.671875000000 19.593750000000 7.446002960205 177 177 177
29.703125000000 19.593750000000 7.505001068115 169 169 169
29.703125000000 19.593750000000 7.561000823975 166 166 166
29.703125000000 19.593750000000 7.618999481201 171 171 171
29.703125000000 19.593750000000 7.673000335693 169 169 169
29.703125000000 19.593750000000 7.726001739502 156 156 156
29.718750000000 19.593750000000 7.786998748779 158 158 158
29.703125000000 19.593750000000 7.841999053955 160 160 160
29.703125000000 19.593750000000 7.897998809814 144 144 144
29.703125000000 19.593750000000 7.951999664307 142 142 142
29.718750000000 19.593750000000 8.013004302979 142 142 142
29.734375000000 19.593750000000 8.070003509521 146 146 146
29.734375000000 19.593750000000 8.130001068115 127 127 127
29.734375000000 19.593750000000 8.185001373291 81 81 81
29.734375000000 19.593750000000 8.244998931885 143 143 143
29.734375000000 19.593750000000 8.300998687744 133 133 133
29.734375000000 19.593750000000 8.362003326416 126 126 126
29.734375000000 19.593750000000 8.420001983643 117 117 117
29.734375000000 19.593750000000 8.484004974365 107 107 107
29.765625000000 19.593750000000 8.546001434326 100 100 100
29.765625000000 19.593750000000 8.603000640869 93 93 93
29.765625000000 19.593750000000 8.664005279541 90 90 90
29.781250000000 19.593750000000 8.729000091553 83 83 83
29.796875000000 19.593750000000 8.792003631592 90 90 90
29.796875000000 19.593750000000 8.855998992920 59 59 59
29.796875000000 19.593750000000 8.911998748779 37 37 37
29.796875000000 19.593750000000 8.979000091553 17 17 17
29.484375000000 19.593750000000 3.127002716064 164 164 164
29.484375000000 19.593750000000 3.181003570557 125 125 125
29.500000000000 19.593750000000 3.495002746582 188 188 188
29.765625000000 19.281250000000 8.165004730225 103 103 103
29.796875000000 19.281250000000 9.077999114990 44 44 44
29.765625000000 19.281250000000 9.120998382568 51 51 51
29.765625000000 18.968750000000 8.137004852295 36 36 36
29.734375000000 18.968750000000 8.186000823975 100 100 100
29.781250000000 18.968750000000 9.031002044678 42 42 42
29.734375000000 18.656250000000 8.159999847412 130 130 130
29.781250000000 18.656250000000 8.876003265381 29 29 29
29.796875000000 18.656250000000 8.942005157471 12 12 12
29.734375000000 18.343750000000 8.130001068115 48 48 48
29.734375000000 18.343750000000 8.182003021240 103 103 103
29.765625000000 18.343750000000 8.780002593994 62 62 62
29.734375000000 18.031250000000 8.148998260498 122 122 122
29.765625000000 18.031250000000 8.686000823975 83 83 83
29.765625000000 17.718750000000 8.131000518799 77 77 77
29.734375000000 17.718750000000 8.179004669189 68 68 68
29.734375000000 17.718750000000 8.590000152588 55 55 55
29.734375000000 17.421875000000 8.152004241943 128 128 128
29.781250000000 17.406250000000 8.452999114990 10 10 10
29.734375000000 17.421875000000 8.498004913330 29 29 29
29.859375000000 17.093750000000 7.875003814697 7 7 7
29.828125000000 17.109375000000 7.923999786377 5 5 5
29.765625000000 17.109375000000 8.122005462646 98 98 98
29.718750000000 17.093750000000 8.172000885010 78 78 78
29.765625000000 17.093750000000 8.360004425049 47 47 47
29.859375000000 16.796875000000 7.840999603271 104 104 104
29.734375000000 16.781250000000 8.143001556396 128 128 128
29.765625000000 16.781250000000 8.264003753662 86 86 86
29.828125000000 16.468750000000 7.863002777100 101 101 101
29.734375000000 16.484375000000 8.115001678467 107 107 107
29.734375000000 16.484375000000 8.173000335693 45 45 45
