20.629739761353 22.409137725830 59.373008728027 10 10 10
20.611755371094 22.725009918213 57.703010559082 114 114 114
20.581104278564 23.052913665771 57.685997009277 89 89 89
20.575782775879 23.356750488281 57.668998718262 8 8 8
20.575782775879 23.356750488281 57.748008728027 21 21 21
20.560077667236 23.680095672607 57.734001159668 76 76 76
20.566156387329 24.021293640137 57.721000671387 85 85 85
20.559318542480 23.998878479004 60.258003234863 51 51 51
20.505619049072 24.358318328857 53.806999206543 18 18 18
20.525121688843 24.368701934814 53.886009216309 37 37 37
20.525121688843 24.368701934814 53.963996887207 70 70 70
20.525121688843 24.368701934814 54.041999816895 110 110 110
20.505619049072 24.358318328857 54.118003845215 112 112 112
20.525121688843 24.368701934814 54.196998596191 73 73 73
20.507898330688 24.365787506104 54.274009704590 74 74 74
20.522842407227 24.361228942871 54.351997375488 79 79 79
20.525121688843 24.368701934814 54.429008483887 84 84 84
20.522842407227 24.361228942871 54.506996154785 77 77 77
20.507898330688 24.365787506104 54.584007263184 81 81 81
20.522842407227 24.361228942871 54.661003112793 86 86 86
20.507898330688 24.365787506104 54.739006042480 90 90 90
20.522842407227 24.361228942871 54.816001892090 99 99 99
20.525121688843 24.368701934814 54.894004821777 103 103 103
20.522842407227 24.361228942871 54.971000671387 108 108 108
20.522842407227 24.361228942871 55.047996520996 111 111 111
20.522842407227 24.361228942871 55.125999450684 122 122 122
20.525121688843 24.368701934814 55.203010559082 118 118 118
20.525121688843 24.368701934814 55.280006408691 121 121 121
20.525121688843 24.368701934814 55.358009338379 122 122 122
20.525121688843 24.368701934814 55.435005187988 125 125 125
20.522842407227 24.361228942871 55.513008117676 127 127 127
20.522842407227 24.361228942871 55.590995788574 133 133 133
20.525121688843 24.368701934814 55.668006896973 129 129 129
20.522842407227 24.361228942871 55.745002746582 129 129 129
20.525121688843 24.368701934814 55.823005676270 132 132 132
20.522842407227 24.361228942871 55.901008605957 117 117 117
20.522842407227 24.361228942871 55.978996276855 111 111 111
20.537786483765 24.356670379639 56.056007385254 107 107 107
20.525121688843 24.368701934814 56.134010314941 113 113 113
20.522842407227 24.361228942871 56.213005065918 102 102 102
20.522842407227 24.361228942871 56.291007995605 96 96 96
20.520561218262 24.353759765625 56.370002746582 88 88 88
20.522842407227 24.361228942871 56.448005676270 91 91 91
20.520561218262 24.353759765625 56.528007507324 91 91 91
20.535507202148 24.349197387695 56.603996276855 91 91 91
20.535507202148 24.349197387695 56.683006286621 80 80 80
20.535507202148 24.349197387695 56.763008117676 83 83 83
20.522842407227 24.361228942871 56.842002868652 77 77 77
20.522842407227 24.361228942871 56.920997619629 65 65 65
20.520561218262 24.353759765625 57.000999450684 55 55 55
20.533226013184 24.341724395752 57.080009460449 43 43 43
20.520561218262 24.353759765625 57.159996032715 36 36 36
20.501058578491 24.343372344971 57.241996765137 21 21 21
20.503337860107 24.350845336914 57.321006774902 11 11 11
20.861530303955 12.406149864197 52.983009338379 150 150 150
20.846584320068 12.410709381104 53.027000427246 125 125 125
20.861530303955 12.406149864197 53.078010559082 108 108 108
20.861530303955 12.406149864197 53.125999450684 118 118 118
20.876474380493 12.401590347290 53.174003601074 116 116 116
20.861530303955 12.406149864197 53.220008850098 119 119 119
20.861530303955 12.406149864197 53.267005920410 125 125 125
20.861530303955 12.406149864197 53.314002990723 127 127 127
20.861530303955 12.406149864197 53.361000061035 125 125 125
20.861530303955 12.406149864197 53.407997131348 120 120 120
20.861530303955 12.406149864197 53.456001281738 122 122 122
20.861530303955 12.406149864197 53.502006530762 126 126 126
20.861530303955 12.406149864197 53.547996520996 123 123 123
20.874195098877 12.394118309021 53.596000671387 126 126 126
20.876474380493 12.401590347290 53.642997741699 122 122 122
20.874195098877 12.394118309021 53.689002990723 126 126 126
20.859251022339 12.398677825928 53.734001159668 129 129 129
20.861530303955 12.406149864197 53.780006408691 125 125 125
20.861530303955 12.406149864197 53.827003479004 107 107 107
20.876474380493 12.401590347290 53.874000549316 112 112 112
20.861530303955 12.406149864197 53.920005798340 114 114 114
20.874195098877 12.394118309021 53.965995788574 114 114 114
20.861530303955 12.406149864197 54.012001037598 108 108 108
20.874195098877 12.394118309021 54.058006286621 111 111 111
20.861530303955 12.406149864197 54.103996276855 111 111 111
20.861530303955 12.406149864197 54.150001525879 108 108 108
20.861530303955 12.406149864197 54.196006774902 112 112 112
20.859251022339 12.398677825928 54.241996765137 111 111 111
20.861530303955 12.406149864197 54.288002014160 113 113 113
20.861530303955 12.406149864197 54.334007263184 105 105 105
20.859251022339 12.398677825928 54.379005432129 105 105 105
20.859251022339 12.398677825928 54.425010681152 98 98 98
20.861530303955 12.406149864197 54.471000671387 101 101 101
20.844305038452 12.403237342834 54.517005920410 94 94 94
20.844305038452 12.403237342834 54.562995910645 92 92 92
20.844305038452 12.403237342834 54.609001159668 83 83 83
20.814414978027 12.412356376648 54.655998229980 82 82 82
20.814414978027 12.412356376648 54.702003479004 77 77 77
20.814414978027 12.412356376648 54.748008728027 63 63 63
20.814414978027 12.412356376648 54.793998718262 62 62 62
20.814414978027 12.412356376648 54.840003967285 53 53 53
20.814414978027 12.412356376648 54.886009216309 46 46 46
20.814414978027 12.412356376648 54.933006286621 47 47 47
20.801750183105 12.424387931824 54.980003356934 46 46 46
20.801750183105 12.424387931824 55.026008605957 38 38 38
20.799470901489 12.416915893555 55.073005676270 38 38 38
20.799470901489 12.416915893555 55.118995666504 36 36 36
20.799470901489 12.416915893555 55.166999816895 30 30 30
20.799470901489 12.416915893555 55.213005065918 34 34 34
20.799470901489 12.416915893555 55.260002136230 27 27 27
20.799470901489 12.416915893555 55.306007385254 23 23 23
20.799470901489 12.416915893555 55.355003356934 22 22 22
20.799470901489 12.416915893555 55.399009704590 17 17 17
20.801750183105 12.424387931824 55.446006774902 10 10 10
20.921562194824 12.763563156128 55.616004943848 16 16 16
20.893951416016 12.780154228210 55.665000915527 21 21 21
20.921562194824 12.763563156128 55.709999084473 37 37 37
20.921562194824 12.763563156128 55.756996154785 45 45 45
20.921562194824 12.763563156128 55.804008483887 58 58 58
20.921562194824 12.763563156128 55.851997375488 61 61 61
20.921562194824 12.763563156128 55.899009704590 65 65 65
20.921562194824 12.763563156128 55.946998596191 74 74 74
20.921562194824 12.763563156128 55.993003845215 80 80 80
20.893951416016 12.780154228210 56.043998718262 75 75 75
20.921562194824 12.763563156128 56.088996887207 80 80 80
20.921562194824 12.763563156128 56.138999938965 81 81 81
20.921562194824 12.763563156128 56.185997009277 81 81 81
20.893951416016 12.780154228210 56.237007141113 77 77 77
20.921562194824 12.763563156128 56.280998229980 85 85 85
20.921562194824 12.763563156128 56.329002380371 89 89 89
20.923841476440 12.771035194397 56.377006530762 82 82 82
20.921562194824 12.763563156128 56.428001403809 89 89 89
20.921562194824 12.763563156128 56.476005554199 88 88 88
20.923841476440 12.771035194397 56.523002624512 84 84 84
20.923841476440 12.771035194397 56.571006774902 88 88 88
20.936508178711 12.759003639221 56.618995666504 83 83 83
20.953731536865 12.761916160583 56.666007995605 83 83 83
20.936508178711 12.759003639221 56.718009948730 90 90 90
20.936508178711 12.759003639221 56.767997741699 85 85 85
20.936508178711 12.759003639221 56.818000793457 87 87 87
20.923841476440 12.771035194397 56.868995666504 92 92 92
20.936508178711 12.759003639221 56.916007995605 90 90 90
20.936508178711 12.759003639221 56.969001770020 93 93 93
20.936508178711 12.759003639221 57.019004821777 92 92 92
20.936508178711 12.759003639221 57.066001892090 92 92 92
20.953731536865 12.761916160583 57.116004943848 96 96 96
20.936508178711 12.759003639221 57.168998718262 100 100 100
20.951452255249 12.754444122314 57.215995788574 96 96 96
20.951452255249 12.754444122314 57.265998840332 90 90 90
20.953731536865 12.761916160583 57.319999694824 91 91 91
20.951452255249 12.754444122314 57.368003845215 95 95 95
20.951452255249 12.754444122314 57.422004699707 100 100 100
20.951452255249 12.754444122314 57.474006652832 104 104 104
20.951452255249 12.754444122314 57.525001525879 111 111 111
20.951452255249 12.754444122314 57.575996398926 129 129 129
20.951452255249 12.754444122314 57.633003234863 106 106 106
20.951452255249 12.754444122314 57.681999206543 97 97 97
20.951452255249 12.754444122314 57.736000061035 101 101 101
20.951452255249 12.754444122314 57.789009094238 106 106 106
20.951452255249 12.754444122314 57.842002868652 105 105 105
20.951452255249 12.754444122314 57.898002624512 101 101 101
20.951452255249 12.754444122314 57.952003479004 108 108 108
20.981342315674 12.745325088501 58.000007629395 104 104 104
20.951452255249 12.754444122314 58.058998107910 106 106 106
20.968677520752 12.757356643677 58.112998962402 112 112 112
20.981342315674 12.745325088501 58.166999816895 109 109 109
20.981342315674 12.745325088501 58.222007751465 104 104 104
20.981342315674 12.745325088501 58.274009704590 109 109 109
20.983621597290 12.752797126770 58.329002380371 111 111 111
20.983621597290 12.752797126770 58.385002136230 110 110 110
20.981342315674 12.745325088501 58.444007873535 123 123 123
20.996288299561 12.740765571594 58.496009826660 113 113 113
20.981342315674 12.745325088501 58.560005187988 113 113 113
20.981342315674 12.745325088501 58.614997863770 115 115 115
20.996288299561 12.740765571594 58.668006896973 111 111 111
20.981342315674 12.745325088501 58.732002258301 108 108 108
20.983621597290 12.752797126770 58.789009094238 104 104 104
20.996288299561 12.740765571594 58.844001770020 102 102 102
20.996288299561 12.740765571594 58.902000427246 107 107 107
20.996288299561 12.740765571594 58.961006164551 111 111 111
20.981342315674 12.745325088501 59.028007507324 114 114 114
20.996288299561 12.740765571594 59.082008361816 104 104 104
20.998567581177 12.748237609863 59.140007019043 104 104 104
20.996288299561 12.740765571594 59.208000183105 108 108 108
20.998567581177 12.748237609863 59.262001037598 113 113 113
20.996288299561 12.740765571594 59.332008361816 116 116 116
20.998567581177 12.748237609863 59.388008117676 112 112 112
20.996288299561 12.740765571594 59.452003479004 108 108 108
20.996288299561 12.740765571594 59.517005920410 106 106 106
20.996288299561 12.740765571594 59.573005676270 108 108 108
20.996288299561 12.740765571594 59.642005920410 106 106 106
20.996288299561 12.740765571594 59.704002380371 106 106 106
20.996288299561 12.740765571594 59.765998840332 108 108 108
20.996288299561 12.740765571594 59.840995788574 105 105 105
20.996288299561 12.740765571594 59.902000427246 102 102 102
20.996288299561 12.740765571594 59.963005065918 103 103 103
20.996288299561 12.740765571594 60.037010192871 105 105 105
20.996288299561 12.740765571594 60.103996276855 102 102 102
20.996288299561 12.740765571594 60.174003601074 106 106 106
20.996288299561 12.740765571594 60.239006042480 99 99 99
21.011232376099 12.736206054688 60.301002502441 96 96 96
21.011232376099 12.736206054688 60.366996765137 109 109 109
20.894205093384 13.155805587769 57.562995910645 55 55 55
20.939041137695 13.142126083374 57.603996276855 89 89 89
20.966648101807 13.125534057617 59.972007751465 19 19 19
20.892177581787 13.523983001709 57.569999694824 39 39 39
20.954238891602 13.513216972351 57.603996276855 103 103 103
20.947399139404 13.490799903870 59.741996765137 23 23 23
20.924600601196 13.897985458374 57.569007873535 43 43 43
20.937265396118 13.885953903198 57.611000061035 101 101 101
20.932704925537 13.871009826660 59.573005676270 24 24 24
20.909908294678 14.278196334839 57.579002380371 95 95 95
20.952463150024 14.257044792175 57.621009826660 46 46 46
20.922573089600 14.266163825989 59.349998474121 34 34 34
20.942329406738 14.652200698853 57.588996887207 131 131 131
20.925106048584 14.649286270142 59.136009216309 23 23 23
20.912693023682 15.036969184875 58.925010681152 37 37 37
20.932197570801 15.047354698181 57.616004943848 65 65 65
20.930171966553 15.415532112122 57.349006652832 25 25 25
20.942834854126 15.403500556946 57.625007629395 95 95 95
20.883054733276 15.421738624573 58.713996887207 37 37 37
20.930421829224 15.791183471680 57.351997375488 18 18 18
20.915477752686 15.795742988586 57.637001037598 107 107 107
20.868362426758 15.801948547363 58.487998962402 11 11 11
20.898252487183 15.792829513550 58.543006896973 12 12 12
20.918010711670 16.178867340088 57.310005187988 42 42 42
20.918010711670 16.178867340088 57.368003845215 8 8 8
20.885841369629 16.180511474609 57.603004455566 28 28 28
20.918010711670 16.178867340088 57.648002624512 79 79 79
20.873174667358 16.192543029785 58.325996398926 34 34 34
20.890651702881 16.571105957031 57.330009460449 63 63 63
20.890651702881 16.571105957031 57.622001647949 79 79 79
20.905597686768 16.566547393799 57.675010681152 15 15 15
20.873428344727 16.568195343018 58.105003356934 26 26 26
20.895465850830 16.961700439453 57.351997375488 74 74 74
20.895465850830 16.961700439453 57.644996643066 106 106 106
20.865573883057 16.970821380615 57.898002624512 23 23 23
20.883052825928 17.349384307861 57.373008728027 38 38 38
20.870388031006 17.361417770386 57.611000061035 4 4 4
20.883052825928 17.349384307861 57.668006896973 89 89 89
20.840751647949 17.746185302734 57.333000183105 17 17 17
20.855693817139 17.741626739502 57.388999938965 186 186 186
20.840751647949 17.746185302734 57.454002380371 157 157 157
20.840751647949 17.746185302734 57.515007019043 144 144 144
20.843029022217 17.753658294678 57.575996398926 140 140 140
20.840751647949 17.746185302734 57.633003234863 29 29 29
20.870639801025 17.737068176270 57.683006286621 56 56 56
20.838722229004 18.114364624023 57.394996643066 172 172 172
20.826057434082 18.126396179199 57.457008361816 172 172 172
20.826057434082 18.126396179199 57.525001525879 148 148 148
20.826057434082 18.126396179199 57.584007263184 165 165 165
20.826057434082 18.126396179199 57.638008117676 22 22 22
20.855947494507 18.117277145386 57.690010070801 75 75 75
20.824031829834 18.494575500488 57.340003967285 21 21 21
20.826311111450 18.502048492432 57.399009704590 190 190 190
20.811365127563 18.506607055664 57.463996887207 190 190 190
20.781475067139 18.515724182129 57.530006408691 182 182 182
20.781475067139 18.515724182129 57.592002868652 121 121 121
20.811365127563 18.506607055664 57.647010803223 90 90 90
20.841255187988 18.497486114502 57.700004577637 19 19 19
20.798952102661 18.894287109375 57.356010437012 56 56 56
20.798952102661 18.894287109375 57.418006896973 187 187 187
20.796672821045 18.886817932129 57.481010437012 170 170 170
20.781726837158 18.891376495361 57.547004699707 184 184 184
20.769063949585 18.903408050537 57.612007141113 45 45 45
20.828842163086 18.885169982910 57.659996032715 87 87 87
20.788820266724 19.289443969727 57.377998352051 127 127 127
20.786540985107 19.281970977783 57.443000793457 168 168 168
20.756650924683 19.291090011597 57.511009216309 159 159 159
20.756650924683 19.291090011597 57.575004577637 171 171 171
20.803764343262 19.284881591797 57.687004089355 79 79 79
20.761463165283 19.681686401367 57.398002624512 174 174 174
20.746517181396 19.686244964600 57.465995788574 178 178 178
20.748796463013 19.693717956543 57.532997131348 179 179 179
20.748796463013 19.693717956543 57.597999572754 142 142 142
20.761463165283 19.681686401367 57.652000427246 38 38 38
20.776407241821 19.677124023438 57.709007263184 26 26 26
20.763742446899 19.689159393311 57.776008605957 44 44 44
20.776407241821 19.677124023438 57.840003967285 48 48 48
20.761714935303 20.057334899902 57.396003723145 44 44 44
20.749050140381 20.069366455078 57.655006408691 48 48 48
20.791604995728 20.048217773438 57.711997985840 23 23 23
20.749303817749 20.445018768311 57.388008117676 58 58 58
20.749303817749 20.445018768311 57.709999084473 32 32 32
20.730051040649 20.810281753540 57.384010314941 48 48 48
20.700160980225 20.819400787354 57.653007507324 27 27 27
20.730051040649 20.810281753540 57.709999084473 28 28 28
20.717638015747 21.197963714600 57.396003723145 63 63 63
20.657857894897 21.216201782227 57.471000671387 46 46 46
20.657857894897 21.216201782227 57.537010192871 50 50 50
20.657857894897 21.216201782227 57.605003356934 56 56 56
20.717638015747 21.197963714600 57.655998229980 93 93 93
20.679893493652 21.609710693359 57.679008483887 91 91 91
20.652282714844 21.626300811768 58.864997863770 17 17 17
20.654815673828 22.009426116943 57.357002258301 19 19 19
20.669761657715 22.004867553711 57.687995910645 61 61 61
20.639873504639 22.013984680176 59.108009338379 12 12 12
20.667734146118 22.373043060303 57.405998229980 14 14 14
20.637844085693 22.382164001465 57.685005187988 84 84 84
20.605926513672 22.759460449219 57.674003601074 89 89 89
20.591236114502 23.139671325684 57.668006896973 93 93 93
20.553493499756 23.551418304443 57.675010681152 82 82 82
20.528415679932 23.951129913330 57.680000305176 69 69 69
20.556026458740 23.934539794922 60.183998107910 65 65 65
20.394163131714 24.367813110352 53.485008239746 20 20 20
20.394163131714 24.367813110352 53.554008483887 31 31 31
20.383777618408 24.387321472168 53.622001647949 44 44 44
20.396442413330 24.375286102295 53.692008972168 60 60 60
20.383777618408 24.387321472168 53.759010314941 61 61 61
20.394163131714 24.367813110352 53.829002380371 69 69 69
20.394163131714 24.367813110352 53.897010803223 68 68 68
20.486112594604 24.347930908203 53.971000671387 88 88 88
20.545892715454 24.329692840576 54.041007995605 102 102 102
20.501058578491 24.343372344971 54.108009338379 113 113 113
20.396442413330 24.375286102295 54.170997619629 74 74 74
20.383777618408 24.387321472168 54.237998962402 76 76 76
20.411388397217 24.370727539063 54.306999206543 79 79 79
20.409109115601 24.363254547119 54.375007629395 83 83 83
20.411388397217 24.370727539063 54.444007873535 87 87 87
20.409109115601 24.363254547119 54.512001037598 90 90 90
20.411388397217 24.370727539063 54.580009460449 92 92 92
20.456222534180 24.357048034668 54.648002624512 91 91 91
20.441278457642 24.361610412598 54.715995788574 95 95 95
20.471168518066 24.352489471436 54.782997131348 105 105 105
20.471168518066 24.352489471436 54.851005554199 114 114 114
20.471168518066 24.352489471436 54.918998718262 105 105 105
20.488391876221 24.355403900146 54.986000061035 110 110 110
20.486112594604 24.347930908203 55.054008483887 114 114 114
20.533226013184 24.341724395752 55.118995666504 114 114 114
20.545892715454 24.329692840576 55.187004089355 112 112 112
20.501058578491 24.343372344971 55.256004333496 117 117 117
20.486112594604 24.347930908203 55.323997497559 117 117 117
20.486112594604 24.347930908203 55.392005920410 113 113 113
20.486112594604 24.347930908203 55.459999084473 116 116 116
20.498779296875 24.335899353027 55.527000427246 127 127 127
20.501058578491 24.343372344971 55.595008850098 122 122 122
20.513723373413 24.331340789795 56.071006774902 114 114 114
20.530946731567 24.334251403809 56.138008117676 120 120 120
20.545892715454 24.329692840576 56.205009460449 122 122 122
20.545892715454 24.329692840576 56.274009704590 114 114 114
20.545892715454 24.329692840576 56.340995788574 108 108 108
20.545892715454 24.329692840576 56.411003112793 125 125 125
20.545892715454 24.329692840576 56.478996276855 120 120 120
20.560836791992 24.325134277344 56.961006164551 94 94 94
20.560836791992 24.325134277344 57.032005310059 91 91 91
20.560836791992 24.325134277344 57.101005554199 89 89 89
20.560836791992 24.325134277344 57.172004699707 84 84 84
20.558557510376 24.317661285400 57.245002746582 88 88 88
20.560836791992 24.325134277344 57.314002990723 82 82 82
20.560836791992 24.325134277344 57.386009216309 80 80 80
20.575782775879 24.320575714111 57.452003479004 79 79 79
20.560836791992 24.325134277344 57.528007507324 80 80 80
20.560836791992 24.325134277344 57.597999572754 71 71 71
20.558557510376 24.317661285400 57.672004699707 79 79 79
20.560836791992 24.325134277344 57.741004943848 63 63 63
20.560836791992 24.325134277344 57.812995910645 64 64 64
20.575782775879 24.320575714111 57.884010314941 67 67 67
20.575782775879 24.320575714111 57.955009460449 62 62 62
20.560836791992 24.325134277344 58.030998229980 51 51 51
20.575782775879 24.320575714111 58.101997375488 50 50 50
20.560836791992 24.325134277344 58.179008483887 46 46 46
20.573503494263 24.313102722168 58.250007629395 37 37 37
20.573503494263 24.313102722168 58.323997497559 25 25 25
20.588447570801 24.308540344238 58.390998840332 16 16 16
20.575782775879 24.320575714111 58.468009948730 12 12 12
20.501058578491 24.343372344971 55.663002014160 91 91 91
20.501058578491 24.343372344971 56.002998352051 8 8 8
20.560836791992 24.325134277344 56.545997619629 75 75 75
20.563116073608 24.332607269287 56.890998840332 12 12 12
20.784524917603 12.421475410461 55.868995666504 13 13 13
20.784524917603 12.421475410461 55.816001892090 39 39 39
20.759193420410 12.445539474487 55.762001037598 49 49 49
20.786804199219 12.428947448730 55.706001281738 54 54 54
20.786804199219 12.428947448730 55.652000427246 59 59 59
20.799470901489 12.416915893555 55.596000671387 64 64 64
20.799470901489 12.416915893555 55.541999816895 76 76 76
20.786804199219 12.428947448730 55.489006042480 75 75 75
20.799470901489 12.416915893555 55.433998107910 83 83 83
20.801750183105 12.424387931824 55.379005432129 84 84 84
20.789083480835 12.436420440674 55.325996398926 89 89 89
20.801750183105 12.424387931824 55.272010803223 103 103 103
20.801750183105 12.424387931824 55.218009948730 112 112 112
20.801750183105 12.424387931824 55.164009094238 112 112 112
20.799470901489 12.416915893555 55.109001159668 113 113 113
20.804029464722 12.431860923767 55.056007385254 111 111 111
20.804029464722 12.431860923767 55.002006530762 107 107 107
20.801750183105 12.424387931824 54.948005676270 112 112 112
20.801750183105 12.424387931824 54.894004821777 112 112 112
20.814414978027 12.412356376648 54.840003967285 115 115 115
20.814414978027 12.412356376648 54.787010192871 106 106 106
20.814414978027 12.412356376648 54.733009338379 106 106 106
20.814414978027 12.412356376648 54.680000305176 102 102 102
20.814414978027 12.412356376648 54.625999450684 108 108 108
20.814414978027 12.412356376648 54.571998596191 108 108 108
20.842025756836 12.395764350891 54.519004821777 108 108 108
20.814414978027 12.412356376648 54.465003967285 113 113 113
20.842025756836 12.395764350891 54.412010192871 113 113 113
20.856971740723 12.391204833984 54.359001159668 116 116 116
20.856971740723 12.391204833984 54.306007385254 125 125 125
20.856971740723 12.391204833984 54.252006530762 118 118 118
20.856971740723 12.391204833984 54.198997497559 122 122 122
20.856971740723 12.391204833984 54.144996643066 119 119 119
20.856971740723 12.391204833984 54.090995788574 113 113 113
20.856971740723 12.391204833984 54.037010192871 111 111 111
20.859251022339 12.398677825928 53.984001159668 109 109 109
20.859251022339 12.398677825928 53.931007385254 111 111 111
20.871913909912 12.386645317078 53.877006530762 108 108 108
20.871913909912 12.386645317078 53.823997497559 111 111 111
20.859251022339 12.398677825928 53.769004821777 111 111 111
20.871913909912 12.386645317078 53.715995788574 114 114 114
20.861530303955 12.406149864197 53.661003112793 114 114 114
20.874195098877 12.394118309021 53.608009338379 117 117 117
20.874195098877 12.394118309021 53.554008483887 118 118 118
20.861530303955 12.406149864197 53.499000549316 109 109 109
20.861530303955 12.406149864197 53.444007873535 113 113 113
20.861530303955 12.406149864197 53.390007019043 105 105 105
20.861530303955 12.406149864197 53.336006164551 99 99 99
20.876474380493 12.401590347290 53.280998229980 96 96 96
20.878753662109 12.409063339233 53.226005554199 89 89 89
20.876474380493 12.401590347290 53.172996520996 89 89 89
20.878753662109 12.409063339233 53.116004943848 90 90 90
20.878753662109 12.409063339233 53.058998107910 90 90 90
20.853424072266 12.433127403259 52.999000549316 146 146 146
20.954238891602 12.549394607544 60.420005798340 86 86 86
20.956518173218 12.556865692139 60.360008239746 111 111 111
20.956518173218 12.556865692139 60.288002014160 114 114 114
20.956518173218 12.556865692139 60.206001281738 107 107 107
20.958797454834 12.564338684082 60.138999938965 109 109 109
20.958797454834 12.564338684082 60.065010070801 115 115 115
20.958797454834 12.564338684082 59.993995666504 110 110 110
20.984128952026 12.540275573730 59.915000915527 101 101 101
20.984128952026 12.540275573730 59.844001770020 106 106 106
20.956518173218 12.556865692139 59.777000427246 98 98 98
20.984128952026 12.540275573730 59.706001281738 106 106 106
20.956518173218 12.556865692139 59.640998840332 91 91 91
20.984128952026 12.540275573730 59.569999694824 92 92 92
20.973743438721 12.559780120850 59.504997253418 91 91 91
20.986408233643 12.547746658325 59.435997009277 92 92 92
20.973743438721 12.559780120850 59.374000549316 94 94 94
20.973743438721 12.559780120850 59.304008483887 95 95 95
20.976024627686 12.567251205444 59.249000549316 100 100 100
20.973743438721 12.559780120850 59.179008483887 106 106 106
20.976024627686 12.567251205444 59.121009826660 104 104 104
20.965637207031 12.586755752563 59.058006286621 106 106 106
20.952972412109 12.598788261414 59.002998352051 106 106 106
20.955253601074 12.606260299683 58.939002990723 107 107 107
20.965637207031 12.586755752563 58.864997863770 97 97 97
20.978303909302 12.574724197388 58.795997619629 93 93 93
20.929922103882 12.630324363708 58.765007019043 112 112 112
20.917255401611 12.642356872559 58.709007263184 114 114 114
20.906871795654 12.661861419678 58.652000427246 119 119 119
20.894205093384 12.673892974854 58.599998474121 112 112 112
20.868873596191 12.697957038879 58.547004699707 107 107 107
20.868873596191 12.697957038879 58.487998962402 111 111 111
20.856210708618 12.709987640381 58.431007385254 116 116 116
20.858489990234 12.717460632324 58.368003845215 114 114 114
20.858489990234 12.717460632324 58.308998107910 109 109 109
20.845823287964 12.729492187500 58.250999450684 111 111 111
20.845823287964 12.729492187500 58.187004089355 114 114 114
20.833158493042 12.741525650024 58.131996154785 112 112 112
20.858489990234 12.717460632324 58.062995910645 111 111 111
20.848102569580 12.736965179443 58.004005432129 115 115 115
20.848102569580 12.736965179443 57.944999694824 115 115 115
20.848102569580 12.736965179443 57.888008117676 116 116 116
20.875713348389 12.720374107361 57.823005676270 133 133 133
20.875713348389 12.720374107361 57.763008117676 109 109 109
20.877992630005 12.727847099304 57.700004577637 115 115 115
20.903324127197 12.703783035278 57.631004333496 118 118 118
20.939041137695 12.660214424133 57.555000305176 104 104 104
20.939041137695 12.660214424133 57.497001647949 97 97 97
20.939041137695 12.660214424133 57.441001892090 104 104 104
20.890659332275 12.715814590454 57.402000427246 118 118 118
20.903324127197 12.703783035278 57.343009948730 122 122 122
20.905603408813 12.711255073547 57.284996032715 115 115 115
20.892938613892 12.723287582397 57.228004455566 109 109 109
20.905603408813 12.711255073547 57.170997619629 107 107 107
20.905603408813 12.711255073547 57.112998962402 110 110 110
20.892938613892 12.723287582397 57.058998107910 110 110 110
20.905603408813 12.711255073547 56.999000549316 109 109 109
20.905603408813 12.711255073547 56.941001892090 111 111 111
20.905603408813 12.711255073547 56.884010314941 111 111 111
20.905603408813 12.711255073547 56.828010559082 109 109 109
20.918270111084 12.699223518372 56.767005920410 117 117 117
20.918270111084 12.699223518372 56.713005065918 120 120 120
20.930934906006 12.687191009521 56.653999328613 118 118 118
20.918270111084 12.699223518372 56.601005554199 121 121 121
20.935493469238 12.702136039734 56.545005798340 115 115 115
20.935493469238 12.702136039734 56.491004943848 112 112 112
20.907882690430 12.718728065491 56.437004089355 109 109 109
20.907882690430 12.718728065491 56.381996154785 104 104 104
20.907882690430 12.718728065491 56.327003479004 99 99 99
20.907882690430 12.718728065491 56.273002624512 104 104 104
20.907882690430 12.718728065491 56.215995788574 89 89 89
20.907882690430 12.718728065491 56.163002014160 83 83 83
20.912443161011 12.733673095703 56.109001159668 81 81 81
20.925109863281 12.721640586853 56.054008483887 81 81 81
20.912443161011 12.733673095703 56.000007629395 76 76 76
20.925109863281 12.721640586853 55.944007873535 71 71 71
20.912443161011 12.733673095703 55.892005920410 66 66 66
20.899778366089 12.745704650879 55.838996887207 69 69 69
20.914722442627 12.741145133972 55.782005310059 65 65 65
20.902057647705 12.753177642822 55.731010437012 60 60 60
20.902057647705 12.753177642822 55.676002502441 64 64 64
20.902057647705 12.753177642822 55.622001647949 57 57 57
20.889392852783 12.765209197998 55.569007873535 48 48 48
20.902057647705 12.753177642822 55.513999938965 25 25 25
20.943851470947 13.050809860229 60.008003234863 23 23 23
20.896484375000 13.163276672363 57.603004455566 46 46 46
20.928907394409 13.537281036377 59.741996765137 23 23 23
20.919534683228 13.613652229309 57.631004333496 63 63 63
20.939291000366 13.999687194824 59.504005432129 15 15 15
20.916240692139 14.031225204468 59.457008361816 8 8 8
20.929918289185 14.076059341431 57.649009704590 38 38 38
20.896734237671 14.502750396729 59.213996887207 19 19 19
20.933464050293 14.516049385071 57.650001525879 52 52 52
20.907119750977 14.965157508850 58.969001770020 25 25 25
20.928903579712 14.983015060425 57.663002014160 46 46 46
20.863298416138 15.035702705383 57.622001647949 5 5 5
20.916240692139 14.995047569275 57.356010437012 22 22 22
20.887615203857 15.436684608459 58.734001159668 16 16 16
20.917505264282 15.427565574646 57.680000305176 14 14 14
20.904840469360 15.439597129822 57.623008728027 16 16 16
20.919784545898 15.435036659241 57.366004943848 14 14 14
20.862283706665 15.942658424377 58.454002380371 19 19 19
20.907117843628 15.928980827332 57.650001525879 29 29 29
20.874946594238 16.412538528442 58.207008361816 20 20 20
20.887613296509 16.400506973267 57.666999816895 44 44 44
20.847335815430 16.911041259766 57.954002380371 18 18 18
20.874946594238 16.894451141357 57.681007385254 41 41 41
20.861267089844 17.813438415527 57.700004577637 28 28 28
20.808326721191 17.854093551636 57.577003479004 139 139 139
20.808326721191 17.854093551636 57.506004333496 121 121 121
20.863548278809 17.820911407471 57.430000305176 159 159 159
20.839481353760 18.277492523193 57.709999084473 32 32 32
20.791101455688 18.333091735840 57.592002868652 162 162 162
20.818710327148 18.316501617432 57.515998840332 149 149 149
20.818710327148 18.316501617432 57.444999694824 167 167 167
20.811870574951 18.775995254517 57.722007751465 17 17 17
20.765769958496 18.839065551758 57.601997375488 157 157 157
20.808324813843 18.817916870117 57.525001525879 148 148 148
20.806045532227 18.810443878174 57.452003479004 167 167 167
20.803764343262 18.802970886230 57.379997253418 8 8 8
20.753103256226 19.333011627197 57.618003845215 140 140 140
20.753103256226 19.333011627197 57.547004699707 123 123 123
20.778434753418 19.308948516846 57.467002868652 148 148 148
20.778434753418 19.308948516846 57.396003723145 25 25 25
20.771595001221 19.768440246582 57.905006408691 18 18 18
20.796924591064 19.744377136230 57.752006530762 11 11 11
20.771595001221 19.768440246582 57.689002990723 18 18 18
20.748542785645 19.799976348877 57.405998229980 22 22 22
20.747528076172 20.225021362305 57.694007873535 16 16 16
20.739423751831 20.251998901367 57.409004211426 28 28 28
20.702693939209 20.720613479614 57.698997497559 13 13 13
20.732583999634 20.711494445801 57.400001525879 15 15 15
20.700414657593 21.195053100586 57.696998596191 39 39 39
20.702693939209 21.202526092529 57.401008605957 21 21 21
20.649753570557 21.725090026855 57.720008850098 24 24 24
20.654312133789 21.740036010742 57.418006896973 24 24 24
20.660137176514 22.187498092651 57.733009338379 14 14 14
20.637084960938 22.219034194946 57.433006286621 18 18 18
20.625686645508 22.663585662842 57.737998962402 12 12 12
20.606180191040 23.135108947754 57.728996276855 11 11 11
20.585662841797 24.031681060791 60.545997619629 60 60 60
20.572996139526 24.043712615967 60.459999084473 87 87 87
20.560331344604 24.055744171143 60.375007629395 92 92 92
20.560331344604 24.055744171143 60.284996032715 84 84 84
20.547664642334 24.067775726318 60.200004577637 81 81 81
20.560331344604 24.055744171143 60.109001159668 81 81 81
20.577556610107 24.058658599854 60.019004821777 76 76 76
20.549945831299 24.075248718262 59.931999206543 83 83 83
20.549945831299 24.075248718262 59.847007751465 76 76 76
20.552225112915 24.082721710205 59.760002136230 66 66 66
20.524614334106 24.099311828613 59.681007385254 75 75 75
20.524614334106 24.099311828613 59.592002868652 70 70 70
20.554504394531 24.090194702148 59.500999450684 73 73 73
20.544120788574 24.109699249268 59.422004699707 66 66 66
20.544120788574 24.109699249268 59.338996887207 70 70 70
20.544120788574 24.109699249268 59.250999450684 67 67 67
20.531454086304 24.121730804443 59.170005798340 73 73 73
20.523349761963 24.148708343506 59.086997985840 77 77 77
20.556785583496 24.097667694092 58.982002258301 71 71 71
20.544120788574 24.109699249268 58.903007507324 71 71 71
20.510683059692 24.160739898682 58.836997985840 74 74 74
20.510683059692 24.160739898682 58.752006530762 77 77 77
20.523349761963 24.148708343506 58.665000915527 81 81 81
20.510683059692 24.160739898682 58.582008361816 80 80 80
20.512962341309 24.168212890625 58.502006530762 74 74 74
20.500297546387 24.180244445801 58.418998718262 89 89 89
20.487632751465 24.192276000977 58.340003967285 95 95 95
20.487632751465 24.192276000977 58.256996154785 96 96 96
20.487632751465 24.192276000977 58.174003601074 96 96 96
20.474967956543 24.204307556152 58.095008850098 82 82 82
20.489912033081 24.199748992920 58.013008117676 86 86 86
20.492191314697 24.207221984863 57.931999206543 90 90 90
20.492191314697 24.207221984863 57.851005554199 89 89 89
20.487632751465 24.192276000977 57.762001037598 83 83 83
20.565902709961 24.127555847168 57.666007995605 86 86 86
20.565902709961 24.127555847168 57.583000183105 69 69 69
20.441532135010 24.255348205566 57.534996032715 89 89 89
20.443811416626 24.262821197510 57.454002380371 89 89 89
20.443811416626 24.262821197510 57.374000549316 90 90 90
20.431144714355 24.274852752686 57.293998718262 96 96 96
20.431144714355 24.274852752686 57.215003967285 97 97 97
20.431144714355 24.274852752686 57.133003234863 94 94 94
20.418479919434 24.286884307861 57.054008483887 107 107 107
20.420761108398 24.294357299805 56.972999572754 97 97 97
20.433425903320 24.282325744629 56.890007019043 92 92 92
20.420761108398 24.294357299805 56.812004089355 97 97 97
20.420761108398 24.294357299805 56.732002258301 94 94 94
20.420761108398 24.294357299805 56.652000427246 92 92 92
20.420761108398 24.294357299805 56.571998596191 96 96 96
20.435705184937 24.289798736572 56.489997863770 96 96 96
20.534748077393 24.186069488525 56.392997741699 73 73 73
20.509416580200 24.210132598877 56.318000793457 77 77 77
20.425319671631 24.309303283691 56.252998352051 101 101 101
20.425319671631 24.309303283691 56.175010681152 97 97 97
20.425319671631 24.309303283691 56.094001770020 98 98 98
20.427600860596 24.316776275635 56.015998840332 100 100 100
20.429880142212 24.324249267578 55.937004089355 102 102 102
20.429880142212 24.324249267578 55.857002258301 104 104 104
20.429880142212 24.324249267578 55.778007507324 107 107 107
20.427600860596 24.316776275635 55.698005676270 108 108 108
20.429880142212 24.324249267578 55.620002746582 105 105 105
20.432159423828 24.331718444824 55.540000915527 106 106 106
20.419492721558 24.343750000000 55.461997985840 106 106 106
20.419492721558 24.343750000000 55.381996154785 101 101 101
20.419492721558 24.343750000000 55.304008483887 104 104 104
20.528921127319 24.220520019531 55.219001770020 80 80 80
20.528921127319 24.220520019531 55.142005920410 87 87 87
20.419492721558 24.343750000000 55.067008972168 102 102 102
20.406829833984 24.355785369873 54.987998962402 105 105 105
20.406829833984 24.355785369873 54.909004211426 108 108 108
20.394163131714 24.367813110352 54.829002380371 105 105 105
20.406829833984 24.355785369873 54.750007629395 104 104 104
20.394163131714 24.367813110352 54.670997619629 102 102 102
20.394163131714 24.367813110352 54.592002868652 107 107 107
20.396442413330 24.375286102295 54.513008117676 100 100 100
20.396442413330 24.375286102295 54.433006286621 101 101 101
20.396442413330 24.375286102295 54.353996276855 96 96 96
20.396442413330 24.375286102295 54.275001525879 86 86 86
20.386058807373 24.394794464111 54.194999694824 90 90 90
20.487380981445 24.298538208008 54.122001647949 94 94 94
20.540319442749 24.257881164551 54.047004699707 84 84 84
20.464328765869 24.330074310303 53.961997985840 94 94 94
20.388338088989 24.402263641357 53.875999450684 86 86 86
20.388338088989 24.402263641357 53.797004699707 85 85 85
20.390617370605 24.409736633301 53.715995788574 82 82 82
20.407840728760 24.412651062012 53.637001037598 85 85 85
20.407840728760 24.412651062012 53.556007385254 75 75 75
20.395175933838 24.424682617188 53.474998474121 71 71 71
20.407840728760 24.412651062012 53.394996643066 75 75 75
20.407840728760 24.412651062012 53.316001892090 69 69 69
20.397457122803 24.432155609131 53.234001159668 72 72 72
20.557798385620 24.154533386230 53.821006774902 6 6 6
20.532466888428 24.178596496582 53.887001037598 16 16 16
20.547412872314 24.174037933350 53.955009460449 69 69 69
20.545131683350 24.166564941406 54.022010803223 105 105 105
20.545131683350 24.166564941406 54.088996887207 122 122 122
20.547412872314 24.174037933350 54.157005310059 48 48 48
20.557798385620 24.154533386230 54.224006652832 58 58 58
20.557798385620 24.154533386230 54.291007995605 56 56 56
20.572742462158 24.149974822998 54.358009338379 59 59 59
20.557798385620 24.154533386230 54.425010681152 63 63 63
20.545131683350 24.166564941406 54.491996765137 66 66 66
20.557798385620 24.154533386230 54.558998107910 62 62 62
20.557798385620 24.154533386230 54.625007629395 62 62 62
20.570463180542 24.142501831055 54.692008972168 63 63 63
20.555519104004 24.147060394287 54.759010314941 61 61 61
20.555519104004 24.147060394287 54.825996398926 63 63 63
20.557798385620 24.154533386230 54.892997741699 61 61 61
20.570463180542 24.142501831055 54.959007263184 57 57 57
20.555519104004 24.147060394287 55.027000427246 65 65 65
20.555519104004 24.147060394287 55.094001770020 97 97 97
20.555519104004 24.147060394287 55.161003112793 109 109 109
20.555519104004 24.147060394287 55.228004455566 105 105 105
20.570463180542 24.142501831055 55.293998718262 69 69 69
20.568183898926 24.135028839111 55.362007141113 71 71 71
20.555519104004 24.147060394287 55.429008483887 70 70 70
20.568183898926 24.135028839111 55.496009826660 69 69 69
20.568183898926 24.135028839111 55.562995910645 70 70 70
20.570463180542 24.142501831055 55.629997253418 61 61 61
20.568183898926 24.135028839111 55.698005676270 73 73 73
20.568183898926 24.135028839111 55.765007019043 78 78 78
20.568183898926 24.135028839111 55.833000183105 79 79 79
20.565902709961 24.127555847168 55.900001525879 75 75 75
20.565902709961 24.127555847168 55.968009948730 73 73 73
20.565902709961 24.127555847168 56.036003112793 69 69 69
20.565902709961 24.127555847168 56.103004455566 73 73 73
20.565902709961 24.127555847168 56.172004699707 80 80 80
20.565902709961 24.127555847168 56.239997863770 87 87 87
20.565902709961 24.127555847168 56.308006286621 112 112 112
20.565902709961 24.127555847168 56.375999450684 112 112 112
20.563623428345 24.120082855225 56.443000793457 95 95 95
20.563623428345 24.120082855225 56.511009216309 90 90 90
20.563623428345 24.120082855225 56.581001281738 104 104 104
20.563623428345 24.120082855225 56.649009704590 96 96 96
20.563623428345 24.120082855225 56.719001770020 100 100 100
20.563623428345 24.120082855225 56.788002014160 108 108 108
20.563623428345 24.120082855225 56.855003356934 105 105 105
20.563623428345 24.120082855225 56.925010681152 107 107 107
20.563623428345 24.120082855225 56.993995666504 105 105 105
20.561344146729 24.112609863281 57.065010070801 106 106 106
20.563623428345 24.120082855225 57.134010314941 98 98 98
20.561344146729 24.112609863281 57.206001281738 97 97 97
20.561344146729 24.112609863281 57.275001525879 93 93 93
20.563623428345 24.120082855225 57.344001770020 95 95 95
20.576290130615 24.108051300049 57.414009094238 93 93 93
20.559064865112 24.105136871338 57.485008239746 91 91 91
20.559064865112 24.105136871338 57.556999206543 105 105 105
20.576290130615 24.108051300049 57.625007629395 103 103 103
20.591234207153 24.103492736816 57.693000793457 90 90 90
20.559064865112 24.105136871338 57.769004821777 85 85 85
20.591234207153 24.103492736816 57.836006164551 86 86 86
20.559064865112 24.105136871338 57.912010192871 84 84 84
20.546400070190 24.117172241211 57.989997863770 85 85 85
20.559064865112 24.105136871338 58.058006286621 76 76 76
20.559064865112 24.105136871338 58.129005432129 81 81 81
20.586673736572 24.088546752930 58.200996398926 81 81 81
20.559064865112 24.105136871338 58.277000427246 84 84 84
20.586673736572 24.088546752930 58.347999572754 92 92 92
20.559064865112 24.105136871338 58.426002502441 86 86 86
20.559064865112 24.105136871338 58.499000549316 84 84 84
20.559064865112 24.105136871338 58.571998596191 87 87 87
20.559064865112 24.105136871338 58.648002624512 81 81 81
20.559064865112 24.105136871338 58.722007751465 75 75 75
20.559064865112 24.105136871338 58.797004699707 83 83 83
20.559064865112 24.105136871338 58.873008728027 81 81 81
20.571731567383 24.093109130859 58.946006774902 73 73 73
20.571731567383 24.093109130859 59.024009704590 77 77 77
20.556785583496 24.097667694092 59.105003356934 73 73 73
20.556785583496 24.097667694092 59.181999206543 70 70 70
20.541839599609 24.102226257324 59.265998840332 60 60 60
20.569450378418 24.085636138916 59.334999084473 60 60 60
20.556785583496 24.097667694092 59.418006896973 67 67 67
20.569450378418 24.085636138916 59.491996765137 63 63 63
20.556785583496 24.097667694092 59.573997497559 64 64 64
20.556785583496 24.097667694092 59.653007507324 55 55 55
20.569450378418 24.085636138916 59.731010437012 58 58 58
20.554504394531 24.090194702148 59.816001892090 70 70 70
20.569450378418 24.085636138916 59.892005920410 60 60 60
20.569450378418 24.085636138916 59.972007751465 68 68 68
20.554504394531 24.090194702148 60.058998107910 56 56 56
20.552225112915 24.082721710205 60.140998840332 58 58 58
20.554504394531 24.090194702148 60.221000671387 78 78 78
20.567171096802 24.078163146973 60.302009582520 57 57 57
20.552225112915 24.082721710205 60.387001037598 51 51 51
20.552225112915 24.082721710205 60.472999572754 45 45 45
20.546146392822 23.741519927979 57.638999938965 44 44 44
20.578063964844 23.364223480225 57.640007019043 52 52 52
20.612258911133 22.994400024414 57.653007507324 78 78 78
20.601621627808 22.638252258301 57.662010192871 99 99 99
20.643924713135 22.241451263428 57.387001037598 40 40 40
20.643924713135 22.241451263428 57.657005310059 80 80 80
20.684200286865 22.212829589844 59.204002380371 9 9 9
20.673561096191 21.856681823730 57.377006530762 64 64 64
20.673561096191 21.856681823730 57.646003723145 52 52 52
20.654058456421 21.846298217773 58.974998474121 10 10 10
20.675588607788 21.488506317139 57.377998352051 79 79 79
20.675588607788 21.488506317139 57.444007873535 50 50 50
20.673309326172 21.481033325195 57.513999938965 43 43 43
20.630754470825 21.502183914185 57.586997985840 48 48 48
20.688255310059 21.476472854614 57.642997741699 102 102 102
20.688255310059 21.476472854614 57.709007263184 20 20 20
20.724731445313 21.114120483398 57.379005432129 42 42 42
20.692562103271 21.115768432617 57.648002624512 76 76 76
20.752342224121 21.097530364990 57.698005676270 20 20 20
20.711812973022 20.750501632690 57.390007019043 28 28 28
20.711812973022 20.750501632690 57.653007507324 70 70 70
20.709533691406 20.743030548096 58.392005920410 14 14 14
20.746009826660 20.380676269531 57.383003234863 55 55 55
20.731065750122 20.385238647461 57.647010803223 33 33 33
20.746009826660 20.380676269531 57.706001281738 15 15 15
20.728786468506 20.377765655518 58.176002502441 18 18 18
20.773366928101 19.988437652588 57.372001647949 53 53 53
20.741197586060 19.990081787109 57.635002136230 6 6 6
20.773366928101 19.988437652588 57.692008972168 79 79 79
20.741197586060 19.990081787109 57.959999084473 19 19 19
20.788059234619 19.608226776123 57.364997863770 107 107 107
20.758169174194 19.617343902588 57.429008483887 175 175 175
20.758169174194 19.617343902588 57.495002746582 200 200 200
20.740945816040 19.614433288574 57.562995910645 198 198 198
20.788059234619 19.608226776123 57.616004943848 80 80 80
20.803003311157 19.603668212891 57.670005798340 105 105 105
20.788059234619 19.608226776123 57.739997863770 88 88 88
20.775142669678 19.244609832764 57.358009338379 65 65 65
20.802753448486 19.228015899658 57.416999816895 196 196 196
20.760196685791 19.249168395996 57.485008239746 152 152 152
20.757915496826 19.241695404053 57.551002502441 169 169 169
20.757915496826 19.241695404053 57.614006042480 27 27 27
20.815416336060 19.215984344482 57.662010192871 85 85 85
20.819723129272 18.855278015137 57.349998474121 67 67 67
20.819723129272 18.855278015137 57.411003112793 194 194 194
20.792112350464 18.871871948242 57.478996276855 157 157 157
20.774888992310 18.868957519531 57.541007995605 175 175 175
20.762224197388 18.880989074707 57.609001159668 41 41 41
20.834669113159 18.850719451904 57.651008605957 84 84 84
20.824031829834 18.494575500488 57.345008850098 55 55 55
20.824031829834 18.494575500488 57.405006408691 200 200 200
20.809085845947 18.499134063721 57.471000671387 178 178 178
20.779193878174 18.508251190186 57.536003112793 192 192 192
20.791862487793 18.496219635010 57.596000671387 68 68 68
20.836696624756 18.482540130615 57.644996643066 98 98 98
20.838722229004 18.114364624023 57.333000183105 27 27 27
20.851388931274 18.102333068848 57.390007019043 190 190 190
20.836442947388 18.106891632080 57.457008361816 164 164 164
20.811111450195 18.130954742432 57.525001525879 131 131 131
20.811111450195 18.130954742432 57.584999084473 110 110 110
20.836442947388 18.106891632080 57.638008117676 74 74 74
20.866333007813 18.097774505615 57.689002990723 16 16 16
20.853414535522 17.734153747559 57.375999450684 174 174 174
20.836191177368 17.731243133545 57.440010070801 162 162 162
20.821245193481 17.735801696777 57.502998352051 168 168 168
20.821245193481 17.735801696777 57.567008972168 167 167 167
20.821245193481 17.735801696777 57.623008728027 7 7 7
20.866081237793 17.722122192383 57.672004699707 80 80 80
20.880771636963 17.341911315918 57.359001159668 67 67 67
20.850881576538 17.351032257080 57.597007751465 15 15 15
20.893438339233 17.329879760742 57.649009704590 104 104 104
20.897745132446 16.969173431396 57.349006652832 77 77 77
20.895465850830 16.961700439453 57.636009216309 107 107 107
20.865573883057 16.970821380615 57.890007019043 18 18 18
20.914716720581 16.596437454224 57.342002868652 75 75 75
20.914716720581 16.596437454224 57.629997253418 101 101 101
20.852657318115 16.607202529907 58.066001892090 20 20 20
20.916744232178 16.228260040283 57.336006164551 68 68 68
20.927129745483 16.208755493164 57.618995666504 100 100 100
20.869628906250 16.234466552734 58.290000915527 20 20 20
20.931436538696 15.848050117493 57.316001892090 76 76 76
20.899267196655 15.849696159363 57.607002258301 81 81 81
20.944101333618 15.836017608643 57.653007507324 23 23 23
20.879760742188 15.839310646057 58.502998352051 26 26 26
