18.968750000000 9.734375000000 1.954010009766 175 175 175
19.000000000000 9.765625000000 1.952011108398 180 180 180
19.046875000000 9.796875000000 1.953002929688 171 171 171
19.093750000000 9.812500000000 1.952011108398 176 176 176
19.156250000000 9.843750000000 1.952011108398 172 172 172
19.187500000000 9.875000000000 1.955001831055 178 178 178
19.234375000000 9.890625000000 1.958999633789 179 179 179
19.281250000000 9.937500000000 1.954010009766 172 172 172
19.343750000000 9.953125000000 1.954010009766 173 173 173
19.406250000000 9.984375000000 1.953002929688 172 172 172
19.437500000000 10.015625000000 1.953002929688 172 172 172
19.515625000000 10.046875000000 1.951004028320 176 176 176
19.562500000000 10.078125000000 1.953002929688 174 174 174
19.625000000000 10.125000000000 1.951004028320 174 174 174
19.687500000000 10.140625000000 1.951004028320 172 172 172
19.734375000000 10.187500000000 1.954010009766 175 175 175
19.812500000000 10.218750000000 1.954010009766 169 169 169
19.875000000000 10.265625000000 1.954010009766 163 163 163
19.937500000000 10.281250000000 1.953002929688 169 169 169
19.984375000000 10.312500000000 1.958999633789 166 166 166
20.031250000000 10.359375000000 1.968002319336 164 164 164
20.093750000000 10.375000000000 1.977005004883 161 161 161
20.156250000000 10.421875000000 1.975997924805 160 160 160
20.234375000000 10.468750000000 1.977005004883 163 163 163
20.281250000000 10.500000000000 1.985000610352 159 159 159
20.359375000000 10.531250000000 1.990005493164 165 165 165
20.453125000000 10.578125000000 1.983001708984 162 162 162
20.546875000000 10.640625000000 1.975997924805 163 163 163
20.640625000000 10.687500000000 1.975006103516 154 154 154
20.687500000000 10.718750000000 1.986999511719 163 163 163
20.781250000000 10.765625000000 1.988006591797 157 157 157
20.859375000000 10.812500000000 1.992004394531 162 162 162
20.953125000000 10.875000000000 1.988006591797 155 155 155
21.046875000000 10.921875000000 1.990997314453 153 153 153
21.156250000000 10.968750000000 1.996002197266 161 161 161
21.218750000000 11.015625000000 2.010009765625 158 158 158
21.328125000000 11.078125000000 2.008010864258 151 151 151
21.437500000000 11.125000000000 2.013000488281 154 154 154
21.531250000000 11.203125000000 2.014999389648 161 161 161
21.625000000000 11.250000000000 2.022003173828 165 165 165
21.734375000000 11.312500000000 2.022003173828 162 162 162
21.828125000000 11.375000000000 2.031997680664 160 160 160
21.937500000000 11.453125000000 2.041000366211 162 162 162
22.046875000000 11.500000000000 2.049011230469 154 154 154
22.171875000000 11.562500000000 2.055007934570 167 167 167
22.234375000000 11.609375000000 2.079010009766 150 150 150
22.421875000000 11.703125000000 2.074996948242 160 160 160
22.515625000000 11.750000000000 2.093002319336 170 170 170
22.593750000000 11.796875000000 2.119003295898 152 152 152
22.703125000000 11.859375000000 2.135009765625 161 161 161
22.843750000000 11.953125000000 2.139007568359 161 161 161
23.000000000000 12.046875000000 2.146011352539 153 153 153
23.140625000000 12.125000000000 2.158996582031 157 157 157
23.312500000000 12.218750000000 2.169006347656 156 156 156
23.468750000000 12.296875000000 2.180007934570 141 141 141
23.656250000000 12.390625000000 2.191009521484 146 146 146
23.796875000000 12.484375000000 2.210006713867 138 138 138
23.906250000000 12.546875000000 2.238006591797 135 135 135
24.984375000000 13.171875000000 2.365997314453 116 116 116
25.171875000000 13.265625000000 2.393997192383 117 117 117
25.375000000000 13.375000000000 2.421997070313 151 151 151
25.593750000000 13.515625000000 2.445999145508 154 154 154
25.781250000000 13.625000000000 2.482009887695 124 124 124
26.000000000000 13.734375000000 2.514999389648 136 136 136
26.281250000000 13.906250000000 2.540008544922 148 148 148
26.500000000000 14.031250000000 2.579010009766 116 116 116
26.875000000000 14.234375000000 2.598007202148 114 114 114
27.125000000000 14.375000000000 2.638000488281 102 102 102
27.515625000000 14.593750000000 2.665008544922 116 116 116
27.859375000000 14.781250000000 2.702011108398 90 90 90
28.328125000000 15.078125000000 2.725006103516 99 99 99
28.640625000000 15.234375000000 2.775009155273 97 97 97
29.031250000000 15.468750000000 2.820999145508 91 91 91
29.500000000000 15.718750000000 2.865997314453 93 93 93
29.953125000000 16.000000000000 2.914001464844 102 102 102
16.421875000000 7.984375000000 2.057006835938 211 211 211
16.421875000000 7.984375000000 2.057006835938 211 211 211
16.453125000000 8.000000000000 2.057998657227 209 209 209
16.453125000000 8.000000000000 2.059997558594 208 208 208
16.468750000000 8.015625000000 2.057998657227 204 204 204
16.484375000000 8.015625000000 2.055007934570 209 209 209
16.484375000000 8.031250000000 2.053009033203 210 210 210
16.515625000000 8.031250000000 2.055999755859 208 208 208
16.531250000000 8.031250000000 2.052001953125 212 212 212
16.546875000000 8.046875000000 2.050003051758 211 211 211
16.546875000000 8.046875000000 2.055007934570 208 208 208
16.578125000000 8.062500000000 2.054000854492 209 209 209
16.578125000000 8.062500000000 2.055999755859 211 211 211
16.593750000000 8.078125000000 2.053009033203 206 206 206
16.593750000000 8.093750000000 2.053009033203 208 208 208
16.609375000000 8.093750000000 2.048004150391 210 210 210
16.640625000000 8.093750000000 2.048004150391 212 212 212
16.656250000000 8.125000000000 2.044006347656 213 213 213
16.656250000000 8.125000000000 2.051010131836 213 213 213
16.687500000000 8.140625000000 2.048004150391 212 212 212
16.687500000000 8.140625000000 2.044998168945 214 214 214
16.718750000000 8.156250000000 2.046005249023 209 209 209
16.718750000000 8.156250000000 2.046997070313 208 208 208
16.750000000000 8.171875000000 2.046005249023 211 211 211
16.765625000000 8.171875000000 2.042999267578 210 210 210
16.781250000000 8.171875000000 2.040008544922 209 209 209
16.796875000000 8.187500000000 2.039001464844 212 212 212
16.812500000000 8.203125000000 2.039001464844 212 212 212
16.828125000000 8.218750000000 2.039001464844 212 212 212
16.843750000000 8.218750000000 2.039001464844 208 208 208
16.843750000000 8.234375000000 2.039001464844 209 209 209
16.875000000000 8.234375000000 2.036010742188 211 211 211
16.890625000000 8.234375000000 2.038009643555 210 210 210
16.906250000000 8.250000000000 2.029006958008 212 212 212
16.937500000000 8.265625000000 2.038009643555 211 211 211
16.937500000000 8.265625000000 2.027999877930 210 210 210
16.953125000000 8.281250000000 2.042007446289 210 210 210
16.968750000000 8.296875000000 2.029998779297 206 206 206
17.000000000000 8.296875000000 2.027008056641 202 202 202
17.031250000000 8.312500000000 2.016006469727 201 201 201
17.046875000000 8.328125000000 2.011001586914 202 202 202
17.062500000000 8.343750000000 2.000000000000 202 202 202
17.093750000000 8.359375000000 2.011001586914 186 186 186
17.093750000000 8.375000000000 2.001998901367 175 175 175
17.125000000000 8.390625000000 1.999008178711 182 182 182
17.156250000000 8.390625000000 1.995010375977 185 185 185
17.171875000000 8.390625000000 1.996002197266 187 187 187
17.187500000000 8.406250000000 1.995010375977 192 192 192
17.218750000000 8.421875000000 1.995010375977 188 188 188
17.218750000000 8.437500000000 1.996002197266 184 184 184
17.250000000000 8.453125000000 1.992004394531 189 189 189
17.265625000000 8.437500000000 1.999008178711 189 189 189
17.281250000000 8.453125000000 1.993011474609 178 178 178
17.312500000000 8.468750000000 1.993011474609 182 182 182
17.343750000000 8.484375000000 1.990005493164 185 185 185
17.343750000000 8.500000000000 1.986999511719 193 193 193
17.375000000000 8.515625000000 1.990997314453 187 187 187
17.406250000000 8.531250000000 1.990005493164 187 187 187
17.421875000000 8.531250000000 1.990997314453 183 183 183
17.437500000000 8.546875000000 1.986007690430 184 184 184
17.453125000000 8.562500000000 1.988998413086 195 195 195
17.484375000000 8.578125000000 1.988006591797 167 167 167
17.500000000000 8.593750000000 1.983001708984 183 183 183
17.531250000000 8.593750000000 1.988006591797 185 185 185
17.546875000000 8.609375000000 1.988998413086 177 177 177
17.562500000000 8.625000000000 1.990005493164 187 187 187
17.593750000000 8.640625000000 1.986999511719 192 192 192
17.625000000000 8.656250000000 1.986999511719 180 180 180
17.640625000000 8.671875000000 1.988006591797 180 180 180
17.687500000000 8.671875000000 1.984008789063 173 173 173
17.703125000000 8.687500000000 1.988006591797 178 178 178
17.718750000000 8.703125000000 1.983001708984 186 186 186
17.750000000000 8.718750000000 1.980010986328 183 183 183
17.781250000000 8.734375000000 1.981002807617 177 177 177
17.812500000000 8.750000000000 1.982009887695 175 175 175
17.843750000000 8.765625000000 1.977996826172 176 176 176
17.875000000000 8.781250000000 1.981002807617 172 172 172
17.890625000000 8.796875000000 1.977005004883 171 171 171
17.921875000000 8.812500000000 1.975006103516 174 174 174
17.953125000000 8.828125000000 1.977005004883 179 179 179
17.968750000000 8.843750000000 1.977996826172 180 180 180
18.000000000000 8.859375000000 1.966003417969 176 176 176
18.015625000000 8.875000000000 1.970001220703 170 170 170
18.046875000000 8.875000000000 1.972000122070 176 176 176
18.078125000000 8.906250000000 1.970001220703 173 173 173
18.109375000000 8.921875000000 1.971008300781 168 168 168
18.140625000000 8.937500000000 1.970001220703 171 171 171
18.171875000000 8.968750000000 1.967010498047 172 172 172
18.203125000000 8.984375000000 1.967010498047 169 169 169
18.250000000000 9.015625000000 1.965011596680 148 148 148
18.265625000000 9.031250000000 1.966003417969 147 147 147
18.328125000000 9.031250000000 1.958999633789 167 167 167
18.359375000000 9.062500000000 1.955001831055 174 174 174
18.375000000000 9.078125000000 1.960998535156 176 176 176
18.421875000000 9.109375000000 1.960006713867 169 169 169
18.453125000000 9.109375000000 1.956008911133 175 175 175
18.484375000000 9.125000000000 1.958007812500 171 171 171
18.531250000000 9.171875000000 1.958999633789 167 167 167
18.578125000000 9.187500000000 1.952011108398 167 167 167
18.609375000000 9.203125000000 1.958007812500 172 172 172
18.640625000000 9.218750000000 1.957000732422 172 172 172
18.671875000000 9.250000000000 1.956008911133 167 167 167
18.734375000000 9.265625000000 1.955001831055 167 167 167
18.781250000000 9.296875000000 1.952011108398 170 170 170
18.828125000000 9.312500000000 1.951004028320 165 165 165
18.859375000000 9.328125000000 1.949005126953 167 167 167
18.906250000000 9.359375000000 1.955001831055 158 158 158
18.937500000000 9.390625000000 1.958007812500 147 147 147
18.984375000000 9.406250000000 1.964004516602 150 150 150
19.031250000000 9.437500000000 1.956008911133 170 170 170
19.062500000000 9.468750000000 1.965011596680 163 163 163
19.140625000000 9.484375000000 1.955001831055 138 138 138
19.171875000000 9.515625000000 1.953002929688 168 168 168
19.218750000000 9.546875000000 1.962005615234 147 147 147
19.265625000000 9.562500000000 1.964004516602 164 164 164
19.312500000000 9.593750000000 1.962997436523 147 147 147
19.375000000000 9.640625000000 1.955001831055 166 166 166
19.406250000000 9.656250000000 1.960006713867 168 168 168
19.468750000000 9.703125000000 1.954010009766 158 158 158
19.531250000000 9.718750000000 1.953002929688 164 164 164
19.593750000000 9.765625000000 1.947998046875 156 156 156
19.671875000000 9.796875000000 1.942001342773 163 163 163
19.718750000000 9.828125000000 1.943008422852 153 153 153
19.781250000000 9.875000000000 1.944000244141 153 153 153
19.843750000000 9.890625000000 1.949996948242 156 156 156
19.906250000000 9.937500000000 1.947006225586 159 159 159
19.968750000000 9.953125000000 1.960006713867 157 157 157
20.000000000000 10.000000000000 1.969009399414 160 160 160
20.093750000000 10.031250000000 1.966003417969 163 163 163
20.140625000000 10.062500000000 1.973999023438 159 159 159
20.218750000000 10.109375000000 1.969009399414 151 151 151
20.296875000000 10.156250000000 1.970001220703 157 157 157
20.375000000000 10.203125000000 1.966003417969 165 165 165
20.437500000000 10.250000000000 1.972000122070 144 144 144
20.531250000000 10.281250000000 1.973007202148 152 152 152
20.609375000000 10.343750000000 1.971008300781 153 153 153
20.687500000000 10.375000000000 1.975997924805 155 155 155
20.781250000000 10.421875000000 1.977005004883 155 155 155
20.843750000000 10.468750000000 1.980010986328 154 154 154
20.937500000000 10.531250000000 1.980010986328 159 159 159
20.984375000000 10.562500000000 1.996002197266 148 148 148
21.078125000000 10.593750000000 2.003005981445 145 145 145
21.171875000000 10.640625000000 2.007003784180 144 144 144
21.265625000000 10.718750000000 2.009002685547 146 146 146
21.390625000000 10.781250000000 2.005004882813 144 144 144
21.515625000000 10.843750000000 2.003997802734 149 149 149
21.609375000000 10.890625000000 2.013000488281 147 147 147
21.703125000000 10.968750000000 2.014999389648 151 151 151
21.812500000000 11.031250000000 2.022003173828 151 151 151
21.906250000000 11.078125000000 2.033004760742 146 146 146
22.031250000000 11.140625000000 2.040008544922 146 146 146
22.140625000000 11.203125000000 2.044006347656 146 146 146
22.265625000000 11.281250000000 2.048004150391 156 156 156
22.359375000000 11.343750000000 2.069000244141 133 133 133
22.484375000000 11.406250000000 2.074996948242 154 154 154
22.609375000000 11.484375000000 2.083999633789 152 152 152
22.765625000000 11.562500000000 2.093002319336 147 147 147
22.890625000000 11.625000000000 2.106002807617 144 144 144
23.015625000000 11.703125000000 2.119003295898 144 144 144
23.140625000000 11.765625000000 2.139007568359 138 138 138
23.265625000000 11.828125000000 2.160003662109 128 128 128
23.421875000000 11.937500000000 2.169998168945 140 140 140
23.531250000000 12.000000000000 2.191009521484 138 138 138
23.687500000000 12.093750000000 2.208999633789 125 125 125
23.921875000000 12.234375000000 2.207000732422 135 135 135
24.078125000000 12.312500000000 2.227005004883 134 134 134
24.984375000000 12.828125000000 2.335998535156 112 112 112
25.171875000000 12.953125000000 2.361007690430 127 127 127
25.359375000000 13.031250000000 2.389999389648 129 129 129
25.578125000000 13.171875000000 2.416000366211 128 128 128
25.765625000000 13.265625000000 2.454010009766 120 120 120
26.015625000000 13.406250000000 2.481002807617 119 119 119
26.218750000000 13.531250000000 2.514999389648 114 114 114
26.531250000000 13.703125000000 2.540008544922 108 108 108
26.781250000000 13.843750000000 2.576004028320 100 100 100
27.125000000000 14.046875000000 2.602996826172 110 110 110
27.406250000000 14.218750000000 2.639999389648 94 94 94
27.703125000000 14.375000000000 2.680999755859 91 91 91
28.109375000000 14.609375000000 2.712005615234 81 81 81
28.546875000000 14.859375000000 2.745010375977 91 91 91
28.953125000000 15.093750000000 2.785003662109 79 79 79
29.437500000000 15.359375000000 2.824996948242 88 88 88
29.921875000000 15.625000000000 2.870010375977 79 79 79
16.421875000000 7.625000000000 2.063003540039 211 211 211
16.421875000000 7.640625000000 2.064010620117 211 211 211
16.421875000000 7.640625000000 2.061996459961 205 205 205
16.453125000000 7.656250000000 2.063003540039 205 205 205
16.468750000000 7.671875000000 2.059005737305 204 204 204
16.484375000000 7.671875000000 2.057006835938 208 208 208
16.484375000000 7.687500000000 2.055999755859 210 210 210
16.500000000000 7.687500000000 2.059005737305 212 212 212
16.515625000000 7.703125000000 2.054000854492 209 209 209
16.546875000000 7.687500000000 2.055999755859 208 208 208
16.546875000000 7.703125000000 2.054000854492 208 208 208
16.562500000000 7.703125000000 2.057998657227 209 209 209
16.578125000000 7.718750000000 2.052001953125 211 211 211
16.578125000000 7.734375000000 2.055999755859 209 209 209
16.609375000000 7.734375000000 2.053009033203 208 208 208
16.609375000000 7.750000000000 2.052001953125 209 209 209
16.640625000000 7.765625000000 2.046005249023 211 211 211
16.656250000000 7.765625000000 2.044998168945 213 213 213
16.671875000000 7.781250000000 2.046997070313 213 213 213
16.687500000000 7.796875000000 2.044006347656 217 217 217
16.703125000000 7.796875000000 2.046997070313 205 205 205
16.703125000000 7.812500000000 2.042999267578 208 208 208
16.734375000000 7.812500000000 2.041000366211 207 207 207
16.734375000000 7.828125000000 2.044006347656 209 209 209
16.765625000000 7.843750000000 2.044006347656 209 209 209
16.781250000000 7.828125000000 2.042007446289 210 210 210
16.796875000000 7.843750000000 2.035003662109 210 210 210
16.812500000000 7.859375000000 2.042007446289 211 211 211
16.828125000000 7.859375000000 2.044998168945 213 213 213
16.843750000000 7.875000000000 2.036010742188 211 211 211
16.859375000000 7.890625000000 2.042007446289 208 208 208
16.875000000000 7.890625000000 2.036010742188 211 211 211
16.890625000000 7.906250000000 2.042007446289 211 211 211
16.921875000000 7.890625000000 2.046005249023 209 209 209
16.921875000000 7.906250000000 2.038009643555 211 211 211
16.953125000000 7.921875000000 2.036010742188 210 210 210
16.953125000000 7.921875000000 2.037002563477 210 210 210
16.984375000000 7.953125000000 2.033004760742 209 209 209
17.000000000000 7.953125000000 2.027008056641 207 207 207
17.015625000000 7.968750000000 2.027999877930 201 201 201
17.046875000000 7.968750000000 2.026000976563 186 186 186
17.046875000000 7.984375000000 2.024002075195 195 195 195
17.078125000000 8.000000000000 2.021011352539 200 200 200
17.093750000000 8.015625000000 2.024002075195 193 193 193
17.109375000000 8.031250000000 2.012008666992 190 190 190
17.140625000000 8.046875000000 2.018005371094 186 186 186
17.156250000000 8.046875000000 2.014007568359 186 186 186
17.171875000000 8.046875000000 2.010009765625 187 187 187
17.203125000000 8.062500000000 2.011001586914 184 184 184
17.218750000000 8.078125000000 2.000000000000 194 194 194
17.218750000000 8.093750000000 2.003005981445 190 190 190
17.250000000000 8.093750000000 2.007003784180 193 193 193
17.250000000000 8.125000000000 2.003005981445 188 188 188
17.281250000000 8.109375000000 2.001007080078 187 187 187
17.312500000000 8.125000000000 1.999008178711 187 187 187
17.328125000000 8.140625000000 1.997009277344 183 183 183
17.343750000000 8.156250000000 1.993011474609 183 183 183
17.375000000000 8.171875000000 1.997009277344 189 189 189
17.406250000000 8.187500000000 1.986007690430 180 180 180
17.421875000000 8.203125000000 1.996002197266 176 176 176
17.437500000000 8.218750000000 1.988998413086 191 191 191
17.468750000000 8.234375000000 1.986999511719 192 192 192
17.484375000000 8.250000000000 1.988006591797 185 185 185
17.500000000000 8.265625000000 1.979003906250 181 181 181
17.531250000000 8.250000000000 1.990005493164 186 186 186
17.562500000000 8.265625000000 1.990005493164 179 179 179
17.593750000000 8.281250000000 1.984008789063 177 177 177
17.609375000000 8.296875000000 1.983001708984 187 187 187
17.625000000000 8.312500000000 1.982009887695 183 183 183
17.656250000000 8.312500000000 1.984008789063 182 182 182
17.687500000000 8.328125000000 1.980010986328 179 179 179
17.718750000000 8.343750000000 1.981002807617 173 173 173
17.734375000000 8.359375000000 1.981002807617 177 177 177
17.750000000000 8.375000000000 1.982009887695 184 184 184
17.796875000000 8.406250000000 1.980010986328 176 176 176
17.812500000000 8.421875000000 1.975997924805 189 189 189
17.843750000000 8.437500000000 1.977996826172 184 184 184
17.875000000000 8.453125000000 1.973999023438 178 178 178
17.906250000000 8.468750000000 1.972000122070 179 179 179
17.937500000000 8.468750000000 1.970001220703 174 174 174
17.953125000000 8.484375000000 1.973999023438 172 172 172
18.000000000000 8.515625000000 1.973999023438 170 170 170
18.031250000000 8.531250000000 1.967010498047 180 180 180
18.046875000000 8.546875000000 1.967010498047 172 172 172
18.078125000000 8.562500000000 1.967010498047 194 194 194
18.125000000000 8.578125000000 1.965011596680 176 176 176
18.156250000000 8.609375000000 1.962005615234 171 171 171
18.171875000000 8.625000000000 1.960006713867 173 173 173
18.218750000000 8.640625000000 1.958007812500 168 168 168
18.250000000000 8.656250000000 1.955001831055 168 168 168
18.281250000000 8.687500000000 1.952011108398 171 171 171
18.312500000000 8.703125000000 1.954010009766 169 169 169
18.343750000000 8.703125000000 1.953002929688 176 176 176
18.390625000000 8.734375000000 1.951004028320 171 171 171
18.437500000000 8.765625000000 1.942001342773 164 164 164
18.468750000000 8.781250000000 1.938003540039 160 160 160
18.515625000000 8.796875000000 1.932006835938 166 166 166
18.562500000000 8.843750000000 1.932006835938 171 171 171
18.609375000000 8.843750000000 1.929000854492 173 173 173
18.625000000000 8.875000000000 1.929000854492 171 171 171
18.656250000000 8.890625000000 1.932006835938 176 176 176
18.703125000000 8.921875000000 1.932006835938 173 173 173
18.734375000000 8.921875000000 1.939010620117 178 178 178
18.765625000000 8.953125000000 1.936996459961 171 171 171
18.812500000000 8.968750000000 1.934997558594 178 178 178
18.859375000000 8.984375000000 1.939010620117 167 167 167
18.906250000000 9.031250000000 1.934005737305 182 182 182
18.953125000000 9.062500000000 1.934005737305 171 171 171
18.984375000000 9.078125000000 1.936996459961 169 169 169
19.031250000000 9.093750000000 1.938003540039 136 136 136
19.078125000000 9.125000000000 1.932998657227 158 158 158
19.109375000000 9.156250000000 1.938003540039 159 159 159
19.171875000000 9.171875000000 1.934997558594 155 155 155
19.218750000000 9.203125000000 1.938003540039 137 137 137
19.265625000000 9.234375000000 1.936004638672 154 154 154
19.312500000000 9.265625000000 1.943008422852 159 159 159
19.359375000000 9.296875000000 1.944000244141 166 166 166
19.421875000000 9.312500000000 1.947998046875 166 166 166
19.468750000000 9.343750000000 1.943008422852 163 163 163
19.515625000000 9.390625000000 1.944000244141 166 166 166
19.578125000000 9.406250000000 1.945999145508 150 150 150
19.640625000000 9.453125000000 1.939010620117 163 163 163
19.703125000000 9.484375000000 1.945007324219 164 164 164
19.765625000000 9.515625000000 1.941009521484 155 155 155
19.828125000000 9.546875000000 1.945007324219 156 156 156
19.890625000000 9.578125000000 1.952011108398 135 135 135
19.953125000000 9.609375000000 1.949005126953 150 150 150
20.000000000000 9.656250000000 1.949005126953 164 164 164
20.078125000000 9.687500000000 1.949005126953 157 157 157
20.171875000000 9.750000000000 1.936004638672 178 178 178
20.187500000000 9.765625000000 1.962997436523 169 169 169
20.250000000000 9.781250000000 1.969009399414 143 143 143
20.312500000000 9.828125000000 1.970001220703 161 161 161
20.406250000000 9.875000000000 1.966003417969 148 148 148
20.484375000000 9.921875000000 1.969009399414 152 152 152
20.546875000000 9.968750000000 1.977005004883 147 147 147
20.640625000000 10.000000000000 1.975997924805 151 151 151
20.718750000000 10.046875000000 1.982009887695 151 151 151
20.796875000000 10.093750000000 1.985000610352 147 147 147
20.875000000000 10.140625000000 1.986999511719 155 155 155
20.968750000000 10.203125000000 1.988998413086 147 147 147
21.078125000000 10.234375000000 1.990005493164 148 148 148
21.156250000000 10.296875000000 1.997009277344 139 139 139
21.281250000000 10.359375000000 1.990005493164 145 145 145
21.343750000000 10.390625000000 2.007003784180 138 138 138
21.421875000000 10.468750000000 2.012008666992 133 133 133
21.546875000000 10.531250000000 2.013000488281 138 138 138
21.640625000000 10.578125000000 2.018005371094 136 136 136
21.734375000000 10.625000000000 2.025009155273 142 142 142
21.828125000000 10.703125000000 2.035003662109 147 147 147
21.937500000000 10.765625000000 2.039001464844 136 136 136
22.062500000000 10.828125000000 2.042999267578 134 134 134
22.187500000000 10.890625000000 2.051010131836 134 134 134
22.343750000000 10.968750000000 2.054000854492 133 133 133
22.453125000000 11.031250000000 2.066009521484 133 133 133
22.593750000000 11.109375000000 2.072006225586 130 130 130
22.703125000000 11.171875000000 2.087005615234 143 143 143
22.828125000000 11.250000000000 2.095001220703 132 132 132
22.953125000000 11.328125000000 2.108001708984 142 142 142
23.109375000000 11.406250000000 2.118011474609 142 142 142
23.265625000000 11.500000000000 2.133010864258 129 129 129
23.390625000000 11.578125000000 2.147003173828 129 129 129
23.546875000000 11.656250000000 2.164001464844 143 143 143
23.703125000000 11.750000000000 2.182006835938 108 108 108
23.828125000000 11.828125000000 2.201004028320 115 115 115
24.015625000000 11.921875000000 2.217010498047 118 118 118
24.156250000000 12.015625000000 2.238998413086 125 125 125
24.968750000000 12.468750000000 2.307998657227 126 126 126
25.109375000000 12.546875000000 2.342010498047 107 107 107
25.281250000000 12.656250000000 2.374008178711 116 116 116
25.484375000000 12.750000000000 2.402008056641 104 104 104
25.703125000000 12.890625000000 2.427001953125 115 115 115
25.953125000000 13.046875000000 2.452011108398 112 112 112
26.156250000000 13.156250000000 2.490005493164 120 120 120
26.453125000000 13.296875000000 2.514999389648 87 87 87
26.703125000000 13.468750000000 2.549011230469 87 87 87
26.953125000000 13.593750000000 2.585998535156 92 92 92
27.296875000000 13.781250000000 2.615005493164 79 79 79
27.562500000000 13.937500000000 2.656997680664 82 82 82
28.000000000000 14.187500000000 2.684005737305 89 89 89
28.359375000000 14.406250000000 2.721008300781 85 85 85
28.718750000000 14.593750000000 2.766998291016 96 96 96
29.265625000000 14.906250000000 2.796997070313 88 88 88
29.687500000000 15.156250000000 2.844009399414 91 91 91
30.187500000000 15.453125000000 2.889999389648 77 77 77
17.875000000000 8.109375000000 1.985000610352 186 186 186
17.890625000000 8.125000000000 1.985000610352 179 179 179
18.000000000000 8.171875000000 1.973999023438 182 182 182
18.000000000000 8.187500000000 1.981002807617 180 180 180
18.031250000000 8.203125000000 1.973999023438 183 183 183
18.093750000000 8.218750000000 1.969009399414 187 187 187
18.125000000000 8.234375000000 1.970001220703 186 186 186
18.140625000000 8.265625000000 1.967010498047 190 190 190
18.171875000000 8.281250000000 1.966003417969 182 182 182
18.218750000000 8.296875000000 1.965011596680 180 180 180
18.250000000000 8.312500000000 1.965011596680 187 187 187
18.281250000000 8.328125000000 1.970001220703 200 200 200
18.312500000000 8.343750000000 1.958007812500 172 172 172
18.359375000000 8.375000000000 1.952011108398 176 176 176
18.406250000000 8.390625000000 1.949005126953 182 182 182
18.437500000000 8.421875000000 1.945007324219 180 180 180
18.500000000000 8.437500000000 1.940002441406 176 176 176
18.531250000000 8.468750000000 1.932006835938 175 175 175
18.562500000000 8.500000000000 1.930007934570 173 173 173
18.609375000000 8.515625000000 1.927001953125 166 166 166
18.656250000000 8.546875000000 1.924011230469 172 172 172
18.687500000000 8.562500000000 1.921005249023 168 168 168
18.734375000000 8.578125000000 1.921997070313 173 173 173
18.781250000000 8.609375000000 1.916000366211 169 169 169
18.812500000000 8.625000000000 1.919006347656 169 169 169
18.859375000000 8.656250000000 1.919998168945 175 175 175
18.921875000000 8.687500000000 1.911010742188 175 175 175
18.953125000000 8.718750000000 1.913009643555 185 185 185
19.000000000000 8.718750000000 1.917007446289 166 166 166
19.046875000000 8.750000000000 1.916000366211 188 188 188
19.093750000000 8.781250000000 1.917999267578 184 184 184
19.140625000000 8.796875000000 1.913009643555 187 187 187
19.187500000000 8.828125000000 1.917007446289 173 173 173
19.218750000000 8.859375000000 1.917999267578 184 184 184
19.281250000000 8.890625000000 1.917999267578 179 179 179
19.328125000000 8.921875000000 1.914001464844 173 173 173
19.359375000000 8.953125000000 1.916000366211 172 172 172
19.421875000000 8.984375000000 1.917007446289 182 182 182
19.484375000000 9.015625000000 1.917999267578 163 163 163
19.546875000000 9.031250000000 1.915008544922 177 177 177
19.578125000000 9.062500000000 1.919006347656 184 184 184
19.671875000000 9.109375000000 1.915008544922 180 180 180
19.703125000000 9.140625000000 1.919006347656 165 165 165
19.765625000000 9.171875000000 1.921005249023 174 174 174
19.828125000000 9.203125000000 1.921997070313 167 167 167
19.890625000000 9.234375000000 1.924011230469 168 168 168
19.968750000000 9.265625000000 1.921005249023 168 168 168
20.015625000000 9.312500000000 1.924011230469 166 166 166
20.093750000000 9.343750000000 1.924011230469 151 151 151
20.140625000000 9.390625000000 1.930007934570 161 161 161
20.218750000000 9.421875000000 1.932006835938 152 152 152
20.296875000000 9.468750000000 1.932998657227 150 150 150
20.359375000000 9.484375000000 1.936004638672 145 145 145
20.421875000000 9.546875000000 1.940002441406 138 138 138
20.484375000000 9.578125000000 1.947006225586 143 143 143
20.578125000000 9.625000000000 1.945999145508 145 145 145
20.656250000000 9.656250000000 1.949996948242 140 140 140
20.718750000000 9.718750000000 1.953002929688 152 152 152
20.812500000000 9.765625000000 1.953002929688 151 151 151
20.906250000000 9.796875000000 1.958007812500 148 148 148
20.968750000000 9.859375000000 1.967010498047 137 137 137
21.062500000000 9.890625000000 1.966003417969 141 141 141
21.171875000000 9.953125000000 1.967010498047 137 137 137
21.250000000000 10.015625000000 1.973007202148 141 141 141
21.375000000000 10.078125000000 1.972000122070 143 143 143
21.453125000000 10.109375000000 1.981002807617 136 136 136
21.562500000000 10.187500000000 1.985000610352 136 136 136
21.656250000000 10.234375000000 1.995010375977 138 138 138
21.734375000000 10.281250000000 2.001998901367 134 134 134
21.828125000000 10.328125000000 2.009002685547 140 140 140
21.953125000000 10.406250000000 2.018005371094 132 132 132
22.031250000000 10.468750000000 2.027008056641 134 134 134
22.171875000000 10.531250000000 2.031005859375 140 140 140
22.296875000000 10.609375000000 2.037002563477 138 138 138
22.421875000000 10.671875000000 2.044998168945 141 141 141
22.562500000000 10.750000000000 2.050003051758 138 138 138
22.687500000000 10.828125000000 2.055999755859 135 135 135
22.812500000000 10.906250000000 2.072006225586 134 134 134
22.953125000000 10.968750000000 2.083999633789 116 116 116
23.078125000000 11.031250000000 2.100006103516 121 121 121
23.234375000000 11.125000000000 2.110000610352 117 117 117
23.375000000000 11.218750000000 2.121002197266 125 125 125
23.546875000000 11.312500000000 2.132003784180 129 129 129
23.625000000000 11.359375000000 2.166000366211 132 132 132
23.796875000000 11.453125000000 2.176010131836 131 131 131
23.984375000000 11.562500000000 2.190002441406 107 107 107
24.140625000000 11.656250000000 2.210006713867 131 131 131
24.328125000000 11.750000000000 2.225997924805 132 132 132
25.062500000000 12.171875000000 2.315002441406 105 105 105
25.250000000000 12.281250000000 2.341003417969 112 112 112
25.468750000000 12.406250000000 2.367004394531 102 102 102
25.671875000000 12.515625000000 2.397003173828 130 130 130
25.890625000000 12.640625000000 2.427001953125 92 92 92
26.140625000000 12.781250000000 2.452011108398 101 101 101
26.359375000000 12.921875000000 2.486007690430 114 114 114
26.609375000000 13.046875000000 2.523010253906 94 94 94
26.859375000000 13.203125000000 2.557998657227 87 87 87
27.171875000000 13.375000000000 2.590011596680 74 74 74
27.500000000000 13.546875000000 2.622009277344 91 91 91
27.859375000000 13.765625000000 2.654006958008 100 100 100
28.187500000000 13.953125000000 2.695007324219 70 70 70
28.593750000000 14.171875000000 2.733001708984 77 77 77
29.078125000000 14.453125000000 2.764999389648 99 99 99
29.453125000000 14.656250000000 2.816009521484 93 93 93
30.046875000000 15.000000000000 2.850997924805 54 54 54
23.187500000000 10.781250000000 2.093002319336 145 145 145
23.656250000000 11.031250000000 2.132003784180 148 148 148
23.812500000000 11.109375000000 2.150009155273 137 137 137
23.937500000000 11.187500000000 2.171997070313 124 124 124
24.109375000000 11.312500000000 2.184997558594 110 110 110
24.328125000000 11.421875000000 2.195007324219 121 121 121
25.156250000000 11.875000000000 2.331008911133 114 114 114
25.406250000000 12.015625000000 2.345001220703 85 85 85
25.671875000000 12.171875000000 2.363006591797 111 111 111
25.843750000000 12.265625000000 2.400009155273 102 102 102
26.093750000000 12.406250000000 2.426010131836 94 94 94
26.375000000000 12.562500000000 2.454010009766 95 95 95
26.625000000000 12.703125000000 2.486007690430 76 76 76
26.828125000000 12.828125000000 2.527008056641 94 94 94
27.140625000000 13.015625000000 2.555999755859 83 83 83
27.390625000000 13.156250000000 2.598007202148 83 83 83
27.718750000000 13.343750000000 2.634002685547 91 91 91
28.125000000000 13.578125000000 2.663009643555 66 66 66
28.500000000000 13.781250000000 2.702011108398 66 66 66
28.937500000000 14.031250000000 2.738006591797 62 62 62
29.375000000000 14.265625000000 2.781005859375 78 78 78
29.875000000000 14.562500000000 2.820999145508 74 74 74
28.406250000000 13.390625000000 2.676010131836 94 94 94
28.781250000000 13.609375000000 2.715011596680 83 83 83
29.218750000000 13.843750000000 2.755996704102 65 65 65
29.593750000000 14.078125000000 2.805999755859 72 72 72
30.140625000000 14.375000000000 2.848007202148 57 57 57
14.515625000000 10.296875000000 2.057006835938 184 184 184
14.515625000000 10.296875000000 2.061004638672 179 179 179
14.484375000000 10.296875000000 2.065002441406 180 180 180
14.500000000000 10.281250000000 2.053009033203 171 171 171
14.468750000000 10.296875000000 2.061996459961 174 174 174
14.453125000000 10.296875000000 2.059005737305 178 178 178
14.421875000000 10.296875000000 2.057998657227 179 179 179
14.421875000000 10.296875000000 2.059005737305 181 181 181
14.406250000000 10.296875000000 2.061004638672 182 182 182
14.390625000000 10.296875000000 2.063003540039 180 180 180
14.375000000000 10.296875000000 2.059997558594 179 179 179
14.359375000000 10.281250000000 2.054000854492 176 176 176
14.359375000000 10.296875000000 2.054000854492 176 176 176
14.328125000000 10.281250000000 2.057998657227 180 180 180
14.500000000000 9.953125000000 2.059997558594 184 184 184
14.500000000000 9.953125000000 2.063003540039 186 186 186
14.484375000000 9.953125000000 2.061004638672 186 186 186
14.468750000000 9.953125000000 2.059005737305 189 189 189
14.468750000000 9.968750000000 2.063003540039 187 187 187
14.437500000000 9.953125000000 2.057998657227 186 186 186
14.421875000000 9.953125000000 2.066009521484 190 190 190
14.406250000000 9.953125000000 2.057998657227 187 187 187
14.406250000000 9.953125000000 2.061996459961 188 188 188
14.375000000000 9.937500000000 2.061004638672 189 189 189
14.359375000000 9.953125000000 2.059005737305 185 185 185
14.343750000000 9.953125000000 2.057998657227 180 180 180
14.343750000000 9.937500000000 2.055999755859 181 181 181
14.328125000000 9.937500000000 2.057006835938 179 179 179
14.312500000000 9.953125000000 2.061996459961 178 178 178
14.281250000000 9.953125000000 2.052001953125 178 178 178
14.281250000000 9.953125000000 2.055007934570 180 180 180
14.250000000000 9.953125000000 2.050003051758 181 181 181
14.250000000000 9.937500000000 2.055007934570 183 183 183
14.234375000000 9.953125000000 2.050003051758 181 181 181
14.218750000000 9.937500000000 2.053009033203 184 184 184
14.187500000000 9.953125000000 2.046997070313 182 182 182
14.171875000000 9.953125000000 2.046997070313 181 181 181
14.156250000000 9.937500000000 2.046005249023 183 183 183
14.140625000000 9.953125000000 2.046997070313 180 180 180
14.125000000000 9.953125000000 2.050003051758 185 185 185
14.125000000000 9.953125000000 2.048004150391 185 185 185
14.093750000000 9.953125000000 2.041000366211 184 184 184
14.078125000000 9.937500000000 2.044006347656 193 193 193
14.062500000000 9.953125000000 2.052001953125 193 193 193
14.031250000000 9.953125000000 2.039001464844 192 192 192
14.031250000000 9.953125000000 2.046997070313 184 184 184
14.015625000000 9.937500000000 2.040008544922 193 193 193
14.000000000000 9.937500000000 2.040008544922 193 193 193
13.968750000000 9.937500000000 2.036010742188 194 194 194
13.953125000000 9.953125000000 2.038009643555 193 193 193
13.906250000000 9.937500000000 2.009002685547 174 174 174
13.906250000000 9.953125000000 2.003997802734 174 174 174
13.875000000000 9.953125000000 2.000000000000 165 165 165
13.859375000000 9.953125000000 2.005004882813 168 168 168
13.843750000000 9.937500000000 2.007003784180 167 167 167
13.812500000000 9.953125000000 2.000000000000 166 166 166
13.812500000000 9.937500000000 2.000000000000 168 168 168
13.781250000000 9.953125000000 2.003997802734 172 172 172
13.765625000000 9.953125000000 2.001007080078 172 172 172
13.734375000000 9.953125000000 1.995010375977 169 169 169
13.718750000000 9.953125000000 1.990005493164 171 171 171
13.687500000000 9.937500000000 1.995010375977 170 170 170
13.687500000000 9.953125000000 1.996002197266 174 174 174
13.656250000000 9.953125000000 1.992004394531 167 167 167
13.640625000000 9.937500000000 1.996002197266 167 167 167
13.625000000000 9.937500000000 1.997009277344 171 171 171
14.500000000000 9.625000000000 2.055007934570 207 207 207
14.500000000000 9.625000000000 2.065002441406 207 207 207
14.468750000000 9.609375000000 2.055999755859 206 206 206
14.468750000000 9.609375000000 2.054000854492 201 201 201
14.468750000000 9.609375000000 2.069000244141 202 202 202
14.437500000000 9.609375000000 2.055999755859 211 211 211
14.421875000000 9.625000000000 2.055999755859 209 209 209
14.421875000000 9.625000000000 2.053009033203 207 207 207
14.390625000000 9.609375000000 2.048004150391 211 211 211
14.375000000000 9.609375000000 2.054000854492 209 209 209
14.359375000000 9.609375000000 2.053009033203 208 208 208
14.359375000000 9.609375000000 2.066009521484 205 205 205
14.343750000000 9.609375000000 2.052001953125 207 207 207
14.328125000000 9.609375000000 2.055999755859 205 205 205
14.312500000000 9.609375000000 2.057006835938 206 206 206
14.281250000000 9.609375000000 2.041000366211 207 207 207
14.281250000000 9.609375000000 2.055007934570 206 206 206
14.250000000000 9.609375000000 2.044998168945 208 208 208
14.250000000000 9.609375000000 2.053009033203 206 206 206
14.234375000000 9.609375000000 2.059005737305 206 206 206
14.218750000000 9.609375000000 2.050003051758 205 205 205
14.187500000000 9.609375000000 2.050003051758 205 205 205
14.187500000000 9.609375000000 2.055999755859 203 203 203
14.156250000000 9.609375000000 2.046005249023 204 204 204
14.140625000000 9.609375000000 2.044006347656 204 204 204
14.125000000000 9.609375000000 2.044998168945 207 207 207
14.125000000000 9.609375000000 2.050003051758 207 207 207
14.093750000000 9.609375000000 2.042999267578 209 209 209
14.078125000000 9.609375000000 2.044998168945 203 203 203
14.062500000000 9.609375000000 2.039001464844 210 210 210
14.062500000000 9.609375000000 2.042007446289 206 206 206
14.031250000000 9.609375000000 2.031005859375 213 213 213
14.015625000000 9.609375000000 2.036010742188 207 207 207
14.000000000000 9.593750000000 2.042007446289 205 205 205
13.968750000000 9.609375000000 2.042007446289 202 202 202
13.968750000000 9.609375000000 2.037002563477 202 202 202
13.937500000000 9.609375000000 2.031005859375 195 195 195
13.906250000000 9.609375000000 2.008010864258 180 180 180
13.890625000000 9.609375000000 2.012008666992 178 178 178
13.859375000000 9.609375000000 2.007003784180 186 186 186
13.843750000000 9.609375000000 2.005996704102 187 187 187
13.843750000000 9.593750000000 2.011001586914 184 184 184
13.812500000000 9.609375000000 2.012008666992 173 173 173
13.796875000000 9.609375000000 2.009002685547 173 173 173
13.765625000000 9.609375000000 2.001007080078 181 181 181
13.750000000000 9.593750000000 2.001998901367 177 177 177
13.734375000000 9.609375000000 2.003005981445 179 179 179
13.703125000000 9.609375000000 2.003005981445 175 175 175
13.687500000000 9.609375000000 2.007003784180 185 185 185
13.671875000000 9.609375000000 2.005004882813 194 194 194
13.640625000000 9.593750000000 2.001007080078 175 175 175
13.625000000000 9.609375000000 1.993011474609 180 180 180
13.609375000000 9.593750000000 1.999008178711 176 176 176
13.593750000000 9.593750000000 1.996002197266 176 176 176
13.562500000000 9.593750000000 1.993011474609 175 175 175
13.531250000000 9.609375000000 1.995010375977 174 174 174
13.531250000000 9.609375000000 1.996002197266 170 170 170
13.500000000000 9.593750000000 1.998001098633 167 167 167
13.468750000000 9.593750000000 1.998001098633 173 173 173
13.453125000000 9.609375000000 2.003997802734 163 163 163
13.437500000000 9.593750000000 2.007003784180 167 167 167
13.406250000000 9.593750000000 2.007003784180 169 169 169
13.406250000000 9.609375000000 2.005004882813 167 167 167
13.375000000000 9.609375000000 2.005004882813 170 170 170
13.343750000000 9.593750000000 2.003005981445 171 171 171
13.312500000000 9.609375000000 2.001007080078 171 171 171
13.296875000000 9.609375000000 2.003005981445 162 162 162
13.281250000000 9.593750000000 2.005004882813 164 164 164
13.250000000000 9.593750000000 2.007003784180 174 174 174
13.218750000000 9.593750000000 2.007003784180 179 179 179
13.203125000000 9.593750000000 2.011001586914 171 171 171
13.187500000000 9.593750000000 2.010009765625 165 165 165
13.156250000000 9.593750000000 2.003997802734 167 167 167
13.125000000000 9.593750000000 2.013000488281 171 171 171
13.093750000000 9.593750000000 2.009002685547 171 171 171
13.078125000000 9.609375000000 2.011001586914 173 173 173
13.046875000000 9.593750000000 2.009002685547 187 187 187
13.031250000000 9.593750000000 2.010009765625 184 184 184
12.984375000000 9.609375000000 2.005004882813 169 169 169
12.968750000000 9.593750000000 2.007003784180 172 172 172
12.937500000000 9.593750000000 2.018005371094 179 179 179
12.937500000000 9.593750000000 2.033996582031 183 183 183
14.515625000000 9.281250000000 2.064010620117 209 209 209
14.500000000000 9.265625000000 2.055007934570 209 209 209
14.484375000000 9.265625000000 2.063003540039 205 205 205
14.484375000000 9.265625000000 2.055007934570 207 207 207
14.453125000000 9.281250000000 2.051010131836 214 214 214
14.437500000000 9.281250000000 2.048004150391 216 216 216
14.437500000000 9.281250000000 2.055999755859 211 211 211
14.421875000000 9.281250000000 2.061004638672 209 209 209
14.406250000000 9.265625000000 2.059005737305 208 208 208
14.375000000000 9.265625000000 2.048004150391 209 209 209
14.359375000000 9.265625000000 2.051010131836 207 207 207
14.359375000000 9.281250000000 2.054000854492 206 206 206
14.328125000000 9.265625000000 2.046997070313 211 211 211
14.328125000000 9.265625000000 2.050003051758 209 209 209
14.312500000000 9.265625000000 2.051010131836 207 207 207
14.296875000000 9.265625000000 2.053009033203 204 204 204
14.281250000000 9.265625000000 2.051010131836 206 206 206
14.265625000000 9.265625000000 2.046997070313 206 206 206
14.250000000000 9.265625000000 2.049011230469 208 208 208
14.234375000000 9.265625000000 2.053009033203 205 205 205
14.218750000000 9.265625000000 2.044006347656 209 209 209
14.203125000000 9.265625000000 2.044006347656 209 209 209
14.187500000000 9.281250000000 2.052001953125 209 209 209
14.156250000000 9.265625000000 2.044006347656 211 211 211
14.156250000000 9.265625000000 2.048004150391 207 207 207
14.140625000000 9.281250000000 2.040008544922 209 209 209
14.109375000000 9.265625000000 2.051010131836 205 205 205
14.093750000000 9.265625000000 2.033996582031 208 208 208
14.078125000000 9.265625000000 2.042007446289 206 206 206
14.062500000000 9.265625000000 2.031005859375 210 210 210
14.046875000000 9.265625000000 2.037002563477 206 206 206
14.046875000000 9.265625000000 2.039001464844 204 204 204
14.015625000000 9.265625000000 2.038009643555 205 205 205
13.984375000000 9.265625000000 2.040008544922 206 206 206
13.984375000000 9.250000000000 2.036010742188 207 207 207
13.953125000000 9.265625000000 2.037002563477 208 208 208
13.937500000000 9.265625000000 2.022003173828 197 197 197
13.890625000000 9.265625000000 2.009002685547 187 187 187
13.890625000000 9.265625000000 2.005004882813 168 168 168
13.859375000000 9.265625000000 2.003005981445 191 191 191
13.843750000000 9.265625000000 1.999008178711 192 192 192
13.828125000000 9.265625000000 1.993011474609 192 192 192
13.796875000000 9.265625000000 1.990005493164 193 193 193
13.765625000000 9.265625000000 1.986007690430 196 196 196
13.750000000000 9.265625000000 1.977005004883 198 198 198
13.734375000000 9.265625000000 1.985000610352 195 195 195
13.718750000000 9.265625000000 1.986007690430 189 189 189
13.703125000000 9.265625000000 1.984008789063 191 191 191
13.671875000000 9.265625000000 1.986999511719 184 184 184
13.656250000000 9.250000000000 1.982009887695 181 181 181
13.640625000000 9.265625000000 1.977996826172 191 191 191
13.609375000000 9.250000000000 1.986007690430 188 188 188
13.609375000000 9.250000000000 1.983001708984 186 186 186
13.578125000000 9.250000000000 1.983001708984 179 179 179
13.546875000000 9.265625000000 1.979003906250 185 185 185
13.546875000000 9.250000000000 1.988006591797 188 188 188
13.515625000000 9.250000000000 1.984008789063 185 185 185
13.500000000000 9.265625000000 1.988006591797 178 178 178
13.468750000000 9.265625000000 1.984008789063 182 182 182
13.437500000000 9.250000000000 1.981002807617 193 193 193
13.421875000000 9.265625000000 1.986999511719 190 190 190
13.390625000000 9.265625000000 1.983001708984 186 186 186
13.375000000000 9.250000000000 1.984008789063 187 187 187
13.359375000000 9.265625000000 1.990005493164 181 181 181
13.328125000000 9.265625000000 1.988998413086 177 177 177
13.312500000000 9.265625000000 1.992004394531 174 174 174
13.281250000000 9.250000000000 1.990997314453 175 175 175
13.265625000000 9.250000000000 1.992004394531 176 176 176
13.234375000000 9.265625000000 1.988006591797 173 173 173
13.203125000000 9.265625000000 1.986007690430 180 180 180
13.171875000000 9.250000000000 1.985000610352 180 180 180
13.156250000000 9.250000000000 1.986999511719 177 177 177
13.140625000000 9.250000000000 1.993011474609 168 168 168
13.109375000000 9.250000000000 1.994003295898 176 176 176
13.078125000000 9.265625000000 1.997009277344 166 166 166
13.046875000000 9.265625000000 1.993011474609 161 161 161
13.031250000000 9.250000000000 1.992004394531 174 174 174
13.000000000000 9.265625000000 1.997009277344 170 170 170
12.984375000000 9.265625000000 1.996002197266 167 167 167
12.937500000000 9.250000000000 1.993011474609 166 166 166
12.921875000000 9.265625000000 1.993011474609 164 164 164
12.890625000000 9.265625000000 2.003997802734 179 179 179
12.890625000000 9.250000000000 2.016998291016 185 185 185
12.843750000000 9.265625000000 2.008010864258 180 180 180
12.796875000000 9.250000000000 1.992004394531 169 169 169
12.765625000000 9.265625000000 1.988998413086 169 169 169
12.718750000000 9.250000000000 1.982009887695 171 171 171
12.671875000000 9.265625000000 1.975997924805 166 166 166
12.640625000000 9.250000000000 1.977005004883 155 155 155
12.609375000000 9.250000000000 1.975997924805 159 159 159
12.578125000000 9.250000000000 1.971008300781 166 166 166
12.515625000000 9.250000000000 1.956008911133 174 174 174
12.484375000000 9.250000000000 1.954010009766 167 167 167
12.453125000000 9.250000000000 1.954010009766 167 167 167
12.390625000000 9.250000000000 1.943008422852 161 161 161
12.359375000000 9.265625000000 1.943008422852 167 167 167
12.265625000000 9.265625000000 1.914001464844 164 164 164
14.515625000000 8.937500000000 2.061996459961 202 202 202
14.515625000000 8.937500000000 2.069000244141 201 201 201
14.484375000000 8.937500000000 2.066009521484 198 198 198
14.484375000000 8.937500000000 2.061996459961 196 196 196
14.453125000000 8.937500000000 2.057998657227 203 203 203
