14.625000000000 9.734375000000 0.919998168945 168 168 168
14.656250000000 9.750000000000 0.919998168945 171 171 171
14.703125000000 9.765625000000 0.921997070313 166 166 166
14.734375000000 9.796875000000 0.918998718262 167 167 167
14.781250000000 9.828125000000 0.920997619629 175 175 175
14.812500000000 9.828125000000 0.923004150391 168 168 168
14.859375000000 9.867187500000 0.919998168945 172 172 172
14.906250000000 9.898437500000 0.926002502441 176 176 176
14.937500000000 9.914062500000 0.929000854492 169 169 169
15.000000000000 9.945312500000 0.926002502441 173 173 173
15.031250000000 9.960937500000 0.924003601074 175 175 175
15.078125000000 10.000000000000 0.927001953125 172 172 172
15.125000000000 10.031250000000 0.925003051758 172 172 172
15.187500000000 10.062500000000 0.924003601074 179 179 179
15.218750000000 10.078125000000 0.928001403809 174 174 174
15.250000000000 10.078125000000 0.953002929688 194 194 194
15.281250000000 10.093750000000 0.958000183105 199 199 199
15.359375000000 10.164062500000 0.930000305176 206 206 206
15.359375000000 10.164062500000 0.960998535156 202 202 202
15.421875000000 10.195312500000 0.960998535156 202 202 202
15.484375000000 10.226562500000 0.959999084473 197 197 197
15.578125000000 10.296875000000 0.944000244141 207 207 207
15.656250000000 10.328125000000 0.930000305176 198 198 198
15.656250000000 10.328125000000 0.962997436523 202 202 202
15.703125000000 10.359375000000 0.966003417969 207 207 207
15.781250000000 10.406250000000 0.964004516602 203 203 203
15.859375000000 10.460937500000 0.959999084473 202 202 202
15.875000000000 10.460937500000 0.982002258301 202 202 202
15.859375000000 10.460937500000 1.025001525879 211 211 211
16.000000000000 10.523437500000 0.988998413086 201 201 201
16.031250000000 10.554687500000 1.003997802734 194 194 194
16.078125000000 10.578125000000 1.023002624512 199 199 199
16.171875000000 10.625000000000 1.012001037598 196 196 196
16.203125000000 10.640625000000 1.041999816895 201 201 201
16.296875000000 10.703125000000 1.018997192383 198 198 198
12.578125000000 8.257812500000 0.900001525879 207 207 207
12.593750000000 8.265625000000 0.900001525879 207 207 207
12.593750000000 8.265625000000 0.903999328613 205 205 205
12.609375000000 8.281250000000 0.899002075195 201 201 201
12.625000000000 8.296875000000 0.888000488281 197 197 197
12.640625000000 8.296875000000 0.900001525879 205 205 205
12.656250000000 8.296875000000 0.899002075195 207 207 207
12.671875000000 8.312500000000 0.903999328613 207 207 207
12.687500000000 8.328125000000 0.897003173828 209 209 209
12.687500000000 8.328125000000 0.903999328613 207 207 207
12.703125000000 8.328125000000 0.896003723145 205 205 205
12.718750000000 8.343750000000 0.899002075195 206 206 206
12.734375000000 8.359375000000 0.902000427246 203 203 203
12.765625000000 8.359375000000 0.891998291016 204 204 204
12.781250000000 8.359375000000 0.895004272461 208 208 208
12.781250000000 8.375000000000 0.891998291016 208 208 208
12.796875000000 8.390625000000 0.893997192383 210 210 210
12.812500000000 8.390625000000 0.888999938965 211 211 211
12.828125000000 8.390625000000 0.890998840332 211 211 211
12.843750000000 8.406250000000 0.896003723145 209 209 209
12.875000000000 8.429687500000 0.891998291016 204 204 204
12.890625000000 8.429687500000 0.887001037598 201 201 201
12.890625000000 8.429687500000 0.889999389648 210 210 210
12.906250000000 8.445312500000 0.889999389648 207 207 207
12.921875000000 8.460937500000 0.891998291016 198 198 198
12.953125000000 8.460937500000 0.888000488281 205 205 205
12.968750000000 8.476562500000 0.887001037598 207 207 207
12.984375000000 8.492187500000 0.883003234863 204 204 204
13.000000000000 8.492187500000 0.875000000000 182 182 182
13.031250000000 8.523437500000 0.868003845215 177 177 177
13.046875000000 8.523437500000 0.868003845215 174 174 174
13.078125000000 8.523437500000 0.861999511719 172 172 172
13.078125000000 8.539062500000 0.853004455566 172 172 172
13.093750000000 8.562500000000 0.851997375488 170 170 170
13.093750000000 8.562500000000 0.861000061035 173 173 173
13.125000000000 8.578125000000 0.862998962402 182 182 182
13.156250000000 8.593750000000 0.860000610352 181 181 181
13.156250000000 8.593750000000 0.861999511719 163 163 163
13.187500000000 8.609375000000 0.856002807617 159 159 159
13.218750000000 8.625000000000 0.850997924805 171 171 171
13.234375000000 8.625000000000 0.855003356934 179 179 179
13.250000000000 8.625000000000 0.850997924805 185 185 185
13.281250000000 8.656250000000 0.848999023438 180 180 180
13.281250000000 8.656250000000 0.855003356934 185 185 185
13.312500000000 8.671875000000 0.851997375488 173 173 173
13.328125000000 8.687500000000 0.847999572754 176 176 176
13.359375000000 8.695312500000 0.851997375488 171 171 171
13.375000000000 8.710937500000 0.850997924805 170 170 170
13.375000000000 8.710937500000 0.854003906250 176 176 176
13.406250000000 8.726562500000 0.851997375488 179 179 179
13.437500000000 8.757812500000 0.854003906250 171 171 171
13.453125000000 8.757812500000 0.853004455566 178 178 178
13.468750000000 8.773437500000 0.851997375488 174 174 174
13.484375000000 8.789062500000 0.857002258301 172 172 172
13.515625000000 8.789062500000 0.857002258301 177 177 177
13.531250000000 8.804687500000 0.860000610352 173 173 173
13.562500000000 8.820312500000 0.858001708984 172 172 172
13.578125000000 8.820312500000 0.862998962402 173 173 173
13.593750000000 8.843750000000 0.860000610352 176 176 176
13.609375000000 8.859375000000 0.863998413086 171 171 171
13.640625000000 8.859375000000 0.859001159668 177 177 177
13.671875000000 8.890625000000 0.863998413086 172 172 172
13.687500000000 8.890625000000 0.863998413086 175 175 175
13.703125000000 8.906250000000 0.871002197266 170 170 170
13.734375000000 8.921875000000 0.867004394531 174 174 174
13.765625000000 8.937500000000 0.867004394531 168 168 168
13.781250000000 8.953125000000 0.867004394531 176 176 176
13.812500000000 8.953125000000 0.872001647949 175 175 175
13.843750000000 8.984375000000 0.875999450684 179 179 179
13.875000000000 8.992187500000 0.873001098633 167 167 167
13.875000000000 9.023437500000 0.877998352051 174 174 174
13.906250000000 9.023437500000 0.875999450684 158 158 158
13.937500000000 9.023437500000 0.884002685547 167 167 167
13.968750000000 9.054687500000 0.882003784180 170 170 170
13.984375000000 9.054687500000 0.881004333496 170 170 170
14.000000000000 9.085937500000 0.887001037598 168 168 168
14.046875000000 9.101562500000 0.877998352051 174 174 174
14.062500000000 9.117187500000 0.886001586914 172 172 172
14.078125000000 9.125000000000 0.888000488281 172 172 172
14.109375000000 9.140625000000 0.886001586914 174 174 174
14.156250000000 9.156250000000 0.885002136230 173 173 173
14.171875000000 9.187500000000 0.888999938965 168 168 168
14.203125000000 9.187500000000 0.888000488281 168 168 168
14.234375000000 9.218750000000 0.891998291016 170 170 170
14.250000000000 9.218750000000 0.896003723145 175 175 175
14.281250000000 9.250000000000 0.898002624512 171 171 171
14.312500000000 9.250000000000 0.898002624512 167 167 167
14.359375000000 9.289062500000 0.899002075195 167 167 167
14.375000000000 9.289062500000 0.902000427246 170 170 170
14.406250000000 9.320312500000 0.904998779297 162 162 162
14.453125000000 9.335937500000 0.904998779297 169 169 169
14.484375000000 9.351562500000 0.897003173828 172 172 172
14.515625000000 9.367187500000 0.902000427246 161 161 161
14.546875000000 9.398437500000 0.906997680664 167 167 167
14.578125000000 9.414062500000 0.907997131348 169 169 169
14.640625000000 9.453125000000 0.903999328613 168 168 168
14.671875000000 9.468750000000 0.911003112793 168 168 168
14.703125000000 9.484375000000 0.913002014160 170 170 170
14.750000000000 9.500000000000 0.911003112793 168 168 168
14.781250000000 9.515625000000 0.914001464844 172 172 172
14.828125000000 9.546875000000 0.916999816895 173 173 173
14.859375000000 9.585937500000 0.918998718262 172 172 172
14.906250000000 9.585937500000 0.915000915527 172 172 172
14.953125000000 9.617187500000 0.916999816895 174 174 174
14.968750000000 9.648437500000 0.921997070313 167 167 167
15.031250000000 9.679687500000 0.918998718262 165 165 165
15.062500000000 9.695312500000 0.925003051758 163 163 163
15.125000000000 9.734375000000 0.917999267578 164 164 164
15.156250000000 9.750000000000 0.918998718262 163 163 163
15.218750000000 9.781250000000 0.921997070313 169 169 169
15.250000000000 9.812500000000 0.926002502441 165 165 165
15.312500000000 9.843750000000 0.919998168945 167 167 167
15.375000000000 9.882812500000 0.918998718262 158 158 158
15.437500000000 9.914062500000 0.917999267578 163 163 163
15.500000000000 9.945312500000 0.915000915527 163 163 163
15.546875000000 9.976562500000 0.916000366211 173 173 173
15.609375000000 10.015625000000 0.918998718262 166 166 166
15.656250000000 10.046875000000 0.918998718262 169 169 169
15.734375000000 10.078125000000 0.918998718262 166 166 166
15.796875000000 10.109375000000 0.917999267578 173 173 173
15.843750000000 10.140625000000 0.916999816895 167 167 167
15.906250000000 10.179687500000 0.916000366211 165 165 165
15.968750000000 10.226562500000 0.917999267578 167 167 167
16.046875000000 10.273437500000 0.912002563477 169 169 169
16.140625000000 10.312500000000 0.914001464844 166 166 166
16.203125000000 10.359375000000 0.913002014160 169 169 169
16.265625000000 10.406250000000 0.910003662109 167 167 167
16.359375000000 10.445312500000 0.910003662109 189 189 189
17.500000000000 11.101562500000 0.995002746582 199 199 199
17.562500000000 11.148437500000 1.013000488281 194 194 194
12.562500000000 7.945312500000 0.896003723145 206 206 206
12.562500000000 7.945312500000 0.901000976563 206 206 206
12.578125000000 7.960937500000 0.905998229980 206 206 206
12.593750000000 7.976562500000 0.901000976563 205 205 205
12.609375000000 7.984375000000 0.904998779297 202 202 202
12.640625000000 8.000000000000 0.893997192383 188 188 188
12.640625000000 7.984375000000 0.904998779297 196 196 196
12.656250000000 8.015625000000 0.902999877930 203 203 203
12.671875000000 8.015625000000 0.895004272461 205 205 205
12.687500000000 8.015625000000 0.897003173828 205 205 205
12.703125000000 8.031250000000 0.898002624512 205 205 205
12.703125000000 8.046875000000 0.901000976563 203 203 203
12.718750000000 8.046875000000 0.897003173828 202 202 202
12.718750000000 8.046875000000 0.900001525879 204 204 204
12.734375000000 8.062500000000 0.897003173828 195 195 195
12.765625000000 8.078125000000 0.892997741699 202 202 202
12.781250000000 8.078125000000 0.898002624512 201 201 201
12.796875000000 8.078125000000 0.898002624512 207 207 207
12.812500000000 8.093750000000 0.896003723145 208 208 208
12.812500000000 8.109375000000 0.895004272461 205 205 205
12.828125000000 8.109375000000 0.893997192383 203 203 203
12.843750000000 8.109375000000 0.896003723145 203 203 203
12.875000000000 8.148437500000 0.889999389648 197 197 197
12.890625000000 8.148437500000 0.893997192383 202 202 202
12.906250000000 8.148437500000 0.891998291016 205 205 205
12.906250000000 8.164062500000 0.891998291016 205 205 205
12.921875000000 8.164062500000 0.892997741699 205 205 205
12.953125000000 8.179687500000 0.888999938965 208 208 208
12.984375000000 8.179687500000 0.888999938965 207 207 207
12.984375000000 8.195312500000 0.888999938965 201 201 201
13.015625000000 8.210937500000 0.871002197266 168 168 168
13.015625000000 8.210937500000 0.873001098633 166 166 166
13.046875000000 8.242187500000 0.872001647949 174 174 174
13.078125000000 8.242187500000 0.874000549316 177 177 177
13.078125000000 8.242187500000 0.870002746582 169 169 169
13.125000000000 8.265625000000 0.867004394531 171 171 171
13.125000000000 8.281250000000 0.873001098633 172 172 172
13.140625000000 8.281250000000 0.868003845215 176 176 176
13.171875000000 8.296875000000 0.872001647949 175 175 175
13.187500000000 8.312500000000 0.863998413086 179 179 179
13.203125000000 8.312500000000 0.870002746582 179 179 179
13.218750000000 8.328125000000 0.862998962402 177 177 177
13.234375000000 8.343750000000 0.864997863770 176 176 176
13.265625000000 8.343750000000 0.857002258301 176 176 176
13.281250000000 8.359375000000 0.867004394531 175 175 175
13.312500000000 8.375000000000 0.857002258301 175 175 175
13.312500000000 8.375000000000 0.858001708984 173 173 173
13.343750000000 8.406250000000 0.861999511719 173 173 173
13.359375000000 8.406250000000 0.860000610352 171 171 171
13.375000000000 8.414062500000 0.865997314453 174 174 174
13.406250000000 8.445312500000 0.859001159668 172 172 172
13.421875000000 8.445312500000 0.862998962402 175 175 175
13.437500000000 8.460937500000 0.864997863770 173 173 173
13.468750000000 8.476562500000 0.858001708984 174 174 174
13.484375000000 8.476562500000 0.861000061035 175 175 175
13.515625000000 8.492187500000 0.861000061035 173 173 173
13.531250000000 8.507812500000 0.860000610352 175 175 175
13.546875000000 8.507812500000 0.863998413086 174 174 174
13.578125000000 8.539062500000 0.865997314453 169 169 169
13.593750000000 8.539062500000 0.867004394531 175 175 175
13.593750000000 8.578125000000 0.865997314453 174 174 174
13.625000000000 8.578125000000 0.861999511719 173 173 173
13.656250000000 8.578125000000 0.864997863770 170 170 170
13.687500000000 8.609375000000 0.869003295898 173 173 173
13.718750000000 8.609375000000 0.861999511719 171 171 171
13.718750000000 8.640625000000 0.861000061035 174 174 174
13.750000000000 8.640625000000 0.867004394531 176 176 176
13.781250000000 8.656250000000 0.869003295898 174 174 174
13.812500000000 8.671875000000 0.867004394531 174 174 174
13.828125000000 8.671875000000 0.869003295898 176 176 176
13.859375000000 8.710937500000 0.870002746582 174 174 174
13.875000000000 8.710937500000 0.873001098633 172 172 172
13.906250000000 8.726562500000 0.873001098633 181 181 181
13.921875000000 8.742187500000 0.870002746582 172 172 172
13.953125000000 8.757812500000 0.875999450684 176 176 176
13.984375000000 8.773437500000 0.877998352051 173 173 173
14.000000000000 8.773437500000 0.876998901367 178 178 178
14.031250000000 8.804687500000 0.883003234863 175 175 175
14.062500000000 8.804687500000 0.882003784180 174 174 174
14.093750000000 8.843750000000 0.886001586914 174 174 174
14.109375000000 8.843750000000 0.882003784180 170 170 170
14.140625000000 8.875000000000 0.883003234863 172 172 172
14.171875000000 8.875000000000 0.885002136230 176 176 176
14.203125000000 8.906250000000 0.883003234863 168 168 168
14.218750000000 8.906250000000 0.892997741699 174 174 174
14.265625000000 8.937500000000 0.889999389648 169 169 169
14.296875000000 8.937500000000 0.895004272461 168 168 168
14.312500000000 8.968750000000 0.895004272461 159 159 159
14.343750000000 8.968750000000 0.898002624512 157 157 157
14.406250000000 9.007812500000 0.899002075195 172 172 172
14.406250000000 9.007812500000 0.900001525879 168 168 168
14.437500000000 9.039062500000 0.903999328613 166 166 166
14.500000000000 9.054687500000 0.905998229980 167 167 167
14.531250000000 9.070312500000 0.902000427246 170 170 170
14.562500000000 9.101562500000 0.902000427246 168 168 168
14.593750000000 9.125000000000 0.903999328613 166 166 166
14.625000000000 9.140625000000 0.903999328613 171 171 171
14.656250000000 9.171875000000 0.911003112793 173 173 173
14.687500000000 9.187500000000 0.912002563477 168 168 168
14.718750000000 9.203125000000 0.911003112793 167 167 167
14.765625000000 9.234375000000 0.913002014160 165 165 165
14.796875000000 9.250000000000 0.913002014160 163 163 163
14.843750000000 9.265625000000 0.915000915527 168 168 168
14.890625000000 9.304687500000 0.916000366211 169 169 169
14.921875000000 9.335937500000 0.916000366211 167 167 167
14.968750000000 9.335937500000 0.921997070313 166 166 166
15.000000000000 9.367187500000 0.923004150391 163 163 163
15.062500000000 9.398437500000 0.921997070313 164 164 164
15.093750000000 9.437500000000 0.919998168945 165 165 165
15.156250000000 9.468750000000 0.918998718262 169 169 169
15.203125000000 9.468750000000 0.927001953125 160 160 160
15.265625000000 9.500000000000 0.919998168945 168 168 168
15.296875000000 9.531250000000 0.925003051758 170 170 170
15.359375000000 9.570312500000 0.919998168945 169 169 169
15.406250000000 9.601562500000 0.923004150391 166 166 166
15.468750000000 9.632812500000 0.921997070313 167 167 167
15.515625000000 9.664062500000 0.921997070313 167 167 167
15.578125000000 9.703125000000 0.917999267578 163 163 163
15.640625000000 9.734375000000 0.916000366211 164 164 164
15.687500000000 9.765625000000 0.919998168945 169 169 169
15.750000000000 9.796875000000 0.918998718262 162 162 162
15.812500000000 9.828125000000 0.919998168945 169 169 169
15.875000000000 9.867187500000 0.923004150391 160 160 160
15.937500000000 9.914062500000 0.921997070313 167 167 167
16.000000000000 9.960937500000 0.925003051758 162 162 162
16.093750000000 10.000000000000 0.917999267578 167 167 167
16.156250000000 10.046875000000 0.921997070313 162 162 162
16.234375000000 10.078125000000 0.921997070313 160 160 160
16.312500000000 10.125000000000 0.919998168945 160 160 160
16.375000000000 10.179687500000 0.919998168945 159 159 159
17.625000000000 10.906250000000 0.925003051758 186 186 186
17.718750000000 10.953125000000 0.937004089355 191 191 191
17.843750000000 11.023437500000 0.944000244141 192 192 192
17.937500000000 11.085937500000 0.946998596191 193 193 193
18.000000000000 11.117187500000 0.976997375488 190 190 190
18.156250000000 11.218750000000 0.971000671387 193 193 193
18.203125000000 11.250000000000 0.999000549316 197 197 197
18.281250000000 11.281250000000 1.020004272461 201 201 201
12.562500000000 7.648437500000 0.907997131348 203 203 203
12.562500000000 7.664062500000 0.901000976563 201 201 201
12.578125000000 7.664062500000 0.906997680664 200 200 200
12.593750000000 7.679687500000 0.904998779297 200 200 200
12.609375000000 7.703125000000 0.902000427246 196 196 196
12.640625000000 7.703125000000 0.896003723145 182 182 182
12.640625000000 7.703125000000 0.905998229980 198 198 198
12.656250000000 7.703125000000 0.903999328613 199 199 199
12.671875000000 7.734375000000 0.899002075195 200 200 200
12.687500000000 7.734375000000 0.900001525879 201 201 201
12.703125000000 7.734375000000 0.897003173828 201 201 201
12.718750000000 7.750000000000 0.903999328613 201 201 201
12.734375000000 7.765625000000 0.896003723145 202 202 202
12.750000000000 7.765625000000 0.890998840332 198 198 198
12.765625000000 7.765625000000 0.893997192383 196 196 196
12.765625000000 7.781250000000 0.898002624512 199 199 199
12.796875000000 7.796875000000 0.895004272461 204 204 204
12.812500000000 7.796875000000 0.893997192383 205 205 205
12.828125000000 7.812500000000 0.898002624512 207 207 207
12.843750000000 7.828125000000 0.893997192383 205 205 205
12.859375000000 7.828125000000 0.893997192383 203 203 203
12.859375000000 7.828125000000 0.892997741699 200 200 200
12.890625000000 7.867187500000 0.886001586914 190 190 190
12.890625000000 7.867187500000 0.898002624512 202 202 202
12.921875000000 7.867187500000 0.889999389648 203 203 203
12.937500000000 7.882812500000 0.892997741699 201 201 201
12.968750000000 7.882812500000 0.897003173828 201 201 201
12.968750000000 7.898437500000 0.892997741699 200 200 200
13.000000000000 7.898437500000 0.887001037598 202 202 202
13.000000000000 7.914062500000 0.886001586914 194 194 194
13.031250000000 7.929687500000 0.886001586914 197 197 197
13.062500000000 7.929687500000 0.887001037598 201 201 201
13.062500000000 7.945312500000 0.877998352051 189 189 189
13.062500000000 7.960937500000 0.884002685547 192 192 192
13.093750000000 7.960937500000 0.879997253418 171 171 171
13.125000000000 7.984375000000 0.881004333496 166 166 166
13.140625000000 7.984375000000 0.883003234863 172 172 172
13.171875000000 8.000000000000 0.873001098633 183 183 183
13.171875000000 8.000000000000 0.879997253418 189 189 189
13.203125000000 8.031250000000 0.878997802734 178 178 178
13.218750000000 8.031250000000 0.874000549316 174 174 174
13.234375000000 8.031250000000 0.879997253418 174 174 174
13.250000000000 8.062500000000 0.877998352051 176 176 176
13.250000000000 8.062500000000 0.876998901367 176 176 176
13.281250000000 8.078125000000 0.875999450684 180 180 180
13.296875000000 8.078125000000 0.873001098633 184 184 184
13.328125000000 8.093750000000 0.874000549316 168 168 168
13.343750000000 8.093750000000 0.874000549316 178 178 178
13.343750000000 8.109375000000 0.877998352051 178 178 178
13.375000000000 8.132812500000 0.876998901367 168 168 168
13.406250000000 8.148437500000 0.867004394531 169 169 169
13.421875000000 8.164062500000 0.873001098633 175 175 175
13.437500000000 8.164062500000 0.875000000000 169 169 169
13.453125000000 8.164062500000 0.869003295898 170 170 170
13.484375000000 8.195312500000 0.865997314453 177 177 177
13.515625000000 8.195312500000 0.865997314453 180 180 180
13.531250000000 8.210937500000 0.867004394531 171 171 171
13.546875000000 8.226562500000 0.874000549316 175 175 175
13.562500000000 8.226562500000 0.872001647949 179 179 179
13.593750000000 8.257812500000 0.868003845215 176 176 176
13.625000000000 8.265625000000 0.875000000000 178 178 178
13.640625000000 8.265625000000 0.874000549316 183 183 183
13.671875000000 8.296875000000 0.872001647949 189 189 189
13.703125000000 8.296875000000 0.870002746582 178 178 178
13.703125000000 8.328125000000 0.875999450684 172 172 172
13.734375000000 8.343750000000 0.869003295898 171 171 171
13.765625000000 8.359375000000 0.872001647949 173 173 173
13.796875000000 8.359375000000 0.875999450684 183 183 183
13.828125000000 8.390625000000 0.873001098633 163 163 163
13.859375000000 8.390625000000 0.875000000000 174 174 174
13.875000000000 8.414062500000 0.873001098633 173 173 173
13.890625000000 8.429687500000 0.875000000000 176 176 176
13.921875000000 8.429687500000 0.882003784180 170 170 170
13.953125000000 8.460937500000 0.882003784180 175 175 175
13.968750000000 8.460937500000 0.881004333496 174 174 174
14.000000000000 8.492187500000 0.883003234863 183 183 183
14.031250000000 8.492187500000 0.881004333496 171 171 171
14.046875000000 8.523437500000 0.883003234863 175 175 175
14.078125000000 8.523437500000 0.885002136230 178 178 178
14.109375000000 8.562500000000 0.884002685547 168 168 168
14.140625000000 8.562500000000 0.888000488281 175 175 175
14.140625000000 8.593750000000 0.895004272461 164 164 164
14.171875000000 8.593750000000 0.891998291016 169 169 169
14.203125000000 8.609375000000 0.895004272461 174 174 174
14.234375000000 8.625000000000 0.893997192383 171 171 171
14.265625000000 8.656250000000 0.891998291016 169 169 169
14.296875000000 8.656250000000 0.898002624512 164 164 164
14.328125000000 8.687500000000 0.901000976563 171 171 171
14.343750000000 8.687500000000 0.903999328613 168 168 168
14.406250000000 8.726562500000 0.899002075195 176 176 176
14.437500000000 8.742187500000 0.900001525879 172 172 172
14.468750000000 8.757812500000 0.905998229980 163 163 163
14.500000000000 8.773437500000 0.903999328613 172 172 172
14.531250000000 8.789062500000 0.910003662109 170 170 170
14.578125000000 8.820312500000 0.904998779297 166 166 166
14.609375000000 8.828125000000 0.910003662109 170 170 170
14.640625000000 8.859375000000 0.905998229980 166 166 166
14.687500000000 8.890625000000 0.909004211426 169 169 169
14.718750000000 8.890625000000 0.909004211426 172 172 172
14.750000000000 8.921875000000 0.913002014160 169 169 169
14.781250000000 8.937500000000 0.917999267578 167 167 167
14.828125000000 8.968750000000 0.914001464844 172 172 172
14.875000000000 8.992187500000 0.918998718262 173 173 173
14.906250000000 9.023437500000 0.920997619629 173 173 173
14.953125000000 9.054687500000 0.918998718262 175 175 175
15.000000000000 9.054687500000 0.923004150391 170 170 170
15.031250000000 9.085937500000 0.919998168945 163 163 163
15.093750000000 9.117187500000 0.919998168945 168 168 168
15.109375000000 9.156250000000 0.926002502441 164 164 164
15.171875000000 9.156250000000 0.929000854492 159 159 159
15.203125000000 9.187500000000 0.927001953125 163 163 163
15.265625000000 9.218750000000 0.924003601074 168 168 168
15.328125000000 9.250000000000 0.927001953125 166 166 166
15.359375000000 9.289062500000 0.925003051758 160 160 160
15.421875000000 9.320312500000 0.926002502441 159 159 159
15.500000000000 9.351562500000 0.921997070313 156 156 156
15.531250000000 9.382812500000 0.927001953125 169 169 169
15.609375000000 9.421875000000 0.926002502441 163 163 163
15.671875000000 9.453125000000 0.921997070313 169 169 169
15.718750000000 9.484375000000 0.929000854492 169 169 169
15.796875000000 9.531250000000 0.920997619629 162 162 162
15.843750000000 9.546875000000 0.926002502441 167 167 167
15.906250000000 9.601562500000 0.924003601074 166 166 166
15.968750000000 9.648437500000 0.929000854492 164 164 164
16.031250000000 9.679687500000 0.926002502441 163 163 163
16.093750000000 9.718750000000 0.923004150391 162 162 162
16.187500000000 9.765625000000 0.924003601074 157 157 157
16.265625000000 9.812500000000 0.923004150391 160 160 160
16.328125000000 9.843750000000 0.928001403809 159 159 159
16.406250000000 9.882812500000 0.926002502441 161 161 161
17.578125000000 10.570312500000 0.918998718262 151 151 151
17.703125000000 10.656250000000 0.916999816895 152 152 152
17.812500000000 10.718750000000 0.916999816895 148 148 148
17.968750000000 10.804687500000 0.912002563477 151 151 151
18.109375000000 10.890625000000 0.909004211426 147 147 147
18.265625000000 10.984375000000 0.904998779297 147 147 147
18.406250000000 11.070312500000 0.904998779297 146 146 146
18.578125000000 11.171875000000 0.900001525879 160 160 160
18.734375000000 11.265625000000 0.899002075195 149 149 149
18.921875000000 11.367187500000 0.891998291016 149 149 149
18.921875000000 11.367187500000 0.945999145508 160 160 160
12.562500000000 7.351562500000 0.907997131348 203 203 203
12.578125000000 7.367187500000 0.910003662109 204 204 204
12.593750000000 7.382812500000 0.902999877930 205 205 205
12.609375000000 7.382812500000 0.903999328613 202 202 202
12.609375000000 7.382812500000 0.900001525879 205 205 205
12.640625000000 7.421875000000 0.889999389648 192 192 192
12.640625000000 7.406250000000 0.902999877930 197 197 197
12.656250000000 7.421875000000 0.902999877930 202 202 202
12.671875000000 7.421875000000 0.901000976563 203 203 203
12.703125000000 7.437500000000 0.900001525879 204 204 204
12.703125000000 7.437500000000 0.905998229980 203 203 203
12.703125000000 7.453125000000 0.904998779297 202 202 202
12.734375000000 7.468750000000 0.905998229980 201 201 201
12.750000000000 7.484375000000 0.902000427246 201 201 201
12.765625000000 7.484375000000 0.901000976563 193 193 193
12.781250000000 7.484375000000 0.891998291016 202 202 202
12.796875000000 7.500000000000 0.897003173828 203 203 203
12.796875000000 7.500000000000 0.899002075195 205 205 205
12.828125000000 7.515625000000 0.896003723145 205 205 205
12.843750000000 7.515625000000 0.895004272461 204 204 204
12.843750000000 7.531250000000 0.899002075195 203 203 203
12.859375000000 7.546875000000 0.889999389648 204 204 204
12.875000000000 7.546875000000 0.889999389648 194 194 194
12.890625000000 7.570312500000 0.890998840332 201 201 201
12.906250000000 7.585937500000 0.882003784180 205 205 205
12.921875000000 7.585937500000 0.890998840332 205 205 205
12.937500000000 7.585937500000 0.888000488281 205 205 205
12.968750000000 7.585937500000 0.890998840332 205 205 205
12.968750000000 7.601562500000 0.893997192383 205 205 205
13.000000000000 7.617187500000 0.888000488281 202 202 202
13.031250000000 7.632812500000 0.879997253418 179 179 179
13.031250000000 7.648437500000 0.877998352051 174 174 174
13.062500000000 7.648437500000 0.878997802734 181 181 181
13.062500000000 7.648437500000 0.882003784180 190 190 190
13.093750000000 7.664062500000 0.886001586914 185 185 185
13.109375000000 7.679687500000 0.881004333496 174 174 174
13.140625000000 7.687500000000 0.874000549316 186 186 186
13.156250000000 7.703125000000 0.877998352051 182 182 182
13.171875000000 7.718750000000 0.877998352051 169 169 169
13.187500000000 7.718750000000 0.876998901367 175 175 175
13.203125000000 7.734375000000 0.878997802734 176 176 176
13.218750000000 7.750000000000 0.878997802734 173 173 173
13.234375000000 7.750000000000 0.877998352051 182 182 182
13.265625000000 7.765625000000 0.883003234863 173 173 173
13.281250000000 7.781250000000 0.884002685547 184 184 184
13.296875000000 7.781250000000 0.877998352051 185 185 185
13.312500000000 7.781250000000 0.883003234863 177 177 177
13.328125000000 7.796875000000 0.882003784180 180 180 180
13.359375000000 7.812500000000 0.878997802734 175 175 175
13.390625000000 7.835937500000 0.874000549316 175 175 175
13.390625000000 7.851562500000 0.879997253418 178 178 178
13.421875000000 7.851562500000 0.877998352051 175 175 175
13.437500000000 7.867187500000 0.875000000000 171 171 171
13.468750000000 7.882812500000 0.875999450684 184 184 184
13.484375000000 7.898437500000 0.870002746582 175 175 175
13.500000000000 7.914062500000 0.875999450684 177 177 177
13.515625000000 7.914062500000 0.878997802734 180 180 180
13.546875000000 7.929687500000 0.881004333496 186 186 186
13.578125000000 7.945312500000 0.879997253418 200 200 200
13.578125000000 7.945312500000 0.878997802734 188 188 188
13.609375000000 7.976562500000 0.876998901367 178 178 178
13.640625000000 7.984375000000 0.873001098633 184 184 184
13.656250000000 7.984375000000 0.879997253418 189 189 189
13.687500000000 8.015625000000 0.881004333496 179 179 179
13.718750000000 8.015625000000 0.877998352051 188 188 188
13.718750000000 8.031250000000 0.879997253418 179 179 179
13.750000000000 8.046875000000 0.883003234863 173 173 173
13.781250000000 8.062500000000 0.879997253418 170 170 170
13.796875000000 8.078125000000 0.878997802734 177 177 177
13.828125000000 8.093750000000 0.877998352051 179 179 179
13.843750000000 8.109375000000 0.888000488281 180 180 180
13.875000000000 8.117187500000 0.883003234863 178 178 178
13.890625000000 8.148437500000 0.884002685547 175 175 175
13.921875000000 8.148437500000 0.882003784180 173 173 173
13.953125000000 8.179687500000 0.884002685547 172 172 172
13.984375000000 8.179687500000 0.883003234863 173 173 173
14.000000000000 8.195312500000 0.888000488281 175 175 175
14.031250000000 8.210937500000 0.886001586914 169 169 169
14.062500000000 8.226562500000 0.889999389648 172 172 172
14.078125000000 8.242187500000 0.888000488281 173 173 173
14.109375000000 8.265625000000 0.889999389648 170 170 170
14.140625000000 8.281250000000 0.892997741699 156 156 156
14.171875000000 8.296875000000 0.897003173828 172 172 172
14.203125000000 8.312500000000 0.888999938965 171 171 171
14.234375000000 8.328125000000 0.896003723145 168 168 168
14.265625000000 8.343750000000 0.892997741699 170 170 170
14.281250000000 8.359375000000 0.901000976563 175 175 175
14.312500000000 8.375000000000 0.901000976563 171 171 171
14.343750000000 8.390625000000 0.903999328613 171 171 171
14.375000000000 8.406250000000 0.906997680664 174 174 174
14.421875000000 8.429687500000 0.911003112793 169 169 169
14.453125000000 8.445312500000 0.907997131348 173 173 173
14.484375000000 8.476562500000 0.909004211426 170 170 170
14.515625000000 8.476562500000 0.916000366211 169 169 169
14.546875000000 8.507812500000 0.914001464844 161 161 161
14.578125000000 8.523437500000 0.915000915527 176 176 176
14.625000000000 8.546875000000 0.915000915527 169 169 169
14.671875000000 8.578125000000 0.919998168945 169 169 169
14.687500000000 8.578125000000 0.921997070313 172 172 172
14.718750000000 8.609375000000 0.924003601074 167 167 167
14.765625000000 8.640625000000 0.917999267578 168 168 168
14.796875000000 8.656250000000 0.926002502441 169 169 169
14.843750000000 8.671875000000 0.927001953125 169 169 169
14.875000000000 8.710937500000 0.927001953125 166 166 166
14.906250000000 8.726562500000 0.930000305176 168 168 168
14.953125000000 8.773437500000 0.929000854492 165 165 165
15.000000000000 8.773437500000 0.930000305176 162 162 162
15.062500000000 8.804687500000 0.929000854492 166 166 166
15.093750000000 8.835937500000 0.927001953125 162 162 162
15.140625000000 8.875000000000 0.931999206543 163 163 163
15.187500000000 8.890625000000 0.932998657227 162 162 162
15.250000000000 8.906250000000 0.930999755859 165 165 165
15.281250000000 8.937500000000 0.932998657227 167 167 167
15.343750000000 8.968750000000 0.931999206543 166 166 166
15.406250000000 9.007812500000 0.932998657227 165 165 165
15.468750000000 9.039062500000 0.932998657227 162 162 162
15.515625000000 9.070312500000 0.933998107910 170 170 170
15.562500000000 9.101562500000 0.935997009277 164 164 164
15.625000000000 9.140625000000 0.933998107910 163 163 163
15.671875000000 9.171875000000 0.931999206543 163 163 163
15.734375000000 9.203125000000 0.934997558594 162 162 162
15.796875000000 9.234375000000 0.933998107910 165 165 165
15.859375000000 9.265625000000 0.930999755859 164 164 164
15.921875000000 9.304687500000 0.933998107910 164 164 164
16.015625000000 9.351562500000 0.932998657227 162 162 162
16.078125000000 9.398437500000 0.930000305176 163 163 163
16.140625000000 9.437500000000 0.934997558594 162 162 162
16.234375000000 9.484375000000 0.929000854492 159 159 159
16.296875000000 9.531250000000 0.929000854492 162 162 162
16.359375000000 9.562500000000 0.932998657227 158 158 158
17.640625000000 10.328125000000 0.925003051758 150 150 150
17.765625000000 10.390625000000 0.924003601074 150 150 150
17.906250000000 10.460937500000 0.920997619629 144 144 144
18.046875000000 10.554687500000 0.915000915527 147 147 147
18.171875000000 10.625000000000 0.917999267578 145 145 145
18.312500000000 10.718750000000 0.914001464844 141 141 141
18.468750000000 10.820312500000 0.912002563477 141 141 141
18.640625000000 10.906250000000 0.910003662109 145 145 145
18.812500000000 11.015625000000 0.905998229980 138 138 138
18.984375000000 11.117187500000 0.902999877930 140 140 140
19.187500000000 11.218750000000 0.899002075195 142 142 142
19.359375000000 11.320312500000 0.898002624512 138 138 138
19.562500000000 11.445312500000 0.896003723145 137 137 137
19.781250000000 11.578125000000 0.888999938965 132 132 132
20.015625000000 11.710937500000 0.886001586914 133 133 133
12.562500000000 7.070312500000 0.910003662109 208 208 208
12.578125000000 7.070312500000 0.906997680664 205 205 205
12.593750000000 7.085937500000 0.906997680664 206 206 206
12.609375000000 7.101562500000 0.907997131348 207 207 207
12.625000000000 7.109375000000 0.903999328613 202 202 202
12.625000000000 7.109375000000 0.895004272461 195 195 195
12.640625000000 7.125000000000 0.904998779297 205 205 205
12.656250000000 7.140625000000 0.902999877930 206 206 206
12.671875000000 7.140625000000 0.900001525879 202 202 202
12.687500000000 7.140625000000 0.905998229980 206 206 206
12.718750000000 7.156250000000 0.898002624512 205 205 205
12.734375000000 7.171875000000 0.900001525879 206 206 206
12.734375000000 7.171875000000 0.900001525879 205 205 205
12.750000000000 7.171875000000 0.898002624512 201 201 201
12.765625000000 7.187500000000 0.895004272461 199 199 199
12.781250000000 7.203125000000 0.895004272461 204 204 204
12.796875000000 7.203125000000 0.898002624512 206 206 206
12.812500000000 7.203125000000 0.897003173828 208 208 208
12.828125000000 7.218750000000 0.901000976563 207 207 207
12.843750000000 7.234375000000 0.892997741699 210 210 210
12.859375000000 7.234375000000 0.891998291016 208 208 208
12.890625000000 7.250000000000 0.891998291016 204 204 204
12.921875000000 7.273437500000 0.888000488281 199 199 199
12.921875000000 7.273437500000 0.886001586914 206 206 206
12.921875000000 7.289062500000 0.893997192383 206 206 206
12.953125000000 7.304687500000 0.887001037598 206 206 206
12.953125000000 7.304687500000 0.888999938965 208 208 208
12.984375000000 7.320312500000 0.887001037598 208 208 208
12.984375000000 7.320312500000 0.896003723145 206 206 206
13.031250000000 7.335937500000 0.884002685547 193 193 193
13.046875000000 7.351562500000 0.877998352051 175 175 175
13.062500000000 7.367187500000 0.874000549316 181 181 181
13.078125000000 7.367187500000 0.874000549316 169 169 169
13.109375000000 7.382812500000 0.877998352051 169 169 169
13.125000000000 7.398437500000 0.872001647949 169 169 169
13.140625000000 7.406250000000 0.871002197266 169 169 169
13.156250000000 7.421875000000 0.873001098633 171 171 171
13.171875000000 7.437500000000 0.870002746582 181 181 181
13.203125000000 7.437500000000 0.870002746582 176 176 176
13.218750000000 7.437500000000 0.870002746582 177 177 177
13.234375000000 7.453125000000 0.867004394531 171 171 171
13.250000000000 7.468750000000 0.867004394531 173 173 173
13.265625000000 7.468750000000 0.864997863770 176 176 176
13.281250000000 7.484375000000 0.872001647949 172 172 172
13.312500000000 7.500000000000 0.864997863770 174 174 174
13.328125000000 7.515625000000 0.867004394531 172 172 172
13.343750000000 7.531250000000 0.860000610352 177 177 177
13.359375000000 7.531250000000 0.867004394531 175 175 175
13.390625000000 7.531250000000 0.868003845215 180 180 180
13.406250000000 7.554687500000 0.870002746582 179 179 179
13.421875000000 7.570312500000 0.867004394531 177 177 177
13.421875000000 7.570312500000 0.867004394531 184 184 184
13.453125000000 7.601562500000 0.862998962402 189 189 189
13.484375000000 7.601562500000 0.868003845215 184 184 184
13.500000000000 7.617187500000 0.868003845215 179 179 179
13.515625000000 7.632812500000 0.867004394531 183 183 183
13.562500000000 7.632812500000 0.861999511719 183 183 183
13.562500000000 7.648437500000 0.871002197266 183 183 183
13.593750000000 7.664062500000 0.869003295898 184 184 184
13.625000000000 7.671875000000 0.870002746582 183 183 183
13.625000000000 7.703125000000 0.870002746582 179 179 179
13.656250000000 7.703125000000 0.868003845215 176 176 176
13.687500000000 7.718750000000 0.876998901367 178 178 178
13.687500000000 7.734375000000 0.879997253418 179 179 179
13.734375000000 7.734375000000 0.867004394531 174 174 174
13.750000000000 7.750000000000 0.872001647949 171 171 171
13.781250000000 7.765625000000 0.875999450684 170 170 170
13.812500000000 7.781250000000 0.873001098633 178 178 178
13.828125000000 7.796875000000 0.871002197266 174 174 174
13.843750000000 7.796875000000 0.876998901367 174 174 174
13.875000000000 7.828125000000 0.888000488281 173 173 173
13.906250000000 7.835937500000 0.883003234863 178 178 178
13.921875000000 7.851562500000 0.883003234863 177 177 177
13.953125000000 7.867187500000 0.886001586914 175 175 175
13.984375000000 7.898437500000 0.886001586914 176 176 176
14.000000000000 7.898437500000 0.888999938965 174 174 174
14.031250000000 7.929687500000 0.887001037598 183 183 183
14.062500000000 7.929687500000 0.888999938965 179 179 179
14.078125000000 7.929687500000 0.892997741699 173 173 173
14.125000000000 7.968750000000 0.890998840332 170 170 170
14.140625000000 7.984375000000 0.890998840332 183 183 183
14.171875000000 8.000000000000 0.895004272461 184 184 184
14.203125000000 8.015625000000 0.896003723145 179 179 179
14.218750000000 8.031250000000 0.897003173828 179 179 179
14.250000000000 8.046875000000 0.899002075195 185 185 185
14.281250000000 8.062500000000 0.900001525879 173 173 173
14.296875000000 8.093750000000 0.898002624512 176 176 176
14.328125000000 8.093750000000 0.905998229980 184 184 184
14.359375000000 8.125000000000 0.911003112793 181 181 181
14.390625000000 8.132812500000 0.906997680664 180 180 180
14.421875000000 8.164062500000 0.909004211426 171 171 171
14.468750000000 8.164062500000 0.911003112793 172 172 172
14.515625000000 8.195312500000 0.907997131348 171 171 171
14.531250000000 8.210937500000 0.911003112793 170 170 170
14.578125000000 8.226562500000 0.913002014160 170 170 170
14.609375000000 8.257812500000 0.915000915527 171 171 171
14.656250000000 8.296875000000 0.912002563477 176 176 176
14.687500000000 8.296875000000 0.917999267578 169 169 169
14.718750000000 8.328125000000 0.918998718262 169 169 169
14.765625000000 8.343750000000 0.918998718262 168 168 168
14.796875000000 8.359375000000 0.926002502441 169 169 169
14.828125000000 8.390625000000 0.925003051758 166 166 166
14.875000000000 8.406250000000 0.926002502441 170 170 170
14.906250000000 8.429687500000 0.927001953125 169 169 169
14.953125000000 8.460937500000 0.932998657227 166 166 166
15.000000000000 8.476562500000 0.932998657227 168 168 168
15.015625000000 8.492187500000 0.940002441406 168 168 168
15.078125000000 8.523437500000 0.937004089355 161 161 161
15.109375000000 8.554687500000 0.937004089355 164 164 164
15.171875000000 8.593750000000 0.937004089355 168 168 168
15.218750000000 8.625000000000 0.933998107910 164 164 164
15.281250000000 8.640625000000 0.935997009277 169 169 169
15.328125000000 8.671875000000 0.934997558594 167 167 167
15.375000000000 8.695312500000 0.940002441406 168 168 168
15.421875000000 8.726562500000 0.940002441406 167 167 167
15.484375000000 8.757812500000 0.938003540039 166 166 166
15.531250000000 8.789062500000 0.939002990723 169 169 169
15.593750000000 8.820312500000 0.938003540039 168 168 168
15.640625000000 8.859375000000 0.942001342773 162 162 162
15.703125000000 8.890625000000 0.941001892090 162 162 162
15.765625000000 8.921875000000 0.943000793457 165 165 165
15.828125000000 8.953125000000 0.943000793457 164 164 164
15.906250000000 9.007812500000 0.938003540039 165 165 165
15.968750000000 9.054687500000 0.940002441406 161 161 161
16.031250000000 9.085937500000 0.942001342773 162 162 162
16.109375000000 9.117187500000 0.941001892090 163 163 163
16.156250000000 9.156250000000 0.946998596191 161 161 161
16.218750000000 9.203125000000 0.951004028320 149 149 149
16.312500000000 9.250000000000 0.942001342773 160 160 160
16.390625000000 9.304687500000 0.940002441406 152 152 152
17.687500000000 10.046875000000 0.939002990723 149 149 149
17.812500000000 10.125000000000 0.937004089355 142 142 142
17.937500000000 10.195312500000 0.941001892090 139 139 139
18.046875000000 10.273437500000 0.941001892090 140 140 140
18.218750000000 10.375000000000 0.932998657227 144 144 144
18.343750000000 10.437500000000 0.931999206543 143 143 143
18.515625000000 10.539062500000 0.930000305176 143 143 143
18.687500000000 10.640625000000 0.926002502441 144 144 144
18.875000000000 10.742187500000 0.918998718262 136 136 136
19.015625000000 10.835937500000 0.919998168945 141 141 141
19.218750000000 10.968750000000 0.916999816895 143 143 143
19.406250000000 11.070312500000 0.914001464844 137 137 137
19.640625000000 11.203125000000 0.911003112793 131 131 131
19.828125000000 11.312500000000 0.909004211426 134 134 134
20.062500000000 11.445312500000 0.906997680664 129 129 129
20.296875000000 11.593750000000 0.903999328613 124 124 124
20.546875000000 11.726562500000 0.906997680664 132 132 132
20.750000000000 11.859375000000 0.914001464844 129 129 129
12.562500000000 6.773437500000 0.913002014160 208 208 208
12.578125000000 6.789062500000 0.913002014160 208 208 208
12.578125000000 6.789062500000 0.909004211426 206 206 206
12.593750000000 6.789062500000 0.910003662109 207 207 207
12.609375000000 6.804687500000 0.901000976563 210 210 210
12.625000000000 6.820312500000 0.907997131348 208 208 208
12.640625000000 6.828125000000 0.897003173828 199 199 199
12.656250000000 6.828125000000 0.900001525879 206 206 206
12.671875000000 6.843750000000 0.906997680664 208 208 208
12.671875000000 6.859375000000 0.902000427246 208 208 208
12.703125000000 6.859375000000 0.895004272461 207 207 207
12.703125000000 6.859375000000 0.903999328613 208 208 208
12.718750000000 6.875000000000 0.904998779297 208 208 208
12.750000000000 6.890625000000 0.897003173828 209 209 209
12.765625000000 6.890625000000 0.901000976563 206 206 206
12.765625000000 6.890625000000 0.890998840332 203 203 203
12.781250000000 6.906250000000 0.899002075195 206 206 206
12.796875000000 6.921875000000 0.902999877930 208 208 208
12.812500000000 6.921875000000 0.897003173828 208 208 208
12.843750000000 6.937500000000 0.897003173828 210 210 210
12.859375000000 6.953125000000 0.893997192383 210 210 210
12.875000000000 6.953125000000 0.891998291016 209 209 209
12.875000000000 6.953125000000 0.893997192383 206 206 206
12.906250000000 6.984375000000 0.886001586914 202 202 202
12.921875000000 6.992187500000 0.891998291016 210 210 210
12.937500000000 6.992187500000 0.892997741699 208 208 208
12.968750000000 6.992187500000 0.895004272461 207 207 207
12.968750000000 7.007812500000 0.889999389648 207 207 207
12.968750000000 7.023437500000 0.890998840332 206 206 206
12.984375000000 7.039062500000 0.887001037598 206 206 206
13.015625000000 7.054687500000 0.883003234863 192 192 192
13.046875000000 7.054687500000 0.881004333496 177 177 177
13.046875000000 7.070312500000 0.879997253418 181 181 181
13.046875000000 7.085937500000 0.883003234863 180 180 180
13.093750000000 7.085937500000 0.873001098633 177 177 177
13.109375000000 7.085937500000 0.874000549316 177 177 177
13.140625000000 7.125000000000 0.868003845215 175 175 175
13.156250000000 7.125000000000 0.870002746582 175 175 175
13.171875000000 7.125000000000 0.867004394531 177 177 177
13.171875000000 7.140625000000 0.875000000000 168 168 168
13.203125000000 7.156250000000 0.869003295898 167 167 167
13.218750000000 7.156250000000 0.870002746582 169 169 169
13.250000000000 7.171875000000 0.865997314453 175 175 175
13.265625000000 7.187500000000 0.865997314453 172 172 172
13.281250000000 7.187500000000 0.867004394531 177 177 177
13.296875000000 7.203125000000 0.864997863770 173 173 173
13.328125000000 7.218750000000 0.862998962402 178 178 178
13.343750000000 7.218750000000 0.861000061035 183 183 183
13.359375000000 7.250000000000 0.860000610352 175 175 175
13.375000000000 7.250000000000 0.858001708984 168 168 168
13.406250000000 7.273437500000 0.858001708984 180 180 180
13.421875000000 7.289062500000 0.857002258301 181 181 181
13.453125000000 7.289062500000 0.859001159668 183 183 183
13.468750000000 7.304687500000 0.855003356934 182 182 182
13.484375000000 7.320312500000 0.859001159668 181 181 181
13.515625000000 7.320312500000 0.855003356934 173 173 173
13.531250000000 7.335937500000 0.858001708984 174 174 174
13.562500000000 7.351562500000 0.858001708984 179 179 179
13.562500000000 7.351562500000 0.861000061035 178 178 178
13.593750000000 7.382812500000 0.861000061035 174 174 174
13.640625000000 7.390625000000 0.851997375488 181 181 181
13.640625000000 7.390625000000 0.856002807617 181 181 181
13.671875000000 7.421875000000 0.855003356934 177 177 177
13.703125000000 7.421875000000 0.858001708984 178 178 178
13.703125000000 7.437500000000 0.860000610352 170 170 170
13.734375000000 7.453125000000 0.861999511719 178 178 178
13.765625000000 7.468750000000 0.862998962402 179 179 179
13.796875000000 7.484375000000 0.860000610352 173 173 173
13.812500000000 7.484375000000 0.864997863770 183 183 183
13.843750000000 7.500000000000 0.867004394531 174 174 174
13.859375000000 7.515625000000 0.875999450684 172 172 172
13.890625000000 7.531250000000 0.869003295898 177 177 177
13.906250000000 7.554687500000 0.872001647949 175 175 175
13.937500000000 7.554687500000 0.874000549316 174 174 174
13.953125000000 7.585937500000 0.874000549316 164 164 164
13.968750000000 7.585937500000 0.882003784180 155 155 155
14.000000000000 7.617187500000 0.876998901367 170 170 170
14.031250000000 7.617187500000 0.877998352051 176 176 176
14.046875000000 7.648437500000 0.881004333496 186 186 186
14.062500000000 7.648437500000 0.889999389648 170 170 170
14.109375000000 7.679687500000 0.885002136230 170 170 170
14.140625000000 7.687500000000 0.888999938965 178 178 178
14.156250000000 7.718750000000 0.890998840332 179 179 179
14.187500000000 7.718750000000 0.886001586914 172 172 172
14.218750000000 7.750000000000 0.891998291016 173 173 173
14.250000000000 7.750000000000 0.892997741699 173 173 173
14.281250000000 7.781250000000 0.889999389648 173 173 173
14.312500000000 7.796875000000 0.895004272461 174 174 174
