28.546875000000 22.015625000000 52.000991821289 186 186 186
27.765625000000 22.453125000000 51.958999633789 203 203 203
27.906250000000 22.390625000000 51.890991210938 118 118 118
26.687500000000 23.093750000000 51.884002685547 205 205 205
26.718750000000 23.062500000000 51.826995849609 233 233 233
26.671875000000 23.093750000000 51.774002075195 189 189 189
26.703125000000 23.062500000000 51.716003417969 210 210 210
26.734375000000 23.046875000000 51.658996582031 190 190 190
26.953125000000 22.906250000000 51.585998535156 215 215 215
26.890625000000 22.937500000000 51.533004760742 204 204 204
27.031250000000 22.875000000000 51.462997436523 231 231 231
26.953125000000 22.890625000000 51.412994384766 182 182 182
26.875000000000 22.937500000000 51.362991333008 186 186 186
26.828125000000 22.968750000000 51.311996459961 191 191 191
27.000000000000 22.859375000000 51.233001708984 188 188 188
27.046875000000 22.828125000000 51.167999267578 189 189 189
27.125000000000 22.781250000000 51.099990844727 192 192 192
27.078125000000 22.812500000000 51.046005249023 168 168 168
27.156250000000 22.734375000000 50.972991943359 192 192 192
27.156250000000 22.734375000000 50.914993286133 180 180 180
27.265625000000 22.656250000000 50.835998535156 177 177 177
27.671875000000 22.421875000000 50.708999633789 180 180 180
27.593750000000 22.468750000000 50.660003662109 179 179 179
31.187500000000 20.781250000000 56.904998779297 23 23 23
31.109375000000 20.812500000000 56.783996582031 15 15 15
29.703125000000 21.609375000000 56.031005859375 19 19 19
29.968750000000 21.406250000000 55.630996704102 26 26 26
29.968750000000 21.406250000000 55.554000854492 46 46 46
28.890625000000 22.015625000000 55.173995971680 24 24 24
31.609375000000 20.296875000000 53.597991943359 4 4 4
27.234375000000 22.828125000000 52.800003051758 158 158 158
30.062500000000 21.156250000000 52.662002563477 22 22 22
28.656250000000 21.968750000000 52.408996582031 27 27 27
30.328125000000 20.984375000000 52.352005004883 22 22 22
30.515625000000 20.859375000000 52.110992431641 102 102 102
30.390625000000 20.921875000000 52.031997680664 61 61 61
32.343750000000 19.781250000000 51.806991577148 39 39 39
32.343750000000 19.781250000000 51.712997436523 87 87 87
30.062500000000 21.031250000000 50.623992919922 10 10 10
30.000000000000 21.406250000000 55.477996826172 25 25 25
32.093750000000 19.968750000000 52.731002807617 37 37 37
30.328125000000 20.984375000000 52.431991577148 46 46 46
32.359375000000 19.796875000000 52.367004394531 180 180 180
32.359375000000 19.796875000000 52.459991455078 52 52 52
31.468750000000 20.984375000000 57.520996093750 47 47 47
31.437500000000 21.000000000000 57.412002563477 64 64 64
27.906250000000 22.968750000000 55.932998657227 203 203 203
27.718750000000 23.046875000000 55.794998168945 231 231 231
27.625000000000 23.093750000000 55.696990966797 247 247 247
27.625000000000 23.093750000000 55.627990722656 216 216 216
27.593750000000 23.109375000000 55.554000854492 213 213 213
27.531250000000 23.140625000000 55.466995239258 214 214 214
27.500000000000 23.140625000000 55.389999389648 229 229 229
27.171875000000 23.328125000000 55.216003417969 183 183 183
27.187500000000 23.328125000000 55.156005859375 185 185 185
27.296875000000 23.250000000000 55.126998901367 230 230 230
27.250000000000 23.281250000000 55.050003051758 200 200 200
27.328125000000 23.234375000000 55.011001586914 194 194 194
27.421875000000 23.187500000000 54.979003906250 217 217 217
27.546875000000 23.109375000000 54.951995849609 226 226 226
27.375000000000 23.171875000000 54.839004516602 200 200 200
27.656250000000 23.015625000000 54.858993530273 10 10 10
27.656250000000 23.015625000000 54.792999267578 1 1 1
27.812500000000 22.906250000000 54.772003173828 14 14 14
26.328125000000 23.734375000000 53.882995605469 49 49 49
26.171875000000 23.812500000000 53.800003051758 36 36 36
28.578125000000 22.453125000000 54.208999633789 215 215 215
26.546875000000 23.625000000000 53.765991210938 51 51 51
30.968750000000 21.046875000000 54.162002563477 28 28 28
26.109375000000 23.812500000000 53.373001098633 127 127 127
26.421875000000 23.656250000000 53.363998413086 143 143 143
26.453125000000 23.625000000000 53.315994262695 235 235 235
26.750000000000 23.453125000000 53.296005249023 2 2 2
26.609375000000 23.531250000000 53.225997924805 231 231 231
28.687500000000 22.312500000000 53.401992797852 50 50 50
28.250000000000 22.562500000000 53.287994384766 39 39 39
26.984375000000 23.312500000000 53.097000122070 159 159 159
27.078125000000 23.234375000000 52.875991821289 169 169 169
26.078125000000 23.812500000000 52.703002929688 198 198 198
26.265625000000 23.687500000000 52.662002563477 233 233 233
26.156250000000 23.765625000000 52.552993774414 206 206 206
26.250000000000 23.703125000000 52.503997802734 187 187 187
26.484375000000 23.546875000000 52.457992553711 212 212 212
26.718750000000 23.406250000000 52.408004760742 240 240 240
26.703125000000 23.421875000000 52.352996826172 212 212 212
26.687500000000 23.421875000000 52.296997070313 181 181 181
26.750000000000 23.390625000000 52.242004394531 186 186 186
28.171875000000 22.546875000000 52.173004150391 18 18 18
30.390625000000 21.250000000000 52.070999145508 21 21 21
26.843750000000 23.312500000000 52.072998046875 213 213 213
26.765625000000 23.375000000000 52.018997192383 212 212 212
26.890625000000 23.265625000000 51.957992553711 204 204 204
27.281250000000 23.046875000000 51.884994506836 195 195 195
27.031250000000 23.187500000000 51.837997436523 215 215 215
27.015625000000 23.203125000000 51.781997680664 215 215 215
26.843750000000 23.281250000000 51.735000610352 54 54 54
26.421875000000 23.531250000000 51.707992553711 190 190 190
26.390625000000 23.546875000000 51.654998779297 193 193 193
26.437500000000 23.515625000000 51.597000122070 188 188 188
26.562500000000 23.453125000000 51.535003662109 254 254 254
27.640625000000 22.796875000000 51.371994018555 235 235 235
27.531250000000 22.875000000000 51.321990966797 176 176 176
27.296875000000 23.000000000000 51.287002563477 198 198 198
27.140625000000 23.078125000000 51.244995117188 190 190 190
26.765625000000 23.296875000000 51.233993530273 188 188 188
26.687500000000 23.359375000000 51.184997558594 186 186 186
26.578125000000 23.421875000000 51.143997192383 188 188 188
26.781250000000 23.281250000000 51.061004638672 245 245 245
26.640625000000 23.359375000000 51.022994995117 208 208 208
28.953125000000 21.968750000000 50.595993041992 7 7 7
28.546875000000 22.218750000000 50.593002319336 201 201 201
27.765625000000 22.687500000000 50.660003662109 226 226 226
27.546875000000 22.812500000000 50.632995605469 188 188 188
31.328125000000 21.046875000000 57.277999877930 19 19 19
31.281250000000 21.078125000000 57.158996582031 21 21 21
31.296875000000 21.046875000000 56.983993530273 41 41 41
31.437500000000 20.937500000000 56.847991943359 6 6 6
29.234375000000 22.125000000000 55.149002075195 170 170 170
29.078125000000 22.203125000000 55.031997680664 19 19 19
29.218750000000 22.062500000000 53.968994140625 27 27 27
28.390625000000 22.531250000000 53.701004028320 164 164 164
29.218750000000 22.046875000000 53.750991821289 75 75 75
31.718750000000 20.578125000000 53.737991333008 189 189 189
31.421875000000 20.734375000000 53.619003295898 165 165 165
31.468750000000 20.687500000000 53.537994384766 71 71 71
30.093750000000 21.468750000000 52.854995727539 8 8 8
30.468750000000 21.218750000000 52.229995727539 32 32 32
31.296875000000 20.640625000000 51.013992309570 17 17 17
27.625000000000 23.484375000000 57.046005249023 12 12 12
27.734375000000 23.421875000000 56.953002929688 74 74 74
27.703125000000 23.437500000000 56.865005493164 76 76 76
27.859375000000 23.359375000000 56.871994018555 52 52 52
27.703125000000 23.421875000000 56.720001220703 72 72 72
27.906250000000 23.328125000000 56.744995117188 83 83 83
27.906250000000 23.312500000000 56.680999755859 145 145 145
27.812500000000 23.343750000000 56.563003540039 110 110 110
27.734375000000 23.390625000000 56.455001831055 157 157 157
27.750000000000 23.375000000000 56.390991210938 178 178 178
27.750000000000 23.359375000000 56.324005126953 176 176 176
27.781250000000 23.359375000000 56.263000488281 111 111 111
27.828125000000 23.328125000000 56.220993041992 81 81 81
27.906250000000 23.281250000000 56.179992675781 90 90 90
27.921875000000 23.250000000000 56.119995117188 118 118 118
27.765625000000 23.343750000000 55.981994628906 167 167 167
27.703125000000 23.375000000000 55.889999389648 164 164 164
27.718750000000 23.359375000000 55.828002929688 181 181 181
27.718750000000 23.359375000000 55.759994506836 206 206 206
27.781250000000 23.312500000000 55.720001220703 33 33 33
27.687500000000 23.359375000000 55.613998413086 251 251 251
27.625000000000 23.390625000000 55.531005859375 205 205 205
27.671875000000 23.343750000000 55.485000610352 230 230 230
28.078125000000 23.140625000000 55.554000854492 5 5 5
28.109375000000 23.109375000000 55.492996215820 251 251 251
27.156250000000 23.640625000000 55.111999511719 49 49 49
27.312500000000 23.546875000000 55.104003906250 62 62 62
27.171875000000 23.609375000000 54.996002197266 205 205 205
27.281250000000 23.546875000000 54.970001220703 7 7 7
27.500000000000 23.421875000000 54.973999023438 242 242 242
27.500000000000 23.453125000000 54.901992797852 210 210 210
27.062500000000 23.671875000000 54.718994140625 218 218 218
26.953125000000 23.718750000000 54.625000000000 207 207 207
27.625000000000 23.343750000000 54.748001098633 245 245 245
27.531250000000 23.390625000000 54.664001464844 235 235 235
26.921875000000 23.718750000000 54.442001342773 192 192 192
27.171875000000 23.578125000000 54.445999145508 194 194 194
26.937500000000 23.703125000000 54.326995849609 215 215 215
27.484375000000 23.359375000000 53.787002563477 27 27 27
27.437500000000 23.390625000000 53.714996337891 250 250 250
26.734375000000 23.765625000000 53.546997070313 53 53 53
26.734375000000 23.765625000000 53.490997314453 190 190 190
26.750000000000 23.718750000000 52.936004638672 186 186 186
26.828125000000 23.687500000000 52.886001586914 172 172 172
26.734375000000 23.718750000000 52.768997192383 187 187 187
26.875000000000 23.625000000000 52.382003784180 233 233 233
26.859375000000 23.640625000000 52.326004028320 240 240 240
26.750000000000 23.687500000000 52.270004272461 222 222 222
26.656250000000 23.750000000000 52.214996337891 169 169 169
26.671875000000 23.718750000000 52.158996582031 212 212 212
27.125000000000 23.453125000000 52.095001220703 57 57 57
26.953125000000 23.562500000000 52.041992187500 39 39 39
26.906250000000 23.578125000000 51.985992431641 8 8 8
30.093750000000 21.703125000000 51.800994873047 95 95 95
26.515625000000 23.796875000000 51.890991210938 198 198 198
26.484375000000 23.796875000000 51.839004516602 183 183 183
26.515625000000 23.781250000000 51.783004760742 187 187 187
26.609375000000 23.734375000000 51.720993041992 189 189 189
26.546875000000 23.765625000000 51.671997070313 197 197 197
26.734375000000 23.656250000000 51.600997924805 223 223 223
26.656250000000 23.687500000000 51.552993774414 13 13 13
26.531250000000 23.750000000000 51.507003784180 150 150 150
27.234375000000 23.343750000000 51.382003784180 4 4 4
27.437500000000 23.234375000000 51.300003051758 62 62 62
27.281250000000 23.296875000000 51.257003784180 160 160 160
27.265625000000 23.328125000000 51.201004028320 214 214 214
27.531250000000 23.156250000000 51.106002807617 186 186 186
27.000000000000 23.468750000000 51.112991333008 206 206 206
26.828125000000 23.562500000000 51.080001831055 193 193 193
27.031250000000 23.453125000000 50.992996215820 57 57 57
27.031250000000 23.453125000000 50.934005737305 190 190 190
27.046875000000 23.421875000000 50.873992919922 191 191 191
27.781250000000 22.968750000000 50.625000000000 58 58 58
27.578125000000 23.093750000000 50.597000122070 188 188 188
30.453125000000 21.859375000000 57.328002929688 50 50 50
30.750000000000 21.671875000000 57.371994018555 90 90 90
30.781250000000 21.656250000000 57.294998168945 49 49 49
30.718750000000 21.687500000000 57.181991577148 24 24 24
30.218750000000 21.968750000000 56.882003784180 76 76 76
30.218750000000 21.937500000000 56.798995971680 31 31 31
29.218750000000 22.484375000000 55.789001464844 222 222 222
29.640625000000 22.046875000000 53.018997192383 12 12 12
30.625000000000 21.406250000000 52.352005004883 7 7 7
30.656250000000 21.390625000000 52.270004272461 30 30 30
30.687500000000 21.359375000000 52.188003540039 25 25 25
28.640625000000 22.562500000000 51.996994018555 241 241 241
30.906250000000 21.171875000000 51.093994140625 38 38 38
29.781250000000 21.828125000000 50.970001220703 29 29 29
27.921875000000 23.593750000000 56.796005249023 59 59 59
27.781250000000 23.656250000000 56.445999145508 28 28 28
27.765625000000 23.656250000000 56.363998413086 42 42 42
27.781250000000 23.656250000000 56.300994873047 93 93 93
27.750000000000 23.656250000000 56.222991943359 168 168 168
27.765625000000 23.640625000000 56.160995483398 185 185 185
27.500000000000 23.796875000000 55.845001220703 202 202 202
27.812500000000 23.609375000000 55.906005859375 70 70 70
28.250000000000 23.343750000000 56.005004882813 76 76 76
28.140625000000 23.390625000000 55.893005371094 74 74 74
27.859375000000 23.562500000000 55.718994140625 6 6 6
27.750000000000 23.609375000000 55.612991333008 190 190 190
28.046875000000 23.453125000000 55.643005371094 235 235 235
28.046875000000 23.437500000000 55.576995849609 191 191 191
27.484375000000 23.718750000000 54.556991577148 215 215 215
27.687500000000 23.578125000000 54.546005249023 224 224 224
27.671875000000 23.531250000000 53.723999023438 209 209 209
28.234375000000 23.218750000000 53.748001098633 172 172 172
27.218750000000 23.812500000000 53.531005859375 229 229 229
27.203125000000 23.796875000000 53.412994384766 174 174 174
29.218750000000 22.609375000000 53.462005615234 40 40 40
27.390625000000 23.671875000000 53.138992309570 113 113 113
28.187500000000 23.203125000000 53.151000976563 14 14 14
27.250000000000 23.734375000000 53.007003784180 12 12 12
27.156250000000 23.796875000000 52.940002441406 187 187 187
28.609375000000 22.906250000000 52.440994262695 142 142 142
27.328125000000 23.625000000000 51.942993164063 59 59 59
27.375000000000 23.593750000000 51.640991210938 233 233 233
27.093750000000 23.734375000000 51.192993164063 246 246 246
27.453125000000 23.515625000000 51.084991455078 62 62 62
27.296875000000 23.578125000000 51.046005249023 9 9 9
27.328125000000 23.546875000000 50.981002807617 252 252 252
27.328125000000 23.546875000000 50.919998168945 7 7 7
27.359375000000 23.531250000000 50.850997924805 227 227 227
27.328125000000 23.531250000000 50.796005249023 197 197 197
27.359375000000 23.531250000000 50.729003906250 190 190 190
27.046875000000 23.703125000000 50.724990844727 248 248 248
27.421875000000 23.500000000000 50.593994140625 63 63 63
30.640625000000 22.062500000000 57.733001708984 16 16 16
30.656250000000 22.046875000000 57.654998779297 116 116 116
30.609375000000 22.078125000000 57.535003662109 86 86 86
30.187500000000 22.062500000000 53.805999755859 115 115 115
30.281250000000 22.015625000000 53.738998413086 9 9 9
31.609375000000 21.234375000000 53.727996826172 58 58 58
31.359375000000 21.375000000000 53.612991333008 12 12 12
31.906250000000 21.031250000000 53.580993652344 87 87 87
31.718750000000 21.156250000000 53.473999023438 16 16 16
30.031250000000 22.031250000000 51.686996459961 70 70 70
30.312500000000 21.859375000000 51.593994140625 36 36 36
29.078125000000 22.562500000000 51.376998901367 96 96 96
28.328125000000 22.984375000000 51.106002807617 204 204 204
32.625000000000 20.640625000000 53.746002197266 9 9 9
28.671875000000 23.484375000000 56.652999877930 128 128 128
28.406250000000 23.562500000000 55.886001586914 33 33 33
28.515625000000 23.500000000000 55.850997924805 64 64 64
28.437500000000 23.531250000000 55.751998901367 4 4 4
28.640625000000 23.406250000000 55.527999877930 192 192 192
27.703125000000 23.812500000000 53.138992309570 232 232 232
27.765625000000 23.765625000000 53.080993652344 64 64 64
30.343750000000 22.250000000000 53.229995727539 183 183 183
28.453125000000 23.343750000000 53.009002685547 47 47 47
30.296875000000 22.250000000000 53.067993164063 55 55 55
28.453125000000 23.343750000000 52.875000000000 154 154 154
27.796875000000 23.687500000000 52.147003173828 37 37 37
29.812500000000 22.484375000000 52.044998168945 146 146 146
27.687500000000 23.718750000000 51.714996337891 64 64 64
27.656250000000 23.718750000000 51.654998779297 63 63 63
27.750000000000 23.656250000000 51.585998535156 65 65 65
27.531250000000 23.765625000000 51.108993530273 235 235 235
27.578125000000 23.718750000000 51.037994384766 12 12 12
27.562500000000 23.750000000000 50.979995727539 4 4 4
27.796875000000 23.593750000000 50.882003784180 0 0 0
30.812500000000 22.265625000000 57.397994995117 25 25 25
30.046875000000 22.656250000000 56.481002807617 197 197 197
31.437500000000 21.703125000000 54.901992797852 20 20 20
31.609375000000 21.562500000000 54.043991088867 18 18 18
31.718750000000 21.468750000000 53.522003173828 6 6 6
31.718750000000 21.453125000000 53.253997802734 167 167 167
31.750000000000 21.421875000000 53.167999267578 66 66 66
31.812500000000 21.359375000000 52.992996215820 19 19 19
29.468750000000 22.734375000000 52.791000366211 19 19 19
29.468750000000 22.718750000000 52.716995239258 34 34 34
29.843750000000 22.468750000000 52.121994018555 225 225 225
30.812500000000 21.875000000000 51.942993164063 41 41 41
30.781250000000 21.890625000000 51.860992431641 20 20 20
28.718750000000 23.765625000000 56.865005493164 21 21 21
28.765625000000 23.734375000000 56.809997558594 108 108 108
28.781250000000 23.687500000000 56.438995361328 162 162 162
28.890625000000 23.640625000000 56.401000976563 155 155 155
28.609375000000 23.734375000000 55.699996948242 206 206 206
28.250000000000 23.781250000000 53.026000976563 181 181 181
29.609375000000 22.968750000000 52.983001708984 141 141 141
28.562500000000 23.515625000000 52.169998168945 186 186 186
30.640625000000 22.375000000000 53.457992553711 11 11 11
31.984375000000 21.546875000000 52.955001831055 37 37 37
28.750000000000 23.453125000000 52.720001220703 76 76 76
28.562500000000 23.531250000000 52.304992675781 161 161 161
30.968750000000 22.062500000000 51.640991210938 31 31 31
29.515625000000 22.937500000000 51.639999389648 177 177 177
29.406250000000 23.000000000000 51.572998046875 21 21 21
28.000000000000 23.812500000000 51.147003173828 2 2 2
30.406250000000 23.125000000000 57.298995971680 71 71 71
30.609375000000 22.937500000000 56.772994995117 174 174 174
29.578125000000 23.234375000000 51.968994140625 14 14 14
28.640625000000 23.781250000000 51.858001708984 249 249 249
30.765625000000 22.453125000000 51.020996093750 62 62 62
28.531250000000 23.765625000000 50.630004882813 20 20 20
31.281250000000 22.578125000000 57.209991455078 110 110 110
29.687500000000 23.375000000000 54.919998168945 27 27 27
29.453125000000 23.312500000000 52.194000244141 40 40 40
30.093750000000 22.906250000000 51.563003540039 163 163 163
30.718750000000 22.468750000000 50.942001342773 86 86 86
31.046875000000 23.062500000000 58.005996704102 28 28 28
31.000000000000 23.093750000000 57.893005371094 12 12 12
31.046875000000 23.062500000000 57.811996459961 81 81 81
31.000000000000 23.078125000000 57.699996948242 29 29 29
30.937500000000 23.093750000000 57.490005493164 89 89 89
29.796875000000 23.718750000000 56.750991821289 221 221 221
29.750000000000 23.750000000000 56.652999877930 185 185 185
30.015625000000 23.609375000000 57.011993408203 195 195 195
29.828125000000 23.718750000000 56.847000122070 221 221 221
31.375000000000 22.546875000000 53.003997802734 25 25 25
31.359375000000 22.546875000000 52.830001831055 25 25 25
30.437500000000 23.015625000000 51.824996948242 70 70 70
29.984375000000 23.281250000000 51.608993530273 170 170 170
30.046875000000 23.218750000000 51.526992797852 128 128 128
30.046875000000 23.218750000000 51.447998046875 117 117 117
30.078125000000 23.203125000000 51.367996215820 205 205 205
30.437500000000 22.984375000000 51.177993774414 34 34 34
30.281250000000 23.062500000000 51.031997680664 115 115 115
31.546875000000 22.265625000000 50.718002319336 44 44 44
31.640625000000 22.218750000000 50.617004394531 25 25 25
30.187500000000 23.468750000000 51.876998901367 25 25 25
30.500000000000 23.234375000000 51.132003784180 136 136 136
30.984375000000 23.343750000000 57.279998779297 22 22 22
30.203125000000 23.781250000000 56.705001831055 100 100 100
30.593750000000 23.171875000000 51.205001831055 191 191 191
30.703125000000 23.421875000000 51.410003662109 20 20 20
31.062500000000 23.656250000000 57.934005737305 12 12 12
30.750000000000 23.812500000000 57.332000732422 36 36 36
30.718750000000 23.812500000000 57.227996826172 143 143 143
30.656250000000 23.734375000000 55.373992919922 13 13 13
31.265625000000 23.234375000000 53.526000976563 14 14 14
30.921875000000 23.375000000000 52.569992065430 17 17 17
30.906250000000 23.375000000000 52.402999877930 21 21 21
30.828125000000 23.406250000000 52.152999877930 27 27 27
30.062500000000 23.812500000000 51.377990722656 22 22 22
30.968750000000 23.546875000000 51.009002685547 13 13 13
30.093750000000 18.000000000000 52.524002075195 208 208 208
30.015625000000 17.953125000000 52.599990844727 166 166 166
29.953125000000 17.921875000000 52.675994873047 165 165 165
29.859375000000 17.859375000000 52.748992919922 168 168 168
29.781250000000 17.828125000000 52.821990966797 185 185 185
30.203125000000 18.062500000000 52.921997070313 18 18 18
29.875000000000 17.843750000000 52.981002807617 168 168 168
29.953125000000 17.890625000000 53.063003540039 165 165 165
30.015625000000 17.921875000000 53.145996093750 221 221 221
30.109375000000 17.968750000000 53.231994628906 242 242 242
30.734375000000 18.812500000000 50.654998779297 190 190 190
30.656250000000 18.765625000000 50.746994018555 220 220 220
31.812500000000 19.484375000000 50.694992065430 170 170 170
31.703125000000 19.390625000000 50.800994873047 179 179 179
31.625000000000 19.328125000000 50.901000976563 182 182 182
31.484375000000 19.265625000000 51.001998901367 149 149 149
31.578125000000 19.312500000000 51.083999633789 157 157 157
30.109375000000 18.406250000000 51.296997070313 15 15 15
30.093750000000 18.375000000000 51.377990722656 193 193 193
30.125000000000 18.406250000000 51.455001831055 234 234 234
31.593750000000 19.296875000000 51.440994262695 170 170 170
31.609375000000 19.296875000000 51.528991699219 215 215 215
31.156250000000 19.015625000000 51.639999389648 207 207 207
31.109375000000 19.000000000000 51.727996826172 178 178 178
31.062500000000 18.968750000000 51.815994262695 193 193 193
31.140625000000 19.000000000000 51.899002075195 194 194 194
30.968750000000 18.890625000000 51.988998413086 154 154 154
30.125000000000 18.359375000000 52.087005615234 35 35 35
32.265625000000 19.656250000000 52.147003173828 174 174 174
31.078125000000 18.937500000000 52.242004394531 218 218 218
29.953125000000 18.265625000000 52.321990966797 229 229 229
30.968750000000 18.875000000000 52.412002563477 227 227 227
30.875000000000 18.812500000000 52.494995117188 18 18 18
29.984375000000 18.265625000000 52.555999755859 27 27 27
29.812500000000 18.156250000000 52.627990722656 2 2 2
29.765625000000 18.125000000000 52.703002929688 164 164 164
30.031250000000 18.265625000000 52.791000366211 34 34 34
29.656250000000 18.031250000000 52.849990844727 34 34 34
29.656250000000 18.031250000000 52.925003051758 178 178 178
29.656250000000 18.015625000000 53.000000000000 166 166 166
29.656250000000 18.015625000000 53.076004028320 180 180 180
29.718750000000 18.078125000000 53.156005859375 200 200 200
30.578125000000 18.593750000000 53.307998657227 238 238 238
30.515625000000 18.531250000000 53.382003784180 146 146 146
30.343750000000 18.421875000000 53.608001708984 20 20 20
30.359375000000 18.421875000000 53.690994262695 209 209 209
29.843750000000 18.125000000000 53.707000732422 182 182 182
29.875000000000 18.125000000000 53.787994384766 170 170 170
29.765625000000 18.062500000000 53.848999023438 186 186 186
29.640625000000 17.968750000000 53.908996582031 169 169 169
29.578125000000 17.921875000000 54.050003051758 30 30 30
29.718750000000 18.000000000000 54.147994995117 13 13 13
29.656250000000 17.968750000000 54.216003417969 44 44 44
29.578125000000 17.906250000000 54.276000976563 130 130 130
29.609375000000 17.937500000000 54.360000610352 116 116 116
29.609375000000 17.921875000000 54.436004638672 30 30 30
31.046875000000 18.890625000000 52.921997070313 144 144 144
31.421875000000 19.546875000000 50.595993041992 179 179 179
31.500000000000 19.578125000000 50.675994873047 71 71 71
31.265625000000 19.437500000000 50.791992187500 89 89 89
30.468750000000 18.937500000000 50.968002319336 201 201 201
31.937500000000 19.859375000000 50.897994995117 255 255 255
29.937500000000 18.625000000000 51.181991577148 246 246 246
30.046875000000 18.671875000000 51.250991821289 196 196 196
30.046875000000 18.671875000000 51.330993652344 160 160 160
29.812500000000 18.531250000000 51.425994873047 160 160 160
29.796875000000 18.531250000000 51.503997802734 171 171 171
29.671875000000 18.421875000000 51.591003417969 250 250 250
29.656250000000 18.406250000000 51.666992187500 34 34 34
30.921875000000 19.187500000000 51.682998657227 16 16 16
31.000000000000 19.218750000000 51.763992309570 202 202 202
29.828125000000 18.515625000000 51.888000488281 215 215 215
29.750000000000 18.453125000000 51.968002319336 170 170 170
30.078125000000 18.656250000000 52.037994384766 45 45 45
29.890625000000 18.531250000000 52.117996215820 162 162 162
29.468750000000 18.281250000000 52.197998046875 170 170 170
29.453125000000 18.265625000000 52.272994995117 197 197 197
29.312500000000 18.187500000000 52.345993041992 165 165 165
29.390625000000 18.234375000000 52.419998168945 214 214 214
29.734375000000 18.421875000000 52.500991821289 203 203 203
29.640625000000 18.359375000000 52.574996948242 176 176 176
29.718750000000 18.406250000000 52.652999877930 184 184 184
29.812500000000 18.453125000000 52.731994628906 229 229 229
29.875000000000 18.484375000000 52.811996459961 138 138 138
29.765625000000 18.421875000000 52.882995605469 163 163 163
29.796875000000 18.437500000000 52.960998535156 161 161 161
29.812500000000 18.437500000000 53.039001464844 164 164 164
29.515625000000 18.265625000000 53.093994140625 178 178 178
29.531250000000 18.265625000000 53.169998168945 180 180 180
29.281250000000 18.125000000000 53.223999023438 190 190 190
29.406250000000 18.187500000000 53.306991577148 86 86 86
29.203125000000 18.062500000000 53.362991333008 9 9 9
30.203125000000 18.656250000000 53.541992187500 238 238 238
29.953125000000 18.484375000000 53.591995239258 183 183 183
29.843750000000 18.421875000000 53.656005859375 182 182 182
29.875000000000 18.437500000000 53.738998413086 237 237 237
29.515625000000 18.234375000000 53.768997192383 246 246 246
29.406250000000 18.156250000000 53.828002929688 144 144 144
29.500000000000 18.203125000000 53.916992187500 147 147 147
29.421875000000 18.156250000000 53.979995727539 135 135 135
29.453125000000 18.187500000000 54.059997558594 181 181 181
29.375000000000 18.125000000000 54.119995117188 166 166 166
29.453125000000 18.187500000000 54.212005615234 218 218 218
29.390625000000 18.140625000000 54.274002075195 202 202 202
31.593750000000 19.437500000000 54.772994995117 88 88 88
30.171875000000 18.593750000000 54.578994750977 7 7 7
29.859375000000 18.375000000000 54.593994140625 154 154 154
30.031250000000 18.500000000000 54.714004516602 96 96 96
29.984375000000 18.437500000000 54.776000976563 65 65 65
29.984375000000 18.437500000000 54.854995727539 26 26 26
31.703125000000 19.468750000000 55.343002319336 211 211 211
32.093750000000 19.687500000000 55.527999877930 165 165 165
31.968750000000 19.625000000000 55.593002319336 170 170 170
29.640625000000 18.234375000000 55.093994140625 44 44 44
31.828125000000 19.546875000000 55.750000000000 161 161 161
29.500000000000 18.140625000000 55.212005615234 12 12 12
29.468750000000 18.140625000000 55.283004760742 65 65 65
31.343750000000 19.468750000000 51.574996948242 245 245 245
30.515625000000 18.843750000000 53.494995117188 6 6 6
32.031250000000 19.687500000000 55.043991088867 21 21 21
32.031250000000 19.656250000000 55.229003906250 175 175 175
31.671875000000 19.468750000000 55.244995117188 165 165 165
31.937500000000 19.593750000000 55.679992675781 149 149 149
31.875000000000 19.546875000000 55.854003906250 149 149 149
32.140625000000 19.687500000000 56.020004272461 9 9 9
31.937500000000 19.703125000000 53.641998291016 139 139 139
31.390625000000 19.843750000000 50.550994873047 114 114 114
31.359375000000 19.812500000000 50.645004272461 113 113 113
31.531250000000 19.921875000000 50.714004516602 23 23 23
31.375000000000 19.828125000000 50.819000244141 95 95 95
29.781250000000 18.843750000000 51.078994750977 223 223 223
30.031250000000 18.968750000000 51.132003784180 211 211 211
29.625000000000 18.718750000000 51.246994018555 175 175 175
29.703125000000 18.781250000000 51.317001342773 42 42 42
29.703125000000 18.781250000000 51.393997192383 193 193 193
29.890625000000 18.875000000000 51.457000732422 251 251 251
30.234375000000 19.078125000000 51.513000488281 144 144 144
30.390625000000 19.171875000000 51.583999633789 225 225 225
29.828125000000 18.828125000000 51.692993164063 196 196 196
29.750000000000 18.781250000000 51.772994995117 211 211 211
30.718750000000 19.343750000000 51.813995361328 170 170 170
29.828125000000 18.812500000000 51.923995971680 213 213 213
29.765625000000 18.781250000000 52.002990722656 161 161 161
29.765625000000 18.781250000000 52.078994750977 161 161 161
29.921875000000 18.843750000000 52.153991699219 90 90 90
29.265625000000 18.437500000000 52.233001708984 197 197 197
29.203125000000 18.421875000000 52.305999755859 193 193 193
29.234375000000 18.437500000000 52.378997802734 167 167 167
29.296875000000 18.468750000000 52.453002929688 194 194 194
29.390625000000 18.515625000000 52.527999877930 175 175 175
29.593750000000 18.625000000000 52.608001708984 130 130 130
29.687500000000 18.703125000000 52.686996459961 228 228 228
29.468750000000 18.546875000000 52.752990722656 124 124 124
29.531250000000 18.578125000000 52.830001831055 145 145 145
29.437500000000 18.531250000000 52.899993896484 170 170 170
28.687500000000 18.062500000000 52.925003051758 229 229 229
28.703125000000 18.078125000000 52.996002197266 197 197 197
28.531250000000 17.984375000000 53.050994873047 190 190 190
28.453125000000 17.937500000000 53.111999511719 192 192 192
28.421875000000 17.906250000000 53.177001953125 183 183 183
28.531250000000 17.984375000000 53.255996704102 254 254 254
28.562500000000 17.984375000000 53.326995849609 202 202 202
28.718750000000 18.078125000000 53.414001464844 199 199 199
29.296875000000 18.421875000000 53.550003051758 192 192 192
29.453125000000 18.500000000000 53.645996093750 179 179 179
28.953125000000 18.203125000000 53.651992797852 218 218 218
28.765625000000 18.078125000000 53.699996948242 204 204 204
28.812500000000 18.109375000000 53.774002075195 254 254 254
28.750000000000 18.062500000000 53.837005615234 176 176 176
28.687500000000 18.031250000000 53.897003173828 178 178 178
28.906250000000 18.171875000000 54.005004882813 173 173 173
28.750000000000 18.046875000000 54.046997070313 212 212 212
29.203125000000 18.312500000000 54.199005126953 177 177 177
29.187500000000 18.296875000000 54.270996093750 166 166 166
29.625000000000 18.578125000000 54.429992675781 11 11 11
30.015625000000 18.796875000000 54.583999633789 8 8 8
30.125000000000 18.859375000000 54.686996459961 1 1 1
29.937500000000 18.734375000000 54.725997924805 254 254 254
31.125000000000 19.437500000000 55.074005126953 126 126 126
29.671875000000 18.593750000000 54.828002929688 165 165 165
29.671875000000 18.562500000000 54.902999877930 184 184 184
29.875000000000 18.687500000000 55.031997680664 233 233 233
29.625000000000 18.515625000000 55.048995971680 246 246 246
29.390625000000 18.390625000000 55.061004638672 150 150 150
29.437500000000 18.406250000000 55.153991699219 128 128 128
29.187500000000 18.265625000000 55.162002563477 99 99 99
29.109375000000 18.203125000000 55.216995239258 118 118 118
29.093750000000 18.203125000000 55.289001464844 106 106 106
32.562500000000 20.468750000000 52.127990722656 12 12 12
32.343750000000 20.281250000000 52.880996704102 27 27 27
32.500000000000 20.375000000000 52.983993530273 15 15 15
31.671875000000 19.781250000000 54.736999511719 21 21 21
32.250000000000 20.078125000000 56.000000000000 21 21 21
31.828125000000 19.828125000000 55.977996826172 30 30 30
30.843750000000 19.781250000000 50.591995239258 184 184 184
30.875000000000 19.796875000000 50.671997070313 160 160 160
30.406250000000 19.531250000000 50.815002441406 200 200 200
30.421875000000 19.531250000000 50.895004272461 149 149 149
29.578125000000 19.000000000000 51.069000244141 3 3 3
29.625000000000 19.015625000000 51.140991210938 197 197 197
29.734375000000 19.109375000000 51.205993652344 243 243 243
30.046875000000 19.281250000000 51.257995605469 193 193 193
30.265625000000 19.406250000000 51.559005737305 6 6 6
30.203125000000 19.343750000000 51.643005371094 186 186 186
30.390625000000 19.468750000000 51.712997436523 163 163 163
31.453125000000 20.109375000000 51.751998901367 99 99 99
30.734375000000 19.671875000000 51.862991333008 107 107 107
29.046875000000 18.640625000000 52.205993652344 72 72 72
29.062500000000 18.640625000000 52.276992797852 173 173 173
29.140625000000 18.671875000000 52.348999023438 189 189 189
29.453125000000 18.859375000000 52.425994873047 203 203 203
30.250000000000 19.328125000000 52.516998291016 144 144 144
30.265625000000 19.343750000000 52.597000122070 175 175 175
31.734375000000 20.218750000000 52.727996826172 34 34 34
29.281250000000 18.750000000000 52.789001464844 158 158 158
29.171875000000 18.671875000000 52.854995727539 164 164 164
29.078125000000 18.593750000000 52.921997070313 169 169 169
28.265625000000 18.140625000000 52.938003540039 219 219 219
28.203125000000 18.109375000000 53.000991821289 223 223 223
28.250000000000 18.109375000000 53.069992065430 179 179 179
28.500000000000 18.265625000000 53.158004760742 74 74 74
28.531250000000 18.281250000000 53.227996826172 75 75 75
28.484375000000 18.234375000000 53.291000366211 233 233 233
28.515625000000 18.250000000000 53.362991333008 195 195 195
28.515625000000 18.250000000000 53.430999755859 200 200 200
29.718750000000 18.953125000000 53.647994995117 237 237 237
29.515625000000 18.843750000000 53.696990966797 29 29 29
28.500000000000 18.234375000000 53.634002685547 234 234 234
28.484375000000 18.218750000000 53.699996948242 221 221 221
28.578125000000 18.265625000000 53.781997680664 204 204 204
28.671875000000 18.312500000000 53.862991333008 234 234 234
28.859375000000 18.437500000000 53.964996337891 189 189 189
28.796875000000 18.375000000000 54.024993896484 171 171 171
28.750000000000 18.343750000000 54.087997436523 174 174 174
28.718750000000 18.328125000000 54.151992797852 169 169 169
28.734375000000 18.343750000000 54.225997924805 210 210 210
29.750000000000 18.921875000000 54.496994018555 194 194 194
29.828125000000 18.968750000000 54.591995239258 167 167 167
29.359375000000 18.703125000000 54.572998046875 177 177 177
29.312500000000 18.671875000000 54.636993408203 189 189 189
29.359375000000 18.703125000000 54.723999023438 178 178 178
29.546875000000 18.781250000000 54.841003417969 19 19 19
31.640625000000 20.015625000000 55.425994873047 131 131 131
29.281250000000 18.640625000000 54.934997558594 146 146 146
29.218750000000 18.578125000000 54.990997314453 117 117 117
29.171875000000 18.546875000000 55.055999755859 136 136 136
29.171875000000 18.546875000000 55.130996704102 149 149 149
29.296875000000 18.640625000000 55.242996215820 139 139 139
29.281250000000 18.625000000000 55.313003540039 151 151 151
29.296875000000 18.625000000000 55.391998291016 155 155 155
29.328125000000 18.640625000000 55.483001708984 112 112 112
29.312500000000 18.625000000000 55.554000854492 93 93 93
29.296875000000 18.625000000000 55.626998901367 23 23 23
31.625000000000 20.234375000000 50.847991943359 51 51 51
30.593750000000 19.609375000000 51.291000366211 11 11 11
32.062500000000 20.265625000000 55.714004516602 64 64 64
31.031250000000 20.125000000000 52.501998901367 206 206 206
29.203125000000 18.984375000000 52.539993286133 9 9 9
28.906250000000 18.843750000000 52.602996826172 98 98 98
28.828125000000 18.781250000000 52.671005249023 132 132 132
28.078125000000 18.312500000000 52.705001831055 129 129 129
28.109375000000 18.328125000000 52.772003173828 161 161 161
28.312500000000 18.421875000000 53.380996704102 240 240 240
28.187500000000 18.343750000000 53.432998657227 186 186 186
28.156250000000 18.328125000000 53.496002197266 193 193 193
28.140625000000 18.312500000000 53.559005737305 177 177 177
28.843750000000 18.734375000000 53.724990844727 208 208 208
28.437500000000 18.468750000000 54.143005371094 239 239 239
29.781250000000 19.265625000000 54.473999023438 16 16 16
29.343750000000 18.984375000000 54.466003417969 207 207 207
29.218750000000 18.906250000000 54.514999389648 169 169 169
29.156250000000 18.890625000000 54.576995849609 213 213 213
29.359375000000 18.984375000000 54.694000244141 177 177 177
29.328125000000 18.968750000000 54.761993408203 20 20 20
28.968750000000 18.734375000000 54.748992919922 190 190 190
29.062500000000 18.796875000000 54.848999023438 172 172 172
29.109375000000 18.828125000000 54.931991577148 166 166 166
29.140625000000 18.843750000000 55.015991210938 174 174 174
29.187500000000 18.859375000000 55.102996826172 150 150 150
29.453125000000 19.015625000000 55.250991821289 170 170 170
29.359375000000 18.953125000000 55.305999755859 172 172 172
29.984375000000 19.328125000000 55.556991577148 198 198 198
29.937500000000 19.281250000000 55.626998901367 68 68 68
29.906250000000 19.265625000000 55.695999145508 111 111 111
29.890625000000 19.250000000000 55.772994995117 50 50 50
29.875000000000 19.234375000000 55.848999023438 33 33 33
31.593750000000 20.234375000000 56.490997314453 95 95 95
31.515625000000 20.187500000000 56.557998657227 114 114 114
31.171875000000 19.984375000000 56.541000366211 82 82 82
31.234375000000 20.015625000000 56.651000976563 72 72 72
31.218750000000 20.000000000000 56.738998413086 92 92 92
31.296875000000 20.062500000000 56.951995849609 12 12 12
31.265625000000 20.015625000000 57.039001464844 110 110 110
31.250000000000 20.000000000000 57.123001098633 29 29 29
31.171875000000 19.953125000000 57.192001342773 73 73 73
31.109375000000 19.921875000000 57.259994506836 135 135 135
31.062500000000 19.890625000000 57.332000732422 101 101 101
29.750000000000 19.406250000000 51.099990844727 12 12 12
30.484375000000 19.859375000000 51.106002807617 14 14 14
30.609375000000 19.937500000000 51.175994873047 28 28 28
29.718750000000 19.390625000000 51.333999633789 12 12 12
30.250000000000 19.640625000000 52.408996582031 165 165 165
32.078125000000 20.734375000000 52.615005493164 155 155 155
32.015625000000 20.671875000000 52.886993408203 58 58 58
31.546875000000 20.406250000000 52.955001831055 15 15 15
28.140625000000 18.343750000000 52.839004516602 133 133 133
28.265625000000 18.406250000000 53.311004638672 2 2 2
31.281250000000 20.156250000000 53.893997192383 10 10 10
29.406250000000 19.062500000000 53.878997802734 38 38 38
31.500000000000 20.203125000000 56.276992797852 9 9 9
31.609375000000 20.234375000000 56.401992797852 77 77 77
31.359375000000 20.281250000000 53.031997680664 3 3 3
29.937500000000 19.750000000000 52.518005371094 134 134 134
27.781250000000 18.468750000000 52.533004760742 196 196 196
27.812500000000 18.468750000000 52.597000122070 200 200 200
27.906250000000 18.531250000000 52.727996826172 181 181 181
27.937500000000 18.531250000000 52.793991088867 157 157 157
31.421875000000 20.609375000000 53.076004028320 25 25 25
28.421875000000 18.828125000000 52.955001831055 225 225 225
28.500000000000 18.859375000000 53.093994140625 123 123 123
28.343750000000 18.750000000000 53.149002075195 72 72 72
28.234375000000 18.656250000000 54.001998901367 197 197 197
28.203125000000 18.640625000000 54.065002441406 183 183 183
28.203125000000 18.640625000000 54.128997802734 166 166 166
28.046875000000 18.546875000000 54.434005737305 182 182 182
28.250000000000 18.640625000000 54.543991088867 181 181 181
31.046875000000 20.281250000000 55.291000366211 22 22 22
28.906250000000 19.015625000000 54.843002319336 173 173 173
28.750000000000 18.921875000000 54.880996704102 190 190 190
28.968750000000 19.031250000000 55.007003784180 171 171 171
28.671875000000 18.843750000000 54.996994018555 178 178 178
28.656250000000 18.859375000000 55.067001342773 181 181 181
29.218750000000 19.171875000000 55.298004150391 123 123 123
29.406250000000 19.281250000000 55.425994873047 212 212 212
29.687500000000 19.453125000000 55.589996337891 140 140 140
31.406250000000 20.453125000000 56.199996948242 16 16 16
29.687500000000 19.421875000000 55.748001098633 10 10 10
31.296875000000 20.390625000000 56.347991943359 66 66 66
31.109375000000 20.250000000000 56.376998901367 118 118 118
30.984375000000 20.171875000000 56.425994873047 151 151 151
30.921875000000 20.156250000000 56.496002197266 119 119 119
31.265625000000 20.343750000000 56.708999633789 28 28 28
31.296875000000 20.343750000000 56.906005859375 41 41 41
31.281250000000 20.343750000000 56.994995117188 100 100 100
31.312500000000 20.359375000000 57.100997924805 83 83 83
31.390625000000 20.390625000000 57.222000122070 19 19 19
31.125000000000 20.218750000000 57.401992797852 21 21 21
29.109375000000 19.328125000000 50.981994628906 11 11 11
29.078125000000 19.296875000000 51.061004638672 33 33 33
29.296875000000 19.468750000000 51.106994628906 21 21 21
29.109375000000 19.328125000000 51.199996948242 53 53 53
29.968750000000 19.765625000000 52.440994262695 52 52 52
31.328125000000 20.578125000000 52.983001708984 81 81 81
31.390625000000 20.593750000000 53.335998535156 23 23 23
28.062500000000 18.609375000000 53.188995361328 203 203 203
28.687500000000 18.937500000000 53.875000000000 138 138 138
28.593750000000 18.875000000000 53.930999755859 146 146 146
28.437500000000 18.781250000000 53.970001220703 179 179 179
28.500000000000 18.796875000000 54.255996704102 61 61 61
27.906250000000 18.453125000000 54.203994750977 148 148 148
31.328125000000 20.421875000000 55.901992797852 86 86 86
31.390625000000 20.437500000000 56.285003662109 76 76 76
28.906250000000 19.531250000000 50.752990722656 204 204 204
28.906250000000 19.531250000000 50.824005126953 184 184 184
28.953125000000 19.546875000000 50.888000488281 219 219 219
29.078125000000 19.609375000000 50.945999145508 28 28 28
29.046875000000 19.593750000000 51.022994995117 182 182 182
29.078125000000 19.609375000000 51.091995239258 205 205 205
29.171875000000 19.640625000000 51.154998779297 220 220 220
29.421875000000 19.812500000000 51.203002929688 231 231 231
29.062500000000 19.593750000000 51.309997558594 177 177 177
29.046875000000 19.562500000000 51.384002685547 178 178 178
29.015625000000 19.546875000000 51.457992553711 171 171 171
31.812500000000 21.250000000000 51.332992553711 27 27 27
29.468750000000 19.828125000000 51.572998046875 170 170 170
29.343750000000 19.750000000000 51.654998779297 162 162 162
29.125000000000 19.593750000000 51.740005493164 185 185 185
29.187500000000 19.625000000000 51.809005737305 192 192 192
29.156250000000 19.593750000000 51.882995605469 174 174 174
29.437500000000 19.750000000000 52.317001342773 188 188 188
29.656250000000 19.890625000000 52.393997192383 186 186 186
29.468750000000 19.781250000000 52.466003417969 171 171 171
29.406250000000 19.750000000000 52.539001464844 178 178 178
29.609375000000 19.859375000000 52.619003295898 84 84 84
27.812500000000 18.765625000000 52.625000000000 27 27 27
27.687500000000 18.703125000000 52.681991577148 6 6 6
27.625000000000 18.671875000000 52.740997314453 4 4 4
27.578125000000 18.640625000000 52.800994873047 207 207 207
27.656250000000 18.671875000000 52.865997314453 208 208 208
27.734375000000 18.718750000000 52.934997558594 197 197 197
27.968750000000 18.843750000000 53.015991210938 195 195 195
30.968750000000 20.593750000000 54.447998046875 145 145 145
27.906250000000 18.750000000000 53.968994140625 116 116 116
27.906250000000 18.750000000000 54.035995483398 240 240 240
27.890625000000 18.734375000000 54.098999023438 169 169 169
28.093750000000 18.859375000000 54.541992187500 180 180 180
28.156250000000 18.875000000000 54.621002197266 177 177 177
28.500000000000 19.093750000000 54.774993896484 186 186 186
28.437500000000 19.062500000000 54.830001831055 189 189 189
28.187500000000 18.906250000000 54.835998535156 194 194 194
28.500000000000 19.093750000000 54.987991333008 183 183 183
28.531250000000 19.093750000000 55.063003540039 215 215 215
28.609375000000 19.125000000000 55.160003662109 18 18 18
29.562500000000 19.671875000000 55.507003784180 172 172 172
29.546875000000 19.656250000000 55.580001831055 242 242 242
29.437500000000 19.593750000000 55.627990722656 31 31 31
31.937500000000 21.046875000000 56.498992919922 105 105 105
31.921875000000 21.031250000000 56.591003417969 27 27 27
31.437500000000 20.765625000000 56.529998779297 58 58 58
31.468750000000 20.765625000000 56.632003784180 123 123 123
31.468750000000 20.765625000000 56.729003906250 127 127 127
31.515625000000 20.796875000000 56.837005615234 102 102 102
31.515625000000 20.781250000000 56.929992675781 27 27 27
31.312500000000 20.656250000000 56.951004028320 16 16 16
31.031250000000 20.500000000000 56.944992065430 104 104 104
30.968750000000 20.468750000000 57.014999389648 121 121 121
31.031250000000 20.484375000000 57.125991821289 67 67 67
31.484375000000 20.750000000000 57.401992797852 68 68 68
31.484375000000 20.734375000000 57.492996215820 80 80 80
31.437500000000 20.703125000000 57.576004028320 67 67 67
31.406250000000 20.671875000000 57.656005859375 24 24 24
29.171875000000 19.609375000000 51.953994750977 111 111 111
29.468750000000 19.796875000000 52.242996215820 53 53 53
29.765625000000 19.937500000000 52.699996948242 183 183 183
32.093750000000 21.343750000000 52.882995605469 15 15 15
29.078125000000 19.500000000000 53.173995971680 161 161 161
27.953125000000 18.796875000000 53.462005615234 75 75 75
27.984375000000 18.812500000000 53.529998779297 40 40 40
30.203125000000 20.125000000000 54.388000488281 65 65 65
27.875000000000 18.734375000000 54.160003662109 75 75 75
27.890625000000 18.734375000000 54.229995727539 145 145 145
28.171875000000 18.906250000000 54.492004394531 106 106 106
31.250000000000 20.656250000000 56.194000244141 121 121 121
28.718750000000 19.718750000000 50.744995117188 155 155 155
28.750000000000 19.703125000000 50.813003540039 145 145 145
28.453125000000 19.562500000000 50.921997070313 191 191 191
28.328125000000 19.453125000000 51.005996704102 223 223 223
28.312500000000 19.453125000000 51.076004028320 189 189 189
28.375000000000 19.500000000000 51.136993408203 1 1 1
29.500000000000 20.171875000000 51.082992553711 88 88 88
28.718750000000 19.687500000000 51.236999511719 155 155 155
28.765625000000 19.703125000000 51.304000854492 146 146 146
28.062500000000 19.296875000000 51.434005737305 188 188 188
28.078125000000 19.296875000000 51.498001098633 214 214 214
28.921875000000 19.796875000000 51.500991821289 186 186 186
28.953125000000 19.812500000000 51.570999145508 152 152 152
28.750000000000 19.671875000000 51.654998779297 180 180 180
28.796875000000 19.687500000000 51.722000122070 168 168 168
29.171875000000 19.921875000000 51.774993896484 179 179 179
29.281250000000 20.015625000000 51.843002319336 166 166 166
29.953125000000 20.390625000000 51.893997192383 8 8 8
29.890625000000 20.359375000000 51.973999023438 5 5 5
30.515625000000 20.734375000000 52.119995117188 255 255 255
