0.437500000000 7.734375000000 9.167007446289 119 119 119
0.312500000000 7.796875000000 9.090011596680 142 142 142
0.218750000000 7.859375000000 9.012008666992 147 147 147
0.328125000000 7.796875000000 8.867004394531 151 151 151
0.609375000000 7.625000000000 8.154998779297 157 157 157
0.625000000000 7.625000000000 8.049011230469 204 204 204
0.625000000000 7.625000000000 7.945007324219 169 169 169
0.609375000000 7.625000000000 7.844009399414 182 182 182
1.156250000000 7.296875000000 7.611007690430 181 181 181
1.109375000000 7.328125000000 7.520004272461 167 167 167
0.875000000000 7.468750000000 7.473999023438 172 172 172
0.921875000000 7.421875000000 7.363006591797 154 154 154
0.921875000000 7.421875000000 7.258010864258 171 171 171
0.921875000000 7.421875000000 7.160003662109 191 191 191
1.046875000000 7.359375000000 7.038009643555 180 180 180
0.765625000000 7.515625000000 6.988998413086 180 180 180
0.640625000000 7.593750000000 6.912002563477 185 185 185
0.562500000000 7.640625000000 6.822006225586 158 158 158
0.937500000000 7.406250000000 6.658004760742 151 151 151
0.671875000000 7.562500000000 6.600997924805 192 192 192
0.609375000000 7.609375000000 6.512008666992 98 98 98
0.671875000000 7.578125000000 6.401000976563 140 140 140
0.765625000000 7.515625000000 6.286010742188 150 150 150
0.921875000000 7.406250000000 6.167007446289 32 32 32
0.484375000000 7.687500000000 6.123001098633 128 128 128
0.062500000000 7.906250000000 6.067001342773 84 84 84
0.156250000000 7.859375000000 5.850006103516 128 128 128
0.156250000000 7.859375000000 5.643005371094 16 16 16
0.437500000000 7.406250000000 9.235000610352 99 99 99
0.265625000000 7.515625000000 9.184997558594 147 147 147
0.281250000000 7.500000000000 9.066009521484 155 155 155
0.234375000000 7.515625000000 8.865005493164 123 123 123
0.125000000000 7.593750000000 8.789001464844 101 101 101
0.125000000000 7.593750000000 8.680007934570 111 111 111
0.703125000000 7.234375000000 8.404006958008 19 19 19
0.328125000000 7.453125000000 7.977005004883 155 155 155
0.046875000000 7.625000000000 7.939010620117 86 86 86
0.265625000000 7.484375000000 7.675003051758 127 127 127
0.671875000000 7.250000000000 7.484008789063 156 156 156
1.015625000000 7.046875000000 7.307006835938 212 212 212
0.828125000000 7.156250000000 7.246002197266 176 176 176
0.656250000000 7.250000000000 7.177001953125 142 142 142
0.640625000000 7.265625000000 7.080001831055 132 132 132
0.390625000000 7.406250000000 7.023010253906 141 141 141
0.421875000000 7.390625000000 6.710006713867 132 132 132
0.484375000000 7.328125000000 6.596008300781 189 189 189
0.296875000000 7.453125000000 6.522003173828 176 176 176
0.359375000000 7.421875000000 6.411010742188 154 154 154
0.265625000000 7.484375000000 6.322006225586 135 135 135
0.078125000000 7.578125000000 6.240997314453 144 144 144
0.500000000000 7.328125000000 6.085998535156 168 168 168
0.312500000000 7.437500000000 6.007003784180 149 149 149
0.171875000000 7.515625000000 5.917999267578 172 172 172
0.234375000000 7.484375000000 5.809997558594 104 104 104
0.265625000000 7.156250000000 7.630996704102 16 16 16
0.015625000000 7.312500000000 7.583007812500 110 110 110
0.656250000000 6.921875000000 7.342010498047 192 192 192
0.625000000000 6.968750000000 7.251007080078 84 84 84
0.359375000000 7.093750000000 6.779998779297 184 184 184
0.390625000000 7.078125000000 6.570999145508 201 201 201
0.359375000000 7.093750000000 6.367004394531 113 113 113
0.453125000000 7.031250000000 6.253997802734 100 100 100
0.265625000000 7.140625000000 6.176010131836 129 129 129
0.359375000000 7.078125000000 6.061004638672 136 136 136
0.203125000000 7.171875000000 5.975997924805 148 148 148
0.046875000000 7.265625000000 5.786010742188 128 128 128
0.000000000000 6.984375000000 6.147003173828 83 83 83
0.375000000000 6.781250000000 6.000000000000 150 150 150
0.031250000000 6.968750000000 5.934005737305 122 122 122
0.531250000000 6.687500000000 5.988998413086 36 36 36
1.062500000000 6.984375000000 7.201004028320 107 107 107
1.156250000000 7.046875000000 7.277008056641 75 75 75
0.265625000000 6.890625000000 5.860000610352 30 30 30
0.046875000000 6.765625000000 5.985000610352 68 68 68
1.781250000000 7.750000000000 5.888000488281 13 13 13
1.765625000000 7.750000000000 5.982009887695 168 168 168
0.406250000000 6.968750000000 6.251998901367 75 75 75
0.921875000000 7.265625000000 6.279998779297 135 135 135
1.671875000000 7.687500000000 6.271011352539 174 174 174
1.484375000000 7.578125000000 6.395004272461 161 161 161
1.328125000000 7.484375000000 6.510009765625 119 119 119
1.234375000000 7.437500000000 6.623001098633 55 55 55
1.656250000000 7.671875000000 6.649002075195 155 155 155
0.875000000000 7.250000000000 6.979003906250 11 11 11
0.953125000000 7.281250000000 7.061004638672 90 90 90
1.796875000000 7.750000000000 6.999008178711 123 123 123
1.875000000000 7.828125000000 7.070999145508 191 191 191
0.765625000000 7.171875000000 7.400009155273 43 43 43
0.984375000000 7.312500000000 7.453002929688 51 51 51
1.078125000000 7.343750000000 7.537002563477 121 121 121
1.562500000000 7.640625000000 7.523010253906 105 105 105
1.578125000000 7.640625000000 7.617004394531 80 80 80
1.453125000000 7.578125000000 7.740005493164 97 97 97
1.828125000000 7.781250000000 7.743011474609 115 115 115
1.906250000000 7.828125000000 7.819000244141 66 66 66
0.250000000000 6.875000000000 6.065002441406 102 102 102
1.062500000000 7.703125000000 5.725006103516 154 154 154
1.453125000000 7.921875000000 5.969009399414 195 195 195
1.609375000000 8.015625000000 6.042007446289 185 185 185
1.109375000000 7.718750000000 6.205001831055 179 179 179
1.328125000000 7.859375000000 6.268005371094 163 163 163
1.312500000000 7.843750000000 6.367004394531 172 172 172
1.046875000000 7.687500000000 6.505004882813 185 185 185
1.125000000000 7.765625000000 6.585998535156 164 164 164
1.468750000000 7.937500000000 6.628005981445 168 168 168
1.546875000000 7.984375000000 6.708007812500 159 159 159
1.687500000000 8.062500000000 6.781005859375 188 188 188
1.812500000000 8.140625000000 6.852005004883 171 171 171
1.828125000000 8.156250000000 6.941009521484 208 208 208
2.031250000000 8.265625000000 6.994003295898 227 227 227
1.578125000000 8.015625000000 7.177001953125 81 81 81
1.468750000000 7.937500000000 7.296005249023 179 179 179
1.812500000000 8.140625000000 7.317001342773 222 222 222
1.937500000000 8.187500000000 7.388000488281 184 184 184
1.906250000000 8.187500000000 7.486007690430 165 165 165
1.953125000000 8.218750000000 7.569000244141 186 186 186
1.953125000000 8.218750000000 7.664001464844 198 198 198
1.968750000000 8.218750000000 7.755996704102 224 224 224
1.500000000000 7.953125000000 7.971008300781 186 186 186
0.859375000000 7.593750000000 9.074005126953 22 22 22
1.843750000000 8.546875000000 5.878997802734 176 176 176
1.781250000000 8.500000000000 5.979003906250 182 182 182
1.062500000000 8.078125000000 6.165008544922 186 186 186
1.093750000000 8.109375000000 6.255996704102 170 170 170
1.031250000000 8.062500000000 6.363006591797 166 166 166
1.750000000000 8.484375000000 6.354003906250 245 245 245
1.218750000000 8.171875000000 6.531005859375 147 147 147
1.437500000000 8.312500000000 6.590011596680 194 194 194
1.312500000000 8.218750000000 6.708999633789 76 76 76
1.656250000000 8.437500000000 6.740997314453 185 185 185
1.703125000000 8.453125000000 6.828002929688 148 148 148
1.750000000000 8.468750000000 6.914001464844 22 22 22
1.546875000000 8.359375000000 7.048004150391 179 179 179
1.859375000000 8.546875000000 7.078002929688 186 186 186
1.781250000000 8.500000000000 7.188003540039 164 164 164
1.890625000000 8.562500000000 7.257003784180 185 185 185
1.890625000000 8.546875000000 7.352005004883 221 221 221
1.812500000000 8.531250000000 7.460998535156 194 194 194
0.656250000000 7.859375000000 7.835998535156 103 103 103
1.781250000000 8.500000000000 7.660003662109 223 223 223
2.031250000000 8.640625000000 7.785003662109 197 197 197
1.359375000000 8.265625000000 8.061996459961 114 114 114
1.703125000000 8.453125000000 8.066009521484 141 141 141
1.750000000000 8.484375000000 8.148010253906 60 60 60
0.078125000000 7.531250000000 8.731002807617 59 59 59
1.406250000000 8.281250000000 8.447006225586 184 184 184
0.718750000000 7.890625000000 8.755004882813 146 146 146
0.453125000000 7.718750000000 9.055007934570 124 124 124
0.296875000000 7.640625000000 9.210006713867 56 56 56
0.984375000000 8.046875000000 9.192001342773 131 131 131
0.921875000000 8.000000000000 9.320007324219 119 119 119
0.390625000000 7.703125000000 9.619003295898 73 73 73
0.515625000000 7.781250000000 7.147003173828 101 101 101
0.312500000000 8.046875000000 5.717010498047 70 70 70
0.781250000000 8.312500000000 5.771011352539 117 117 117
1.109375000000 8.515625000000 5.832000732422 206 206 206
1.734375000000 8.859375000000 5.860000610352 237 237 237
0.812500000000 8.328125000000 6.064010620117 131 131 131
0.921875000000 8.406250000000 6.147003173828 115 115 115
1.203125000000 8.578125000000 6.205001831055 183 183 183
1.015625000000 8.453125000000 6.428009033203 185 185 185
0.687500000000 8.265625000000 6.574996948242 196 196 196
1.156250000000 8.531250000000 6.598007202148 188 188 188
0.531250000000 8.156250000000 6.906005859375 132 132 132
0.875000000000 8.375000000000 6.941009521484 126 126 126
1.296875000000 8.625000000000 6.958999633789 178 178 178
1.625000000000 8.812500000000 6.995010375977 217 217 217
1.671875000000 8.812500000000 7.082000732422 184 184 184
1.515625000000 8.734375000000 7.207000732422 198 198 198
1.609375000000 8.796875000000 7.285003662109 195 195 195
1.765625000000 8.890625000000 7.343002319336 242 242 242
1.390625000000 8.656250000000 7.527008056641 229 229 229
0.968750000000 8.421875000000 7.723007202148 198 198 198
1.109375000000 8.500000000000 7.791000366211 156 156 156
0.750000000000 8.296875000000 7.979003906250 149 149 149
1.031250000000 8.468750000000 8.007003784180 215 215 215
0.921875000000 8.406250000000 8.139007568359 116 116 116
1.093750000000 8.484375000000 8.195007324219 151 151 151
1.203125000000 8.562500000000 8.263000488281 233 233 233
1.390625000000 8.656250000000 8.311996459961 208 208 208
1.250000000000 8.593750000000 8.451004028320 168 168 168
0.984375000000 8.437500000000 8.635009765625 170 170 170
0.906250000000 8.390625000000 8.762008666992 190 190 190
1.296875000000 8.625000000000 8.736999511719 214 214 214
1.062500000000 8.484375000000 8.921997070313 159 159 159
0.843750000000 8.343750000000 9.095001220703 131 131 131
0.468750000000 8.140625000000 9.324005126953 29 29 29
1.000000000000 8.437500000000 9.253005981445 64 64 64
1.109375000000 8.500000000000 9.320999145508 146 146 146
1.093750000000 8.484375000000 9.432006835938 143 143 143
0.875000000000 8.375000000000 9.611007690430 66 66 66
0.937500000000 8.390625000000 9.701004028320 58 58 58
1.234375000000 8.953125000000 6.837005615234 206 206 206
0.796875000000 8.703125000000 7.217010498047 11 11 11
0.671875000000 8.640625000000 7.340011596680 180 180 180
0.187500000000 8.343750000000 7.549011230469 122 122 122
0.484375000000 8.531250000000 7.585006713867 156 156 156
0.437500000000 8.500000000000 7.699996948242 180 180 180
1.453125000000 9.078125000000 7.568008422852 201 201 201
1.578125000000 9.140625000000 7.634002685547 247 247 247
1.500000000000 9.109375000000 7.750000000000 213 213 213
1.171875000000 8.906250000000 7.932998657227 170 170 170
1.390625000000 9.031250000000 7.975997924805 167 167 167
1.296875000000 8.968750000000 8.098999023438 168 168 168
1.328125000000 9.000000000000 8.191009521484 187 187 187
1.203125000000 8.937500000000 8.322006225586 201 201 201
1.062500000000 8.859375000000 8.465011596680 162 162 162
0.765625000000 8.671875000000 8.658004760742 183 183 183
0.953125000000 8.796875000000 8.697006225586 170 170 170
0.968750000000 8.812500000000 8.799011230469 183 183 183
1.265625000000 8.968750000000 8.809005737305 157 157 157
1.343750000000 9.015625000000 8.887008666992 196 196 196
1.390625000000 9.046875000000 8.972000122070 197 197 197
0.531250000000 8.546875000000 9.471008300781 139 139 139
0.671875000000 8.640625000000 9.527999877930 143 143 143
0.578125000000 8.562500000000 9.678009033203 98 98 98
0.640625000000 8.609375000000 9.761001586914 127 127 127
0.640625000000 8.609375000000 9.871002197266 111 111 111
0.562500000000 8.562500000000 10.013000488281 45 45 45
0.609375000000 8.593750000000 10.104003906250 13 13 13
0.125000000000 8.312500000000 5.794998168945 64 64 64
1.140625000000 8.906250000000 6.467010498047 26 26 26
1.015625000000 8.828125000000 6.583007812500 34 34 34
1.171875000000 8.906250000000 6.654998779297 93 93 93
1.546875000000 9.140625000000 6.686996459961 166 166 166
0.078125000000 8.640625000000 7.298004150391 149 149 149
0.484375000000 8.875000000000 7.322006225586 131 131 131
1.281250000000 9.343750000000 7.255004882813 183 183 183
1.156250000000 9.250000000000 7.382003784180 105 105 105
0.593750000000 8.953125000000 7.606002807617 167 167 167
1.156250000000 9.250000000000 7.582000732422 208 208 208
1.312500000000 9.359375000000 7.639007568359 179 179 179
1.343750000000 9.375000000000 7.729003906250 187 187 187
1.390625000000 9.390625000000 7.818008422852 194 194 194
1.312500000000 9.359375000000 7.934005737305 216 216 216
1.250000000000 9.312500000000 8.053009033203 200 200 200
1.468750000000 9.453125000000 8.090011596680 195 195 195
1.468750000000 9.437500000000 8.191009521484 200 200 200
0.484375000000 8.859375000000 8.574996948242 139 139 139
1.015625000000 9.187500000000 8.523010253906 148 148 148
1.093750000000 9.203125000000 8.604003906250 150 150 150
1.109375000000 9.218750000000 8.705001831055 171 171 171
1.093750000000 9.203125000000 8.809997558594 172 172 172
1.093750000000 9.203125000000 8.912002563477 159 159 159
0.546875000000 8.906250000000 9.192001342773 144 144 144
0.640625000000 8.953125000000 9.270004272461 140 140 140
0.593750000000 8.953125000000 9.391006469727 117 117 117
0.578125000000 8.937500000000 9.507003784180 138 138 138
0.390625000000 8.812500000000 9.684997558594 133 133 133
0.515625000000 8.875000000000 9.749008178711 113 113 113
0.390625000000 8.828125000000 9.899002075195 106 106 106
0.390625000000 8.828125000000 10.010009765625 40 40 40
0.421875000000 8.843750000000 10.218002319336 30 30 30
0.500000000000 8.875000000000 10.305999755859 13 13 13
0.765625000000 9.015625000000 5.873001098633 6 6 6
0.453125000000 8.859375000000 6.410003662109 8 8 8
1.109375000000 9.218750000000 6.513000488281 88 88 88
0.265625000000 8.750000000000 6.848007202148 6 6 6
0.109375000000 8.656250000000 7.188003540039 123 123 123
0.015625000000 8.625000000000 6.994003295898 81 81 81
0.750000000000 9.359375000000 7.300003051758 163 163 163
1.281250000000 9.671875000000 7.290008544922 5 5 5
1.218750000000 9.625000000000 7.402999877930 11 11 11
1.093750000000 9.562500000000 7.527008056641 135 135 135
0.812500000000 9.406250000000 7.690002441406 67 67 67
0.718750000000 9.359375000000 7.811004638672 151 151 151
0.921875000000 9.453125000000 7.869003295898 224 224 224
1.218750000000 9.625000000000 7.897003173828 226 226 226
0.781250000000 9.390625000000 8.108001708984 141 141 141
1.093750000000 9.562500000000 8.225006103516 189 189 189
0.421875000000 9.187500000000 8.518005371094 92 92 92
0.843750000000 9.421875000000 8.503997802734 191 191 191
0.812500000000 9.406250000000 8.611007690430 170 170 170
0.546875000000 9.250000000000 8.796997070313 154 154 154
0.875000000000 9.453125000000 8.798004150391 193 193 193
0.437500000000 9.187500000000 9.049011230469 139 139 139
0.500000000000 9.234375000000 9.130004882813 163 163 163
0.531250000000 9.250000000000 9.231002807617 169 169 169
0.296875000000 9.109375000000 9.423004150391 134 134 134
0.453125000000 9.203125000000 9.473007202148 151 151 151
0.687500000000 9.328125000000 9.503997802734 84 84 84
0.765625000000 9.375000000000 7.095001220703 144 144 144
0.921875000000 9.453125000000 7.165008544922 120 120 120
0.625000000000 9.656250000000 8.188003540039 163 163 163
0.468750000000 9.546875000000 7.710998535156 83 83 83
0.578125000000 9.640625000000 7.786010742188 39 39 39
0.406250000000 9.531250000000 7.928009033203 85 85 85
0.406250000000 9.531250000000 8.141006469727 95 95 95
0.359375000000 9.500000000000 8.790008544922 24 24 24
0.078125000000 9.343750000000 5.809005737305 17 17 17
0.031250000000 9.312500000000 5.708999633789 14 14 14
0.312500000000 6.625000000000 5.970001220703 151 151 151
0.000000000000 6.640625000000 6.100997924805 19 19 19
0.078125000000 6.984375000000 5.954010009766 48 48 48
0.218750000000 6.984375000000 6.026000976563 152 152 152
0.296875000000 6.984375000000 6.107009887695 144 144 144
0.312500000000 7.000000000000 6.193008422852 140 140 140
0.406250000000 7.000000000000 6.268997192383 148 148 148
0.359375000000 7.000000000000 6.363998413086 166 166 166
0.265625000000 7.000000000000 6.466003417969 58 58 58
0.406250000000 7.000000000000 6.537002563477 131 131 131
0.546875000000 6.984375000000 6.781997680664 17 17 17
0.906250000000 7.000000000000 7.065002441406 101 101 101
0.906250000000 7.000000000000 7.152999877930 112 112 112
1.093750000000 6.984375000000 7.201004028320 59 59 59
1.156250000000 7.000000000000 7.274002075195 107 107 107
0.343750000000 7.375000000000 5.623001098633 15 15 15
0.140625000000 7.375000000000 5.734008789063 98 98 98
0.296875000000 7.375000000000 5.804000854492 92 92 92
0.234375000000 7.375000000000 6.079010009766 156 156 156
0.531250000000 7.359375000000 6.130004882813 87 87 87
0.359375000000 7.375000000000 6.243011474609 122 122 122
0.890625000000 7.375000000000 6.251998901367 177 177 177
1.234375000000 7.359375000000 6.285003662109 201 201 201
1.296875000000 7.375000000000 6.359008789063 182 182 182
0.640625000000 7.375000000000 6.553009033203 120 120 120
1.187500000000 7.375000000000 6.546005249023 173 173 173
1.296875000000 7.375000000000 6.611999511719 180 180 180
0.703125000000 7.375000000000 6.893997192383 128 128 128
0.734375000000 7.375000000000 6.977005004883 127 127 127
0.921875000000 7.375000000000 7.027999877930 131 131 131
0.828125000000 7.375000000000 7.135009765625 127 127 127
1.046875000000 7.375000000000 7.175003051758 145 145 145
0.140625000000 7.375000000000 7.464004516602 72 72 72
0.953125000000 7.375000000000 7.373001098633 161 161 161
0.953125000000 7.375000000000 7.460998535156 109 109 109
0.859375000000 7.375000000000 7.572006225586 146 146 146
0.390625000000 7.375000000000 7.781005859375 103 103 103
0.609375000000 7.375000000000 7.819000244141 86 86 86
0.687500000000 7.390625000000 7.886001586914 129 129 129
0.671875000000 7.375000000000 7.979003906250 66 66 66
0.734375000000 7.375000000000 8.057998657227 73 73 73
0.546875000000 7.375000000000 8.197006225586 67 67 67
0.671875000000 7.375000000000 8.257003784180 29 29 29
0.234375000000 7.390625000000 9.055999755859 43 43 43
1.265625000000 7.750000000000 5.751007080078 165 165 165
1.406250000000 7.750000000000 5.817001342773 13 13 13
1.734375000000 7.750000000000 5.857009887695 29 29 29
1.546875000000 7.750000000000 5.962997436523 193 193 193
1.156250000000 7.750000000000 6.100997924805 153 153 153
1.062500000000 7.750000000000 6.195999145508 136 136 136
1.187500000000 7.750000000000 6.264999389648 160 160 160
1.296875000000 7.750000000000 6.332000732422 199 199 199
1.359375000000 7.750000000000 6.408996582031 147 147 147
0.593750000000 7.750000000000 6.620010375977 156 156 156
1.250000000000 7.750000000000 6.594009399414 171 171 171
1.593750000000 7.750000000000 6.615005493164 179 179 179
1.312500000000 7.750000000000 6.753005981445 171 171 171
1.328125000000 7.750000000000 6.835006713867 177 177 177
0.750000000000 7.750000000000 7.031997680664 172 172 172
1.062500000000 7.750000000000 7.055007934570 173 173 173
1.890625000000 7.750000000000 6.968002319336 232 232 232
0.593750000000 7.750000000000 7.335998535156 108 108 108
0.968750000000 7.750000000000 7.341003417969 175 175 175
0.718750000000 7.765625000000 7.484008789063 154 154 154
1.187500000000 7.765625000000 7.464004516602 177 177 177
1.187500000000 7.750000000000 7.553009033203 186 186 186
0.937500000000 7.750000000000 7.704010009766 143 143 143
1.000000000000 7.765625000000 7.773010253906 194 194 194
1.125000000000 7.750000000000 7.830001831055 156 156 156
1.437500000000 7.765625000000 7.839004516602 183 183 183
0.968750000000 7.750000000000 8.049011230469 111 111 111
0.000000000000 7.765625000000 8.707000732422 103 103 103
0.093750000000 7.765625000000 8.773010253906 21 21 21
0.656250000000 7.765625000000 8.695999145508 160 160 160
0.078125000000 7.765625000000 8.973007202148 129 129 129
0.390625000000 7.765625000000 8.973007202148 148 148 148
0.515625000000 7.765625000000 9.024002075195 151 151 151
0.296875000000 7.765625000000 9.194000244141 95 95 95
0.375000000000 7.765625000000 9.266006469727 54 54 54
0.390625000000 7.765625000000 9.359008789063 18 18 18
0.406250000000 7.765625000000 9.449996948242 55 55 55
1.031250000000 8.125000000000 5.733001708984 165 165 165
1.406250000000 8.125000000000 5.771011352539 62 62 62
1.375000000000 8.125000000000 5.859008789063 241 241 241
1.468750000000 8.109375000000 5.928009033203 177 177 177
1.531250000000 8.109375000000 6.003005981445 188 188 188
1.437500000000 8.109375000000 6.098999023438 205 205 205
1.500000000000 8.109375000000 6.169998168945 201 201 201
1.031250000000 8.125000000000 6.326004028320 117 117 117
1.375000000000 8.125000000000 6.358001708984 197 197 197
0.968750000000 8.125000000000 6.508010864258 184 184 184
1.281250000000 8.109375000000 6.538009643555 6 6 6
1.437500000000 8.109375000000 6.600006103516 221 221 221
0.500000000000 8.125000000000 6.858001708984 126 126 126
1.468750000000 8.125000000000 6.760009765625 206 206 206
1.875000000000 8.125000000000 6.763000488281 25 25 25
1.687500000000 8.109375000000 6.882003784180 234 234 234
1.656250000000 8.109375000000 6.973999023438 194 194 194
0.906250000000 8.125000000000 7.219009399414 163 163 163
1.531250000000 8.109375000000 7.166000366211 185 185 185
0.875000000000 8.125000000000 7.401000976563 164 164 164
1.734375000000 8.125000000000 7.287002563477 189 189 189
1.593750000000 8.125000000000 7.404006958008 179 179 179
1.687500000000 8.109375000000 7.470001220703 157 157 157
1.765625000000 8.125000000000 7.531997680664 209 209 209
1.250000000000 8.125000000000 7.751007080078 153 153 153
1.218750000000 8.125000000000 7.847000122070 157 157 157
1.250000000000 8.125000000000 7.927001953125 144 144 144
1.390625000000 8.125000000000 7.977005004883 188 188 188
1.468750000000 8.125000000000 8.044006347656 185 185 185
1.437500000000 8.125000000000 8.138000488281 154 154 154
1.406250000000 8.125000000000 8.232009887695 187 187 187
1.281250000000 8.125000000000 8.363006591797 195 195 195
0.562500000000 8.125000000000 8.674011230469 159 159 159
0.718750000000 8.140625000000 8.717010498047 170 170 170
0.125000000000 8.140625000000 9.005996704102 108 108 108
0.625000000000 8.140625000000 8.941009521484 146 146 146
0.546875000000 8.125000000000 9.059005737305 136 136 136
0.687500000000 8.140625000000 9.104003906250 144 144 144
0.875000000000 8.125000000000 9.137008666992 108 108 108
0.843750000000 8.125000000000 9.244003295898 100 100 100
0.468750000000 8.125000000000 9.477005004883 106 106 106
0.812500000000 8.125000000000 9.447006225586 93 93 93
0.812500000000 8.125000000000 9.544998168945 85 85 85
0.156250000000 8.125000000000 6.734008789063 135 135 135
0.468750000000 8.125000000000 7.040008544922 128 128 128
1.562500000000 8.468750000000 5.859008789063 220 220 220
1.750000000000 8.468750000000 5.916000366211 203 203 203
1.843750000000 8.453125000000 5.984008789063 216 216 216
1.203125000000 8.468750000000 6.240997314453 157 157 157
1.250000000000 8.453125000000 6.319000244141 159 159 159
1.875000000000 8.468750000000 6.298004150391 183 183 183
1.312500000000 8.453125000000 6.557998657227 117 117 117
1.250000000000 8.468750000000 6.652999877930 190 190 190
1.437500000000 8.468750000000 6.705001831055 186 186 186
1.906250000000 8.468750000000 6.697998046875 178 178 178
1.875000000000 8.468750000000 6.785003662109 163 163 163
2.000000000000 8.453125000000 6.841003417969 176 176 176
2.093750000000 8.468750000000 6.904006958008 185 185 185
2.031250000000 8.468750000000 6.997009277344 211 211 211
2.062500000000 8.453125000000 7.074996948242 186 186 186
1.437500000000 8.484375000000 7.386001586914 210 210 210
1.937500000000 8.468750000000 7.348007202148 210 210 210
1.750000000000 8.468750000000 7.475006103516 224 224 224
1.468750000000 8.468750000000 7.632003784180 196 196 196
1.593750000000 8.468750000000 7.690002441406 177 177 177
1.937500000000 8.453125000000 7.686996459961 213 213 213
1.468750000000 8.468750000000 7.891006469727 175 175 175
1.531250000000 8.468750000000 7.965011596680 204 204 204
1.625000000000 8.468750000000 8.027999877930 176 176 176
1.656250000000 8.468750000000 8.100006103516 173 173 173
1.468750000000 8.468750000000 8.245010375977 165 165 165
1.375000000000 8.468750000000 8.361007690430 177 177 177
1.281250000000 8.468750000000 8.477005004883 198 198 198
0.875000000000 8.468750000000 8.697998046875 170 170 170
1.000000000000 8.468750000000 8.753005981445 183 183 183
1.000000000000 8.484375000000 8.844009399414 151 151 151
0.859375000000 8.484375000000 8.984008789063 142 142 142
1.046875000000 8.468750000000 9.014999389648 157 157 157
1.156250000000 8.468750000000 9.074005126953 180 180 180
0.859375000000 8.484375000000 9.268997192383 177 177 177
1.000000000000 8.468750000000 9.317001342773 121 121 121
1.062500000000 8.468750000000 9.383010864258 150 150 150
1.000000000000 8.468750000000 9.508010864258 122 122 122
1.093750000000 8.484375000000 9.565002441406 129 129 129
0.640625000000 8.484375000000 9.835998535156 45 45 45
0.640625000000 8.484375000000 9.934997558594 27 27 27
0.656250000000 8.468750000000 10.025009155273 7 7 7
1.328125000000 8.812500000000 5.827011108398 224 224 224
1.921875000000 8.812500000000 5.911010742188 10 10 10
0.046875000000 8.812500000000 6.258010864258 137 137 137
0.984375000000 8.812500000000 6.208999633789 194 194 194
0.328125000000 8.812500000000 6.393997192383 152 152 152
1.015625000000 8.828125000000 6.375000000000 187 187 187
0.718750000000 8.812500000000 6.512008666992 210 210 210
0.921875000000 8.812500000000 6.563003540039 198 198 198
1.312500000000 8.812500000000 6.581008911133 218 218 218
1.078125000000 8.812500000000 6.707000732422 212 212 212
1.218750000000 8.796875000000 6.768997192383 190 190 190
0.078125000000 8.828125000000 7.171997070313 162 162 162
0.078125000000 8.828125000000 7.263000488281 136 136 136
0.734375000000 8.812500000000 7.212997436523 198 198 198
1.437500000000 8.812500000000 7.149002075195 218 218 218
1.484375000000 8.812500000000 7.225006103516 7 7 7
1.562500000000 8.812500000000 7.289001464844 173 173 173
1.796875000000 8.828125000000 7.318008422852 235 235 235
1.843750000000 8.812500000000 7.389999389648 193 193 193
1.671875000000 8.812500000000 7.514999389648 246 246 246
1.359375000000 8.828125000000 7.679000854492 191 191 191
1.921875000000 8.812500000000 7.620010375977 212 212 212
2.078125000000 8.812500000000 7.664001464844 8 8 8
1.265625000000 8.812500000000 7.975006103516 177 177 177
1.390625000000 8.812500000000 8.024002075195 185 185 185
1.171875000000 8.812500000000 8.176010131836 157 157 157
1.328125000000 8.812500000000 8.215011596680 167 167 167
1.359375000000 8.828125000000 8.294998168945 160 160 160
1.031250000000 8.812500000000 8.488998413086 165 165 165
0.953125000000 8.828125000000 8.609008789063 161 161 161
1.281250000000 8.812500000000 8.594009399414 148 148 148
1.265625000000 8.812500000000 8.690002441406 145 145 145
1.015625000000 8.828125000000 8.863998413086 179 179 179
0.890625000000 8.828125000000 8.998001098633 152 152 152
0.828125000000 8.812500000000 9.115997314453 139 139 139
0.359375000000 8.812500000000 9.373001098633 121 121 121
0.562500000000 8.828125000000 9.399002075195 138 138 138
0.578125000000 8.812500000000 9.488006591797 129 129 129
0.578125000000 8.828125000000 9.591003417969 128 128 128
0.671875000000 8.828125000000 9.652999877930 105 105 105
0.359375000000 8.812500000000 9.865997314453 121 121 121
0.546875000000 8.812500000000 9.993011474609 36 36 36
0.421875000000 8.828125000000 10.146011352539 81 81 81
0.453125000000 8.828125000000 10.235000610352 27 27 27
0.031250000000 8.812500000000 6.169006347656 147 147 147
0.265625000000 8.828125000000 7.501007080078 131 131 131
1.015625000000 8.828125000000 7.947998046875 147 147 147
1.734375000000 9.171875000000 5.893997192383 168 168 168
1.765625000000 9.171875000000 5.972000122070 161 161 161
0.609375000000 9.187500000000 6.220001220703 49 49 49
1.015625000000 9.187500000000 6.246002197266 123 123 123
0.875000000000 9.171875000000 6.355010986328 57 57 57
0.359375000000 9.187500000000 6.524002075195 32 32 32
1.234375000000 9.171875000000 6.468002319336 86 86 86
1.421875000000 9.171875000000 6.520004272461 45 45 45
0.484375000000 9.187500000000 6.861007690430 86 86 86
0.390625000000 9.171875000000 6.971008300781 163 163 163
0.359375000000 9.187500000000 7.070007324219 154 154 154
1.921875000000 9.171875000000 7.083007812500 116 116 116
1.906250000000 9.171875000000 7.171005249023 224 224 224
0.609375000000 9.187500000000 7.557998657227 134 134 134
1.328125000000 9.187500000000 7.561996459961 152 152 152
1.265625000000 9.171875000000 7.662002563477 167 167 167
1.578125000000 9.171875000000 7.666000366211 195 195 195
1.234375000000 9.171875000000 7.846008300781 159 159 159
0.921875000000 9.171875000000 8.025009155273 175 175 175
1.093750000000 9.171875000000 8.063003540039 203 203 203
1.171875000000 9.171875000000 8.126998901367 188 188 188
1.000000000000 9.187500000000 8.272003173828 165 165 165
0.296875000000 9.187500000000 8.570999145508 141 141 141
0.953125000000 9.187500000000 8.469009399414 148 148 148
1.234375000000 9.171875000000 8.471008300781 157 157 157
1.109375000000 9.187500000000 8.602005004883 146 146 146
1.171875000000 9.187500000000 8.675003051758 165 165 165
0.640625000000 9.187500000000 8.936004638672 143 143 143
1.359375000000 9.187500000000 8.796005249023 160 160 160
0.750000000000 9.187500000000 9.092010498047 119 119 119
0.359375000000 9.187500000000 9.327011108398 103 103 103
0.453125000000 9.187500000000 9.393005371094 61 61 61
0.046875000000 9.187500000000 9.634002685547 5 5 5
0.109375000000 9.187500000000 9.715011596680 78 78 78
1.593750000000 9.171875000000 5.831008911133 187 187 187
0.593750000000 9.578125000000 5.930007934570 69 69 69
0.687500000000 9.562500000000 6.003997802734 115 115 115
0.875000000000 9.562500000000 6.065002441406 149 149 149
1.218750000000 9.562500000000 6.102996826172 102 102 102
1.375000000000 9.562500000000 6.162002563477 137 137 137
0.031250000000 9.578125000000 6.456008911133 99 99 99
0.671875000000 9.578125000000 6.444000244141 95 95 95
1.234375000000 9.562500000000 6.436996459961 116 116 116
1.078125000000 9.562500000000 6.550003051758 127 127 127
1.375000000000 9.578125000000 6.665008544922 209 209 209
0.875000000000 9.562500000000 6.844009399414 179 179 179
0.812500000000 9.578125000000 6.945999145508 170 170 170
0.375000000000 9.562500000000 7.305007934570 83 83 83
1.171875000000 9.562500000000 7.221008300781 213 213 213
0.953125000000 9.562500000000 7.356002807617 180 180 180
0.781250000000 9.562500000000 7.484008789063 171 171 171
0.968750000000 9.562500000000 7.533004760742 167 167 167
1.171875000000 9.562500000000 7.658004760742 179 179 179
1.281250000000 9.562500000000 7.717010498047 138 138 138
1.187500000000 9.562500000000 7.828002929688 179 179 179
1.187500000000 9.562500000000 7.914001464844 188 188 188
1.343750000000 9.562500000000 7.965011596680 153 153 153
1.218750000000 9.578125000000 8.085998535156 231 231 231
0.718750000000 9.562500000000 8.413009643555 111 111 111
0.765625000000 9.562500000000 8.490997314453 163 163 163
0.843750000000 9.578125000000 8.561004638672 114 114 114
1.187500000000 9.562500000000 8.639007568359 79 79 79
0.562500000000 9.562500000000 8.934005737305 35 35 35
0.593750000000 9.578125000000 9.018997192383 69 69 69
0.734375000000 9.578125000000 9.065002441406 40 40 40
0.781250000000 9.562500000000 9.143997192383 12 12 12
0.234375000000 9.562500000000 5.707000732422 36 36 36
0.234375000000 7.093750000000 7.658996582031 44 44 44
0.187500000000 7.125000000000 6.824996948242 181 181 181
0.328125000000 7.062500000000 6.596008300781 202 202 202
0.296875000000 7.078125000000 6.391998291016 146 146 146
0.421875000000 7.000000000000 6.274002075195 74 74 74
0.281250000000 7.093750000000 6.188003540039 156 156 156
0.359375000000 7.046875000000 6.076004028320 137 137 137
0.109375000000 7.187500000000 6.001007080078 174 174 174
0.359375000000 7.375000000000 9.292999267578 45 45 45
0.265625000000 7.421875000000 9.212997436523 136 136 136
0.140625000000 7.500000000000 9.141998291016 137 137 137
0.046875000000 7.562500000000 9.061004638672 160 160 160
0.109375000000 7.515625000000 8.929000854492 156 156 156
0.031250000000 7.562500000000 8.845001220703 87 87 87
0.390625000000 7.359375000000 8.311996459961 151 151 151
0.687500000000 7.203125000000 8.022003173828 13 13 13
0.437500000000 7.343750000000 7.979003906250 183 183 183
0.296875000000 7.421875000000 7.906997680664 157 157 157
0.156250000000 7.500000000000 7.729003906250 137 137 137
0.687500000000 7.203125000000 7.505996704102 159 159 159
1.109375000000 6.953125000000 7.317001342773 172 172 172
0.765625000000 7.156250000000 7.286010742188 208 208 208
0.890625000000 7.062500000000 7.158004760742 190 190 190
0.671875000000 7.203125000000 7.100997924805 153 153 153
0.390625000000 7.375000000000 7.050003051758 140 140 140
0.453125000000 7.328125000000 6.936004638672 166 166 166
0.484375000000 7.312500000000 6.725006103516 128 128 128
0.390625000000 7.375000000000 6.639007568359 215 215 215
0.375000000000 7.406250000000 6.332000732422 146 146 146
0.031250000000 7.609375000000 6.274002075195 157 157 157
0.515625000000 7.296875000000 6.108001708984 165 165 165
0.390625000000 7.390625000000 6.024002075195 163 163 163
0.125000000000 7.562500000000 5.949005126953 190 190 190
0.265625000000 7.468750000000 5.831008911133 142 142 142
0.250000000000 7.796875000000 9.725006103516 68 68 68
0.296875000000 7.765625000000 9.592010498047 26 26 26
0.343750000000 7.750000000000 9.466003417969 101 101 101
0.390625000000 7.718750000000 9.345001220703 93 93 93
0.296875000000 7.765625000000 9.261001586914 120 120 120
0.250000000000 7.796875000000 9.167007446289 135 135 135
0.125000000000 7.875000000000 9.100006103516 159 159 159
0.031250000000 7.937500000000 9.014999389648 123 123 123
0.156250000000 7.859375000000 8.865997314453 141 141 141
0.437500000000 7.718750000000 8.255004882813 158 158 158
0.640625000000 7.609375000000 8.100006103516 226 226 226
0.578125000000 7.609375000000 8.005004882813 165 165 165
1.046875000000 7.343750000000 7.688003540039 231 231 231
1.062500000000 7.343750000000 7.583007812500 200 200 200
0.859375000000 7.468750000000 7.529006958008 129 129 129
0.921875000000 7.421875000000 7.412002563477 151 151 151
1.062500000000 7.343750000000 7.283996582031 200 200 200
1.015625000000 7.375000000000 7.193008422852 191 191 191
0.375000000000 7.750000000000 7.214004516602 161 161 161
0.296875000000 7.796875000000 7.126007080078 148 148 148
0.625000000000 7.625000000000 6.967010498047 198 198 198
0.453125000000 7.703125000000 6.893005371094 229 229 229
0.984375000000 7.406250000000 6.702011108398 197 197 197
0.703125000000 7.578125000000 6.649002075195 166 166 166
0.765625000000 7.531250000000 6.536010742188 170 170 170
0.515625000000 7.687500000000 6.473007202148 148 148 148
0.890625000000 7.468750000000 6.319000244141 169 169 169
0.984375000000 7.406250000000 6.210006713867 144 144 144
0.375000000000 7.765625000000 6.186996459961 152 152 152
0.156250000000 7.890625000000 6.108001708984 123 123 123
0.171875000000 7.890625000000 5.900009155273 68 68 68
0.703125000000 7.593750000000 5.747009277344 180 180 180
0.250000000000 8.171875000000 9.787002563477 18 18 18
0.203125000000 8.203125000000 9.579010009766 77 77 77
0.375000000000 8.109375000000 9.412002563477 107 107 107
0.562500000000 7.984375000000 9.234008789063 141 141 141
0.625000000000 7.968750000000 9.109008789063 160 160 160
0.453125000000 8.062500000000 9.055999755859 127 127 127
0.343750000000 8.125000000000 8.983001708984 133 133 133
0.593750000000 7.968750000000 8.792999267578 189 189 189
0.593750000000 7.968750000000 8.684997558594 162 162 162
0.437500000000 8.078125000000 8.628997802734 157 157 157
0.390625000000 8.109375000000 8.538009643555 133 133 133
0.750000000000 7.906250000000 8.333007812500 193 193 193
0.750000000000 7.890625000000 8.227005004883 192 192 192
0.687500000000 7.937500000000 8.136001586914 194 194 194
1.046875000000 7.734375000000 7.949996948242 185 185 185
1.437500000000 7.500000000000 7.748001098633 196 196 196
0.906250000000 7.796875000000 7.777008056641 169 169 169
1.390625000000 7.531250000000 7.564010620117 178 178 178
1.078125000000 7.718750000000 7.533996582031 2 2 2
1.078125000000 7.718750000000 7.436004638672 185 185 185
0.906250000000 7.812500000000 7.372009277344 176 176 176
0.781250000000 7.890625000000 7.296005249023 151 151 151
0.718750000000 7.921875000000 7.204010009766 184 184 184
1.062500000000 7.734375000000 7.040008544922 163 163 163
1.203125000000 7.656250000000 6.917999267578 134 134 134
1.140625000000 7.687500000000 6.829010009766 170 170 170
0.937500000000 7.812500000000 6.764007568359 208 208 208
1.031250000000 7.750000000000 6.647003173828 141 141 141
1.265625000000 7.609375000000 6.514999389648 143 143 143
1.296875000000 7.593750000000 6.414001464844 196 196 196
1.312500000000 7.593750000000 6.313003540039 177 177 177
0.640625000000 7.984375000000 6.307006835938 172 172 172
1.203125000000 7.671875000000 6.137008666992 187 187 187
0.968750000000 7.781250000000 6.065002441406 106 106 106
0.937500000000 7.812500000000 5.872009277344 28 28 28
1.078125000000 7.734375000000 5.762008666992 182 182 182
0.093750000000 8.328125000000 5.758010864258 171 171 171
0.750000000000 8.250000000000 9.871002197266 38 38 38
0.734375000000 8.250000000000 9.764999389648 51 51 51
0.812500000000 8.234375000000 9.634002685547 160 160 160
0.843750000000 8.203125000000 9.511001586914 159 159 159
0.687500000000 8.296875000000 9.460006713867 146 146 146
0.671875000000 8.296875000000 9.358001708984 150 150 150
0.515625000000 8.390625000000 9.299011230469 157 157 157
0.656250000000 8.312500000000 9.147003173828 152 152 152
0.750000000000 8.250000000000 9.008010864258 183 183 183
0.484375000000 8.421875000000 8.990005493164 176 176 176
0.687500000000 8.312500000000 8.715011596680 170 170 170
0.765625000000 8.250000000000 8.583007812500 185 185 185
0.750000000000 8.281250000000 8.485000610352 191 191 191
0.796875000000 8.234375000000 8.367004394531 189 189 189
1.062500000000 8.078125000000 8.190002441406 212 212 212
1.062500000000 8.093750000000 8.091003417969 198 198 198
0.812500000000 8.250000000000 7.949996948242 189 189 189
1.765625000000 7.687500000000 7.613006591797 9 9 9
0.109375000000 8.640625000000 7.902999877930 136 136 136
1.218750000000 8.000000000000 7.549011230469 222 222 222
1.125000000000 8.062500000000 7.468002319336 2 2 2
1.093750000000 8.078125000000 7.176010131836 236 236 236
1.312500000000 7.937500000000 6.936996459961 237 237 237
0.359375000000 8.515625000000 7.009002685547 186 186 186
1.421875000000 7.890625000000 6.722000122070 227 227 227
1.625000000000 7.765625000000 6.592010498047 3 3 3
1.625000000000 7.765625000000 6.498001098633 41 41 41
1.250000000000 7.984375000000 6.365005493164 223 223 223
1.250000000000 7.984375000000 6.268005371094 188 188 188
1.609375000000 7.781250000000 5.936004638672 222 222 222
1.343750000000 7.937500000000 5.871002197266 237 237 237
1.312500000000 7.953125000000 5.779998779297 239 239 239
0.359375000000 8.515625000000 7.954010009766 120 120 120
0.453125000000 8.781250000000 10.251998901367 19 19 19
0.453125000000 8.796875000000 10.139999389648 56 56 56
0.515625000000 8.750000000000 10.001998901367 50 50 50
0.984375000000 8.484375000000 9.609008789063 66 66 66
1.000000000000 8.468750000000 9.498001098633 168 168 168
0.968750000000 8.500000000000 9.402999877930 152 152 152
1.140625000000 8.390625000000 9.235000610352 174 174 174
1.031250000000 8.453125000000 9.166000366211 170 170 170
1.093750000000 8.421875000000 9.046997070313 171 171 171
1.015625000000 8.468750000000 8.967010498047 157 157 157
1.015625000000 8.468750000000 8.861999511719 185 185 185
0.625000000000 8.703125000000 8.874008178711 129 129 129
0.828125000000 8.578125000000 8.706008911133 171 171 171
1.281250000000 8.312500000000 8.471008300781 183 183 183
1.156250000000 8.390625000000 8.404006958008 154 154 154
1.187500000000 8.375000000000 8.292999267578 182 182 182
1.328125000000 8.281250000000 8.156997680664 184 184 184
1.156250000000 8.390625000000 8.102005004883 199 199 199
1.125000000000 8.421875000000 8.012008666992 190 190 190
1.125000000000 8.406250000000 7.908004760742 197 197 197
1.671875000000 8.093750000000 7.673004150391 184 184 184
1.625000000000 8.125000000000 7.587997436523 164 164 164
1.531250000000 8.171875000000 7.513000488281 185 185 185
1.531250000000 8.171875000000 7.414001464844 153 153 153
1.750000000000 8.046875000000 7.080001831055 129 129 129
1.687500000000 8.078125000000 6.997009277344 220 220 220
1.843750000000 8.000000000000 6.876998901367 46 46 46
1.421875000000 8.250000000000 6.858001708984 216 216 216
1.500000000000 8.187500000000 6.746002197266 190 190 190
1.468750000000 8.218750000000 6.656005859375 17 17 17
1.218750000000 8.359375000000 6.600006103516 181 181 181
0.359375000000 8.890625000000 6.639007568359 41 41 41
1.140625000000 8.421875000000 6.419006347656 147 147 147
1.468750000000 8.218750000000 6.274002075195 160 160 160
1.375000000000 8.281250000000 6.191009521484 231 231 231
1.468750000000 8.234375000000 6.085006713867 127 127 127
0.109375000000 9.031250000000 6.152999877930 68 68 68
0.390625000000 8.875000000000 6.016998291016 85 85 85
1.312500000000 8.328125000000 5.817001342773 203 203 203
0.453125000000 8.828125000000 5.704010009766 12 12 12
0.812500000000 8.921875000000 9.391006469727 58 58 58
0.609375000000 9.062500000000 9.357009887695 114 114 114
0.828125000000 8.921875000000 9.171997070313 61 61 61
0.921875000000 8.875000000000 9.038009643555 127 127 127
0.984375000000 8.859375000000 8.915008544922 145 145 145
1.234375000000 8.687500000000 8.733001708984 165 165 165
1.171875000000 8.718750000000 8.647003173828 153 153 153
0.390625000000 9.203125000000 8.781005859375 116 116 116
1.359375000000 8.640625000000 8.391998291016 184 184 184
1.421875000000 8.578125000000 8.266998291016 188 188 188
1.625000000000 8.468750000000 8.117004394531 188 188 188
1.515625000000 8.531250000000 8.044998168945 187 187 187
1.312500000000 8.640625000000 8.000000000000 187 187 187
1.953125000000 8.281250000000 7.740005493164 215 215 215
1.921875000000 8.296875000000 7.654006958008 206 206 206
2.031250000000 8.250000000000 7.535003662109 174 174 174
1.937500000000 8.296875000000 7.460998535156 203 203 203
1.703125000000 8.437500000000 7.419998168945 242 242 242
1.625000000000 8.484375000000 7.343002319336 244 244 244
1.546875000000 8.515625000000 7.257003784180 217 217 217
1.515625000000 8.531250000000 7.166000366211 187 187 187
1.421875000000 8.593750000000 7.092010498047 206 206 206
1.968750000000 8.281250000000 6.889999389648 214 214 214
1.625000000000 8.484375000000 6.865005493164 201 201 201
1.546875000000 8.515625000000 6.777999877930 188 188 188
1.421875000000 8.609375000000 6.708007812500 191 191 191
1.234375000000 8.718750000000 6.641998291016 167 167 167
1.000000000000 8.875000000000 6.581008911133 20 20 20
0.937500000000 8.890625000000 6.492004394531 168 168 168
1.421875000000 8.609375000000 6.320999145508 190 190 190
0.125000000000 9.375000000000 6.406005859375 73 73 73
0.328125000000 9.250000000000 6.273010253906 123 123 123
0.375000000000 9.234375000000 6.166000366211 125 125 125
1.750000000000 8.421875000000 5.904006958008 222 222 222
0.718750000000 9.359375000000 9.484008789063 24 24 24
1.359375000000 8.984375000000 8.949005126953 28 28 28
1.312500000000 9.000000000000 8.861999511719 102 102 102
1.234375000000 9.046875000000 8.781997680664 125 125 125
1.203125000000 9.078125000000 8.697006225586 90 90 90
1.078125000000 9.156250000000 8.628997802734 130 130 130
1.484375000000 8.921875000000 8.309005737305 146 146 146
1.031250000000 9.187500000000 8.337997436523 71 71 71
1.343750000000 9.000000000000 8.146011352539 142 142 142
1.421875000000 8.953125000000 8.025009155273 158 158 158
1.296875000000 9.031250000000 7.960998535156 164 164 164
1.796875000000 8.734375000000 7.731002807617 211 211 211
1.953125000000 8.625000000000 7.595001220703 25 25 25
1.546875000000 8.890625000000 7.602996826172 212 212 212
1.843750000000 8.718750000000 7.434997558594 199 199 199
0.468750000000 9.500000000000 7.647003173828 69 69 69
0.437500000000 9.546875000000 7.554000854492 61 61 61
1.609375000000 8.843750000000 7.106002807617 230 230 230
1.421875000000 8.968750000000 6.951004028320 151 151 151
2.062500000000 8.578125000000 6.736007690430 226 226 226
0.843750000000 9.312500000000 6.860000610352 124 124 124
1.171875000000 9.125000000000 6.607009887695 160 160 160
1.140625000000 9.140625000000 6.513000488281 101 101 101
0.781250000000 9.359375000000 6.470001220703 96 96 96
0.921875000000 9.265625000000 6.348007202148 15 15 15
0.343750000000 9.609375000000 6.223007202148 14 14 14
1.156250000000 9.140625000000 5.927001953125 221 221 221
1.140625000000 9.156250000000 5.833007812500 200 200 200
0.218750000000 9.687500000000 5.827011108398 194 194 194
0.781250000000 9.328125000000 7.889007568359 139 139 139
1.281250000000 9.390625000000 9.029006958008 31 31 31
1.250000000000 9.406250000000 8.932998657227 34 34 34
1.265625000000 9.421875000000 8.828002929688 114 114 114
1.453125000000 9.312500000000 8.667007446289 87 87 87
1.187500000000 9.468750000000 8.654998779297 77 77 77
1.218750000000 9.453125000000 8.542007446289 22 22 22
0.843750000000 9.671875000000 8.443008422852 52 52 52
1.156250000000 9.484375000000 8.051010131836 108 108 108
1.281250000000 9.406250000000 7.916000366211 118 118 118
1.500000000000 9.281250000000 7.762008666992 129 129 129
1.484375000000 9.312500000000 7.669998168945 146 146 146
1.312500000000 9.406250000000 7.610000610352 90 90 90
1.203125000000 9.468750000000 7.540008544922 112 112 112
1.984375000000 9.015625000000 7.266998291016 192 192 192
1.796875000000 9.125000000000 7.119003295898 194 194 194
0.843750000000 9.703125000000 7.016006469727 111 111 111
1.468750000000 9.328125000000 6.800003051758 156 156 156
1.531250000000 9.281250000000 6.693008422852 140 140 140
1.515625000000 9.296875000000 6.600997924805 139 139 139
1.156250000000 9.500000000000 6.565002441406 185 185 185
1.218750000000 9.468750000000 6.458007812500 30 30 30
1.140625000000 9.515625000000 6.274002075195 110 110 110
1.000000000000 9.609375000000 6.195007324219 80 80 80
1.671875000000 9.218750000000 5.921005249023 250 250 250
1.796875000000 9.156250000000 5.813003540039 21 21 21
0.671875000000 9.609375000000 6.008010864258 122 122 122
0.875000000000 9.609375000000 6.066009521484 163 163 163
1.015625000000 9.609375000000 6.130996704102 121 121 121
1.343750000000 9.609375000000 6.167007446289 144 144 144
0.078125000000 9.609375000000 6.449005126953 81 81 81
1.000000000000 9.609375000000 6.475997924805 123 123 123
1.406250000000 9.609375000000 6.492004394531 127 127 127
1.390625000000 9.593750000000 6.663009643555 178 178 178
0.765625000000 9.593750000000 6.865997314453 196 196 196
0.812500000000 9.593750000000 6.945007324219 167 167 167
0.671875000000 9.609375000000 7.063003540039 179 179 179
0.843750000000 9.609375000000 7.199996948242 124 124 124
0.828125000000 9.593750000000 7.296005249023 185 185 185
