3.750000000000 16.906250000000 6.180999755859 171 171 171
3.750000000000 16.906250000000 6.249008178711 13 13 13
3.421875000000 16.906250000000 6.382003784180 235 235 235
3.343750000000 16.906250000000 6.541000366211 162 162 162
0.781250000000 16.937500000000 7.160003662109 32 32 32
3.281250000000 16.906250000000 6.701004028320 248 248 248
3.250000000000 16.921875000000 6.783996582031 132 132 132
2.796875000000 16.921875000000 6.962005615234 22 22 22
3.187500000000 16.906250000000 6.945999145508 96 96 96
3.187500000000 16.906250000000 7.021011352539 51 51 51
0.875000000000 16.953125000000 7.671997070313 75 75 75
3.000000000000 16.921875000000 7.218002319336 172 172 172
2.875000000000 16.921875000000 7.328002929688 158 158 158
3.406250000000 16.921875000000 7.263000488281 187 187 187
0.484375000000 16.937500000000 8.134002685547 37 37 37
3.281250000000 16.906250000000 7.449005126953 187 187 187
2.968750000000 16.921875000000 7.611007690430 193 193 193
3.437500000000 16.921875000000 7.554000854492 196 196 196
3.468750000000 16.921875000000 7.620010375977 172 172 172
3.781250000000 16.921875000000 7.598999023438 216 216 216
3.781250000000 16.937500000000 7.677001953125 149 149 149
3.953125000000 16.921875000000 7.694000244141 167 167 167
3.406250000000 16.921875000000 7.941009521484 70 70 70
1.218750000000 16.937500000000 8.748001098633 101 101 101
3.062500000000 16.921875000000 8.217010498047 75 75 75
1.093750000000 16.937500000000 8.966003417969 65 65 65
2.203125000000 16.921875000000 8.678009033203 24 24 24
2.531250000000 16.937500000000 8.641006469727 160 160 160
2.796875000000 16.921875000000 8.635009765625 170 170 170
2.531250000000 16.921875000000 8.816009521484 166 166 166
2.859375000000 16.921875000000 8.775009155273 139 139 139
2.781250000000 16.937500000000 8.888000488281 176 176 176
1.531250000000 16.937500000000 9.454010009766 158 158 158
2.375000000000 16.937500000000 9.215011596680 175 175 175
2.343750000000 16.937500000000 9.317001342773 150 150 150
2.093750000000 16.937500000000 9.501007080078 170 170 170
1.984375000000 16.937500000000 9.735000610352 155 155 155
1.828125000000 16.937500000000 9.895004272461 141 141 141
1.937500000000 16.937500000000 9.938003540039 144 144 144
2.078125000000 16.937500000000 9.970001220703 137 137 137
2.093750000000 16.937500000000 10.059997558594 133 133 133
2.093750000000 16.937500000000 10.154006958008 146 146 146
1.593750000000 16.937500000000 10.477996826172 124 124 124
2.343750000000 16.937500000000 10.214004516602 150 150 150
2.296875000000 16.937500000000 10.335006713867 117 117 117
1.531250000000 16.937500000000 10.796997070313 51 51 51
1.515625000000 16.937500000000 10.911010742188 32 32 32
1.640625000000 16.937500000000 11.041000366211 29 29 29
0.078125000000 16.937500000000 6.480010986328 47 47 47
2.531250000000 16.921875000000 6.477996826172 124 124 124
0.250000000000 16.937500000000 7.456008911133 65 65 65
1.421875000000 16.937500000000 7.277008056641 184 184 184
0.562500000000 16.937500000000 7.566009521484 87 87 87
0.750000000000 16.937500000000 7.610000610352 96 96 96
0.718750000000 16.937500000000 8.811004638672 107 107 107
0.843750000000 16.937500000000 8.965011596680 37 37 37
0.765625000000 16.937500000000 9.178009033203 28 28 28
3.906250000000 17.265625000000 6.867004394531 222 222 222
3.984375000000 17.250000000000 6.919998168945 224 224 224
4.046875000000 17.265625000000 6.973007202148 229 229 229
3.937500000000 17.250000000000 7.074005126953 202 202 202
4.203125000000 17.265625000000 7.074005126953 148 148 148
1.890625000000 17.265625000000 7.777999877930 153 153 153
3.156250000000 17.265625000000 7.507003784180 157 157 157
2.734375000000 17.281250000000 7.703002929688 164 164 164
2.921875000000 17.265625000000 7.727005004883 150 150 150
2.687500000000 17.281250000000 7.882003784180 170 170 170
2.593750000000 17.265625000000 7.988998413086 184 184 184
2.531250000000 17.281250000000 8.091003417969 197 197 197
2.500000000000 17.265625000000 8.179000854492 186 186 186
3.156250000000 17.281250000000 8.049011230469 232 232 232
3.109375000000 17.281250000000 8.143005371094 249 249 249
1.765625000000 17.281250000000 8.677001953125 179 179 179
1.781250000000 17.281250000000 8.763000488281 213 213 213
2.062500000000 17.281250000000 8.750000000000 181 181 181
2.234375000000 17.281250000000 8.776000976563 180 180 180
2.406250000000 17.281250000000 8.796997070313 157 157 157
2.515625000000 17.265625000000 8.844009399414 154 154 154
1.906250000000 17.281250000000 9.251998901367 159 159 159
1.687500000000 17.296875000000 9.423004150391 148 148 148
1.703125000000 17.281250000000 9.512008666992 158 158 158
1.875000000000 17.281250000000 9.531005859375 128 128 128
1.984375000000 17.281250000000 9.580001831055 124 124 124
2.015625000000 17.296875000000 9.654998779297 125 125 125
1.968750000000 17.281250000000 9.766006469727 107 107 107
2.015625000000 17.281250000000 9.841003417969 138 138 138
2.062500000000 17.281250000000 9.914001464844 120 120 120
2.093750000000 17.281250000000 9.988998413086 107 107 107
2.187500000000 17.281250000000 10.042007446289 85 85 85
2.218750000000 17.281250000000 10.117004394531 149 149 149
1.687500000000 17.281250000000 10.466003417969 62 62 62
1.812500000000 17.281250000000 10.503005981445 58 58 58
1.843750000000 17.281250000000 10.583999633789 26 26 26
0.968750000000 17.265625000000 6.279006958008 41 41 41
1.562500000000 17.265625000000 6.434005737305 52 52 52
0.343750000000 17.281250000000 6.912002563477 80 80 80
0.218750000000 17.281250000000 7.027008056641 44 44 44
0.406250000000 17.281250000000 7.262008666992 53 53 53
0.437500000000 17.281250000000 7.436996459961 20 20 20
3.203125000000 17.265625000000 6.888000488281 11 11 11
4.000000000000 17.265625000000 6.779006958008 150 150 150
1.109375000000 17.281250000000 7.904006958008 16 16 16
0.734375000000 17.281250000000 7.460998535156 117 117 117
3.484375000000 17.625000000000 7.443008422852 193 193 193
1.171875000000 17.640625000000 8.186004638672 46 46 46
3.625000000000 17.625000000000 7.550003051758 123 123 123
3.656250000000 17.625000000000 7.617004394531 156 156 156
3.578125000000 17.625000000000 7.712005615234 171 171 171
3.328125000000 17.625000000000 7.869003295898 209 209 209
2.953125000000 17.625000000000 8.068008422852 155 155 155
2.921875000000 17.640625000000 8.158996582031 171 171 171
3.171875000000 17.625000000000 8.154006958008 167 167 167
0.578125000000 17.640625000000 9.120010375977 66 66 66
3.328125000000 17.625000000000 8.255004882813 222 222 222
3.390625000000 17.640625000000 8.309997558594 167 167 167
3.109375000000 17.640625000000 8.490997314453 213 213 213
2.921875000000 17.625000000000 8.643997192383 155 155 155
3.484375000000 17.625000000000 8.514007568359 192 192 192
3.078125000000 17.625000000000 8.747009277344 214 214 214
3.171875000000 17.625000000000 8.794998168945 169 169 169
3.109375000000 17.640625000000 8.898010253906 177 177 177
3.015625000000 17.625000000000 9.020004272461 179 179 179
3.453125000000 17.640625000000 8.927001953125 176 176 176
3.015625000000 17.625000000000 9.192001342773 129 129 129
3.015625000000 17.640625000000 9.268005371094 80 80 80
3.828125000000 17.625000000000 9.092010498047 54 54 54
3.875000000000 17.625000000000 9.149002075195 25 25 25
1.812500000000 17.625000000000 7.412002563477 25 25 25
3.000000000000 17.609375000000 7.350006103516 77 77 77
3.265625000000 17.625000000000 7.352996826172 122 122 122
2.828125000000 17.625000000000 7.549011230469 41 41 41
0.328125000000 17.640625000000 7.777999877930 13 13 13
0.890625000000 17.640625000000 8.091003417969 35 35 35
0.031250000000 14.218750000000 6.240997314453 102 102 102
0.062500000000 14.484375000000 13.766998291016 46 46 46
0.046875000000 14.500000000000 13.639007568359 83 83 83
0.031250000000 14.515625000000 13.389007568359 70 70 70
0.281250000000 14.375000000000 12.865005493164 85 85 85
0.187500000000 14.453125000000 12.796997070313 132 132 132
0.109375000000 14.484375000000 12.704010009766 147 147 147
0.000000000000 14.546875000000 12.639007568359 129 129 129
0.078125000000 14.500000000000 12.352005004883 94 94 94
0.171875000000 14.453125000000 12.182006835938 153 153 153
0.046875000000 14.515625000000 12.109008789063 143 143 143
0.375000000000 14.328125000000 11.829010009766 159 159 159
0.406250000000 14.328125000000 11.708007812500 157 157 157
0.312500000000 14.375000000000 11.624008178711 153 153 153
0.187500000000 14.453125000000 11.567001342773 148 148 148
0.500000000000 14.281250000000 11.309997558594 158 158 158
0.546875000000 14.250000000000 11.162002563477 149 149 149
0.468750000000 14.296875000000 11.087997436523 141 141 141
0.437500000000 14.296875000000 10.977996826172 151 151 151
0.234375000000 14.437500000000 10.960998535156 162 162 162
0.390625000000 14.343750000000 10.775009155273 169 169 169
0.281250000000 14.406250000000 10.710006713867 140 140 140
0.109375000000 14.500000000000 10.661010742188 154 154 154
0.625000000000 14.203125000000 10.109008789063 179 179 179
0.500000000000 14.281250000000 10.048004150391 154 154 154
0.109375000000 14.515625000000 10.083007812500 151 151 151
0.093750000000 14.515625000000 9.979003906250 153 153 153
0.109375000000 14.500000000000 9.854003906250 151 151 151
0.046875000000 14.546875000000 9.766998291016 114 114 114
0.250000000000 14.437500000000 9.591003417969 142 142 142
0.062500000000 14.531250000000 9.533996582031 154 154 154
0.187500000000 14.468750000000 9.382003784180 143 143 143
0.406250000000 14.343750000000 9.205001831055 142 142 142
0.406250000000 14.343750000000 9.098007202148 147 147 147
0.078125000000 14.531250000000 9.089004516602 148 148 148
0.109375000000 14.531250000000 8.969009399414 108 108 108
0.718750000000 14.156250000000 8.676010131836 195 195 195
0.906250000000 14.062500000000 8.415008544922 149 149 149
0.812500000000 14.109375000000 8.335006713867 142 142 142
0.421875000000 14.343750000000 8.128005981445 149 149 149
0.500000000000 14.312500000000 8.003005981445 161 161 161
0.359375000000 14.390625000000 7.930999755859 150 150 150
0.359375000000 14.390625000000 7.827011108398 96 96 96
0.343750000000 14.390625000000 7.723007202148 95 95 95
0.078125000000 14.562500000000 6.408004760742 146 146 146
0.015625000000 14.609375000000 6.313003540039 191 191 191
0.906250000000 14.078125000000 6.000000000000 175 175 175
1.031250000000 14.000000000000 5.886001586914 186 186 186
0.250000000000 14.468750000000 7.537002563477 136 136 136
0.406250000000 14.375000000000 6.163009643555 165 165 165
0.203125000000 14.796875000000 14.707000732422 34 34 34
0.187500000000 14.796875000000 14.581008911133 60 60 60
0.203125000000 14.796875000000 14.439010620117 77 77 77
0.203125000000 14.796875000000 14.299011230469 72 72 72
0.203125000000 14.796875000000 14.171997070313 82 82 82
0.484375000000 14.625000000000 13.850997924805 98 98 98
0.546875000000 14.593750000000 13.684005737305 149 149 149
0.453125000000 14.656250000000 13.610000610352 119 119 119
0.375000000000 14.687500000000 13.533004760742 146 146 146
0.359375000000 14.703125000000 13.411010742188 154 154 154
0.609375000000 14.562500000000 13.128997802734 176 176 176
0.546875000000 14.593750000000 13.044006347656 156 156 156
0.531250000000 14.625000000000 12.930999755859 146 146 146
0.390625000000 14.703125000000 12.891998291016 143 143 143
0.390625000000 14.687500000000 12.755004882813 161 161 161
0.296875000000 14.750000000000 12.686996459961 153 153 153
0.421875000000 14.687500000000 12.505004882813 149 149 149
0.578125000000 14.593750000000 12.287002563477 159 159 159
0.484375000000 14.656250000000 12.219009399414 150 150 150
0.421875000000 14.687500000000 12.137008666992 147 147 147
0.375000000000 14.718750000000 12.031997680664 156 156 156
0.593750000000 14.593750000000 11.800003051758 169 169 169
0.625000000000 14.578125000000 11.671005249023 143 143 143
0.531250000000 14.640625000000 11.602005004883 156 156 156
0.531250000000 14.640625000000 11.480010986328 172 172 172
0.437500000000 14.687500000000 11.404998779297 161 161 161
0.250000000000 14.796875000000 11.382003784180 148 148 148
0.421875000000 14.687500000000 11.178009033203 151 151 151
0.515625000000 14.640625000000 11.024002075195 151 151 151
0.828125000000 14.453125000000 10.773010253906 211 211 211
0.984375000000 14.375000000000 10.591003417969 154 154 154
0.968750000000 14.390625000000 10.488006591797 160 160 160
1.062500000000 14.328125000000 10.344009399414 164 164 164
0.968750000000 14.390625000000 10.266998291016 156 156 156
0.953125000000 14.390625000000 10.167007446289 177 177 177
0.906250000000 14.437500000000 10.077011108398 158 158 158
0.734375000000 14.515625000000 10.026000976563 152 152 152
0.593750000000 14.609375000000 9.975006103516 148 148 148
0.546875000000 14.656250000000 9.887008666992 145 145 145
1.078125000000 14.328125000000 9.580001831055 220 220 220
1.062500000000 14.328125000000 9.479003906250 167 167 167
1.656250000000 14.000000000000 9.166000366211 203 203 203
1.437500000000 14.125000000000 9.143005371094 177 177 177
1.531250000000 14.062500000000 9.003005981445 161 161 161
1.906250000000 13.843750000000 8.777999877930 188 188 188
1.937500000000 13.828125000000 8.674011230469 198 198 198
1.968750000000 13.812500000000 8.561996459961 181 181 181
1.468750000000 14.109375000000 8.623001098633 148 148 148
2.234375000000 13.656250000000 8.291000366211 165 165 165
2.281250000000 13.625000000000 8.184005737305 189 189 189
0.875000000000 14.468750000000 8.490005493164 115 115 115
2.031250000000 13.765625000000 8.061004638672 218 218 218
2.062500000000 13.750000000000 7.958999633789 214 214 214
2.125000000000 13.734375000000 7.852005004883 8 8 8
0.578125000000 14.625000000000 8.152999877930 132 132 132
1.718750000000 13.968750000000 7.764007568359 15 15 15
1.921875000000 13.843750000000 7.617004394531 10 10 10
2.703125000000 13.375000000000 7.340011596680 255 255 255
0.968750000000 14.421875000000 7.652008056641 116 116 116
2.609375000000 13.421875000000 7.178009033203 236 236 236
2.734375000000 13.375000000000 7.063003540039 196 196 196
2.640625000000 13.421875000000 6.997009277344 210 210 210
2.609375000000 13.437500000000 6.914001464844 232 232 232
2.421875000000 13.562500000000 6.863998413086 242 242 242
2.140625000000 13.718750000000 6.824005126953 212 212 212
1.093750000000 14.343750000000 6.923004150391 164 164 164
2.140625000000 13.718750000000 6.641006469727 177 177 177
1.890625000000 13.875000000000 6.592010498047 195 195 195
1.750000000000 13.953125000000 6.521011352539 182 182 182
1.718750000000 13.984375000000 6.432006835938 7 7 7
0.703125000000 14.578125000000 6.492004394531 158 158 158
0.843750000000 14.500000000000 6.369003295898 159 159 159
0.968750000000 14.437500000000 6.253997802734 157 157 157
0.968750000000 14.437500000000 6.156997680664 178 178 178
2.093750000000 13.750000000000 5.919998168945 39 39 39
0.671875000000 14.890625000000 13.925003051758 39 39 39
0.609375000000 14.921875000000 13.837005615234 72 72 72
0.578125000000 14.937500000000 13.727005004883 87 87 87
0.390625000000 15.062500000000 13.722000122070 116 116 116
0.375000000000 15.062500000000 13.598999023438 114 114 114
0.453125000000 15.031250000000 13.177001953125 33 33 33
0.484375000000 15.015625000000 13.025009155273 140 140 140
0.578125000000 14.968750000000 12.850006103516 141 141 141
0.531250000000 14.968750000000 12.747009277344 61 61 61
0.484375000000 15.000000000000 12.643005371094 69 69 69
0.734375000000 14.875000000000 12.388000488281 147 147 147
0.625000000000 14.921875000000 12.324996948242 128 128 128
0.593750000000 14.953125000000 12.218002319336 154 154 154
1.015625000000 14.703125000000 11.873001098633 222 222 222
0.984375000000 14.718750000000 11.771011352539 175 175 175
0.984375000000 14.734375000000 11.662002563477 185 185 185
0.765625000000 14.859375000000 11.656005859375 155 155 155
0.828125000000 14.812500000000 11.514999389648 177 177 177
0.953125000000 14.750000000000 11.333999633789 162 162 162
0.859375000000 14.796875000000 11.258010864258 159 159 159
0.812500000000 14.828125000000 11.174011230469 154 154 154
0.703125000000 14.890625000000 10.994003295898 149 149 149
1.078125000000 14.671875000000 10.707000732422 201 201 201
1.046875000000 14.671875000000 10.610000610352 177 177 177
0.890625000000 14.781250000000 10.565002441406 165 165 165
0.812500000000 14.828125000000 10.496002197266 154 154 154
0.640625000000 14.937500000000 10.456008911133 144 144 144
2.468750000000 13.859375000000 9.598999023438 61 61 61
2.375000000000 13.921875000000 9.536010742188 35 35 35
0.187500000000 15.218750000000 10.305007934570 75 75 75
2.078125000000 14.109375000000 9.457000732422 255 255 255
2.046875000000 14.125000000000 9.368011474609 191 191 191
2.187500000000 14.031250000000 9.214004516602 238 238 238
2.390625000000 13.906250000000 9.040008544922 243 243 243
2.468750000000 13.859375000000 8.915008544922 182 182 182
2.718750000000 13.718750000000 8.743011474609 200 200 200
2.750000000000 13.718750000000 8.639999389648 159 159 159
2.703125000000 13.734375000000 8.561004638672 165 165 165
2.515625000000 13.843750000000 8.526000976563 187 187 187
2.656250000000 13.765625000000 8.391006469727 181 181 181
2.531250000000 13.843750000000 8.337005615234 207 207 207
0.578125000000 15.000000000000 8.842010498047 33 33 33
0.578125000000 15.000000000000 8.732009887695 39 39 39
2.671875000000 13.750000000000 8.018997192383 13 13 13
2.031250000000 14.140625000000 8.108001708984 18 18 18
1.234375000000 14.625000000000 8.235000610352 209 209 209
1.093750000000 14.687500000000 8.173004150391 187 187 187
1.015625000000 14.734375000000 8.089004516602 161 161 161
1.140625000000 14.656250000000 7.958007812500 169 169 169
1.015625000000 14.734375000000 7.887008666992 151 151 151
2.156250000000 14.062500000000 7.511001586914 210 210 210
2.546875000000 13.843750000000 7.326004028320 29 29 29
2.765625000000 13.718750000000 7.100006103516 218 218 218
2.218750000000 14.031250000000 7.130004882813 209 209 209
2.734375000000 13.750000000000 6.934997558594 253 253 253
2.750000000000 13.734375000000 6.840011596680 193 193 193
2.656250000000 13.765625000000 6.764999389648 237 237 237
2.703125000000 13.750000000000 6.673004150391 5 5 5
2.921875000000 13.625000000000 6.546997070313 240 240 240
2.984375000000 13.593750000000 6.447998046875 229 229 229
2.953125000000 13.609375000000 6.369003295898 8 8 8
2.531250000000 13.859375000000 6.350006103516 19 19 19
2.921875000000 13.625000000000 6.202011108398 21 21 21
1.265625000000 14.609375000000 6.356002807617 141 141 141
0.421875000000 15.109375000000 6.375000000000 146 146 146
1.359375000000 14.546875000000 6.149002075195 236 236 236
1.656250000000 14.390625000000 6.021011352539 185 185 185
1.203125000000 14.656250000000 5.785003662109 167 167 167
0.656250000000 14.937500000000 10.342010498047 128 128 128
0.656250000000 14.953125000000 8.499008178711 141 141 141
0.562500000000 15.312500000000 13.397003173828 18 18 18
0.500000000000 15.328125000000 13.290008544922 67 67 67
0.531250000000 15.328125000000 13.154006958008 18 18 18
0.156250000000 15.546875000000 12.743011474609 42 42 42
0.171875000000 15.546875000000 12.611999511719 129 129 129
0.125000000000 15.578125000000 12.509002685547 30 30 30
0.796875000000 15.171875000000 12.029006958008 109 109 109
1.343750000000 14.859375000000 11.626007080078 189 189 189
1.203125000000 14.937500000000 11.585006713867 202 202 202
0.593750000000 15.296875000000 11.772003173828 135 135 135
0.562500000000 15.312500000000 11.673004150391 72 72 72
0.281250000000 15.484375000000 11.451004028320 57 57 57
0.375000000000 15.437500000000 11.298004150391 142 142 142
0.343750000000 15.453125000000 11.192001342773 145 145 145
0.250000000000 15.515625000000 11.124008178711 139 139 139
2.109375000000 14.421875000000 10.180007934570 200 200 200
2.203125000000 14.375000000000 10.040008544922 30 30 30
2.468750000000 14.218750000000 9.824005126953 0 0 0
2.500000000000 14.187500000000 9.708999633789 13 13 13
0.312500000000 15.484375000000 10.509002685547 47 47 47
2.593750000000 14.156250000000 9.483001708984 144 144 144
2.593750000000 14.140625000000 9.380004882813 225 225 225
2.531250000000 14.156250000000 9.305007934570 243 243 243
2.750000000000 14.046875000000 9.126998901367 142 142 142
2.937500000000 13.937500000000 8.968002319336 244 244 244
2.687500000000 14.078125000000 8.966003417969 183 183 183
2.937500000000 13.937500000000 8.779006958008 164 164 164
2.781250000000 14.046875000000 8.746002197266 175 175 175
2.781250000000 14.046875000000 8.654006958008 166 166 166
2.765625000000 14.046875000000 8.567001342773 187 187 187
2.781250000000 14.046875000000 8.469009399414 132 132 132
2.921875000000 13.953125000000 8.238006591797 22 22 22
0.843750000000 15.187500000000 8.794006347656 135 135 135
2.625000000000 14.140625000000 8.152008056641 34 34 34
2.375000000000 14.296875000000 8.135009765625 50 50 50
2.406250000000 14.265625000000 8.031005859375 10 10 10
1.328125000000 14.906250000000 8.240005493164 213 213 213
1.359375000000 14.890625000000 8.135009765625 138 138 138
1.359375000000 14.890625000000 8.035003662109 63 63 63
1.921875000000 14.546875000000 7.783996582031 148 148 148
1.890625000000 14.562500000000 7.699005126953 149 149 149
0.531250000000 15.375000000000 7.934997558594 112 112 112
2.218750000000 14.390625000000 7.438003540039 223 223 223
2.500000000000 14.218750000000 7.275009155273 214 214 214
2.812500000000 14.046875000000 7.117004394531 206 206 206
2.875000000000 14.000000000000 7.016006469727 210 210 210
2.796875000000 14.046875000000 6.944000244141 160 160 160
2.812500000000 14.046875000000 6.854003906250 154 154 154
3.000000000000 13.921875000000 6.730010986328 215 215 215
3.125000000000 13.859375000000 6.618011474609 238 238 238
3.031250000000 13.906250000000 6.554000854492 27 27 27
0.875000000000 15.203125000000 6.847000122070 32 32 32
3.187500000000 13.828125000000 6.355010986328 170 170 170
3.125000000000 13.859375000000 6.283004760742 136 136 136
3.015625000000 13.921875000000 6.215011596680 105 105 105
2.781250000000 14.062500000000 6.165008544922 108 108 108
1.640625000000 14.734375000000 6.049011230469 176 176 176
1.781250000000 14.656250000000 5.941009521484 173 173 173
1.250000000000 14.968750000000 5.906997680664 165 165 165
0.984375000000 15.078125000000 10.569000244141 133 133 133
0.406250000000 15.421875000000 10.363998413086 16 16 16
0.171875000000 15.562500000000 9.328002929688 39 39 39
0.781250000000 15.218750000000 8.921997070313 113 113 113
0.890625000000 15.156250000000 8.679000854492 131 131 131
0.531250000000 15.390625000000 6.800003051758 78 78 78
0.500000000000 15.421875000000 6.602005004883 134 134 134
2.421875000000 14.578125000000 10.680007934570 95 95 95
2.453125000000 14.562500000000 10.563003540039 164 164 164
2.453125000000 14.562500000000 10.462997436523 167 167 167
2.328125000000 14.625000000000 10.419006347656 249 249 249
2.453125000000 14.578125000000 10.264007568359 253 253 253
2.281250000000 14.656250000000 10.240005493164 161 161 161
2.625000000000 14.468750000000 9.988998413086 208 208 208
2.593750000000 14.484375000000 9.904006958008 201 201 201
2.343750000000 14.640625000000 9.913009643555 196 196 196
2.281250000000 14.656250000000 9.837997436523 111 111 111
2.562500000000 14.515625000000 9.626007080078 165 165 165
2.625000000000 14.468750000000 9.501007080078 191 191 191
2.421875000000 14.578125000000 9.481002807617 175 175 175
2.562500000000 14.515625000000 9.328002929688 232 232 232
2.671875000000 14.453125000000 9.197998046875 241 241 241
2.859375000000 14.343750000000 9.033996582031 216 216 216
2.843750000000 14.359375000000 8.944000244141 163 163 163
3.000000000000 14.265625000000 8.798004150391 180 180 180
2.765625000000 14.406250000000 8.788009643555 226 226 226
2.687500000000 14.437500000000 8.717010498047 137 137 137
2.968750000000 14.281250000000 8.531005859375 139 139 139
2.812500000000 14.375000000000 8.490997314453 214 214 214
2.843750000000 14.359375000000 8.395004272461 4 4 4
2.625000000000 14.500000000000 8.372009277344 29 29 29
1.000000000000 15.437500000000 8.781997680664 171 171 171
1.625000000000 15.078125000000 8.490005493164 96 96 96
3.171875000000 14.171875000000 7.932006835938 161 161 161
3.265625000000 14.109375000000 7.818008422852 94 94 94
3.265625000000 14.109375000000 7.731002807617 190 190 190
3.234375000000 14.140625000000 7.654006958008 152 152 152
3.296875000000 14.093750000000 7.550003051758 153 153 153
3.375000000000 14.046875000000 7.443008422852 158 158 158
3.156250000000 14.187500000000 7.413009643555 141 141 141
3.000000000000 14.281250000000 7.370010375977 251 251 251
2.296875000000 14.671875000000 7.447998046875 228 228 228
3.093750000000 14.218750000000 7.171997070313 12 12 12
3.031250000000 14.265625000000 7.104003906250 44 44 44
3.109375000000 14.234375000000 6.999008178711 216 216 216
2.625000000000 14.500000000000 7.016006469727 175 175 175
2.625000000000 14.515625000000 6.929000854492 204 204 204
2.578125000000 14.531250000000 6.844009399414 223 223 223
1.875000000000 14.953125000000 6.891998291016 186 186 186
1.843750000000 14.968750000000 6.805007934570 140 140 140
3.265625000000 14.140625000000 6.458999633789 233 233 233
3.125000000000 14.218750000000 6.400009155273 0 0 0
3.125000000000 14.218750000000 6.314010620117 104 104 104
3.234375000000 14.156250000000 6.214004516602 171 171 171
0.468750000000 15.734375000000 10.606002807617 15 15 15
0.406250000000 15.781250000000 9.511001586914 48 48 48
1.156250000000 15.343750000000 8.835006713867 116 116 116
3.187500000000 14.187500000000 6.139999389648 23 23 23
0.687500000000 15.656250000000 6.413009643555 47 47 47
0.687500000000 15.656250000000 6.311004638672 25 25 25
1.562500000000 15.140625000000 6.098007202148 33 33 33
0.718750000000 15.625000000000 6.505004882813 101 101 101
1.375000000000 15.562500000000 11.607009887695 19 19 19
1.312500000000 15.593750000000 11.516998291016 36 36 36
2.734375000000 14.765625000000 10.690002441406 155 155 155
2.687500000000 14.796875000000 10.615997314453 191 191 191
1.250000000000 15.656250000000 11.223999023438 44 44 44
2.562500000000 14.890625000000 10.475006103516 202 202 202
2.578125000000 14.875000000000 10.367004394531 194 194 194
2.953125000000 14.640625000000 10.090011596680 198 198 198
2.937500000000 14.656250000000 10.003005981445 169 169 169
2.921875000000 14.671875000000 9.916000366211 173 173 173
2.953125000000 14.656250000000 9.805007934570 161 161 161
2.921875000000 14.671875000000 9.723007202148 164 164 164
2.796875000000 14.734375000000 9.679000854492 213 213 213
2.984375000000 14.625000000000 9.503997802734 174 174 174
2.953125000000 14.656250000000 9.426010131836 169 169 169
3.078125000000 14.562500000000 9.271011352539 170 170 170
3.046875000000 14.593750000000 9.199005126953 164 164 164
2.890625000000 14.703125000000 9.173004150391 200 200 200
3.218750000000 14.515625000000 8.947006225586 174 174 174
3.046875000000 14.593750000000 8.917999267578 166 166 166
3.156250000000 14.531250000000 8.792007446289 179 179 179
2.921875000000 14.671875000000 8.785003662109 184 184 184
0.796875000000 15.937500000000 8.702011108398 17 17 17
2.578125000000 14.906250000000 6.988006591797 213 213 213
2.671875000000 14.843750000000 6.880996704102 104 104 104
2.640625000000 14.875000000000 6.801010131836 111 111 111
2.734375000000 14.812500000000 6.606002807617 55 55 55
2.593750000000 14.906250000000 6.544006347656 35 35 35
3.140625000000 14.578125000000 6.363006591797 153 153 153
3.015625000000 14.656250000000 6.299011230469 168 168 168
3.000000000000 14.640625000000 8.667007446289 205 205 205
2.796875000000 14.750000000000 8.645004272461 149 149 149
2.296875000000 15.046875000000 8.723999023438 74 74 74
3.000000000000 14.640625000000 8.397003173828 137 137 137
2.890625000000 14.703125000000 8.337997436523 184 184 184
2.296875000000 15.046875000000 8.439010620117 19 19 19
2.968750000000 14.656250000000 8.135009765625 215 215 215
3.453125000000 14.375000000000 7.477996826172 23 23 23
3.453125000000 14.375000000000 7.391006469727 23 23 23
3.453125000000 14.375000000000 7.309005737305 13 13 13
1.078125000000 15.781250000000 7.804000854492 103 103 103
1.671875000000 15.453125000000 7.563003540039 227 227 227
1.875000000000 15.312500000000 7.419998168945 191 191 191
0.734375000000 15.984375000000 7.579010009766 69 69 69
0.046875000000 16.406250000000 7.414001464844 93 93 93
0.015625000000 16.406250000000 7.311004638672 94 94 94
1.093750000000 15.796875000000 6.904998779297 132 132 132
0.937500000000 15.890625000000 6.835006713867 99 99 99
2.671875000000 14.859375000000 6.268005371094 161 161 161
1.875000000000 15.312500000000 6.296997070313 28 28 28
2.765625000000 14.812500000000 5.994003295898 26 26 26
2.453125000000 15.000000000000 5.949005126953 102 102 102
0.687500000000 16.015625000000 8.208007812500 130 130 130
1.921875000000 15.281250000000 7.783996582031 43 43 43
0.140625000000 16.328125000000 8.139007568359 67 67 67
0.015625000000 16.421875000000 6.572006225586 24 24 24
2.843750000000 15.093750000000 10.919998168945 22 22 22
2.828125000000 15.125000000000 10.833007812500 18 18 18
1.593750000000 15.843750000000 11.361999511719 125 125 125
1.531250000000 15.875000000000 11.279006958008 152 152 152
1.468750000000 15.906250000000 11.195999145508 118 118 118
2.765625000000 15.156250000000 10.451004028320 184 184 184
2.703125000000 15.203125000000 10.393005371094 195 195 195
2.656250000000 15.218750000000 10.311004638672 210 210 210
2.593750000000 15.250000000000 10.238998413086 204 204 204
2.562500000000 15.265625000000 10.151000976563 172 172 172
2.953125000000 15.046875000000 9.883010864258 181 181 181
2.968750000000 15.031250000000 9.777008056641 161 161 161
2.734375000000 15.187500000000 9.785003662109 160 160 160
3.046875000000 15.000000000000 8.901000976563 195 195 195
3.156250000000 14.937500000000 8.772003173828 225 225 225
2.125000000000 15.546875000000 9.042999267578 192 192 192
1.921875000000 15.671875000000 9.022003173828 208 208 208
3.375000000000 14.796875000000 8.163009643555 64 64 64
2.453125000000 15.375000000000 6.634002685547 29 29 29
1.593750000000 15.843750000000 11.585998535156 66 66 66
1.515625000000 15.890625000000 11.507003784180 91 91 91
2.765625000000 15.156250000000 9.671997070313 150 150 150
2.765625000000 15.171875000000 9.579010009766 135 135 135
3.062500000000 14.984375000000 9.359008789063 164 164 164
3.015625000000 15.015625000000 9.283004760742 131 131 131
3.046875000000 15.000000000000 9.178009033203 112 112 112
3.078125000000 14.984375000000 9.078002929688 80 80 80
3.093750000000 14.968750000000 8.977005004883 159 159 159
1.812500000000 15.734375000000 8.960006713867 73 73 73
1.750000000000 15.765625000000 8.886001586914 62 62 62
3.406250000000 14.781250000000 8.064010620117 26 26 26
3.359375000000 14.812500000000 7.994003295898 55 55 55
3.265625000000 14.890625000000 7.934005737305 33 33 33
3.234375000000 14.890625000000 7.859008789063 53 53 53
3.343750000000 14.828125000000 7.656997680664 40 40 40
2.828125000000 15.156250000000 7.712997436523 26 26 26
2.703125000000 15.218750000000 7.561996459961 12 12 12
2.734375000000 15.203125000000 7.469009399414 80 80 80
2.765625000000 15.187500000000 7.373001098633 14 14 14
1.718750000000 15.812500000000 7.337005615234 159 159 159
2.437500000000 15.390625000000 6.995010375977 25 25 25
1.296875000000 16.046875000000 7.130996704102 21 21 21
1.781250000000 15.781250000000 6.943008422852 40 40 40
1.812500000000 15.750000000000 6.842010498047 12 12 12
2.515625000000 15.328125000000 6.533004760742 86 86 86
3.390625000000 14.812500000000 6.300003051758 11 11 11
0.265625000000 16.687500000000 6.716003417969 25 25 25
0.890625000000 16.296875000000 6.516006469727 96 96 96
3.140625000000 14.984375000000 6.091003417969 119 119 119
1.625000000000 15.859375000000 8.136001586914 21 21 21
1.078125000000 16.187500000000 7.980010986328 60 60 60
0.312500000000 16.640625000000 7.436004638672 107 107 107
0.093750000000 16.765625000000 7.373001098633 27 27 27
1.890625000000 16.031250000000 11.811004638672 6 6 6
1.859375000000 16.046875000000 11.727996826172 23 23 23
1.843750000000 16.062500000000 11.622009277344 107 107 107
1.812500000000 16.078125000000 11.526000976563 95 95 95
1.828125000000 16.062500000000 11.406997680664 127 127 127
1.875000000000 16.046875000000 11.274002075195 160 160 160
1.953125000000 16.000000000000 11.128997802734 160 160 160
1.890625000000 16.031250000000 11.053009033203 162 162 162
1.890625000000 16.031250000000 10.938003540039 174 174 174
1.875000000000 16.046875000000 10.845001220703 137 137 137
2.062500000000 15.953125000000 10.658996582031 176 176 176
1.828125000000 16.062500000000 10.652008056641 154 154 154
2.437500000000 15.734375000000 10.272003173828 165 165 165
2.203125000000 15.875000000000 10.277999877930 188 188 188
3.125000000000 15.328125000000 9.759002685547 239 239 239
2.812500000000 15.500000000000 9.803009033203 225 225 225
1.890625000000 16.046875000000 10.098999023438 124 124 124
1.812500000000 16.093750000000 9.824996948242 8 8 8
2.437500000000 15.750000000000 8.900009155273 25 25 25
0.718750000000 16.734375000000 9.395004272461 32 32 32
3.609375000000 15.062500000000 8.311004638672 23 23 23
3.125000000000 15.359375000000 7.591003417969 26 26 26
3.000000000000 15.421875000000 6.755996704102 10 10 10
2.281250000000 15.828125000000 8.761001586914 62 62 62
1.859375000000 16.406250000000 11.546005249023 25 25 25
2.031250000000 16.312500000000 11.342010498047 86 86 86
1.953125000000 16.359375000000 11.270004272461 108 108 108
1.921875000000 16.375000000000 11.182006835938 111 111 111
1.953125000000 16.375000000000 11.063003540039 55 55 55
1.984375000000 16.343750000000 10.934005737305 74 74 74
1.843750000000 16.421875000000 10.893997192383 140 140 140
1.843750000000 16.421875000000 10.786010742188 69 69 69
3.312500000000 15.593750000000 7.061004638672 57 57 57
3.078125000000 15.750000000000 6.600997924805 71 71 71
3.656250000000 15.406250000000 6.413009643555 103 103 103
2.203125000000 16.546875000000 11.061004638672 18 18 18
2.265625000000 16.515625000000 10.824005126953 26 26 26
2.265625000000 16.515625000000 10.723999023438 55 55 55
3.203125000000 16.000000000000 7.712005615234 58 58 58
2.125000000000 16.953125000000 8.906997680664 16 16 16
1.718750000000 17.203125000000 8.654998779297 21 21 21
3.296875000000 16.296875000000 6.363006591797 7 7 7
2.843750000000 16.562500000000 6.356002807617 19 19 19
3.359375000000 16.640625000000 7.248001098633 102 102 102
3.250000000000 16.703125000000 7.189010620117 55 55 55
3.671875000000 16.453125000000 6.596008300781 94 94 94
3.500000000000 16.562500000000 6.467010498047 17 17 17
3.515625000000 16.562500000000 6.303009033203 6 6 6
3.093750000000 16.796875000000 6.033996582031 4 4 4
3.687500000000 16.812500000000 7.630996704102 117 117 117
3.468750000000 16.953125000000 7.607009887695 21 21 21
2.562500000000 17.500000000000 7.322006225586 1 1 1
2.562500000000 17.500000000000 7.232009887695 16 16 16
3.250000000000 17.453125000000 9.238998413086 143 143 143
3.156250000000 17.515625000000 9.092010498047 144 144 144
3.109375000000 17.546875000000 9.018997192383 152 152 152
3.062500000000 17.578125000000 8.941009521484 181 181 181
3.406250000000 17.375000000000 8.727996826172 158 158 158
3.281250000000 17.437500000000 8.678009033203 178 178 178
2.812500000000 17.718750000000 8.760009765625 159 159 159
3.218750000000 17.484375000000 8.533004760742 166 166 166
2.953125000000 17.625000000000 8.524002075195 171 171 171
3.468750000000 17.359375000000 6.992004394531 199 199 199
2.750000000000 17.765625000000 7.063003540039 213 213 213
2.984375000000 17.593750000000 9.715011596680 23 23 23
3.187500000000 17.500000000000 9.171997070313 134 134 134
3.343750000000 17.406250000000 8.128997802734 125 125 125
3.109375000000 17.562500000000 8.117004394531 122 122 122
3.015625000000 17.593750000000 7.875000000000 10 10 10
3.031250000000 17.593750000000 7.781005859375 10 10 10
3.828125000000 17.125000000000 7.070999145508 92 92 92
3.531250000000 17.312500000000 7.055999755859 77 77 77
3.906250000000 17.093750000000 6.731002807617 17 17 17
3.593750000000 17.281250000000 6.471008300781 26 26 26
3.828125000000 17.156250000000 6.266998291016 28 28 28
3.781250000000 17.171875000000 6.195999145508 35 35 35
3.359375000000 17.750000000000 8.962997436523 136 136 136
3.515625000000 17.656250000000 8.633010864258 193 193 193
3.484375000000 17.671875000000 8.551010131836 166 166 166
3.359375000000 17.750000000000 8.423004150391 162 162 162
3.421875000000 17.718750000000 8.314010620117 192 192 192
3.750000000000 17.531250000000 7.869003295898 185 185 185
3.578125000000 17.625000000000 7.835998535156 184 184 184
4.125000000000 17.312500000000 7.035003662109 85 85 85
3.937500000000 17.421875000000 7.001007080078 170 170 170
3.453125000000 17.703125000000 7.786010742188 145 145 145
3.515625000000 17.671875000000 7.598999023438 155 155 155
3.515625000000 17.656250000000 7.516006469727 193 193 193
4.265625000000 17.234375000000 7.156997680664 27 27 27
4.265625000000 17.234375000000 7.079010009766 48 48 48
3.984375000000 17.406250000000 6.910003662109 131 131 131
4.062500000000 17.343750000000 6.809997558594 156 156 156
3.859375000000 17.484375000000 6.777999877930 123 123 123
3.734375000000 17.546875000000 6.720001220703 210 210 210
3.781250000000 17.531250000000 6.635009765625 25 25 25
3.593750000000 17.640625000000 6.587005615234 52 52 52
3.687500000000 17.578125000000 6.486999511719 29 29 29
3.546875000000 17.640625000000 7.673004150391 156 156 156
4.140625000000 17.640625000000 6.664001464844 67 67 67
3.000000000000 17.765625000000 8.874008178711 151 151 151
2.968750000000 17.765625000000 9.217010498047 106 106 106
1.781250000000 17.765625000000 9.994003295898 23 23 23
3.500000000000 17.437500000000 7.182006835938 205 205 205
2.906250000000 17.421875000000 7.416000366211 223 223 223
2.781250000000 17.437500000000 7.529006958008 179 179 179
2.781250000000 17.437500000000 7.608001708984 162 162 162
2.750000000000 17.437500000000 7.692001342773 117 117 117
2.687500000000 17.453125000000 7.789001464844 130 130 130
3.421875000000 17.437500000000 7.650009155273 209 209 209
1.593750000000 17.453125000000 8.290008544922 143 143 143
2.875000000000 17.437500000000 7.973007202148 189 189 189
2.343750000000 17.437500000000 8.225006103516 190 190 190
1.437500000000 17.453125000000 8.606002807617 146 146 146
1.562500000000 17.437500000000 8.651000976563 147 147 147
3.281250000000 17.437500000000 8.156997680664 5 5 5
3.468750000000 17.437500000000 8.169006347656 15 15 15
2.500000000000 17.437500000000 8.589004516602 156 156 156
2.921875000000 17.421875000000 8.526000976563 190 190 190
3.156250000000 17.421875000000 8.522003173828 199 199 199
3.140625000000 17.421875000000 8.609008789063 213 213 213
1.625000000000 17.437500000000 9.257003784180 149 149 149
1.562500000000 17.437500000000 9.378005981445 154 154 154
1.609375000000 17.437500000000 9.447998046875 106 106 106
2.109375000000 17.421875000000 9.343002319336 196 196 196
1.859375000000 17.437500000000 9.536010742188 108 108 108
1.671875000000 17.421875000000 9.703002929688 118 118 118
1.750000000000 17.421875000000 9.763000488281 128 128 128
2.093750000000 17.437500000000 9.710006713867 139 139 139
1.546875000000 17.437500000000 10.040008544922 116 116 116
1.765625000000 17.437500000000 10.039001464844 120 120 120
2.078125000000 17.421875000000 9.995010375977 148 148 148
1.937500000000 17.437500000000 10.156005859375 116 116 116
1.890625000000 17.421875000000 10.266998291016 86 86 86
1.765625000000 17.437500000000 10.417999267578 42 42 42
0.218750000000 17.453125000000 7.388000488281 9 9 9
0.562500000000 17.453125000000 7.402999877930 12 12 12
3.593750000000 17.437500000000 7.083999633789 148 148 148
2.203125000000 17.421875000000 8.610000610352 199 199 199
4.218750000000 17.078125000000 6.266006469727 184 184 184
3.406250000000 17.093750000000 6.496002197266 16 16 16
3.421875000000 17.093750000000 6.568008422852 126 126 126
2.375000000000 17.109375000000 6.869003295898 231 231 231
2.390625000000 17.093750000000 6.943008422852 171 171 171
2.656250000000 17.093750000000 6.958007812500 242 242 242
3.937500000000 17.078125000000 6.738006591797 194 194 194
0.406250000000 17.093750000000 7.658004760742 41 41 41
3.031250000000 17.093750000000 7.102996826172 206 206 206
2.828125000000 17.093750000000 7.231002807617 162 162 162
1.000000000000 17.093750000000 7.783004760742 30 30 30
3.031250000000 17.093750000000 7.331008911133 157 157 157
0.500000000000 17.109375000000 8.094009399414 18 18 18
2.890625000000 17.093750000000 7.523010253906 215 215 215
3.281250000000 17.078125000000 7.493011474609 171 171 171
3.156250000000 17.078125000000 7.604003906250 164 164 164
3.437500000000 17.093750000000 7.597000122070 152 152 152
0.593750000000 17.093750000000 8.533004760742 37 37 37
3.625000000000 17.078125000000 7.689010620117 97 97 97
3.781250000000 17.093750000000 7.716003417969 169 169 169
0.656250000000 17.078125000000 8.899002075195 50 50 50
2.968750000000 17.078125000000 8.210998535156 223 223 223
1.125000000000 17.093750000000 8.925003051758 151 151 151
0.812500000000 17.093750000000 9.122009277344 88 88 88
2.406250000000 17.078125000000 8.656005859375 192 192 192
2.515625000000 17.093750000000 8.699996948242 173 173 173
2.562500000000 17.078125000000 8.770004272461 180 180 180
2.671875000000 17.093750000000 8.809005737305 162 162 162
2.953125000000 17.078125000000 8.788009643555 181 181 181
2.437500000000 17.078125000000 9.069000244141 148 148 148
2.531250000000 17.078125000000 9.125000000000 164 164 164
2.500000000000 17.078125000000 9.220001220703 181 181 181
2.531250000000 17.078125000000 9.292999267578 188 188 188
2.609375000000 17.078125000000 9.348999023438 170 170 170
2.437500000000 17.078125000000 9.507003784180 175 175 175
2.515625000000 17.062500000000 9.561996459961 193 193 193
2.546875000000 17.062500000000 9.638000488281 189 189 189
1.812500000000 17.078125000000 10.048004150391 111 111 111
1.968750000000 17.078125000000 10.080001831055 158 158 158
2.046875000000 17.078125000000 10.135009765625 152 152 152
2.125000000000 17.078125000000 10.191009521484 144 144 144
2.187500000000 17.078125000000 10.260009765625 177 177 177
1.437500000000 17.078125000000 10.706008911133 125 125 125
1.406250000000 17.093750000000 10.826004028320 118 118 118
1.453125000000 17.078125000000 10.901000976563 93 93 93
1.687500000000 17.093750000000 5.947998046875 13 13 13
0.906250000000 17.109375000000 6.399002075195 21 21 21
1.656250000000 17.093750000000 6.360000610352 123 123 123
1.375000000000 17.093750000000 6.578002929688 40 40 40
0.656250000000 17.093750000000 7.146011352539 45 45 45
0.437500000000 17.093750000000 7.559005737305 26 26 26
0.593750000000 17.093750000000 8.628005981445 21 21 21
1.390625000000 16.765625000000 6.281005859375 94 94 94
2.843750000000 16.750000000000 6.126998901367 196 196 196
0.671875000000 16.765625000000 6.570007324219 66 66 66
3.171875000000 16.750000000000 6.218002319336 148 148 148
1.781250000000 16.750000000000 6.542007446289 10 10 10
0.031250000000 16.750000000000 6.956008911133 38 38 38
3.046875000000 16.750000000000 6.465011596680 1 1 1
3.375000000000 16.750000000000 6.472000122070 111 111 111
3.265625000000 16.750000000000 6.565002441406 158 158 158
2.250000000000 16.750000000000 6.852005004883 247 247 247
3.203125000000 16.734375000000 6.729003906250 8 8 8
0.234375000000 16.765625000000 7.469009399414 112 112 112
0.531250000000 16.765625000000 7.490997314453 45 45 45
2.921875000000 16.750000000000 7.020004272461 247 247 247
3.125000000000 16.750000000000 7.042999267578 147 147 147
3.171875000000 16.734375000000 7.110000610352 146 146 146
3.609375000000 16.750000000000 7.074005126953 178 178 178
3.562500000000 16.750000000000 7.156997680664 155 155 155
3.640625000000 16.750000000000 7.210006713867 157 157 157
3.687500000000 16.750000000000 7.271011352539 140 140 140
3.359375000000 16.750000000000 7.439010620117 139 139 139
3.484375000000 16.750000000000 7.479003906250 148 148 148
3.234375000000 16.750000000000 7.624008178711 144 144 144
3.734375000000 16.734375000000 7.549011230469 149 149 149
3.437500000000 16.750000000000 7.715011596680 152 152 152
3.359375000000 16.734375000000 7.819000244141 115 115 115
3.546875000000 16.734375000000 7.833999633789 144 144 144
3.656250000000 16.734375000000 7.871002197266 146 146 146
3.203125000000 16.734375000000 8.100997924805 143 143 143
2.171875000000 16.734375000000 8.527999877930 25 25 25
3.140625000000 16.750000000000 8.277999877930 219 219 219
3.234375000000 16.750000000000 8.326004028320 213 213 213
3.328125000000 16.734375000000 8.373001098633 239 239 239
3.265625000000 16.734375000000 8.473007202148 195 195 195
3.015625000000 16.734375000000 8.652008056641 250 250 250
2.593750000000 16.734375000000 8.888000488281 91 91 91
2.437500000000 16.734375000000 9.031997680664 40 40 40
2.484375000000 16.750000000000 9.097000122070 67 67 67
2.593750000000 16.734375000000 9.147003173828 171 171 171
2.640625000000 16.734375000000 9.212997436523 208 208 208
2.546875000000 16.734375000000 9.333999633789 187 187 187
2.562500000000 16.734375000000 9.419998168945 173 173 173
2.578125000000 16.734375000000 9.499008178711 161 161 161
2.234375000000 16.734375000000 9.729003906250 164 164 164
2.140625000000 16.734375000000 9.867004394531 181 181 181
2.109375000000 16.734375000000 9.979003906250 155 155 155
2.265625000000 16.734375000000 9.990997314453 149 149 149
2.343750000000 16.734375000000 10.054000854492 169 169 169
2.484375000000 16.734375000000 10.082000732422 157 157 157
2.234375000000 16.734375000000 10.279998779297 152 152 152
1.984375000000 16.734375000000 10.499008178711 128 128 128
1.984375000000 16.734375000000 10.594009399414 157 157 157
2.328125000000 16.734375000000 10.525009155273 150 150 150
2.015625000000 16.734375000000 10.779006958008 149 149 149
1.921875000000 16.734375000000 10.919006347656 151 151 151
1.921875000000 16.718750000000 11.029006958008 143 143 143
2.046875000000 16.734375000000 11.053009033203 100 100 100
1.593750000000 16.734375000000 11.380004882813 25 25 25
0.203125000000 16.765625000000 6.832000732422 67 67 67
0.718750000000 16.765625000000 7.001007080078 85 85 85
0.156250000000 16.765625000000 7.391006469727 130 130 130
0.187500000000 16.765625000000 7.852005004883 19 19 19
0.062500000000 16.750000000000 8.845001220703 64 64 64
0.546875000000 16.750000000000 8.786010742188 10 10 10
0.671875000000 16.750000000000 9.607009887695 18 18 18
0.593750000000 16.750000000000 9.738006591797 71 71 71
0.562500000000 16.750000000000 9.845001220703 71 71 71
2.453125000000 16.437500000000 6.085006713867 204 204 204
2.640625000000 16.421875000000 6.133010864258 195 195 195
2.453125000000 16.437500000000 6.238006591797 199 199 199
3.281250000000 16.421875000000 6.171005249023 231 231 231
2.953125000000 16.421875000000 6.303009033203 189 189 189
3.156250000000 16.406250000000 6.339004516602 196 196 196
3.359375000000 16.421875000000 6.373001098633 242 242 242
3.625000000000 16.421875000000 6.393997192383 20 20 20
3.390625000000 16.421875000000 6.513000488281 80 80 80
0.078125000000 16.453125000000 7.283996582031 63 63 63
2.890625000000 16.406250000000 6.764999389648 156 156 156
3.078125000000 16.421875000000 6.803009033203 181 181 181
3.187500000000 16.421875000000 6.850006103516 185 185 185
3.453125000000 16.421875000000 6.861999511719 176 176 176
2.734375000000 16.421875000000 7.107009887695 232 232 232
1.140625000000 16.421875000000 7.585006713867 116 116 116
3.359375000000 16.406250000000 7.105010986328 6 6 6
3.531250000000 16.406250000000 7.136001586914 254 254 254
2.421875000000 16.421875000000 7.505004882813 243 243 243
2.609375000000 16.421875000000 7.538009643555 232 232 232
3.312500000000 16.406250000000 7.417999267578 204 204 204
3.343750000000 16.406250000000 7.485000610352 210 210 210
3.109375000000 16.421875000000 7.628005981445 187 187 187
