18.515625000000 7.406250000000 9.275005340576 114 114 114
16.953125000000 7.406250000000 10.466999053955 126 126 126
17.609375000000 7.406250000000 8.975002288818 160 160 160
17.593750000000 7.406250000000 8.945003509521 109 109 109
16.984375000000 7.406250000000 9.457004547119 115 115 115
16.953125000000 7.406250000000 9.434001922607 92 92 92
20.828125000000 7.125000000000 8.783000946045 151 151 151
20.796875000000 7.109375000000 8.785999298096 254 254 254
20.796875000000 7.109375000000 8.772998809814 67 67 67
18.546875000000 7.093750000000 9.304004669189 41 41 41
18.515625000000 7.093750000000 9.286998748779 150 150 150
16.984375000000 7.093750000000 10.480998992920 126 126 126
16.937500000000 7.093750000000 10.462001800537 25 25 25
17.609375000000 7.078125000000 8.987003326416 48 48 48
17.609375000000 7.093750000000 8.959003448486 169 169 169
16.953125000000 7.093750000000 9.438999176025 142 142 142
20.859375000000 6.812500000000 8.775005340576 97 97 97
20.843750000000 6.812500000000 8.783000946045 254 254 254
20.828125000000 6.812500000000 8.776004791260 155 155 155
18.546875000000 6.781250000000 9.286998748779 164 164 164
18.515625000000 6.781250000000 9.278003692627 75 75 75
16.984375000000 6.796875000000 10.491001129150 34 34 34
16.984375000000 6.796875000000 10.466999053955 129 129 129
17.609375000000 6.781250000000 8.964000701904 187 187 187
17.609375000000 6.781250000000 8.946002960205 92 92 92
16.984375000000 6.781250000000 9.451000213623 137 137 137
16.953125000000 6.781250000000 9.426998138428 66 66 66
20.859375000000 6.500000000000 8.772998809814 30 30 30
20.843750000000 6.500000000000 8.785999298096 254 254 254
20.828125000000 6.500000000000 8.785999298096 254 254 254
18.546875000000 6.468750000000 9.295001983643 82 82 82
18.515625000000 6.468750000000 9.287998199463 146 146 146
16.984375000000 6.484375000000 10.479000091553 129 129 129
17.640625000000 6.468750000000 8.976001739502 71 71 71
17.609375000000 6.468750000000 8.954998016357 156 156 156
16.953125000000 6.468750000000 9.439998626709 137 137 137
20.859375000000 6.187500000000 8.795001983643 237 237 237
20.828125000000 6.187500000000 8.778003692627 254 254 254
18.546875000000 6.171875000000 9.289005279541 163 163 163
18.515625000000 6.187500000000 9.281002044678 59 59 59
17.015625000000 6.171875000000 10.477001190186 40 40 40
16.984375000000 6.171875000000 10.451999664307 127 127 127
17.640625000000 6.156250000000 8.966999053955 173 173 173
17.640625000000 6.156250000000 8.940998077393 92 92 92
16.984375000000 6.156250000000 9.447002410889 129 129 129
16.953125000000 6.156250000000 9.432003021240 85 85 85
20.859375000000 5.875000000000 8.779003143311 117 117 117
20.843750000000 5.875000000000 8.771999359131 254 254 254
20.828125000000 5.875000000000 8.780002593994 118 118 118
18.562500000000 5.859375000000 9.284999847412 99 99 99
18.546875000000 5.859375000000 9.279003143311 150 150 150
16.984375000000 5.875000000000 10.474002838135 123 123 123
17.640625000000 5.843750000000 8.980998992920 62 62 62
17.609375000000 5.843750000000 8.960002899170 169 169 169
16.984375000000 5.859375000000 9.437999725342 137 137 137
20.890625000000 5.562500000000 8.762004852295 68 68 68
20.859375000000 5.562500000000 8.778003692627 254 254 254
20.828125000000 5.562500000000 8.782001495361 239 239 239
18.546875000000 5.531250000000 9.295001983643 166 166 166
17.015625000000 5.562500000000 10.484004974365 55 55 55
16.984375000000 5.546875000000 10.459003448486 122 122 122
17.640625000000 5.531250000000 8.964000701904 178 178 178
17.640625000000 5.531250000000 8.939998626709 81 81 81
17.000000000000 5.531250000000 9.443004608154 139 139 139
16.984375000000 5.531250000000 9.423000335693 67 67 67
20.890625000000 5.250000000000 8.791004180908 254 254 254
20.859375000000 5.265625000000 8.776004791260 254 254 254
18.578125000000 5.250000000000 9.291004180908 140 140 140
18.546875000000 5.250000000000 9.275005340576 136 136 136
17.015625000000 5.250000000000 10.465999603271 124 124 124
17.640625000000 5.234375000000 8.974002838135 93 93 93
17.640625000000 5.218750000000 8.952999114990 160 160 160
17.015625000000 5.234375000000 9.451999664307 22 22 22
16.984375000000 5.218750000000 9.437999725342 135 135 135
20.890625000000 4.953125000000 8.784000396729 154 154 154
20.859375000000 4.953125000000 8.773998260498 241 241 241
20.859375000000 4.953125000000 8.764003753662 49 49 49
18.546875000000 4.937500000000 9.286998748779 158 158 158
17.015625000000 4.937500000000 10.467998504639 75 75 75
16.984375000000 4.937500000000 10.452999114990 115 115 115
17.671875000000 4.921875000000 8.954998016357 172 172 172
17.640625000000 4.937500000000 8.935001373291 61 61 61
17.015625000000 4.937500000000 9.443004608154 146 146 146
16.984375000000 4.921875000000 9.404003143311 43 43 43
20.890625000000 4.625000000000 8.789005279541 74 74 74
20.890625000000 4.640625000000 8.770999908447 254 254 254
20.875000000000 4.625000000000 8.791004180908 213 213 213
18.578125000000 4.625000000000 9.291004180908 145 145 145
18.546875000000 4.625000000000 9.280002593994 147 147 147
17.015625000000 4.625000000000 10.473003387451 124 124 124
17.671875000000 4.625000000000 8.973003387451 56 56 56
17.640625000000 4.609375000000 8.948001861572 161 161 161
17.015625000000 4.625000000000 9.430004119873 136 136 136
20.890625000000 4.328125000000 8.778003692627 254 254 254
20.890625000000 4.328125000000 8.785999298096 254 254 254
18.609375000000 4.312500000000 9.298999786377 30 30 30
18.562500000000 4.312500000000 9.285999298096 149 149 149
17.015625000000 4.312500000000 10.479000091553 85 85 85
16.984375000000 4.312500000000 10.456005096436 107 107 107
17.671875000000 4.312500000000 8.957004547119 176 176 176
17.640625000000 4.281250000000 8.944004058838 55 55 55
17.015625000000 4.296875000000 9.437999725342 148 148 148
16.984375000000 4.312500000000 9.422000885010 34 34 34
20.921875000000 4.015625000000 8.784999847412 240 240 240
20.890625000000 4.015625000000 8.776004791260 254 254 254
18.593750000000 4.000000000000 9.290004730225 171 171 171
18.578125000000 4.000000000000 9.270000457764 81 81 81
17.015625000000 4.000000000000 10.463001251221 124 124 124
17.671875000000 4.000000000000 8.969005584717 119 119 119
17.671875000000 4.000000000000 8.948001861572 167 167 167
17.046875000000 4.000000000000 9.448001861572 67 67 67
17.015625000000 4.000000000000 9.434001922607 119 119 119
20.921875000000 3.718750000000 8.773998260498 118 118 118
20.890625000000 3.703125000000 8.785999298096 254 254 254
20.875000000000 3.703125000000 8.782001495361 94 94 94
18.609375000000 3.687500000000 9.303005218506 91 91 91
18.578125000000 3.687500000000 9.284000396729 151 151 151
17.031250000000 3.687500000000 10.475002288818 107 107 107
17.015625000000 3.687500000000 10.448001861572 79 79 79
17.671875000000 3.687500000000 8.959003448486 171 171 171
17.046875000000 3.687500000000 9.438999176025 153 153 153
20.921875000000 3.406250000000 8.784999847412 66 66 66
20.921875000000 3.406250000000 8.783000946045 254 254 254
20.906250000000 3.406250000000 8.791004180908 238 238 238
18.578125000000 3.390625000000 9.297000885010 165 165 165
17.015625000000 3.375000000000 10.465999603271 122 122 122
17.703125000000 3.375000000000 8.960002899170 151 151 151
17.671875000000 3.375000000000 8.953998565674 158 158 158
17.046875000000 3.375000000000 9.449001312256 100 100 100
17.031250000000 3.375000000000 9.421001434326 107 107 107
20.921875000000 3.093750000000 8.790004730225 226 226 226
20.921875000000 3.093750000000 8.792003631592 254 254 254
18.609375000000 3.062500000000 9.296001434326 127 127 127
18.578125000000 3.078125000000 9.292003631592 148 148 148
17.046875000000 3.078125000000 10.472003936768 103 103 103
17.015625000000 3.062500000000 10.450000762939 86 86 86
17.671875000000 3.062500000000 8.953998565674 174 174 174
17.046875000000 3.062500000000 9.435001373291 143 143 143
20.953125000000 2.781250000000 8.782001495361 152 152 152
20.921875000000 2.781250000000 8.795001983643 241 241 241
20.921875000000 2.781250000000 8.783000946045 73 73 73
18.593750000000 2.750000000000 9.292003631592 153 153 153
17.062500000000 2.765625000000 10.493000030518 24 24 24
17.046875000000 2.765625000000 10.460002899170 124 124 124
17.703125000000 2.750000000000 8.963001251221 177 177 177
17.671875000000 2.750000000000 8.940998077393 136 136 136
17.046875000000 2.750000000000 9.448001861572 131 131 131
17.031250000000 2.750000000000 9.419002532959 77 77 77
20.953125000000 2.468750000000 8.772998809814 95 95 95
20.921875000000 2.468750000000 8.789005279541 254 254 254
20.921875000000 2.468750000000 8.786998748779 175 175 175
18.640625000000 2.453125000000 9.299999237061 170 170 170
18.578125000000 2.453125000000 9.290004730225 94 94 94
17.046875000000 2.453125000000 10.481998443604 124 124 124
17.703125000000 2.437500000000 8.967998504639 57 57 57
17.671875000000 2.437500000000 8.950000762939 169 169 169
17.046875000000 2.437500000000 9.438999176025 138 138 138
20.953125000000 2.156250000000 8.792003631592 254 254 254
20.921875000000 2.156250000000 8.782001495361 254 254 254
18.640625000000 2.156250000000 9.306003570557 91 91 91
18.609375000000 2.140625000000 9.289005279541 154 154 154
17.078125000000 2.156250000000 10.479000091553 64 64 64
17.046875000000 2.156250000000 10.461002349854 113 113 113
17.703125000000 2.125000000000 8.961002349854 177 177 177
17.671875000000 2.125000000000 8.950000762939 82 82 82
17.078125000000 2.125000000000 9.440998077393 141 141 141
17.046875000000 2.125000000000 9.418003082275 42 42 42
20.968750000000 1.859375000000 8.784999847412 187 187 187
20.953125000000 1.859375000000 8.800998687744 254 254 254
20.921875000000 1.843750000000 8.792003631592 107 107 107
18.640625000000 1.843750000000 9.300998687744 163 163 163
17.046875000000 1.828125000000 10.479000091553 125 125 125
17.734375000000 1.812500000000 8.962001800537 97 97 97
17.703125000000 1.812500000000 8.953998565674 161 161 161
17.078125000000 1.828125000000 9.462001800537 58 58 58
17.078125000000 1.812500000000 9.438999176025 132 132 132
20.984375000000 1.546875000000 8.784999847412 137 137 137
20.953125000000 1.546875000000 8.783000946045 254 254 254
20.953125000000 1.546875000000 8.783000946045 192 192 192
18.640625000000 1.531250000000 9.306003570557 144 144 144
18.625000000000 1.531250000000 9.295001983643 150 150 150
17.078125000000 1.531250000000 10.483005523682 96 96 96
17.046875000000 1.515625000000 10.460002899170 101 101 101
17.718750000000 1.515625000000 8.962001800537 174 174 174
17.703125000000 1.515625000000 8.945003509521 40 40 40
17.078125000000 1.515625000000 9.449001312256 144 144 144
20.984375000000 1.218750000000 8.773998260498 47 47 47
20.984375000000 1.218750000000 8.796001434326 254 254 254
20.953125000000 1.234375000000 8.798999786377 254 254 254
18.640625000000 1.218750000000 9.310001373291 156 156 156
17.078125000000 1.218750000000 10.467998504639 117 117 117
17.734375000000 1.203125000000 8.974002838135 162 162 162
17.718750000000 1.203125000000 8.947002410889 167 167 167
17.109375000000 1.203125000000 9.451999664307 98 98 98
17.078125000000 1.203125000000 9.430004119873 111 111 111
20.984375000000 0.921875000000 8.786998748779 177 177 177
20.953125000000 0.937500000000 8.794002532959 254 254 254
18.640625000000 0.906250000000 9.310001373291 166 166 166
18.625000000000 0.906250000000 9.294002532959 95 95 95
17.078125000000 0.906250000000 10.490001678467 119 119 119
17.078125000000 0.906250000000 10.458003997803 56 56 56
17.703125000000 0.906250000000 8.967998504639 164 164 164
17.078125000000 0.890625000000 9.451999664307 145 145 145
21.015625000000 0.625000000000 8.795001983643 85 85 85
20.984375000000 0.609375000000 8.791004180908 254 254 254
20.953125000000 0.625000000000 8.796001434326 145 145 145
18.671875000000 0.593750000000 9.317005157471 81 81 81
18.640625000000 0.593750000000 9.304004669189 154 154 154
17.078125000000 0.593750000000 10.466999053955 122 122 122
17.750000000000 0.593750000000 8.967998504639 172 172 172
17.703125000000 0.593750000000 8.950000762939 166 166 166
17.109375000000 0.593750000000 9.460002899170 129 129 129
17.078125000000 0.593750000000 9.433002471924 87 87 87
20.984375000000 0.296875000000 8.797000885010 237 237 237
20.953125000000 0.296875000000 8.790004730225 254 254 254
18.671875000000 0.281250000000 9.317005157471 169 169 169
18.640625000000 0.281250000000 9.294002532959 67 67 67
17.109375000000 0.281250000000 10.479000091553 124 124 124
17.078125000000 0.281250000000 10.464000701904 20 20 20
17.718750000000 0.265625000000 8.965000152588 165 165 165
17.109375000000 0.281250000000 9.451000213623 136 136 136
21.015625000000 0.000000000000 8.792003631592 163 163 163
20.984375000000 0.000000000000 8.804004669189 254 254 254
20.953125000000 0.000000000000 8.812999725342 75 75 75
20.656250000000 12.875000000000 9.511005401611 64 64 64
20.671875000000 12.250000000000 9.503002166748 92 92 92
20.703125000000 11.625000000000 9.475002288818 107 107 107
20.703125000000 11.312500000000 9.487003326416 86 86 86
20.703125000000 11.000000000000 9.481998443604 111 111 111
20.703125000000 10.687500000000 9.484004974365 106 106 106
20.718750000000 10.406250000000 9.490001678467 67 67 67
20.687500000000 10.375000000000 9.479999542236 117 117 117
20.718750000000 10.093750000000 9.479000091553 110 110 110
20.734375000000 9.781250000000 9.479000091553 112 112 112
20.703125000000 9.781250000000 9.472003936768 62 62 62
20.734375000000 9.468750000000 9.481998443604 77 77 77
20.734375000000 9.468750000000 9.470005035400 110 110 110
20.734375000000 9.156250000000 9.478000640869 113 113 113
20.765625000000 8.843750000000 9.479999542236 109 109 109
20.734375000000 8.843750000000 9.476001739502 44 44 44
20.765625000000 8.546875000000 9.465999603271 81 81 81
20.734375000000 8.531250000000 9.471004486084 109 109 109
20.765625000000 8.234375000000 9.480998992920 108 108 108
20.765625000000 7.937500000000 9.472003936768 112 112 112
20.765625000000 7.906250000000 9.488002777100 38 38 38
20.796875000000 7.625000000000 9.481998443604 97 97 97
20.765625000000 7.609375000000 9.471004486084 96 96 96
20.765625000000 7.312500000000 9.474002838135 116 116 116
20.796875000000 7.312500000000 8.777004241943 167 167 167
20.796875000000 7.000000000000 9.484004974365 113 113 113
20.796875000000 7.000000000000 8.779003143311 114 114 114
20.796875000000 6.703125000000 9.473003387451 97 97 97
20.796875000000 6.687500000000 9.475002288818 100 100 100
20.796875000000 6.687500000000 8.779003143311 177 177 177
20.828125000000 6.390625000000 9.492000579834 53 53 53
20.796875000000 6.390625000000 9.479000091553 117 117 117
20.796875000000 6.375000000000 8.772998809814 163 163 163
20.828125000000 6.078125000000 9.479000091553 114 114 114
20.828125000000 6.078125000000 8.773998260498 177 177 177
20.796875000000 6.062500000000 8.778003692627 132 132 132
20.828125000000 5.781250000000 9.479999542236 113 113 113
20.796875000000 5.765625000000 9.456005096436 56 56 56
20.828125000000 5.781250000000 8.783000946045 152 152 152
20.828125000000 5.781250000000 8.771999359131 182 182 182
20.828125000000 5.468750000000 9.485004425049 69 69 69
20.828125000000 5.468750000000 9.470005035400 110 110 110
20.828125000000 5.468750000000 8.784999847412 50 50 50
20.828125000000 5.468750000000 8.776004791260 182 182 182
20.828125000000 5.156250000000 9.477001190186 114 114 114
20.828125000000 5.156250000000 8.777004241943 179 179 179
20.828125000000 5.156250000000 8.783000946045 57 57 57
20.859375000000 4.859375000000 9.485004425049 115 115 115
20.859375000000 4.843750000000 8.781002044678 185 185 185
20.828125000000 4.843750000000 8.784999847412 122 122 122
20.859375000000 4.562500000000 9.466999053955 104 104 104
20.828125000000 4.531250000000 9.472003936768 87 87 87
20.859375000000 4.546875000000 8.781002044678 175 175 175
20.859375000000 4.531250000000 8.780002593994 185 185 185
20.859375000000 4.234375000000 9.474002838135 118 118 118
20.890625000000 4.250000000000 8.803005218506 79 79 79
20.859375000000 4.234375000000 8.783000946045 192 192 192
20.859375000000 3.937500000000 9.487003326416 113 113 113
20.859375000000 3.937500000000 8.779003143311 189 189 189
20.890625000000 3.625000000000 9.485004425049 117 117 117
20.890625000000 3.625000000000 8.773998260498 198 198 198
20.859375000000 3.609375000000 8.779003143311 119 119 119
20.890625000000 3.328125000000 9.490001678467 88 88 88
20.890625000000 3.312500000000 9.479000091553 104 104 104
20.890625000000 3.312500000000 8.786998748779 199 199 199
20.890625000000 3.312500000000 8.780002593994 183 183 183
20.890625000000 3.015625000000 9.489002227783 117 117 117
20.921875000000 3.015625000000 8.810001373291 127 127 127
20.890625000000 3.000000000000 8.784000396729 202 202 202
20.890625000000 2.703125000000 9.483005523682 120 120 120
20.890625000000 2.687500000000 8.777004241943 197 197 197
20.890625000000 2.687500000000 8.789005279541 44 44 44
20.921875000000 2.406250000000 9.475002288818 114 114 114
20.890625000000 2.390625000000 9.472003936768 87 87 87
20.921875000000 2.390625000000 8.784000396729 206 206 206
20.890625000000 2.375000000000 8.783000946045 128 128 128
20.921875000000 2.093750000000 9.493000030518 61 61 61
20.921875000000 2.078125000000 9.476001739502 114 114 114
20.921875000000 2.078125000000 8.785999298096 209 209 209
20.921875000000 2.078125000000 8.783000946045 199 199 199
20.921875000000 1.781250000000 9.484004974365 117 117 117
20.953125000000 1.781250000000 8.804004669189 135 135 135
20.921875000000 1.781250000000 8.778003692627 203 203 203
20.953125000000 1.484375000000 9.485004425049 118 118 118
20.953125000000 1.468750000000 8.790004730225 206 206 206
20.921875000000 1.468750000000 8.804004669189 76 76 76
20.953125000000 1.187500000000 9.489002227783 53 53 53
20.921875000000 1.156250000000 9.476001739502 117 117 117
20.953125000000 1.156250000000 8.794002532959 214 214 214
20.921875000000 1.156250000000 8.786998748779 178 178 178
20.953125000000 0.843750000000 9.484004974365 112 112 112
20.953125000000 0.843750000000 8.795001983643 199 199 199
20.953125000000 0.843750000000 8.784000396729 221 221 221
20.953125000000 0.562500000000 9.491001129150 115 115 115
20.953125000000 0.562500000000 8.814998626709 119 119 119
20.953125000000 0.546875000000 8.785999298096 215 215 215
20.968750000000 0.250000000000 9.499004364014 96 96 96
20.953125000000 0.234375000000 8.790004730225 220 220 220
20.953125000000 0.218750000000 8.792003631592 128 128 128
20.328125000000 27.015625000000 9.770999908447 97 97 97
20.328125000000 27.015625000000 8.779003143311 142 142 142
20.328125000000 27.031250000000 8.778003692627 176 176 176
20.359375000000 26.703125000000 9.744998931885 81 81 81
20.328125000000 26.703125000000 9.750003814697 108 108 108
20.328125000000 26.703125000000 8.783000946045 175 175 175
20.328125000000 26.718750000000 8.796001434326 54 54 54
20.359375000000 26.406250000000 9.748004913330 89 89 89
20.359375000000 26.406250000000 8.783000946045 195 195 195
20.328125000000 26.406250000000 8.779003143311 168 168 168
20.359375000000 26.093750000000 9.729000091553 100 100 100
20.343750000000 26.093750000000 9.729000091553 82 82 82
20.359375000000 26.078125000000 8.778003692627 154 154 154
20.343750000000 26.093750000000 8.782001495361 183 183 183
20.390625000000 25.765625000000 9.724002838135 45 45 45
20.359375000000 25.781250000000 9.733005523682 104 104 104
20.359375000000 25.781250000000 8.781002044678 173 173 173
20.328125000000 25.781250000000 8.780002593994 58 58 58
18.171875000000 27.000000000000 9.590000152588 134 134 134
20.359375000000 25.468750000000 9.731998443604 91 91 91
20.359375000000 25.468750000000 8.773998260498 204 204 204
20.359375000000 25.468750000000 8.780002593994 182 182 182
18.171875000000 26.687500000000 9.572002410889 135 135 135
20.390625000000 25.140625000000 9.716999053955 83 83 83
20.390625000000 25.156250000000 9.711002349854 110 110 110
20.390625000000 25.156250000000 8.784999847412 151 151 151
20.359375000000 25.156250000000 8.775005340576 190 190 190
18.171875000000 26.375000000000 9.573001861572 92 92 92
18.171875000000 26.375000000000 9.554004669189 89 89 89
17.234375000000 26.906250000000 9.314998626709 103 103 103
20.390625000000 24.843750000000 9.712001800537 85 85 85
20.359375000000 24.843750000000 8.781002044678 179 179 179
20.359375000000 24.843750000000 8.791004180908 64 64 64
18.171875000000 26.078125000000 9.562000274658 138 138 138
16.609375000000 26.968750000000 10.878002166748 92 92 92
16.578125000000 26.968750000000 10.865001678467 72 72 72
17.234375000000 26.578125000000 9.326000213623 70 70 70
17.234375000000 26.593750000000 9.301998138428 28 28 28
16.609375000000 26.953125000000 9.836002349854 142 142 142
20.421875000000 24.531250000000 9.701999664307 104 104 104
20.390625000000 24.531250000000 9.700000762939 88 88 88
20.390625000000 24.531250000000 8.784999847412 199 199 199
20.390625000000 24.531250000000 8.784000396729 180 180 180
18.203125000000 25.750000000000 9.550998687744 37 37 37
18.171875000000 25.750000000000 9.540004730225 134 134 134
16.593750000000 26.656250000000 10.869998931885 138 138 138
17.250000000000 26.281250000000 9.306003570557 112 112 112
16.609375000000 26.625000000000 9.841999053955 93 93 93
16.578125000000 26.640625000000 9.818004608154 76 76 76
20.421875000000 24.218750000000 9.696002960205 40 40 40
20.390625000000 24.218750000000 9.687999725342 103 103 103
20.390625000000 24.203125000000 8.780002593994 150 150 150
20.390625000000 24.218750000000 8.784000396729 190 190 190
18.187500000000 25.437500000000 9.543003082275 107 107 107
18.171875000000 25.453125000000 9.527004241943 73 73 73
16.609375000000 26.343750000000 10.834003448486 122 122 122
17.234375000000 25.968750000000 9.291004180908 118 118 118
16.609375000000 26.343750000000 9.819004058838 149 149 149
20.421875000000 23.906250000000 9.680004119873 92 92 92
20.421875000000 23.906250000000 8.781002044678 188 188 188
20.390625000000 23.906250000000 8.791004180908 94 94 94
18.203125000000 25.140625000000 9.536998748779 143 143 143
16.609375000000 26.031250000000 10.851001739502 102 102 102
16.609375000000 26.031250000000 10.815998077393 63 63 63
17.265625000000 25.640625000000 9.296001434326 66 66 66
17.234375000000 25.656250000000 9.275005340576 49 49 49
16.609375000000 26.031250000000 9.804004669189 147 147 147
20.421875000000 23.593750000000 9.673999786377 81 81 81
20.421875000000 23.593750000000 9.664005279541 107 107 107
20.421875000000 23.593750000000 8.784999847412 209 209 209
20.406250000000 23.593750000000 8.784999847412 200 200 200
18.203125000000 24.812500000000 9.526004791260 72 72 72
18.203125000000 24.812500000000 9.518001556396 108 108 108
16.640625000000 25.718750000000 10.825000762939 135 135 135
17.265625000000 25.343750000000 9.286998748779 129 129 129
16.609375000000 25.703125000000 9.817005157471 86 86 86
16.609375000000 25.718750000000 9.785999298096 94 94 94
20.421875000000 23.281250000000 9.669002532959 87 87 87
20.421875000000 23.281250000000 8.794002532959 126 126 126
20.421875000000 23.281250000000 8.783000946045 192 192 192
18.203125000000 24.500000000000 9.519001007080 122 122 122
18.203125000000 24.531250000000 9.506000518799 43 43 43
16.640625000000 25.406250000000 10.839000701904 27 27 27
16.640625000000 25.406250000000 10.805004119873 114 114 114
17.265625000000 25.031250000000 9.259998321533 115 115 115
16.640625000000 25.406250000000 9.790004730225 141 141 141
20.453125000000 22.968750000000 9.665004730225 101 101 101
20.421875000000 22.968750000000 9.670001983643 90 90 90
20.421875000000 22.968750000000 8.784999847412 194 194 194
20.421875000000 22.984375000000 8.789005279541 124 124 124
18.218750000000 24.203125000000 9.503002166748 133 133 133
16.640625000000 25.093750000000 10.813999176025 107 107 107
16.609375000000 25.093750000000 10.786998748779 44 44 44
17.296875000000 24.718750000000 9.275005340576 50 50 50
17.265625000000 24.718750000000 9.248004913330 60 60 60
16.609375000000 25.093750000000 9.770999908447 152 152 152
20.453125000000 22.656250000000 9.645999908447 41 41 41
20.421875000000 22.656250000000 9.652004241943 112 112 112
20.437500000000 22.656250000000 8.783000946045 208 208 208
20.421875000000 22.656250000000 8.778003692627 205 205 205
18.234375000000 23.875000000000 9.497005462646 94 94 94
18.203125000000 23.906250000000 9.505001068115 99 99 99
16.640625000000 24.781250000000 10.800998687744 136 136 136
17.296875000000 24.406250000000 9.245998382568 115 115 115
16.640625000000 24.765625000000 9.789005279541 69 69 69
16.640625000000 24.781250000000 9.755001068115 104 104 104
20.453125000000 22.343750000000 9.640003204346 93 93 93
20.453125000000 22.343750000000 8.790004730225 143 143 143
20.453125000000 22.343750000000 8.783000946045 195 195 195
18.234375000000 23.578125000000 9.497005462646 139 139 139
16.656250000000 24.468750000000 10.798000335693 55 55 55
16.640625000000 24.484375000000 10.770000457764 99 99 99
17.296875000000 24.093750000000 9.230998992920 113 113 113
16.640625000000 24.468750000000 9.756999969482 139 139 139
20.453125000000 22.031250000000 9.638004302979 87 87 87
20.453125000000 22.046875000000 9.651004791260 110 110 110
20.453125000000 22.031250000000 8.791004180908 202 202 202
20.421875000000 22.046875000000 8.798999786377 120 120 120
18.203125000000 23.281250000000 9.483005523682 130 130 130
16.640625000000 24.156250000000 10.792003631592 119 119 119
16.609375000000 24.187500000000 10.770999908447 23 23 23
17.296875000000 23.781250000000 9.242000579834 38 38 38
17.296875000000 23.781250000000 9.216999053955 71 71 71
16.656250000000 24.156250000000 9.744998931885 155 155 155
20.484375000000 21.718750000000 9.634998321533 90 90 90
20.484375000000 21.718750000000 8.780002593994 206 206 206
20.453125000000 21.718750000000 8.783000946045 216 216 216
18.234375000000 22.953125000000 9.490001678467 101 101 101
18.218750000000 22.968750000000 9.470005035400 85 85 85
16.640625000000 23.843750000000 10.761005401611 132 132 132
17.296875000000 23.468750000000 9.231998443604 96 96 96
16.640625000000 23.843750000000 9.728000640869 134 134 134
20.484375000000 21.406250000000 9.622005462646 104 104 104
20.484375000000 21.406250000000 8.880001068115 144 144 144
20.484375000000 21.406250000000 8.787998199463 200 200 200
20.453125000000 21.406250000000 8.808002471924 51 51 51
18.234375000000 22.656250000000 9.475002288818 134 134 134
16.671875000000 23.531250000000 10.779003143311 62 62 62
16.640625000000 23.562500000000 10.744998931885 104 104 104
17.328125000000 23.156250000000 9.213001251221 120 120 120
16.671875000000 23.531250000000 9.742000579834 115 115 115
16.640625000000 23.562500000000 9.712001800537 29 29 29
20.484375000000 21.093750000000 9.614002227783 107 107 107
20.484375000000 21.093750000000 8.794002532959 216 216 216
20.453125000000 21.093750000000 8.784000396729 200 200 200
18.265625000000 22.343750000000 9.477001190186 50 50 50
18.234375000000 22.343750000000 9.477001190186 127 127 127
16.671875000000 23.234375000000 10.751003265381 120 120 120
16.640625000000 23.250000000000 10.747005462646 16 16 16
17.296875000000 22.875000000000 9.202999114990 87 87 87
16.671875000000 23.218750000000 9.726001739502 149 149 149
20.484375000000 20.781250000000 9.617000579834 93 93 93
20.500000000000 20.781250000000 8.786998748779 178 178 178
20.484375000000 20.781250000000 8.786998748779 209 209 209
18.265625000000 22.031250000000 9.462001800537 119 119 119
18.234375000000 22.031250000000 9.461002349854 63 63 63
16.671875000000 22.937500000000 10.740001678467 133 133 133
17.328125000000 22.531250000000 9.206005096436 90 90 90
17.328125000000 22.562500000000 9.180004119873 23 23 23
16.640625000000 22.906250000000 9.703998565674 144 144 144
20.515625000000 20.468750000000 9.610004425049 88 88 88
20.484375000000 20.468750000000 9.642002105713 113 113 113
20.484375000000 20.468750000000 8.789005279541 187 187 187
20.484375000000 20.468750000000 8.798999786377 72 72 72
18.265625000000 21.718750000000 9.460002899170 139 139 139
16.687500000000 22.609375000000 10.754001617432 67 67 67
16.671875000000 22.625000000000 10.716999053955 100 100 100
17.328125000000 22.234375000000 9.195003509521 130 130 130
16.703125000000 22.609375000000 9.715999603271 96 96 96
16.671875000000 22.625000000000 9.697002410889 76 76 76
20.515625000000 20.156250000000 9.594005584717 93 93 93
20.500000000000 20.156250000000 8.790004730225 210 210 210
20.484375000000 20.171875000000 8.779003143311 204 204 204
18.281250000000 21.406250000000 9.460002899170 77 77 77
18.265625000000 21.406250000000 9.437000274658 114 114 114
16.703125000000 22.312500000000 10.730998992920 124 124 124
17.328125000000 21.937500000000 9.173000335693 105 105 105
16.671875000000 22.296875000000 9.701999664307 149 149 149
20.515625000000 19.843750000000 9.592998504639 99 99 99
20.515625000000 19.843750000000 8.798000335693 154 154 154
20.484375000000 19.843750000000 8.790004730225 207 207 207
18.265625000000 21.093750000000 9.456005096436 122 122 122
18.250000000000 21.109375000000 9.432003021240 46 46 46
16.671875000000 22.000000000000 10.714000701904 129 129 129
17.328125000000 21.625000000000 9.188999176025 74 74 74
17.328125000000 21.625000000000 9.170001983643 36 36 36
16.703125000000 22.000000000000 9.676998138428 150 150 150
20.515625000000 19.531250000000 9.587001800537 101 101 101
20.515625000000 19.531250000000 8.781002044678 208 208 208
20.484375000000 19.531250000000 8.782001495361 176 176 176
18.265625000000 20.781250000000 9.434001922607 136 136 136
16.703125000000 21.687500000000 10.723003387451 59 59 59
16.671875000000 21.687500000000 10.689998626709 107 107 107
17.328125000000 21.296875000000 9.169002532959 113 113 113
16.703125000000 21.656250000000 9.686000823975 42 42 42
16.671875000000 21.687500000000 9.670001983643 112 112 112
20.515625000000 19.218750000000 9.575000762939 89 89 89
20.515625000000 19.218750000000 8.779003143311 209 209 209
20.515625000000 19.218750000000 8.785999298096 216 216 216
18.296875000000 20.468750000000 9.437000274658 100 100 100
18.265625000000 20.468750000000 9.420001983643 92 92 92
16.703125000000 21.375000000000 10.700000762939 136 136 136
17.359375000000 21.000000000000 9.154003143311 109 109 109
16.703125000000 21.359375000000 9.666004180908 151 151 151
20.546875000000 18.906250000000 9.582004547119 94 94 94
20.546875000000 18.906250000000 8.813999176025 163 163 163
20.515625000000 18.906250000000 8.786998748779 204 204 204
18.296875000000 20.156250000000 9.426998138428 136 136 136
16.703125000000 21.062500000000 10.714000701904 18 18 18
16.703125000000 21.062500000000 10.680004119873 117 117 117
17.359375000000 20.687500000000 9.159999847412 82 82 82
17.328125000000 20.687500000000 9.147998809814 31 31 31
16.703125000000 21.062500000000 9.658000946045 146 146 146
20.546875000000 18.609375000000 9.583003997803 102 102 102
20.546875000000 18.593750000000 8.782001495361 209 209 209
20.546875000000 18.593750000000 8.786998748779 149 149 149
18.328125000000 19.843750000000 9.419002532959 46 46 46
18.296875000000 19.843750000000 9.419002532959 128 128 128
16.734375000000 20.750000000000 10.687999725342 110 110 110
16.703125000000 20.750000000000 10.659999847412 56 56 56
17.359375000000 20.375000000000 9.152004241943 123 123 123
16.718750000000 20.734375000000 9.665004730225 87 87 87
16.703125000000 20.750000000000 9.632999420166 75 75 75
20.562500000000 18.281250000000 9.570003509521 96 96 96
20.546875000000 18.281250000000 8.785999298096 209 209 209
20.546875000000 18.281250000000 8.781002044678 214 214 214
18.296875000000 19.531250000000 9.424999237061 117 117 117
18.265625000000 19.562500000000 9.409000396729 65 65 65
16.718750000000 20.437500000000 10.673999786377 139 139 139
17.359375000000 20.062500000000 9.131000518799 109 109 109
16.734375000000 20.437500000000 9.645999908447 147 147 147
20.578125000000 17.968750000000 9.570003509521 55 55 55
20.578125000000 17.968750000000 8.783000946045 84 84 84
20.546875000000 17.984375000000 8.778003692627 202 202 202
20.531250000000 17.984375000000 8.791004180908 48 48 48
18.296875000000 19.234375000000 9.405002593994 153 153 153
16.734375000000 20.125000000000 10.680004119873 47 47 47
16.703125000000 20.140625000000 10.654003143311 108 108 108
17.375000000000 19.750000000000 9.148998260498 86 86 86
17.359375000000 19.765625000000 9.131999969482 26 26 26
16.703125000000 20.125000000000 9.631000518799 147 147 147
20.546875000000 17.984375000000 9.605998992920 121 121 121
20.562500000000 17.656250000000 9.556003570557 87 87 87
20.562500000000 17.656250000000 8.784000396729 221 221 221
20.546875000000 17.671875000000 8.771999359131 189 189 189
18.328125000000 18.906250000000 9.404003143311 79 79 79
18.296875000000 18.921875000000 9.387004852295 97 97 97
16.734375000000 19.828125000000 10.672000885010 130 130 130
17.375000000000 19.437500000000 9.126003265381 112 112 112
16.734375000000 19.812500000000 9.645000457764 102 102 102
16.703125000000 19.812500000000 9.616001129150 70 70 70
20.578125000000 17.343750000000 9.553005218506 95 95 95
20.578125000000 17.343750000000 8.792003631592 209 209 209
20.562500000000 17.343750000000 8.785999298096 227 227 227
18.312500000000 18.609375000000 9.397998809814 131 131 131
16.718750000000 19.515625000000 10.661998748779 138 138 138
17.375000000000 19.125000000000 9.113002777100 103 103 103
16.734375000000 19.500000000000 9.627002716064 146 146 146
20.578125000000 17.031250000000 8.775005340576 206 206 206
20.546875000000 17.046875000000 8.798000335693 78 78 78
18.328125000000 18.296875000000 9.382999420166 125 125 125
16.734375000000 19.187500000000 10.656002044678 76 76 76
16.734375000000 19.218750000000 10.625003814697 89 89 89
17.390625000000 18.812500000000 9.122005462646 74 74 74
17.359375000000 18.812500000000 9.104000091553 37 37 37
16.734375000000 19.187500000000 9.606998443604 149 149 149
20.609375000000 16.734375000000 9.542003631592 91 91 91
20.578125000000 16.718750000000 8.782001495361 244 244 244
20.578125000000 16.750000000000 8.781002044678 216 216 216
18.328125000000 18.000000000000 9.395999908447 122 122 122
18.296875000000 18.000000000000 9.373004913330 61 61 61
16.765625000000 18.890625000000 10.637004852295 133 133 133
17.390625000000 18.500000000000 9.104000091553 120 120 120
16.734375000000 18.875000000000 9.622005462646 96 96 96
16.734375000000 18.890625000000 9.590000152588 66 66 66
20.609375000000 16.406250000000 9.539005279541 71 71 71
20.609375000000 16.406250000000 8.796001434326 212 212 212
20.609375000000 16.421875000000 8.781002044678 227 227 227
18.328125000000 17.687500000000 9.381000518799 136 136 136
16.734375000000 18.593750000000 10.624004364014 121 121 121
17.390625000000 18.203125000000 9.090999603271 95 95 95
16.765625000000 18.562500000000 9.592998504639 152 152 152
20.609375000000 16.093750000000 8.779003143311 218 218 218
20.578125000000 16.109375000000 8.787998199463 124 124 124
18.328125000000 17.359375000000 9.389003753662 84 84 84
18.328125000000 17.375000000000 9.370998382568 101 101 101
16.781250000000 18.265625000000 10.624004364014 111 111 111
16.750000000000 18.281250000000 10.609004974365 40 40 40
17.390625000000 17.875000000000 9.106998443604 98 98 98
16.734375000000 18.250000000000 9.586002349854 138 138 138
20.640625000000 15.781250000000 9.530002593994 92 92 92
20.625000000000 15.796875000000 8.796001434326 252 252 252
20.609375000000 15.796875000000 8.776004791260 240 240 240
18.359375000000 17.062500000000 9.370998382568 139 139 139
16.765625000000 17.968750000000 10.619998931885 143 143 143
17.421875000000 17.562500000000 9.085002899170 122 122 122
16.765625000000 17.937500000000 9.598003387451 105 105 105
16.734375000000 17.953125000000 9.583003997803 52 52 52
20.640625000000 15.468750000000 8.782001495361 203 203 203
20.609375000000 15.484375000000 8.776004791260 232 232 232
18.359375000000 16.734375000000 9.379001617432 49 49 49
18.343750000000 16.750000000000 9.369998931885 122 122 122
16.796875000000 17.625000000000 10.620998382568 73 73 73
16.765625000000 17.656250000000 10.598003387451 89 89 89
17.421875000000 17.265625000000 9.108005523682 22 22 22
17.406250000000 17.281250000000 9.076999664307 76 76 76
16.765625000000 17.625000000000 9.570003509521 151 151 151
20.625000000000 15.156250000000 8.782001495361 220 220 220
20.609375000000 15.171875000000 8.783000946045 138 138 138
18.359375000000 16.437500000000 9.368000030518 137 137 137
18.328125000000 16.453125000000 9.363002777100 31 31 31
16.765625000000 17.343750000000 10.605998992920 146 146 146
17.421875000000 16.953125000000 9.077999114990 115 115 115
16.796875000000 17.312500000000 9.582004547119 60 60 60
16.765625000000 17.328125000000 9.553005218506 103 103 103
20.640625000000 14.859375000000 9.530002593994 89 89 89
20.640625000000 14.843750000000 8.790004730225 252 252 252
20.609375000000 14.875000000000 8.777004241943 250 250 250
18.359375000000 16.125000000000 9.358005523682 134 134 134
16.796875000000 17.015625000000 10.618000030518 20 20 20
16.765625000000 17.031250000000 10.587001800537 117 117 117
17.421875000000 16.640625000000 9.067005157471 114 114 114
16.796875000000 17.000000000000 9.567005157471 141 141 141
20.640625000000 14.531250000000 8.783000946045 171 171 171
20.640625000000 14.562500000000 8.781002044678 239 239 239
20.609375000000 14.562500000000 8.771999359131 68 68 68
18.359375000000 15.812500000000 9.369998931885 114 114 114
18.328125000000 15.812500000000 9.350002288818 75 75 75
16.796875000000 16.718750000000 10.600002288818 117 117 117
16.765625000000 16.718750000000 10.577999114990 22 22 22
17.437500000000 16.328125000000 9.070003509521 73 73 73
17.421875000000 16.343750000000 9.053005218506 38 38 38
16.796875000000 16.703125000000 9.550998687744 145 145 145
20.656250000000 14.218750000000 8.919002532959 135 135 135
20.640625000000 14.218750000000 8.793003082275 252 252 252
20.640625000000 14.250000000000 8.781002044678 204 204 204
18.359375000000 15.500000000000 9.346004486084 136 136 136
16.781250000000 16.406250000000 10.587001800537 137 137 137
17.453125000000 16.031250000000 9.062000274658 116 116 116
16.796875000000 16.390625000000 9.573001861572 92 92 92
16.765625000000 16.406250000000 9.544002532959 68 68 68
20.640625000000 13.906250000000 8.798999786377 252 252 252
20.640625000000 13.937500000000 8.783000946045 252 252 252
18.359375000000 15.187500000000 9.365001678467 88 88 88
18.359375000000 15.203125000000 9.346004486084 102 102 102
16.828125000000 16.093750000000 10.591999053955 92 92 92
16.796875000000 16.093750000000 10.567005157471 72 72 72
17.421875000000 15.718750000000 9.049999237061 91 91 91
16.796875000000 16.093750000000 9.553005218506 150 150 150
20.671875000000 13.593750000000 8.812000274658 158 158 158
20.671875000000 13.625000000000 8.777004241943 227 227 227
20.640625000000 13.625000000000 8.784999847412 97 97 97
18.390625000000 14.875000000000 9.346004486084 142 142 142
16.796875000000 15.781250000000 10.576999664307 135 135 135
17.453125000000 15.406250000000 9.060001373291 115 115 115
16.796875000000 15.750000000000 9.555004119873 42 42 42
16.781250000000 15.781250000000 9.534999847412 106 106 106
20.687500000000 13.296875000000 8.909000396729 139 139 139
20.671875000000 13.296875000000 8.789005279541 252 252 252
20.640625000000 13.312500000000 8.776004791260 229 229 229
18.390625000000 14.562500000000 9.347003936768 78 78 78
18.390625000000 14.562500000000 9.338001251221 120 120 120
16.828125000000 15.468750000000 10.577999114990 60 60 60
16.796875000000 15.484375000000 10.553005218506 105 105 105
17.453125000000 15.093750000000 9.051998138428 109 109 109
16.828125000000 15.468750000000 9.540004730225 139 139 139
20.671875000000 13.000000000000 8.800998687744 252 252 252
20.671875000000 13.000000000000 8.778003692627 252 252 252
18.390625000000 14.265625000000 9.351001739502 132 132 132
16.828125000000 15.156250000000 10.565998077393 118 118 118
17.468750000000 14.781250000000 9.059001922607 63 63 63
17.453125000000 14.781250000000 9.034000396729 54 54 54
16.796875000000 15.156250000000 9.521999359131 144 144 144
20.703125000000 12.656250000000 8.822002410889 156 156 156
20.671875000000 12.671875000000 8.777004241943 252 252 252
20.656250000000 12.687500000000 8.798999786377 148 148 148
18.390625000000 13.953125000000 9.334003448486 144 144 144
16.828125000000 14.843750000000 10.547000885010 134 134 134
17.468750000000 14.468750000000 9.044002532959 116 116 116
16.828125000000 14.828125000000 9.541004180908 69 69 69
16.796875000000 14.843750000000 9.514003753662 101 101 101
20.703125000000 12.375000000000 8.858005523682 142 142 142
20.671875000000 12.359375000000 8.799999237061 252 252 252
20.671875000000 12.375000000000 8.781002044678 252 252 252
18.406250000000 13.625000000000 9.334003448486 119 119 119
18.390625000000 13.640625000000 9.322002410889 61 61 61
16.828125000000 14.546875000000 10.573001861572 97 97 97
16.796875000000 14.562500000000 10.539005279541 68 68 68
17.453125000000 14.156250000000 9.030002593994 100 100 100
16.828125000000 14.531250000000 9.526004791260 149 149 149
20.703125000000 12.062500000000 8.798000335693 252 252 252
20.671875000000 12.062500000000 8.773998260498 252 252 252
20.671875000000 12.062500000000 8.786998748779 56 56 56
18.421875000000 13.343750000000 9.324001312256 135 135 135
16.828125000000 14.234375000000 10.547000885010 140 140 140
17.484375000000 13.859375000000 9.040004730225 111 111 111
16.828125000000 14.218750000000 9.539005279541 23 23 23
16.828125000000 14.218750000000 9.509998321533 118 118 118
20.703125000000 11.734375000000 8.798999786377 174 174 174
20.703125000000 11.750000000000 8.790004730225 252 252 252
20.671875000000 11.750000000000 8.794002532959 146 146 146
18.390625000000 13.031250000000 9.339000701904 115 115 115
18.390625000000 13.031250000000 9.313999176025 75 75 75
16.859375000000 13.921875000000 10.562000274658 72 72 72
16.828125000000 13.937500000000 10.526004791260 88 88 88
17.484375000000 13.531250000000 9.013004302979 105 105 105
16.828125000000 13.906250000000 9.526004791260 132 132 132
20.703125000000 11.421875000000 8.824001312256 147 147 147
20.703125000000 11.437500000000 8.797000885010 252 252 252
20.703125000000 11.437500000000 8.787998199463 252 252 252
18.421875000000 12.703125000000 9.313999176025 138 138 138
16.828125000000 13.609375000000 10.542003631592 133 133 133
17.515625000000 13.218750000000 9.021999359131 86 86 86
17.484375000000 13.250000000000 9.019001007080 28 28 28
16.828125000000 13.609375000000 9.506000518799 148 148 148
20.734375000000 11.093750000000 8.796001434326 101 101 101
20.734375000000 11.125000000000 8.786998748779 252 252 252
20.703125000000 11.125000000000 8.782001495361 252 252 252
20.671875000000 11.125000000000 8.783000946045 50 50 50
18.421875000000 12.406250000000 9.333003997803 106 106 106
18.421875000000 12.406250000000 9.323001861572 96 96 96
16.859375000000 13.281250000000 10.559001922607 26 26 26
16.859375000000 13.312500000000 10.519001007080 113 113 113
17.484375000000 12.937500000000 9.023998260498 123 123 123
16.828125000000 13.281250000000 9.526004791260 98 98 98
16.828125000000 13.296875000000 9.493999481201 65 65 65
20.734375000000 10.812500000000 8.794002532959 182 182 182
20.734375000000 10.812500000000 8.787998199463 252 252 252
20.703125000000 10.812500000000 8.791004180908 97 97 97
18.437500000000 12.093750000000 9.319004058838 141 141 141
16.859375000000 13.000000000000 10.537998199463 129 129 129
17.515625000000 12.593750000000 9.025005340576 67 67 67
17.500000000000 12.625000000000 8.999004364014 48 48 48
16.859375000000 12.968750000000 9.495998382568 152 152 152
20.765625000000 10.500000000000 8.869998931885 119 119 119
20.734375000000 10.500000000000 8.805004119873 252 252 252
20.718750000000 10.500000000000 8.779003143311 198 198 198
18.453125000000 11.781250000000 9.331005096436 103 103 103
18.421875000000 11.781250000000 9.309001922607 85 85 85
16.875000000000 12.671875000000 10.542003631592 18 18 18
16.859375000000 12.687500000000 10.515003204346 120 120 120
17.515625000000 12.281250000000 9.000003814697 118 118 118
16.859375000000 12.656250000000 9.506999969482 79 79 79
16.859375000000 12.687500000000 9.479999542236 75 75 75
20.750000000000 10.187500000000 8.786998748779 252 252 252
20.734375000000 10.187500000000 8.776004791260 252 252 252
18.437500000000 11.468750000000 9.312999725342 144 144 144
16.859375000000 12.359375000000 10.531002044678 119 119 119
16.828125000000 12.390625000000 10.520000457764 16 16 16
17.515625000000 12.000000000000 9.026004791260 28 28 28
17.500000000000 12.000000000000 9.001003265381 73 73 73
16.875000000000 12.359375000000 9.485004425049 147 147 147
20.765625000000 9.875000000000 8.801998138428 252 252 252
20.734375000000 9.875000000000 8.782001495361 252 252 252
20.734375000000 9.875000000000 8.795001983643 101 101 101
18.453125000000 11.156250000000 9.329998016357 99 99 99
18.453125000000 11.156250000000 9.298000335693 102 102 102
16.859375000000 12.062500000000 10.516002655029 136 136 136
17.515625000000 11.671875000000 9.007999420166 115 115 115
16.859375000000 12.062500000000 9.474002838135 128 128 128
20.765625000000 9.562500000000 8.822002410889 142 142 142
20.750000000000 9.562500000000 8.791004180908 252 252 252
20.734375000000 9.562500000000 8.797000885010 153 153 153
18.453125000000 10.843750000000 9.308002471924 138 138 138
16.890625000000 11.750000000000 10.536998748779 108 108 108
16.859375000000 11.750000000000 10.503002166748 60 60 60
17.515625000000 11.375000000000 9.000003814697 101 101 101
16.875000000000 11.734375000000 9.489002227783 132 132 132
20.781250000000 9.234375000000 8.808002471924 103 103 103
20.765625000000 9.250000000000 8.789005279541 252 252 252
20.765625000000 9.250000000000 8.783000946045 252 252 252
18.453125000000 10.531250000000 9.319004058838 100 100 100
18.453125000000 10.546875000000 9.300998687744 98 98 98
16.859375000000 11.437500000000 10.507999420166 137 137 137
17.546875000000 11.062500000000 9.001003265381 105 105 105
16.875000000000 11.421875000000 9.467998504639 135 135 135
20.765625000000 8.937500000000 8.781002044678 252 252 252
20.765625000000 8.937500000000 8.773998260498 252 252 252
20.734375000000 8.953125000000 8.781002044678 50 50 50
18.453125000000 10.218750000000 9.294002532959 145 145 145
16.890625000000 11.125000000000 10.527004241943 89 89 89
16.859375000000 11.156250000000 10.502002716064 55 55 55
17.515625000000 10.750000000000 8.999004364014 111 111 111
16.890625000000 11.125000000000 9.485004425049 131 131 131
20.796875000000 8.625000000000 8.790004730225 224 224 224
20.796875000000 8.625000000000 8.778003692627 252 252 252
20.765625000000 8.640625000000 8.780002593994 129 129 129
18.484375000000 9.906250000000 9.314998626709 107 107 107
18.453125000000 9.921875000000 9.303005218506 122 122 122
16.890625000000 10.828125000000 10.517002105713 146 146 146
17.546875000000 10.437500000000 9.009998321533 85 85 85
17.515625000000 10.437500000000 8.984004974365 28 28 28
16.890625000000 10.812500000000 9.470005035400 144 144 144
20.796875000000 8.296875000000 8.800998687744 119 119 119
20.796875000000 8.312500000000 8.786998748779 252 252 252
20.765625000000 8.312500000000 8.775005340576 204 204 204
18.484375000000 9.593750000000 9.306003570557 148 148 148
16.921875000000 10.500000000000 10.514003753662 62 62 62
16.890625000000 10.500000000000 10.494998931885 94 94 94
17.546875000000 10.125000000000 8.990001678467 125 125 125
16.890625000000 10.500000000000 9.488002777100 89 89 89
16.890625000000 10.500000000000 9.451000213623 77 77 77
20.796875000000 8.000000000000 8.783000946045 252 252 252
20.796875000000 8.000000000000 8.775005340576 252 252 252
18.484375000000 9.281250000000 9.309001922607 91 91 91
18.484375000000 9.296875000000 9.296001434326 103 103 103
16.906250000000 10.187500000000 10.503002166748 135 135 135
17.546875000000 9.812500000000 9.003002166748 77 77 77
