11.687500000000 20.687500000000 49.391998291016 133 133 133
10.875000000000 20.562500000000 49.420013427734 13 13 13
12.062500000000 20.562500000000 48.894012451172 172 172 172
11.750000000000 20.562500000000 49.391998291016 132 132 132
12.000000000000 20.437500000000 48.891998291016 170 170 170
11.750000000000 20.437500000000 49.397003173828 128 128 128
12.062500000000 20.375000000000 48.898010253906 170 170 170
11.750000000000 20.375000000000 49.391021728516 127 127 127
12.000000000000 20.250000000000 48.894012451172 178 178 178
11.687500000000 20.187500000000 49.393005371094 133 133 133
12.062500000000 20.125000000000 48.891021728516 176 176 176
11.750000000000 20.125000000000 49.390014648438 129 129 129
12.000000000000 20.000000000000 48.897003173828 174 174 174
11.750000000000 20.000000000000 49.382995605469 125 125 125
12.062500000000 19.937500000000 48.891021728516 175 175 175
11.750000000000 19.937500000000 49.384002685547 118 118 118
11.000000000000 19.812500000000 49.463012695313 69 69 69
12.000000000000 19.812500000000 48.893005371094 166 166 166
11.750000000000 19.812500000000 49.384002685547 113 113 113
11.000000000000 19.687500000000 49.481018066406 19 19 19
12.062500000000 19.750000000000 48.884002685547 171 171 171
11.750000000000 19.750000000000 49.381011962891 125 125 125
12.062500000000 19.625000000000 48.891021728516 175 175 175
11.750000000000 19.625000000000 49.385009765625 126 126 126
12.062500000000 19.562500000000 48.895019531250 174 174 174
11.750000000000 19.562500000000 49.386993408203 134 134 134
12.000000000000 19.437500000000 48.895019531250 166 166 166
11.750000000000 19.375000000000 49.386993408203 128 128 128
12.062500000000 19.312500000000 48.890014648438 161 161 161
11.750000000000 19.312500000000 49.391998291016 122 122 122
12.062500000000 19.187500000000 48.901000976563 155 155 155
11.750000000000 19.187500000000 49.399993896484 124 124 124
12.062500000000 19.125000000000 48.901000976563 152 152 152
11.750000000000 19.062500000000 49.391021728516 122 122 122
12.000000000000 18.937500000000 48.901000976563 171 171 171
11.750000000000 19.000000000000 49.391021728516 133 133 133
12.062500000000 18.937500000000 48.897003173828 165 165 165
11.750000000000 18.937500000000 49.390014648438 128 128 128
11.062500000000 18.812500000000 49.477020263672 42 42 42
12.062500000000 18.812500000000 48.895996093750 166 166 166
11.750000000000 18.812500000000 49.384002685547 128 128 128
11.062500000000 18.625000000000 49.464996337891 86 86 86
12.000000000000 18.750000000000 48.899017333984 173 173 173
11.750000000000 18.687500000000 49.395019531250 128 128 128
10.687500000000 18.750000000000 52.417022705078 7 7 7
11.062500000000 18.562500000000 49.470001220703 92 92 92
11.750000000000 18.562500000000 49.385009765625 131 131 131
10.625000000000 18.562500000000 52.436004638672 13 13 13
10.937500000000 18.500000000000 49.470001220703 19 19 19
11.062500000000 18.500000000000 49.463012695313 97 97 97
11.750000000000 18.500000000000 49.386993408203 129 129 129
10.687500000000 18.500000000000 52.437011718750 24 24 24
11.062500000000 18.437500000000 49.466003417969 86 86 86
11.750000000000 18.375000000000 49.393005371094 134 134 134
10.687500000000 18.375000000000 52.428009033203 17 17 17
11.062500000000 18.250000000000 49.464019775391 71 71 71
11.750000000000 18.250000000000 49.390014648438 126 126 126
11.062500000000 18.187500000000 49.468994140625 55 55 55
11.750000000000 18.250000000000 49.384002685547 130 130 130
11.062500000000 18.125000000000 49.476013183594 29 29 29
11.750000000000 18.125000000000 49.399017333984 115 115 115
11.062500000000 17.937500000000 49.471008300781 70 70 70
11.750000000000 18.062500000000 49.398010253906 132 132 132
11.125000000000 17.875000000000 49.473999023438 43 43 43
11.000000000000 17.875000000000 49.464019775391 18 18 18
11.062500000000 17.812500000000 49.471008300781 78 78 78
10.937500000000 17.687500000000 49.466003417969 92 92 92
11.062500000000 17.750000000000 49.477996826172 102 102 102
11.000000000000 17.625000000000 49.451995849609 130 130 130
11.125000000000 17.562500000000 49.462005615234 122 122 122
10.937500000000 17.500000000000 49.468017578125 142 142 142
11.125000000000 17.500000000000 49.466003417969 126 126 126
10.937500000000 17.375000000000 49.460021972656 144 144 144
11.062500000000 17.375000000000 49.460021972656 117 117 117
11.000000000000 17.250000000000 49.455017089844 146 146 146
11.062500000000 17.312500000000 49.459014892578 116 116 116
10.937500000000 17.125000000000 49.460021972656 135 135 135
11.062500000000 17.125000000000 49.455993652344 110 110 110
10.937500000000 17.062500000000 49.455017089844 145 145 145
11.125000000000 17.062500000000 49.455993652344 119 119 119
11.000000000000 17.062500000000 49.457000732422 140 140 140
11.062500000000 17.000000000000 49.466003417969 110 110 110
11.000000000000 16.875000000000 49.463012695313 143 143 143
11.062500000000 16.937500000000 49.464019775391 116 116 116
11.000000000000 16.812500000000 49.466003417969 129 129 129
11.062500000000 16.750000000000 49.462005615234 109 109 109
10.937500000000 16.687500000000 49.462005615234 131 131 131
11.125000000000 16.687500000000 49.457000732422 113 113 113
10.625000000000 16.687500000000 52.394012451172 8 8 8
10.937500000000 16.562500000000 49.462005615234 113 113 113
11.125000000000 16.625000000000 49.459014892578 98 98 98
10.625000000000 16.562500000000 52.376007080078 6 6 6
11.000000000000 16.437500000000 49.450012207031 86 86 86
11.125000000000 16.437500000000 49.454010009766 76 76 76
10.625000000000 16.437500000000 52.373016357422 6 6 6
11.000000000000 16.375000000000 49.460021972656 17 17 17
10.625000000000 16.312500000000 52.374023437500 6 6 6
10.625000000000 16.187500000000 52.363006591797 11 11 11
10.625000000000 16.062500000000 52.364013671875 19 19 19
10.625000000000 15.937500000000 52.381011962891 20 20 20
10.625000000000 15.875000000000 52.378021240234 6 6 6
10.937500000000 21.812500000000 49.462005615234 100 100 100
10.875000000000 21.812500000000 49.429016113281 61 61 61
11.000000000000 21.812500000000 49.444000244141 93 93 93
10.875000000000 21.625000000000 49.434020996094 74 74 74
10.937500000000 21.687500000000 49.457000732422 99 99 99
10.875000000000 21.500000000000 49.445007324219 73 73 73
11.000000000000 21.562500000000 49.447998046875 89 89 89
10.875000000000 21.437500000000 49.433013916016 78 78 78
11.000000000000 21.500000000000 49.438018798828 86 86 86
11.625000000000 21.812500000000 49.341003417969 47 47 47
10.875000000000 21.312500000000 49.438018798828 83 83 83
11.000000000000 21.375000000000 49.454010009766 96 96 96
11.625000000000 21.750000000000 49.339019775391 32 32 32
10.875000000000 21.187500000000 49.433013916016 85 85 85
11.000000000000 21.250000000000 49.450012207031 95 95 95
11.625000000000 21.625000000000 49.341003417969 29 29 29
10.875000000000 21.062500000000 49.434997558594 81 81 81
11.000000000000 21.125000000000 49.446014404297 88 88 88
12.000000000000 21.812500000000 48.874023437500 81 81 81
11.625000000000 21.562500000000 49.337005615234 40 40 40
10.875000000000 21.062500000000 49.445007324219 78 78 78
11.000000000000 21.062500000000 49.446014404297 90 90 90
12.000000000000 21.687500000000 48.882995605469 90 90 90
11.625000000000 21.437500000000 49.348022460938 33 33 33
10.875000000000 20.937500000000 49.430999755859 81 81 81
11.000000000000 21.000000000000 49.440002441406 87 87 87
12.000000000000 21.562500000000 48.869995117188 100 100 100
10.875000000000 20.812500000000 49.444000244141 83 83 83
11.000000000000 20.937500000000 49.447998046875 96 96 96
12.000000000000 21.437500000000 48.872009277344 97 97 97
11.625000000000 21.250000000000 49.348022460938 23 23 23
10.875000000000 20.750000000000 49.434997558594 83 83 83
11.000000000000 20.750000000000 49.444000244141 91 91 91
12.000000000000 21.375000000000 48.884002685547 104 104 104
10.875000000000 20.562500000000 49.436004638672 81 81 81
11.000000000000 20.687500000000 49.447021484375 88 88 88
12.000000000000 21.312500000000 48.878021240234 101 101 101
10.875000000000 20.500000000000 49.441009521484 81 81 81
11.000000000000 20.562500000000 49.450012207031 92 92 92
12.000000000000 21.187500000000 48.882019042969 108 108 108
10.875000000000 20.375000000000 49.438018798828 85 85 85
11.000000000000 20.437500000000 49.451019287109 91 91 91
12.000000000000 21.062500000000 48.882019042969 112 112 112
10.875000000000 20.312500000000 49.434997558594 84 84 84
11.000000000000 20.312500000000 49.442993164063 85 85 85
12.000000000000 20.937500000000 48.889007568359 102 102 102
10.875000000000 20.187500000000 49.437011718750 88 88 88
11.000000000000 20.250000000000 49.446014404297 88 88 88
12.000000000000 20.812500000000 48.882019042969 109 109 109
10.875000000000 20.125000000000 49.434997558594 88 88 88
11.000000000000 20.187500000000 49.441009521484 82 82 82
12.000000000000 20.687500000000 48.882995605469 109 109 109
11.625000000000 20.500000000000 49.358001708984 24 24 24
10.875000000000 20.000000000000 49.432006835938 90 90 90
11.000000000000 20.062500000000 49.441009521484 78 78 78
12.000000000000 20.625000000000 48.880004882813 100 100 100
11.625000000000 20.437500000000 49.356018066406 49 49 49
10.875000000000 19.937500000000 49.432006835938 91 91 91
11.000000000000 19.937500000000 49.440002441406 78 78 78
12.000000000000 20.562500000000 48.882019042969 114 114 114
11.625000000000 20.312500000000 49.352020263672 31 31 31
10.937500000000 19.750000000000 49.429016113281 91 91 91
11.000000000000 19.875000000000 49.451019287109 82 82 82
12.062500000000 20.437500000000 48.874023437500 110 110 110
11.625000000000 20.187500000000 49.348022460938 34 34 34
10.875000000000 19.687500000000 49.434020996094 93 93 93
11.000000000000 19.687500000000 49.442016601563 80 80 80
12.062500000000 20.375000000000 48.882019042969 115 115 115
11.625000000000 20.125000000000 49.354003906250 40 40 40
10.875000000000 19.562500000000 49.432006835938 86 86 86
11.000000000000 19.625000000000 49.434997558594 69 69 69
12.000000000000 20.250000000000 48.880004882813 113 113 113
11.625000000000 19.937500000000 49.359008789063 40 40 40
10.875000000000 19.437500000000 49.444000244141 90 90 90
11.000000000000 19.500000000000 49.440002441406 77 77 77
12.062500000000 20.125000000000 48.880004882813 115 115 115
11.625000000000 19.937500000000 49.356018066406 36 36 36
10.937500000000 19.375000000000 49.433013916016 88 88 88
11.000000000000 19.437500000000 49.442993164063 79 79 79
12.000000000000 20.000000000000 48.885009765625 111 111 111
11.625000000000 19.812500000000 49.355010986328 39 39 39
10.875000000000 19.312500000000 49.433013916016 85 85 85
11.000000000000 19.312500000000 49.438995361328 64 64 64
12.062500000000 19.937500000000 48.885009765625 113 113 113
11.625000000000 19.750000000000 49.354003906250 43 43 43
10.750000000000 19.187500000000 52.446014404297 16 16 16
10.875000000000 19.187500000000 49.434997558594 86 86 86
11.000000000000 19.250000000000 49.437011718750 59 59 59
12.000000000000 19.812500000000 48.878021240234 113 113 113
11.625000000000 19.562500000000 49.354003906250 56 56 56
10.937500000000 19.062500000000 49.428009033203 74 74 74
11.000000000000 19.125000000000 49.440002441406 51 51 51
12.062500000000 19.750000000000 48.884002685547 109 109 109
11.625000000000 19.500000000000 49.351013183594 65 65 65
10.875000000000 18.937500000000 49.436004638672 68 68 68
11.000000000000 19.062500000000 49.453002929688 36 36 36
12.062500000000 19.625000000000 48.884002685547 112 112 112
11.625000000000 19.375000000000 49.345001220703 74 74 74
10.875000000000 18.875000000000 49.432006835938 50 50 50
11.000000000000 18.875000000000 49.438018798828 24 24 24
12.062500000000 19.562500000000 48.878997802734 104 104 104
11.625000000000 19.312500000000 49.346008300781 76 76 76
10.937500000000 18.687500000000 49.430999755859 50 50 50
12.000000000000 19.437500000000 48.886016845703 99 99 99
11.625000000000 19.125000000000 49.350006103516 84 84 84
10.937500000000 18.625000000000 49.430999755859 46 46 46
11.062500000000 18.687500000000 49.438995361328 23 23 23
12.062500000000 19.312500000000 48.882995605469 106 106 106
11.625000000000 19.125000000000 49.356018066406 83 83 83
10.937500000000 18.562500000000 49.434020996094 48 48 48
11.000000000000 18.562500000000 49.437011718750 21 21 21
12.062500000000 19.187500000000 48.884002685547 113 113 113
11.625000000000 19.000000000000 49.358001708984 80 80 80
10.937500000000 18.437500000000 49.429016113281 43 43 43
11.000000000000 18.500000000000 49.441009521484 23 23 23
12.062500000000 19.125000000000 48.881011962891 110 110 110
11.625000000000 18.875000000000 49.348022460938 88 88 88
10.937500000000 18.312500000000 49.428009033203 46 46 46
11.000000000000 18.437500000000 49.434997558594 29 29 29
12.000000000000 18.937500000000 48.890014648438 116 116 116
11.625000000000 18.750000000000 49.356994628906 81 81 81
10.937500000000 18.250000000000 49.430999755859 33 33 33
12.062500000000 18.937500000000 48.882019042969 116 116 116
11.625000000000 18.687500000000 49.359008789063 83 83 83
10.875000000000 18.125000000000 49.438995361328 57 57 57
11.000000000000 18.187500000000 49.440002441406 30 30 30
12.062500000000 18.812500000000 48.890014648438 123 123 123
11.625000000000 18.562500000000 49.361022949219 74 74 74
10.937500000000 18.000000000000 49.433013916016 50 50 50
11.062500000000 18.125000000000 49.434020996094 21 21 21
12.062500000000 18.687500000000 48.886993408203 120 120 120
11.625000000000 18.437500000000 49.365997314453 79 79 79
10.937500000000 17.875000000000 49.434997558594 28 28 28
11.687500000000 18.312500000000 49.352996826172 82 82 82
11.625000000000 18.312500000000 49.364013671875 91 91 91
11.625000000000 18.187500000000 49.352996826172 92 92 92
10.687500000000 17.625000000000 52.391021728516 16 16 16
11.687500000000 18.062500000000 49.365997314453 95 95 95
10.625000000000 17.500000000000 52.399017333984 17 17 17
11.625000000000 17.937500000000 49.361022949219 99 99 99
10.625000000000 17.312500000000 52.399993896484 13 13 13
11.625000000000 17.875000000000 49.368011474609 104 104 104
10.562500000000 15.812500000000 52.368011474609 18 18 18
15.500000000000 0.000000000000 48.692993164063 170 170 170
15.500000000000 0.187500000000 48.707000732422 89 89 89
15.562500000000 0.062500000000 50.045013427734 45 45 45
15.500000000000 0.312500000000 48.709014892578 49 49 49
15.562500000000 0.187500000000 50.057006835938 56 56 56
15.562500000000 0.437500000000 48.695007324219 43 43 43
15.625000000000 0.312500000000 50.055023193359 64 64 64
15.562500000000 0.500000000000 50.054016113281 58 58 58
15.500000000000 0.687500000000 48.697998046875 63 63 63
15.562500000000 0.562500000000 50.067993164063 49 49 49
15.500000000000 0.750000000000 48.699005126953 90 90 90
15.625000000000 0.625000000000 50.078002929688 49 49 49
16.562500000000 0.125000000000 50.147003173828 33 33 33
16.500000000000 0.187500000000 48.675994873047 69 69 69
15.500000000000 0.875000000000 48.710021972656 109 109 109
15.625000000000 0.750000000000 50.069000244141 44 44 44
16.562500000000 0.187500000000 50.160003662109 70 70 70
16.500000000000 0.250000000000 48.674011230469 72 72 72
15.500000000000 1.062500000000 48.683013916016 92 92 92
15.625000000000 0.937500000000 50.080993652344 44 44 44
15.500000000000 1.125000000000 48.701019287109 75 75 75
15.625000000000 1.062500000000 50.072021484375 49 49 49
16.500000000000 0.562500000000 48.664001464844 48 48 48
15.562500000000 1.250000000000 48.701019287109 70 70 70
15.625000000000 1.125000000000 50.085998535156 63 63 63
16.500000000000 0.687500000000 48.669006347656 80 80 80
15.562500000000 1.375000000000 48.697021484375 152 152 152
15.625000000000 1.312500000000 50.093017578125 78 78 78
16.500000000000 0.750000000000 50.158996582031 36 36 36
16.500000000000 0.812500000000 48.671997070313 73 73 73
15.562500000000 1.437500000000 48.697021484375 154 154 154
15.625000000000 1.437500000000 50.093994140625 60 60 60
16.562500000000 0.875000000000 50.161010742188 67 67 67
15.562500000000 1.625000000000 48.692016601563 149 149 149
16.562500000000 1.000000000000 50.177001953125 69 69 69
15.562500000000 1.687500000000 48.701995849609 150 150 150
16.562500000000 1.062500000000 50.160003662109 40 40 40
16.437500000000 1.125000000000 48.675994873047 76 76 76
15.562500000000 1.812500000000 48.701995849609 169 169 169
16.500000000000 1.312500000000 48.671997070313 76 76 76
15.562500000000 2.000000000000 48.704010009766 161 161 161
15.625000000000 2.125000000000 48.700012207031 178 178 178
16.500000000000 1.500000000000 50.174011230469 64 64 64
16.437500000000 1.562500000000 48.671020507813 59 59 59
15.625000000000 2.187500000000 48.703002929688 149 149 149
16.500000000000 1.625000000000 50.177001953125 28 28 28
16.437500000000 1.687500000000 48.671997070313 81 81 81
15.562500000000 2.312500000000 48.699005126953 142 142 142
15.625000000000 2.437500000000 48.709014892578 153 153 153
16.500000000000 1.875000000000 50.183013916016 28 28 28
16.437500000000 1.937500000000 48.669006347656 55 55 55
15.625000000000 2.562500000000 48.704010009766 162 162 162
16.500000000000 1.937500000000 50.196014404297 66 66 66
16.437500000000 2.062500000000 48.667022705078 79 79 79
15.625000000000 2.687500000000 48.697998046875 191 191 191
16.500000000000 2.125000000000 50.182006835938 60 60 60
16.437500000000 2.187500000000 48.673004150391 59 59 59
15.625000000000 2.875000000000 48.697021484375 174 174 174
15.750000000000 2.750000000000 50.134002685547 29 29 29
16.500000000000 2.250000000000 50.197021484375 32 32 32
19.625000000000 0.437500000000 49.557006835938 21 21 21
15.625000000000 2.937500000000 48.697021484375 90 90 90
15.750000000000 2.812500000000 50.134002685547 45 45 45
19.562500000000 0.500000000000 49.548004150391 37 37 37
15.625000000000 3.000000000000 48.709014892578 66 66 66
15.687500000000 2.937500000000 50.154998779297 57 57 57
16.437500000000 2.562500000000 48.671997070313 78 78 78
19.625000000000 0.625000000000 49.555999755859 50 50 50
15.625000000000 3.125000000000 48.701995849609 145 145 145
15.750000000000 3.062500000000 50.145019531250 71 71 71
16.437500000000 2.687500000000 48.683013916016 75 75 75
19.625000000000 0.750000000000 49.565002441406 46 46 46
15.625000000000 3.312500000000 48.701995849609 146 146 146
15.750000000000 3.187500000000 50.153015136719 75 75 75
16.437500000000 2.687500000000 50.205993652344 64 64 64
19.562500000000 0.875000000000 49.550018310547 37 37 37
15.625000000000 3.375000000000 48.703002929688 157 157 157
15.750000000000 3.312500000000 50.154998779297 78 78 78
16.500000000000 2.875000000000 50.191009521484 54 54 54
16.375000000000 2.937500000000 48.673004150391 58 58 58
15.625000000000 3.500000000000 48.692016601563 162 162 162
15.750000000000 3.437500000000 50.157012939453 83 83 83
16.375000000000 3.062500000000 48.675018310547 89 89 89
15.625000000000 3.687500000000 48.700012207031 153 153 153
15.750000000000 3.562500000000 50.153015136719 75 75 75
16.375000000000 3.187500000000 48.688018798828 48 48 48
15.687500000000 3.812500000000 48.695007324219 154 154 154
15.750000000000 3.687500000000 50.169006347656 71 71 71
16.437500000000 3.250000000000 50.225006103516 66 66 66
15.687500000000 3.875000000000 48.690002441406 166 166 166
15.750000000000 3.750000000000 50.167022705078 73 73 73
16.437500000000 3.375000000000 50.213012695313 52 52 52
16.375000000000 3.500000000000 48.669006347656 86 86 86
15.687500000000 3.937500000000 48.692016601563 161 161 161
15.750000000000 3.937500000000 50.154998779297 87 87 87
15.875000000000 3.875000000000 49.192016601563 67 67 67
16.437500000000 3.437500000000 50.218994140625 30 30 30
16.375000000000 3.562500000000 48.673004150391 69 69 69
15.687500000000 4.125000000000 48.695007324219 166 166 166
15.750000000000 4.000000000000 50.167022705078 54 54 54
15.750000000000 4.000000000000 50.003997802734 39 39 39
15.812500000000 3.937500000000 49.725006103516 54 54 54
15.687500000000 4.250000000000 48.695007324219 197 197 197
16.375000000000 3.812500000000 50.171020507813 52 52 52
16.375000000000 3.812500000000 48.707000732422 79 79 79
15.687500000000 4.375000000000 48.688018798828 136 136 136
16.375000000000 3.937500000000 48.690002441406 80 80 80
19.625000000000 1.937500000000 49.588012695313 39 39 39
15.687500000000 4.562500000000 48.712005615234 48 48 48
16.375000000000 4.000000000000 50.226013183594 48 48 48
16.312500000000 4.125000000000 48.667999267578 89 89 89
19.687500000000 2.062500000000 49.595001220703 30 30 30
15.750000000000 4.625000000000 48.691009521484 76 76 76
15.812500000000 4.500000000000 50.205993652344 34 34 34
16.375000000000 4.187500000000 50.242004394531 66 66 66
16.375000000000 4.250000000000 48.680999755859 63 63 63
19.687500000000 2.187500000000 49.602996826172 29 29 29
15.687500000000 4.687500000000 48.694000244141 118 118 118
15.812500000000 4.562500000000 50.205017089844 41 41 41
16.375000000000 4.312500000000 50.227020263672 48 48 48
19.687500000000 2.312500000000 49.597015380859 22 22 22
15.750000000000 4.812500000000 48.695007324219 141 141 141
15.812500000000 4.687500000000 50.188018798828 50 50 50
16.312500000000 4.437500000000 48.684997558594 73 73 73
15.750000000000 5.000000000000 48.692993164063 151 151 151
15.875000000000 4.875000000000 50.218017578125 43 43 43
16.312500000000 4.562500000000 48.675018310547 82 82 82
15.750000000000 5.062500000000 48.696014404297 150 150 150
15.875000000000 5.000000000000 50.213012695313 44 44 44
16.375000000000 4.625000000000 50.240020751953 59 59 59
15.750000000000 5.187500000000 48.697021484375 142 142 142
15.812500000000 5.062500000000 50.207000732422 43 43 43
16.375000000000 4.750000000000 50.247009277344 50 50 50
16.312500000000 4.875000000000 48.692993164063 67 67 67
19.750000000000 2.812500000000 49.615020751953 21 21 21
15.750000000000 5.312500000000 48.688995361328 165 165 165
15.875000000000 5.250000000000 50.226013183594 47 47 47
16.375000000000 4.937500000000 50.260009765625 39 39 39
16.312500000000 5.000000000000 48.695007324219 88 88 88
15.875000000000 5.312500000000 50.223999023438 58 58 58
16.375000000000 5.062500000000 48.680999755859 59 59 59
19.687500000000 3.000000000000 49.602020263672 20 20 20
19.750000000000 3.125000000000 49.608001708984 65 65 65
16.312500000000 5.250000000000 50.270996093750 36 36 36
16.250000000000 5.312500000000 48.684997558594 47 47 47
19.750000000000 3.250000000000 49.623016357422 87 87 87
19.750000000000 3.437500000000 49.617004394531 71 71 71
15.750000000000 7.000000000000 48.692016601563 162 162 162
15.750000000000 7.125000000000 48.686004638672 176 176 176
15.812500000000 7.062500000000 50.158020019531 44 44 44
15.750000000000 7.312500000000 48.678009033203 173 173 173
16.250000000000 7.000000000000 48.692993164063 64 64 64
15.750000000000 7.437500000000 48.683013916016 144 144 144
15.812500000000 7.312500000000 50.161010742188 33 33 33
16.312500000000 7.062500000000 50.279022216797 40 40 40
16.250000000000 7.062500000000 48.705993652344 95 95 95
15.750000000000 7.500000000000 48.675994873047 148 148 148
15.875000000000 7.437500000000 50.136016845703 44 44 44
16.250000000000 7.187500000000 48.713012695313 50 50 50
15.750000000000 7.687500000000 48.691009521484 146 146 146
15.875000000000 7.562500000000 50.144012451172 72 72 72
15.750000000000 7.750000000000 48.683013916016 143 143 143
15.812500000000 7.687500000000 50.128997802734 72 72 72
16.375000000000 7.375000000000 50.261993408203 43 43 43
16.312500000000 7.500000000000 48.710998535156 49 49 49
15.750000000000 7.875000000000 48.699005126953 58 58 58
15.875000000000 7.812500000000 50.132019042969 62 62 62
16.375000000000 7.437500000000 50.257019042969 57 57 57
16.375000000000 7.562500000000 48.695007324219 64 64 64
15.750000000000 8.062500000000 48.686004638672 151 151 151
15.812500000000 7.937500000000 50.121002197266 37 37 37
16.375000000000 7.625000000000 50.238006591797 50 50 50
16.312500000000 7.625000000000 48.701019287109 78 78 78
15.687500000000 8.125000000000 48.688018798828 188 188 188
16.375000000000 7.687500000000 50.236022949219 46 46 46
16.312500000000 7.812500000000 48.714019775391 97 97 97
15.750000000000 8.250000000000 48.684997558594 181 181 181
16.375000000000 7.812500000000 50.235015869141 65 65 65
16.375000000000 7.937500000000 48.691009521484 54 54 54
15.750000000000 8.437500000000 48.688995361328 153 153 153
16.375000000000 8.000000000000 50.234008789063 24 24 24
15.750000000000 8.562500000000 48.690002441406 158 158 158
16.375000000000 8.125000000000 48.709014892578 55 55 55
15.750000000000 8.625000000000 48.696014404297 147 147 147
16.437500000000 8.187500000000 50.210021972656 51 51 51
16.375000000000 8.250000000000 48.714019775391 90 90 90
15.750000000000 8.750000000000 48.686004638672 159 159 159
16.437500000000 8.250000000000 50.214996337891 45 45 45
16.375000000000 8.375000000000 48.716003417969 83 83 83
15.750000000000 8.875000000000 48.683013916016 156 156 156
16.437500000000 8.437500000000 50.184020996094 62 62 62
15.750000000000 9.000000000000 48.675994873047 169 169 169
16.437500000000 8.625000000000 48.723022460938 56 56 56
15.750000000000 9.187500000000 48.688018798828 153 153 153
15.750000000000 9.062500000000 50.072021484375 35 35 35
16.437500000000 8.687500000000 48.723999023438 84 84 84
15.750000000000 9.312500000000 48.684997558594 86 86 86
15.812500000000 9.187500000000 50.076019287109 76 76 76
16.375000000000 8.875000000000 48.727996826172 90 90 90
15.687500000000 9.375000000000 48.678009033203 145 145 145
15.875000000000 9.312500000000 50.074005126953 58 58 58
16.500000000000 8.937500000000 50.171020507813 48 48 48
16.437500000000 9.000000000000 48.721008300781 80 80 80
15.687500000000 9.500000000000 48.692016601563 200 200 200
15.812500000000 9.437500000000 50.058013916016 53 53 53
16.500000000000 9.000000000000 50.175994873047 51 51 51
15.750000000000 9.625000000000 48.690002441406 186 186 186
16.500000000000 9.125000000000 50.169006347656 42 42 42
15.750000000000 9.750000000000 48.694000244141 161 161 161
16.500000000000 9.250000000000 50.136993408203 63 63 63
15.750000000000 9.937500000000 48.684020996094 157 157 157
16.500000000000 9.375000000000 50.151000976563 56 56 56
16.500000000000 9.437500000000 48.722015380859 76 76 76
15.750000000000 10.062500000000 48.682006835938 179 179 179
16.500000000000 9.562500000000 48.727996826172 92 92 92
15.750000000000 10.125000000000 48.688018798828 183 183 183
16.562500000000 9.625000000000 50.132019042969 30 30 30
15.750000000000 10.187500000000 48.677001953125 181 181 181
16.562500000000 9.750000000000 50.114013671875 52 52 52
15.750000000000 10.375000000000 48.688018798828 183 183 183
16.562500000000 9.875000000000 50.125000000000 77 77 77
16.500000000000 9.875000000000 48.723022460938 77 77 77
15.750000000000 10.500000000000 48.692016601563 180 180 180
16.500000000000 10.000000000000 48.736999511719 85 85 85
15.750000000000 10.687500000000 48.697998046875 151 151 151
16.500000000000 10.187500000000 48.736022949219 61 61 61
15.687500000000 10.750000000000 48.684020996094 124 124 124
15.812500000000 10.687500000000 50.020996093750 55 55 55
15.687500000000 10.875000000000 48.695007324219 208 208 208
15.812500000000 10.875000000000 50.001007080078 71 71 71
16.625000000000 10.312500000000 50.093994140625 42 42 42
15.750000000000 11.000000000000 48.691009521484 206 206 206
15.750000000000 10.937500000000 49.985015869141 49 49 49
16.625000000000 10.500000000000 50.074005126953 42 42 42
15.750000000000 11.125000000000 48.678009033203 176 176 176
15.812500000000 11.000000000000 49.998016357422 50 50 50
16.625000000000 10.562500000000 50.085998535156 57 57 57
16.562500000000 10.562500000000 48.742004394531 64 64 64
15.750000000000 11.250000000000 48.688995361328 191 191 191
15.812500000000 11.187500000000 49.994018554688 43 43 43
16.625000000000 10.625000000000 50.072998046875 98 98 98
16.625000000000 10.750000000000 48.735015869141 81 81 81
15.750000000000 11.312500000000 48.684020996094 200 200 200
16.625000000000 10.812500000000 50.063018798828 65 65 65
16.562500000000 10.812500000000 48.744018554688 80 80 80
15.750000000000 11.500000000000 48.692016601563 203 203 203
15.750000000000 11.625000000000 48.695007324219 207 207 207
15.750000000000 11.687500000000 48.695007324219 193 193 193
16.687500000000 11.125000000000 50.053009033203 64 64 64
16.625000000000 11.250000000000 48.742004394531 87 87 87
15.750000000000 11.875000000000 48.692016601563 184 184 184
16.687500000000 11.312500000000 50.061004638672 77 77 77
16.625000000000 11.312500000000 48.751007080078 98 98 98
15.687500000000 11.937500000000 48.684020996094 168 168 168
16.687500000000 11.375000000000 50.035003662109 34 34 34
16.625000000000 11.375000000000 48.757995605469 69 69 69
15.687500000000 12.125000000000 48.694000244141 70 70 70
15.750000000000 12.062500000000 48.708007812500 62 62 62
15.750000000000 12.250000000000 48.678009033203 205 205 205
15.812500000000 12.187500000000 49.933013916016 28 28 28
15.687500000000 12.375000000000 48.697998046875 220 220 220
15.750000000000 12.375000000000 48.714996337891 54 54 54
15.750000000000 12.312500000000 49.938018798828 72 72 72
16.687500000000 11.812500000000 48.752014160156 58 58 58
15.750000000000 12.562500000000 48.697998046875 187 187 187
15.750000000000 12.437500000000 49.947021484375 57 57 57
16.750000000000 11.875000000000 50.010009765625 35 35 35
16.687500000000 11.937500000000 48.751007080078 73 73 73
15.750000000000 12.625000000000 48.692016601563 205 205 205
15.812500000000 12.500000000000 49.925994873047 52 52 52
16.750000000000 12.000000000000 50.007019042969 59 59 59
16.687500000000 12.062500000000 48.759002685547 86 86 86
15.687500000000 12.687500000000 48.697021484375 204 204 204
15.812500000000 12.687500000000 49.925994873047 58 58 58
16.750000000000 12.062500000000 49.989013671875 73 73 73
16.687500000000 12.125000000000 48.765014648438 88 88 88
15.750000000000 12.812500000000 48.691009521484 185 185 185
15.812500000000 12.812500000000 49.919006347656 57 57 57
16.750000000000 12.187500000000 49.992004394531 68 68 68
16.687500000000 12.250000000000 48.756011962891 64 64 64
15.750000000000 13.000000000000 48.684997558594 171 171 171
15.812500000000 12.875000000000 49.930999755859 44 44 44
15.750000000000 13.125000000000 48.691009521484 147 147 147
15.750000000000 13.062500000000 49.912994384766 38 38 38
16.750000000000 12.562500000000 48.766021728516 59 59 59
15.687500000000 13.312500000000 48.688995361328 53 53 53
15.750000000000 13.312500000000 48.700012207031 136 136 136
15.812500000000 13.187500000000 49.925018310547 31 31 31
16.750000000000 12.562500000000 49.971008300781 77 77 77
16.687500000000 12.625000000000 48.770019531250 83 83 83
15.687500000000 13.375000000000 48.690002441406 65 65 65
15.750000000000 13.375000000000 48.699005126953 70 70 70
16.750000000000 12.750000000000 49.971008300781 83 83 83
16.750000000000 12.750000000000 48.766021728516 87 87 87
15.687500000000 13.437500000000 48.683013916016 143 143 143
16.750000000000 12.812500000000 49.964019775391 61 61 61
16.750000000000 12.937500000000 48.766021728516 57 57 57
15.687500000000 13.625000000000 48.674011230469 200 200 200
15.750000000000 13.750000000000 48.674011230469 213 213 213
15.750000000000 13.625000000000 49.891021728516 46 46 46
15.687500000000 13.875000000000 48.695007324219 212 212 212
15.750000000000 13.812500000000 49.904998779297 65 65 65
16.750000000000 13.187500000000 48.773010253906 55 55 55
15.687500000000 13.937500000000 48.671020507813 211 211 211
15.750000000000 13.937500000000 49.891021728516 51 51 51
16.750000000000 13.312500000000 48.769012451172 83 83 83
15.750000000000 14.125000000000 48.690002441406 228 228 228
15.812500000000 14.062500000000 49.882995605469 60 60 60
16.812500000000 13.375000000000 49.938018798828 60 60 60
16.812500000000 13.500000000000 48.783020019531 90 90 90
15.687500000000 14.187500000000 48.675018310547 58 58 58
15.687500000000 14.187500000000 48.677001953125 210 210 210
15.812500000000 14.187500000000 49.890014648438 64 64 64
16.875000000000 13.562500000000 49.932006835938 74 74 74
16.812500000000 13.625000000000 48.787017822266 87 87 87
15.687500000000 14.375000000000 48.678009033203 64 64 64
15.750000000000 14.312500000000 48.675018310547 173 173 173
15.750000000000 14.250000000000 49.880004882813 63 63 63
16.812500000000 13.625000000000 49.919006347656 63 63 63
15.687500000000 14.500000000000 48.680999755859 68 68 68
15.750000000000 14.500000000000 48.677001953125 191 191 191
15.812500000000 14.375000000000 49.882995605469 63 63 63
15.687500000000 14.625000000000 48.703002929688 91 91 91
15.687500000000 14.562500000000 48.680999755859 143 143 143
15.750000000000 14.562500000000 49.865020751953 59 59 59
16.875000000000 13.937500000000 48.783020019531 78 78 78
15.687500000000 14.750000000000 48.682006835938 100 100 100
15.687500000000 14.687500000000 48.680999755859 131 131 131
15.812500000000 14.687500000000 49.854003906250 55 55 55
16.875000000000 13.937500000000 49.901000976563 68 68 68
16.812500000000 14.062500000000 48.786010742188 92 92 92
15.687500000000 14.875000000000 48.684997558594 149 149 149
15.687500000000 14.875000000000 48.688018798828 100 100 100
15.750000000000 14.812500000000 49.865020751953 41 41 41
16.875000000000 14.125000000000 49.894012451172 78 78 78
16.875000000000 14.187500000000 48.783996582031 79 79 79
15.687500000000 14.937500000000 48.667999267578 199 199 199
16.875000000000 14.250000000000 49.888000488281 31 31 31
15.687500000000 15.062500000000 48.666015625000 247 247 247
15.687500000000 15.250000000000 48.683013916016 247 247 247
16.875000000000 14.500000000000 48.805023193359 59 59 59
15.687500000000 15.312500000000 48.667999267578 245 245 245
15.750000000000 15.312500000000 49.858001708984 60 60 60
16.937500000000 14.625000000000 48.813995361328 78 78 78
15.687500000000 15.437500000000 48.671020507813 246 246 246
15.750000000000 15.437500000000 49.842010498047 60 60 60
16.937500000000 14.687500000000 49.850006103516 59 59 59
16.875000000000 14.750000000000 48.800018310547 86 86 86
15.625000000000 15.625000000000 48.644012451172 50 50 50
15.687500000000 15.625000000000 48.671020507813 252 252 252
15.750000000000 15.562500000000 49.839019775391 47 47 47
16.937500000000 14.812500000000 49.864013671875 64 64 64
16.875000000000 14.875000000000 48.804016113281 88 88 88
15.687500000000 15.750000000000 48.654022216797 94 94 94
15.687500000000 15.750000000000 48.662017822266 232 232 232
15.750000000000 15.687500000000 49.835998535156 57 57 57
17.000000000000 15.000000000000 49.859008789063 60 60 60
16.937500000000 15.000000000000 48.809020996094 61 61 61
15.687500000000 15.875000000000 48.666015625000 107 107 107
15.750000000000 15.812500000000 48.657012939453 246 246 246
15.750000000000 15.750000000000 49.842010498047 59 59 59
15.687500000000 16.000000000000 48.667022705078 113 113 113
15.687500000000 15.937500000000 48.678009033203 222 222 222
15.750000000000 15.875000000000 49.838012695313 61 61 61
17.000000000000 15.187500000000 48.813995361328 55 55 55
15.625000000000 16.062500000000 48.673004150391 132 132 132
15.687500000000 16.062500000000 48.667999267578 206 206 206
15.750000000000 16.062500000000 49.838012695313 64 64 64
17.000000000000 15.250000000000 49.843994140625 53 53 53
16.937500000000 15.375000000000 48.816009521484 78 78 78
15.687500000000 16.250000000000 48.674011230469 148 148 148
15.687500000000 16.187500000000 48.674011230469 207 207 207
15.750000000000 16.187500000000 49.817993164063 63 63 63
17.000000000000 15.437500000000 49.839019775391 71 71 71
16.937500000000 15.437500000000 48.819000244141 97 97 97
15.625000000000 16.375000000000 48.678009033203 156 156 156
15.687500000000 16.375000000000 48.680999755859 168 168 168
15.750000000000 16.250000000000 49.813995361328 67 67 67
17.000000000000 15.562500000000 49.830993652344 48 48 48
16.937500000000 15.562500000000 48.820007324219 60 60 60
15.687500000000 16.500000000000 48.675994873047 173 173 173
15.750000000000 16.500000000000 48.682006835938 98 98 98
15.750000000000 16.437500000000 49.822998046875 63 63 63
15.687500000000 16.562500000000 48.671997070313 252 252 252
15.625000000000 16.687500000000 48.657012939453 252 252 252
17.000000000000 15.937500000000 48.824005126953 47 47 47
15.687500000000 16.812500000000 48.669006347656 252 252 252
17.062500000000 16.000000000000 49.803009033203 54 54 54
17.000000000000 16.000000000000 48.830993652344 75 75 75
15.687500000000 16.937500000000 48.661010742188 252 252 252
15.750000000000 16.937500000000 49.807006835938 51 51 51
17.062500000000 16.125000000000 49.796997070313 71 71 71
17.000000000000 16.187500000000 48.833007812500 86 86 86
15.687500000000 17.125000000000 48.662017822266 252 252 252
15.750000000000 17.000000000000 49.812011718750 56 56 56
17.062500000000 16.187500000000 49.796020507813 68 68 68
17.000000000000 16.312500000000 48.845001220703 95 95 95
15.687500000000 17.250000000000 48.645996093750 58 58 58
15.687500000000 17.250000000000 48.658020019531 252 252 252
15.750000000000 17.187500000000 49.799011230469 54 54 54
17.062500000000 16.375000000000 49.783020019531 39 39 39
17.000000000000 16.437500000000 48.838012695313 72 72 72
15.625000000000 17.375000000000 48.651000976563 53 53 53
15.687500000000 17.312500000000 48.660003662109 252 252 252
15.750000000000 17.312500000000 49.800994873047 59 59 59
15.625000000000 17.437500000000 48.665008544922 55 55 55
15.687500000000 17.437500000000 48.658996582031 252 252 252
15.750000000000 17.375000000000 49.805023193359 59 59 59
15.625000000000 17.562500000000 48.662994384766 66 66 66
15.687500000000 17.562500000000 48.660003662109 252 252 252
15.750000000000 17.562500000000 49.805023193359 62 62 62
17.125000000000 16.687500000000 49.765014648438 73 73 73
17.062500000000 16.750000000000 48.839996337891 76 76 76
15.687500000000 17.750000000000 48.648010253906 61 61 61
15.750000000000 17.687500000000 48.658020019531 252 252 252
15.750000000000 17.625000000000 49.800994873047 58 58 58
17.125000000000 16.812500000000 49.770996093750 66 66 66
17.062500000000 16.875000000000 48.845001220703 90 90 90
15.625000000000 17.875000000000 48.654998779297 86 86 86
15.687500000000 17.875000000000 48.662994384766 251 251 251
15.750000000000 17.750000000000 49.791015625000 54 54 54
17.062500000000 17.000000000000 48.845001220703 77 77 77
15.625000000000 17.937500000000 48.666015625000 109 109 109
15.687500000000 17.937500000000 48.660003662109 187 187 187
15.750000000000 17.937500000000 49.795013427734 63 63 63
15.687500000000 18.062500000000 48.667999267578 138 138 138
15.687500000000 18.062500000000 48.680999755859 164 164 164
15.750000000000 18.062500000000 49.800994873047 65 65 65
15.625000000000 18.187500000000 48.679016113281 222 222 222
15.750000000000 18.125000000000 49.783020019531 49 49 49
17.187500000000 17.375000000000 49.739013671875 52 52 52
15.687500000000 18.312500000000 48.660003662109 252 252 252
17.187500000000 17.437500000000 49.740020751953 63 63 63
15.687500000000 18.437500000000 48.670013427734 252 252 252
17.125000000000 17.500000000000 49.731994628906 65 65 65
17.125000000000 17.562500000000 48.861022949219 72 72 72
15.687500000000 18.625000000000 48.658020019531 244 244 244
15.750000000000 18.500000000000 49.764007568359 38 38 38
17.187500000000 17.687500000000 49.729003906250 61 61 61
17.125000000000 17.687500000000 48.864013671875 90 90 90
15.687500000000 18.687500000000 48.666015625000 252 252 252
15.750000000000 18.687500000000 49.779998779297 57 57 57
17.125000000000 17.812500000000 48.867004394531 90 90 90
15.687500000000 18.812500000000 48.651000976563 235 235 235
15.750000000000 18.812500000000 49.757995605469 57 57 57
17.125000000000 17.937500000000 48.869018554688 64 64 64
15.687500000000 18.937500000000 48.666015625000 233 233 233
15.750000000000 18.875000000000 49.760009765625 55 55 55
17.187500000000 18.000000000000 49.708007812500 54 54 54
15.687500000000 19.062500000000 48.662994384766 240 240 240
15.750000000000 19.000000000000 49.766998291016 53 53 53
17.250000000000 18.187500000000 49.718994140625 72 72 72
15.687500000000 19.187500000000 48.666015625000 234 234 234
15.750000000000 19.125000000000 49.766021728516 56 56 56
17.187500000000 18.250000000000 49.707000732422 60 60 60
17.187500000000 18.250000000000 48.869995117188 66 66 66
15.687500000000 19.312500000000 48.660003662109 232 232 232
15.750000000000 19.250000000000 49.753021240234 58 58 58
17.187500000000 18.375000000000 48.878997802734 85 85 85
15.687500000000 19.437500000000 48.658020019531 215 215 215
15.750000000000 19.437500000000 49.747009277344 59 59 59
17.187500000000 18.562500000000 48.891998291016 86 86 86
15.625000000000 19.562500000000 48.660003662109 75 75 75
15.687500000000 19.562500000000 48.664001464844 180 180 180
15.750000000000 19.562500000000 49.757995605469 69 69 69
17.250000000000 18.562500000000 49.665008544922 38 38 38
17.187500000000 18.687500000000 48.890014648438 83 83 83
15.625000000000 19.750000000000 48.662017822266 147 147 147
15.687500000000 19.750000000000 48.683013916016 65 65 65
15.750000000000 19.625000000000 49.747009277344 65 65 65
17.250000000000 18.750000000000 49.671020507813 62 62 62
17.250000000000 18.812500000000 48.908020019531 52 52 52
15.687500000000 19.812500000000 48.662017822266 182 182 182
17.250000000000 18.875000000000 49.669006347656 72 72 72
15.687500000000 19.937500000000 48.673004150391 239 239 239
17.250000000000 19.000000000000 49.679016113281 77 77 77
15.625000000000 20.062500000000 48.677001953125 218 218 218
17.312500000000 19.125000000000 49.675994873047 44 44 44
15.687500000000 20.187500000000 48.662017822266 203 203 203
17.250000000000 19.250000000000 48.904998779297 67 67 67
15.687500000000 20.312500000000 48.654998779297 211 211 211
17.312500000000 19.375000000000 48.914001464844 90 90 90
15.687500000000 20.500000000000 48.667999267578 212 212 212
15.687500000000 20.375000000000 49.717010498047 44 44 44
17.375000000000 19.437500000000 49.645019531250 53 53 53
17.250000000000 19.500000000000 48.912017822266 88 88 88
15.687500000000 20.562500000000 48.661010742188 214 214 214
15.687500000000 20.500000000000 49.717010498047 53 53 53
17.312500000000 19.562500000000 49.653015136719 77 77 77
17.250000000000 19.625000000000 48.904998779297 47 47 47
15.625000000000 20.625000000000 48.671020507813 238 238 238
15.687500000000 20.625000000000 49.718994140625 53 53 53
17.312500000000 19.750000000000 49.634002685547 50 50 50
15.687500000000 20.812500000000 48.656005859375 218 218 218
15.750000000000 20.750000000000 49.720001220703 63 63 63
15.625000000000 20.937500000000 48.667022705078 41 41 41
15.687500000000 20.937500000000 48.661010742188 216 216 216
15.750000000000 20.937500000000 49.716003417969 60 60 60
17.375000000000 20.000000000000 48.927001953125 47 47 47
15.625000000000 21.062500000000 48.661010742188 74 74 74
15.687500000000 21.062500000000 48.661010742188 127 127 127
15.687500000000 21.000000000000 49.721008300781 70 70 70
17.375000000000 20.062500000000 49.623016357422 49 49 49
17.312500000000 20.062500000000 48.923004150391 77 77 77
15.625000000000 21.250000000000 48.658996582031 137 137 137
15.687500000000 21.125000000000 49.722015380859 72 72 72
17.375000000000 20.187500000000 49.605010986328 65 65 65
17.375000000000 20.187500000000 48.940002441406 86 86 86
15.687500000000 21.312500000000 48.662994384766 177 177 177
15.750000000000 21.312500000000 49.700012207031 62 62 62
17.375000000000 20.312500000000 49.609008789063 78 78 78
17.312500000000 20.312500000000 48.930023193359 91 91 91
15.625000000000 21.437500000000 48.654022216797 205 205 205
17.375000000000 20.437500000000 49.606018066406 67 67 67
17.375000000000 20.500000000000 48.945007324219 81 81 81
15.625000000000 21.562500000000 48.671997070313 219 219 219
17.375000000000 20.562500000000 48.942993164063 44 44 44
15.687500000000 21.687500000000 48.658020019531 199 199 199
15.625000000000 21.812500000000 48.666015625000 202 202 202
17.437500000000 20.750000000000 49.600006103516 47 47 47
17.437500000000 20.875000000000 49.587005615234 78 78 78
17.437500000000 20.937500000000 48.938018798828 67 67 67
17.437500000000 21.062500000000 49.591003417969 63 63 63
17.437500000000 21.062500000000 48.955993652344 92 92 92
17.437500000000 21.187500000000 48.959014892578 81 81 81
17.437500000000 21.312500000000 48.951995849609 39 39 39
17.500000000000 21.312500000000 49.559997558594 34 34 34
17.500000000000 21.500000000000 49.563995361328 65 65 65
17.500000000000 21.625000000000 49.562011718750 77 77 77
17.500000000000 21.687500000000 49.559020996094 65 65 65
19.562500000000 0.437500000000 49.593017578125 33 33 33
19.562500000000 0.500000000000 49.583007812500 38 38 38
19.562500000000 0.687500000000 49.588012695313 28 28 28
16.562500000000 0.000000000000 50.153015136719 41 41 41
19.625000000000 1.750000000000 49.621002197266 64 64 64
16.562500000000 0.125000000000 50.169006347656 66 66 66
19.625000000000 1.875000000000 49.617004394531 72 72 72
16.500000000000 0.125000000000 48.680999755859 82 82 82
19.625000000000 2.062500000000 49.615020751953 79 79 79
16.500000000000 0.187500000000 48.664001464844 49 49 49
19.687500000000 2.125000000000 49.618011474609 64 64 64
16.500000000000 0.375000000000 50.171997070313 29 29 29
19.625000000000 2.250000000000 49.630004882813 73 73 73
16.500000000000 0.500000000000 50.177001953125 66 66 66
15.562500000000 0.000000000000 50.046997070313 72 72 72
19.687500000000 2.437500000000 49.624023437500 54 54 54
16.500000000000 0.562500000000 48.680999755859 72 72 72
16.562500000000 0.687500000000 50.170013427734 83 83 83
15.562500000000 0.125000000000 50.057006835938 67 67 67
15.500000000000 0.000000000000 48.682006835938 109 109 109
16.500000000000 0.750000000000 48.675018310547 88 88 88
16.500000000000 0.812500000000 50.171997070313 73 73 73
15.500000000000 0.125000000000 48.707000732422 151 151 151
16.500000000000 0.812500000000 48.667022705078 69 69 69
16.562500000000 0.937500000000 50.162994384766 45 45 45
15.500000000000 0.312500000000 48.695007324219 170 170 170
15.500000000000 0.437500000000 48.705017089844 160 160 160
15.500000000000 0.500000000000 48.701019287109 158 158 158
19.687500000000 3.000000000000 49.656005859375 101 101 101
16.437500000000 1.125000000000 48.667022705078 85 85 85
16.500000000000 1.187500000000 50.188018798828 67 67 67
15.500000000000 0.687500000000 48.710998535156 161 161 161
19.687500000000 3.125000000000 49.641998291016 109 109 109
16.500000000000 1.312500000000 50.191009521484 50 50 50
15.500000000000 0.750000000000 48.717010498047 149 149 149
19.750000000000 3.312500000000 49.641021728516 113 113 113
16.437500000000 1.375000000000 48.680023193359 48 48 48
15.500000000000 0.875000000000 48.712005615234 153 153 153
19.687500000000 3.375000000000 49.632995605469 86 86 86
16.437500000000 1.500000000000 48.682006835938 83 83 83
15.500000000000 0.937500000000 48.709014892578 161 161 161
16.500000000000 1.687500000000 50.199005126953 77 77 77
15.562500000000 1.125000000000 48.697998046875 171 171 171
16.500000000000 1.875000000000 50.186004638672 61 61 61
15.500000000000 1.250000000000 48.710021972656 162 162 162
16.437500000000 1.875000000000 48.670013427734 44 44 44
16.500000000000 1.875000000000 50.186004638672 45 45 45
15.562500000000 1.375000000000 48.700012207031 169 169 169
16.437500000000 2.000000000000 48.678009033203 84 84 84
16.500000000000 2.000000000000 50.180023193359 36 36 36
15.625000000000 1.562500000000 50.087005615234 32 32 32
15.562500000000 1.437500000000 48.700012207031 168 168 168
16.437500000000 2.062500000000 48.666015625000 82 82 82
15.625000000000 1.687500000000 50.100006103516 57 57 57
15.500000000000 1.562500000000 48.696014404297 169 169 169
16.437500000000 2.187500000000 48.671997070313 45 45 45
15.625000000000 1.812500000000 50.110015869141 70 70 70
15.562500000000 1.687500000000 48.697998046875 123 123 123
