8.608398437500 4.446777343750 58.674999237061 172 172 172
8.612548828125 4.446289062500 58.748996734619 174 174 174
8.604003906250 4.445312500000 58.826000213623 175 175 175
8.615234375000 4.444824218750 58.897998809814 173 173 173
8.612304687500 4.444824218750 58.973999023438 174 174 174
8.597656250000 4.443847656250 59.053997039795 169 169 169
8.604003906250 4.442382812500 59.128997802734 169 169 169
8.603759765625 4.441406250000 59.205997467041 108 108 108
8.665039062500 4.443359375000 59.265998840332 115 115 115
8.611328125000 4.440429687500 59.357997894287 114 114 114
8.679687500000 4.441894531250 59.416000366211 125 125 125
8.539794921875 4.353515625000 57.729999542236 14 14 14
8.395507812500 4.348632812500 57.882999420166 201 201 201
8.385742187500 4.347656250000 57.958999633789 193 193 193
8.385009765625 4.347167968750 58.034000396729 183 183 183
8.371337890625 4.345703125000 58.109996795654 180 180 180
8.433105468750 4.347167968750 58.178997039795 159 159 159
8.400390625000 4.344726562500 58.256996154785 176 176 176
8.455078125000 4.346679687500 58.326000213623 182 182 182
8.364746093750 4.342773437500 58.412998199463 190 190 190
8.357666015625 4.341796875000 58.489997863770 181 181 181
8.502929687500 4.343750000000 58.618999481201 184 184 184
8.511474609375 4.343261718750 58.692996978760 185 185 185
8.521484375000 4.342773437500 58.765998840332 185 185 185
8.512207031250 4.342773437500 58.843997955322 188 188 188
8.520507812500 4.340820312500 58.918998718262 179 179 179
8.551025390625 4.339355468750 59.219997406006 63 63 63
8.527343750000 4.337402343750 59.303997039795 109 109 109
8.440185546875 4.334960937500 59.407997131348 106 106 106
8.402343750000 4.248046875000 57.956996917725 160 160 160
8.435058593750 4.247558593750 58.028999328613 172 172 172
8.429199218750 4.246093750000 58.103996276855 178 178 178
8.396484375000 4.245605468750 58.181999206543 192 192 192
8.430664062500 4.244628906250 58.252998352051 93 93 93
8.438964843750 4.244140625000 58.326999664307 69 69 69
8.388671875000 4.242187500000 58.409000396729 179 179 179
8.378417968750 4.241210937500 58.485996246338 186 186 186
8.548339843750 4.245117187500 58.535999298096 181 181 181
8.556640625000 4.244140625000 58.608997344971 183 183 183
8.542968750000 4.243164062500 58.685997009277 184 184 184
8.555175781250 4.243164062500 58.758998870850 141 141 141
8.552246093750 4.241699218750 58.834999084473 186 186 186
8.560546875000 4.241210937500 58.909000396729 183 183 183
8.562744140625 4.240234375000 58.984996795654 173 173 173
8.415527343750 4.145996093750 58.104999542236 151 151 151
8.413818359375 4.144531250000 58.180000305176 180 180 180
8.409667968750 4.144531250000 58.255996704102 185 185 185
8.392578125000 4.142578125000 58.333000183105 185 185 185
8.406738281250 4.142089843750 58.406997680664 189 189 189
8.578125000000 4.145996093750 58.458000183105 184 184 184
8.590332031250 4.144531250000 58.529998779297 182 182 182
8.594482421875 4.144042968750 58.602996826172 184 184 184
8.584472656250 4.143554687500 58.678997039795 152 152 152
8.601562500000 4.142578125000 58.826000213623 160 160 160
8.597167968750 4.141113281250 58.902000427246 180 180 180
8.590820312500 4.141113281250 58.978996276855 182 182 182
8.593505859375 4.139160156250 59.055000305176 159 159 159
8.428466796875 4.043457031250 58.253997802734 114 114 114
8.422363281250 4.043457031250 58.329998016357 158 158 158
8.586669921875 4.046386718750 58.382999420166 154 154 154
8.637451171875 4.045898437500 58.448997497559 186 186 186
8.628417968750 4.045898437500 58.523998260498 188 188 188
8.632568359375 4.045898437500 58.596996307373 175 175 175
8.636474609375 4.042480468750 58.893997192383 176 176 176
8.642822265625 4.041503906250 58.967998504639 206 206 206
8.635009765625 4.041503906250 59.044998168945 177 177 177
8.640136718750 4.040039062500 59.119998931885 124 124 124
8.669189453125 3.948730468750 58.371997833252 185 185 185
8.675048828125 3.946777343750 58.444000244141 185 185 185
8.677001953125 3.947265625000 58.515998840332 180 180 180
8.679687500000 3.942871093750 58.958999633789 184 184 184
8.678222656250 3.941894531250 59.034996032715 205 205 205
8.674316406250 3.941406250000 59.110996246338 176 176 176
8.694091796875 3.842285156250 59.031997680664 23 23 23
8.248535156250 5.053710937500 58.500999450684 204 204 204
8.232910156250 5.041503906250 59.038997650146 204 204 204
8.291992187500 4.977539062500 58.407997131348 210 210 210
8.285400390625 4.973144531250 58.496997833252 205 205 205
8.285156250000 4.971679687500 58.584999084473 154 154 154
8.274902343750 4.963867187500 58.940998077393 130 130 130
8.282958984375 4.968261718750 59.027996063232 213 213 213
8.278320312500 4.964355468750 59.118999481201 212 212 212
8.323974609375 4.893554687500 58.403999328613 204 204 204
8.327636718750 4.895507812500 58.489997863770 214 214 214
8.315917968750 4.887695312500 58.578998565674 206 206 206
8.312011718750 4.882812500000 58.932998657227 212 212 212
8.309082031250 4.881835937500 59.021999359131 209 209 209
8.314208984375 4.883300781250 59.110996246338 211 211 211
8.286621093750 4.769531250000 58.228996276855 94 94 94
8.297607421875 4.775390625000 58.315998077393 160 160 160
8.290283203125 4.770019531250 58.403999328613 156 156 156
8.355224609375 4.808593750000 58.484996795654 210 210 210
8.359375000000 4.811523437500 58.570999145508 204 204 204
8.359375000000 4.811523437500 58.659000396729 204 204 204
8.344482421875 4.800781250000 58.835998535156 132 132 132
8.334960937500 4.795410156250 58.925998687744 204 204 204
8.345214843750 4.799804687500 59.012996673584 213 213 213
8.330566406250 4.791503906250 59.104999542236 52 52 52
8.315185546875 4.686523437500 58.052997589111 87 87 87
8.326171875000 4.692382812500 58.138996124268 170 170 170
8.312988281250 4.683105468750 58.226997375488 156 156 156
8.310546875000 4.681152343750 58.313999176025 151 151 151
8.309814453125 4.680175781250 58.402000427246 164 164 164
8.343017578125 4.700195312500 58.485996246338 195 195 195
8.388427734375 4.727539062500 58.566997528076 202 202 202
8.390136718750 4.727539062500 58.653999328613 204 204 204
8.390625000000 4.728027343750 58.740997314453 96 96 96
8.375732421875 4.717773437500 58.830997467041 209 209 209
8.390625000000 4.726562500000 58.916000366211 210 210 210
8.376953125000 4.717773437500 59.005996704102 207 207 207
8.335937500000 4.598144531250 57.963996887207 163 163 163
8.342773437500 4.601074218750 58.050998687744 174 174 174
8.330810546875 4.593750000000 58.137996673584 179 179 179
8.338378906250 4.597167968750 58.223999023438 183 183 183
8.324707031250 4.588378906250 58.312000274658 132 132 132
8.335937500000 4.595214843750 58.397998809814 94 94 94
8.324707031250 4.588378906250 58.486999511719 164 164 164
8.422363281250 4.646972656250 58.562000274658 205 205 205
8.422363281250 4.646972656250 58.648998260498 204 204 204
8.414306640625 4.641113281250 58.735996246338 204 204 204
8.413574218750 4.640625000000 58.823997497559 209 209 209
8.410156250000 4.637207031250 58.911998748779 211 211 211
8.413574218750 4.639160156250 58.998996734619 47 47 47
8.355957031250 4.601074218750 59.366996765137 83 83 83
8.491210937500 4.601074218750 56.511997222900 119 119 119
8.497070312500 4.603515625000 56.599998474121 121 121 121
8.490478515625 4.599121093750 56.684997558594 118 118 118
8.496582031250 4.601562500000 56.771999359131 113 113 113
8.491699218750 4.598632812500 56.857997894287 113 113 113
8.486816406250 4.595703125000 56.942996978760 101 101 101
8.494628906250 4.600097656250 57.028999328613 98 98 98
8.493164062500 4.598632812500 57.113998413086 78 78 78
8.480957031250 4.590332031250 57.197998046875 58 58 58
8.485107421875 4.591308593750 57.282997131348 43 43 43
8.489746093750 4.594238281250 57.367996215820 23 23 23
8.365966796875 4.516601562500 57.876998901367 181 181 181
8.377685546875 4.522460937500 57.962997436523 160 160 160
8.385253906250 4.526367187500 58.048000335693 122 122 122
8.380371093750 4.522460937500 58.134998321533 170 170 170
8.462646484375 4.572753906250 58.214996337891 181 181 181
8.433593750000 4.554687500000 58.302997589111 197 197 197
8.349609375000 4.503417968750 58.395996093750 187 187 187
8.351562500000 4.503906250000 58.482997894287 183 183 183
8.450927734375 4.563964843750 58.643997192383 206 206 206
8.456054687500 4.565429687500 58.729999542236 205 205 205
8.448242187500 4.560058593750 58.816997528076 205 205 205
8.447753906250 4.559570312500 58.903999328613 212 212 212
8.509765625000 4.596679687500 59.065998077393 35 35 35
8.530029296875 4.608398437500 59.148998260498 76 76 76
8.550781250000 4.620117187500 59.230998992920 90 90 90
8.408691406250 4.532714843750 59.352996826172 91 91 91
8.629882812500 4.667968750000 59.384998321533 116 116 116
8.576171875000 4.551757812500 56.442996978760 97 97 97
8.630615234375 4.583984375000 56.539997100830 200 200 200
8.639404296875 4.589355468750 56.626998901367 199 199 199
8.631347656250 4.583496093750 56.709999084473 201 201 201
8.628906250000 4.581542968750 56.793998718262 201 201 201
8.631835937500 4.582519531250 56.877998352051 199 199 199
8.631835937500 4.582519531250 56.961997985840 201 201 201
8.614990234375 4.571777343750 57.042999267578 201 201 201
8.627441406250 4.578613281250 57.127998352051 202 202 202
8.628173828125 4.577636718750 57.210998535156 202 202 202
8.611328125000 4.568359375000 57.292999267578 202 202 202
8.625244140625 4.575195312500 57.376998901367 202 202 202
8.616210937500 4.570312500000 57.458999633789 202 202 202
8.623046875000 4.573242187500 57.541999816895 203 203 203
8.621582031250 4.571777343750 57.624996185303 214 214 214
8.626464843750 4.575195312500 57.708000183105 207 207 207
8.619140625000 4.569824218750 57.789997100830 202 202 202
8.614013671875 4.566894531250 57.872997283936 202 202 202
8.618408203125 4.567871093750 57.955997467041 202 202 202
8.618408203125 4.567871093750 58.037998199463 202 202 202
8.610351562500 4.562011718750 58.121997833252 202 202 202
8.611572265625 4.561523437500 58.204998016357 202 202 202
8.607910156250 4.560058593750 58.287998199463 202 202 202
8.602539062500 4.556640625000 58.371997833252 196 196 196
8.609375000000 4.559570312500 58.454998016357 199 199 199
8.602783203125 4.555175781250 58.538997650146 199 199 199
8.607910156250 4.557128906250 58.621997833252 198 198 198
8.599121093750 4.551757812500 58.708000183105 198 198 198
8.603515625000 4.554687500000 58.791000366211 195 195 195
8.599609375000 4.551269531250 58.876998901367 196 196 196
8.600585937500 4.551757812500 58.961997985840 193 193 193
8.600585937500 4.550292968750 59.046997070313 191 191 191
8.597412109375 4.547851562500 59.132999420166 193 193 193
8.611328125000 4.556152343750 59.215999603271 104 104 104
8.630371093750 4.567871093750 59.298000335693 88 88 88
8.691406250000 4.604492187500 59.367996215820 120 120 120
8.607421875000 4.552734375000 59.477996826172 87 87 87
8.411621093750 4.342773437500 57.874996185303 89 89 89
8.407226562500 4.338867187500 57.960998535156 188 188 188
8.410644531250 4.340820312500 58.046997070313 186 186 186
8.406250000000 4.337890625000 58.131996154785 196 196 196
8.502685546875 4.395507812500 58.211997985840 170 170 170
8.540771484375 4.418945312500 58.292999267578 135 135 135
8.424560546875 4.347656250000 58.388996124268 141 141 141
8.409667968750 4.337402343750 58.475997924805 165 165 165
8.598632812500 4.452636718750 58.539997100830 33 33 33
8.517089843750 4.401855468750 58.634998321533 204 204 204
8.523437500000 4.404785156250 58.718997955322 203 203 203
8.523437500000 4.404785156250 58.805000305176 202 202 202
8.524414062500 4.405761718750 58.889999389648 201 201 201
8.626464843750 4.466796875000 58.956996917725 50 50 50
8.611328125000 4.457031250000 59.044998168945 51 51 51
8.623535156250 4.464355468750 59.127998352051 39 39 39
8.618164062500 4.459472656250 59.214996337891 85 85 85
8.662353515625 4.486816406250 59.289997100830 85 85 85
8.674804687500 4.493652343750 59.372997283936 110 110 110
8.629882812500 4.465820312500 59.471996307373 62 62 62
8.452392578125 4.265136718750 58.044998168945 172 172 172
8.450927734375 4.264160156250 58.129997253418 168 168 168
8.408203125000 4.236816406250 58.217998504639 153 153 153
8.441406250000 4.256835937500 58.300998687744 48 48 48
8.414062500000 4.239257812500 58.388996124268 82 82 82
8.379882812500 4.218750000000 58.478996276855 187 187 187
8.545410156250 4.318359375000 58.545997619629 203 203 203
8.548339843750 4.319824218750 58.629997253418 214 214 214
8.540039062500 4.313964843750 58.715999603271 213 213 213
8.548339843750 4.318359375000 58.799999237061 207 207 207
8.552734375000 4.321289062500 58.884998321533 204 204 204
8.552734375000 4.321289062500 58.970996856689 192 192 192
8.675292968750 4.392089843750 59.372997283936 92 92 92
8.447509765625 4.159667968750 58.129997253418 72 72 72
8.415527343750 4.140625000000 58.216999053955 168 168 168
8.416992187500 4.140625000000 58.302997589111 181 181 181
8.418945312500 4.140625000000 58.388996124268 178 178 178
8.429687500000 4.147949218750 58.473999023438 132 132 132
8.577392578125 4.235839843750 58.541999816895 216 216 216
8.571289062500 4.231933593750 58.626998901367 226 226 226
8.573730468750 4.232910156250 58.710998535156 204 204 204
8.588378906250 4.241699218750 58.793998718262 196 196 196
8.580810546875 4.236328125000 58.879997253418 203 203 203
8.577880859375 4.233886718750 58.965999603271 203 203 203
8.612304687500 4.155761718750 58.452999114990 207 207 207
8.614257812500 4.156738281250 58.536998748779 219 219 219
8.606445312500 4.150878906250 58.621997833252 222 222 222
8.615234375000 4.155761718750 58.873996734619 204 204 204
8.613525390625 4.154296875000 58.958999633789 203 203 203
8.620117187500 4.157714843750 59.042999267578 203 203 203
8.634765625000 4.067382812500 58.366996765137 116 116 116
8.644775390625 4.072753906250 58.448997497559 227 227 227
8.646484375000 4.074218750000 58.531997680664 231 231 231
8.646484375000 4.074218750000 58.614997863770 194 194 194
8.652832031250 4.075683593750 58.865997314453 28 28 28
8.651855468750 4.075195312500 58.951000213623 205 205 205
8.642578125000 4.069335937500 59.036998748779 204 204 204
8.643066406250 4.068359375000 59.121997833252 193 193 193
8.683349609375 3.994628906250 58.361999511719 210 210 210
8.682617187500 3.993652343750 58.444000244141 216 216 216
8.671630859375 3.986816406250 58.527996063232 227 227 227
8.681640625000 3.991699218750 58.944000244141 187 187 187
8.679687500000 3.989746093750 59.028999328613 204 204 204
8.678710937500 3.989257812500 59.113998413086 204 204 204
8.713867187500 3.910644531250 58.439998626709 97 97 97
8.715820312500 3.911132812500 58.521999359131 140 140 140
8.721679687500 3.912109375000 59.019996643066 201 201 201
8.283691406250 4.934082031250 58.335998535156 164 164 164
8.288818359375 4.933105468750 58.411998748779 203 203 203
8.282226562500 4.932617187500 58.489997863770 202 202 202
8.286376953125 4.931152343750 58.565998077393 115 115 115
8.267089843750 4.927246093750 58.960998535156 174 174 174
8.268066406250 4.926757812500 59.039997100830 173 173 173
8.271972656250 4.926269531250 59.118999481201 168 168 168
8.285644531250 4.763671875000 58.180999755859 47 47 47
8.278564453125 4.762207031250 58.257999420166 172 172 172
8.265625000000 4.761718750000 58.335998535156 179 179 179
8.262939453125 4.760253906250 58.413997650146 157 157 157
8.356445312500 4.760742187500 58.476997375488 189 189 189
8.357177734375 4.759765625000 58.552997589111 190 190 190
8.350097656250 4.760253906250 58.630996704102 184 184 184
8.326416015625 4.758300781250 58.789997100830 54 54 54
8.346191406250 4.756835937500 58.863998413086 195 195 195
8.330078125000 4.755859375000 58.945999145508 178 178 178
8.331542968750 4.755859375000 59.023998260498 166 166 166
8.574951171875 4.623046875000 55.643997192383 157 157 157
8.587402343750 4.622070312500 55.726997375488 170 170 170
8.581787109375 4.621093750000 55.802997589111 180 180 180
8.599853515625 4.614257812500 56.486999511719 95 95 95
8.589355468750 4.614257812500 56.558998107910 91 91 91
8.599121093750 4.613769531250 56.633998870850 78 78 78
8.589843750000 4.611816406250 56.704998016357 71 71 71
8.583984375000 4.610839843750 56.777996063232 64 64 64
8.584716796875 4.610351562500 56.850997924805 47 47 47
8.578369140625 4.609863281250 56.923000335693 21 21 21
8.337402343750 4.595214843750 57.873996734619 106 106 106
8.323974609375 4.593750000000 57.949996948242 184 184 184
8.317382812500 4.593261718750 58.025997161865 190 190 190
8.312988281250 4.592773437500 58.101997375488 186 186 186
8.344238281250 4.592285156250 58.174999237061 190 190 190
8.339843750000 4.590820312500 58.250999450684 111 111 111
8.414550781250 4.592773437500 58.316997528076 110 110 110
8.301757812500 4.588867187500 58.407997131348 173 173 173
8.300292968750 4.587890625000 58.484996795654 179 179 179
8.419677734375 4.589843750000 58.542999267578 170 170 170
8.421875000000 4.588867187500 58.617996215820 187 187 187
8.419677734375 4.588378906250 58.694999694824 189 189 189
8.417480468750 4.587890625000 58.771999359131 182 182 182
8.405517578125 4.585937500000 58.850997924805 182 182 182
8.410156250000 4.584960937500 58.926998138428 129 129 129
8.508789062500 4.585449218750 59.058998107910 62 62 62
8.544921875000 4.585449218750 59.127998352051 94 94 94
8.560058593750 4.585449218750 59.201000213623 94 94 94
8.464111328125 4.582031250000 59.305999755859 107 107 107
8.483886718750 4.582031250000 59.378997802734 115 115 115
8.518066406250 4.437011718750 56.988998413086 17 17 17
8.522705078125 4.436035156250 57.062999725342 49 49 49
8.519042968750 4.435546875000 57.134998321533 67 67 67
8.512695312500 4.434082031250 57.208000183105 77 77 77
8.528808593750 4.433593750000 57.281997680664 82 82 82
8.512695312500 4.432617187500 57.353996276855 90 90 90
8.520019531250 4.431152343750 57.426998138428 94 94 94
8.518066406250 4.430664062500 57.499996185303 97 97 97
8.516113281250 4.430175781250 57.571998596191 99 99 99
8.527343750000 4.429687500000 57.644996643066 117 117 117
8.513671875000 4.428222656250 57.717998504639 109 109 109
8.519287109375 4.427734375000 57.791000366211 116 116 116
8.420654296875 4.424804687500 57.868999481201 197 197 197
8.483886718750 4.425781250000 57.938999176025 141 141 141
8.495117187500 4.424804687500 58.011997222900 138 138 138
8.440429687500 4.423339843750 58.089996337891 175 175 175
8.496337890625 4.423339843750 58.159000396729 177 177 177
8.419677734375 4.421386718750 58.240997314453 195 195 195
8.506835937500 4.422363281250 58.305000305176 165 165 165
8.422607421875 4.419433593750 58.390998840332 183 183 183
8.447753906250 4.419433593750 58.461997985840 166 166 166
8.505371093750 4.419433593750 58.527996063232 127 127 127
8.486816406250 4.417968750000 58.606998443604 183 183 183
8.497070312500 4.418457031250 58.680000305176 184 184 184
8.502441406250 4.416992187500 58.754997253418 184 184 184
8.488281250000 4.416503906250 58.833999633789 181 181 181
8.504882812500 4.415527343750 58.905998229980 133 133 133
8.505859375000 4.414550781250 58.982997894287 132 132 132
8.506347656250 4.413574218750 59.059997558594 134 134 134
8.516113281250 4.413085937500 59.134998321533 113 113 113
8.599121093750 4.413574218750 59.189998626709 110 110 110
8.634765625000 4.414062500000 59.256996154785 97 97 97
8.544433593750 4.411621093750 59.360996246338 97 97 97
8.618896484375 4.412109375000 59.417999267578 99 99 99
8.388427734375 4.251464843750 57.944000244141 135 135 135
8.434570312500 4.252441406250 58.014999389648 172 172 172
8.430175781250 4.250976562500 58.089996337891 175 175 175
8.382568359375 4.249023437500 58.168998718262 187 187 187
8.423828125000 4.249511718750 58.239997863770 83 83 83
8.424316406250 4.248535156250 58.314998626709 71 71 71
8.375976562500 4.247070312500 58.395996093750 183 183 183
8.369628906250 4.245605468750 58.472999572754 184 184 184
8.546386718750 4.248535156250 58.520996093750 183 183 183
8.544433593750 4.247070312500 58.595996856689 177 177 177
8.553222656250 4.246582031250 58.668998718262 175 175 175
8.544433593750 4.245605468750 58.745998382568 129 129 129
8.556640625000 4.245605468750 58.819000244141 182 182 182
8.553710937500 4.244628906250 58.894996643066 183 183 183
8.559570312500 4.244140625000 58.969997406006 174 174 174
8.414794921875 4.077148437500 58.238998413086 144 144 144
8.412597656250 4.075195312500 58.313999176025 171 171 171
8.570800781250 4.077636718750 58.367996215820 162 162 162
8.623046875000 4.077148437500 58.433998107910 183 183 183
8.618164062500 4.077148437500 58.507999420166 186 186 186
8.616699218750 4.075683593750 58.581996917725 173 173 173
8.624511718750 4.073242187500 58.877998352051 183 183 183
8.623535156250 4.072265625000 58.952999114990 200 200 200
8.623535156250 4.070800781250 59.028999328613 177 177 177
8.629882812500 4.069824218750 59.103996276855 69 69 69
8.677978515625 3.905273437500 58.423999786377 158 158 158
8.674316406250 3.904785156250 58.496997833252 88 88 88
8.677734375000 3.899902343750 58.938999176025 44 44 44
8.689697265625 3.898437500000 59.010997772217 166 166 166
8.243652343750 5.009277343750 58.303997039795 22 22 22
8.259765625000 5.018554687500 58.390998840332 206 206 206
8.258300781250 5.017089843750 58.478996276855 203 203 203
8.254394531250 5.014160156250 58.566997528076 30 30 30
8.254394531250 5.010742187500 58.921997070313 124 124 124
8.244140625000 5.004882812500 59.013996124268 210 210 210
8.244873046875 5.003906250000 59.103996276855 207 207 207
8.258300781250 4.847167968750 58.303997039795 40 40 40
8.315917968750 4.881347656250 58.385997772217 170 170 170
8.319824218750 4.883300781250 58.472999572754 212 212 212
8.311035156250 4.876464843750 58.560997009277 205 205 205
8.311035156250 4.875488281250 58.648998260498 52 52 52
8.288085937500 4.861816406250 58.828998565674 52 52 52
8.299560546875 4.866699218750 58.914997100830 203 203 203
8.298095703125 4.865234375000 59.004997253418 212 212 212
8.309814453125 4.871582031250 59.090999603271 129 129 129
8.305664062500 4.704589843750 58.039997100830 131 131 131
8.298339843750 4.699707031250 58.126998901367 169 169 169
8.295410156250 4.696777343750 58.213996887207 151 151 151
8.293945312500 4.695312500000 58.300998687744 116 116 116
8.292968750000 4.694824218750 58.388996124268 149 149 149
8.332519531250 4.717773437500 58.471996307373 194 194 194
8.361816406250 4.734863281250 58.555000305176 201 201 201
8.361816406250 4.734863281250 58.641998291016 204 204 204
8.378173828125 4.743652343750 58.726997375488 96 96 96
8.357421875000 4.729492187500 58.817996978760 204 204 204
8.359375000000 4.731445312500 58.904998779297 208 208 208
8.357421875000 4.729492187500 58.992996215820 195 195 195
8.344726562500 4.555175781250 57.865997314453 173 173 173
8.344726562500 4.555175781250 57.951999664307 151 151 151
8.338378906250 4.550781250000 58.037998199463 135 135 135
8.415283203125 4.596191406250 58.119998931885 170 170 170
8.406494140625 4.589355468750 58.205997467041 186 186 186
8.415039062500 4.594726562500 58.291000366211 190 190 190
8.321289062500 4.536621093750 58.385997772217 175 175 175
8.318115234375 4.534179687500 58.472999572754 164 164 164
8.432128906250 4.603027343750 58.546997070313 85 85 85
8.424560546875 4.597656250000 58.633998870850 205 205 205
8.427490234375 4.599121093750 58.718997955322 205 205 205
8.416992187500 4.591308593750 58.807998657227 207 207 207
8.415039062500 4.589355468750 58.894996643066 204 204 204
8.485351562500 4.630371093750 59.055999755859 23 23 23
8.520507812500 4.650878906250 59.134998321533 61 61 61
8.527343750000 4.653808593750 59.219997406006 93 93 93
8.346191406250 4.544433593750 59.352996826172 95 95 95
8.572753906250 4.681152343750 59.382999420166 106 106 106
8.597167968750 4.542480468750 56.440998077393 69 69 69
8.624023437500 4.557128906250 56.530998229980 83 83 83
8.624023437500 4.557128906250 56.615997314453 88 88 88
8.611572265625 4.548339843750 56.697998046875 92 92 92
8.613769531250 4.548828125000 56.782997131348 93 93 93
8.623535156250 4.554687500000 56.867996215820 101 101 101
8.617187500000 4.549316406250 56.951000213623 105 105 105
8.617187500000 4.549316406250 57.034000396729 110 110 110
8.617187500000 4.549316406250 57.116996765137 113 113 113
8.617187500000 4.548339843750 57.199996948242 111 111 111
8.607666015625 4.542480468750 57.281997680664 110 110 110
8.615722656250 4.546875000000 57.365997314453 111 111 111
8.611816406250 4.543457031250 57.447998046875 117 117 117
8.620117187500 4.547851562500 57.530998229980 122 122 122
8.617675781250 4.545898437500 57.613998413086 120 120 120
8.612548828125 4.541503906250 57.695999145508 121 121 121
8.611083984375 4.540039062500 57.777996063232 119 119 119
8.562500000000 4.510253906250 57.861999511719 175 175 175
8.555908203125 4.505859375000 57.944999694824 168 168 168
8.554443359375 4.504394531250 58.027996063232 180 180 180
8.564697265625 4.509765625000 58.110996246338 172 172 172
8.592529296875 4.526367187500 58.192996978760 154 154 154
8.570312500000 4.511718750000 58.277996063232 186 186 186
8.577148437500 4.515136718750 58.360996246338 172 172 172
8.574707031250 4.513183593750 58.444000244141 172 172 172
8.604736328125 4.530761718750 58.524997711182 130 130 130
8.547363281250 4.495605468750 58.615997314453 199 199 199
8.549804687500 4.496582031250 58.699996948242 194 194 194
8.564941406250 4.504394531250 58.782997131348 188 188 188
8.568115234375 4.505859375000 58.866996765137 186 186 186
8.601074218750 4.525390625000 58.945999145508 134 134 134
8.604003906250 4.526855468750 59.030998229980 133 133 133
8.593505859375 4.519042968750 59.118999481201 129 129 129
8.618652343750 4.534667968750 59.198997497559 108 108 108
8.622070312500 4.535156250000 59.284000396729 77 77 77
8.693359375000 4.578125000000 59.350997924805 120 120 120
8.611083984375 4.527832031250 59.459999084473 29 29 29
8.441406250000 4.258300781250 58.031997680664 98 98 98
8.434570312500 4.253906250000 58.116996765137 176 176 176
8.377441406250 4.219238281250 58.206996917725 165 165 165
8.380126953125 4.220214843750 58.291999816895 113 113 113
8.377197265625 4.217773437500 58.378997802734 155 155 155
8.378417968750 4.217773437500 58.464996337891 163 163 163
8.534667968750 4.311523437500 58.532997131348 216 216 216
8.535888671875 4.311523437500 58.616996765137 211 211 211
8.537109375000 4.311523437500 58.701999664307 208 208 208
8.540039062500 4.312500000000 58.785999298096 204 204 204
8.535644531250 4.310058593750 58.872997283936 203 203 203
8.530273437500 4.305175781250 58.958999633789 201 201 201
8.696289062500 4.403320312500 59.349998474121 37 37 37
8.592529296875 4.168945312500 58.439998626709 210 210 210
8.590332031250 4.166992187500 58.523998260498 213 213 213
8.587890625000 4.165039062500 58.608997344971 209 209 209
8.588867187500 4.164550781250 58.861999511719 203 203 203
8.588867187500 4.164550781250 58.946998596191 202 202 202
8.595947265625 4.168457031250 59.030998229980 201 201 201
8.650390625000 4.028320312500 58.350997924805 212 212 212
8.653564453125 4.029296875000 58.432998657227 208 208 208
8.649902343750 4.027832031250 58.515998840332 213 213 213
8.647460937500 4.022949218750 58.934997558594 201 201 201
8.650390625000 4.025390625000 59.018997192383 203 203 203
8.643798828125 4.019531250000 59.105998992920 202 202 202
8.265136718750 5.033691406250 59.066997528076 80 80 80
8.265136718750 5.033691406250 58.976997375488 87 87 87
8.290283203125 5.020019531250 58.528999328613 90 90 90
8.265625000000 5.032714843750 58.444000244141 161 161 161
8.302734375000 5.014160156250 58.352996826172 85 85 85
8.532714843750 4.713867187500 59.363998413086 88 88 88
8.338867187500 4.822265625000 59.053997039795 104 104 104
8.341552734375 4.820800781250 58.963996887207 116 116 116
8.340820312500 4.821777343750 58.875999450684 174 174 174
8.364746093750 4.808105468750 58.608997344971 186 186 186
8.359375000000 4.811523437500 58.521999359131 174 174 174
8.350585937500 4.816894531250 58.435997009277 85 85 85
8.647460937500 4.482421875000 59.424999237061 126 126 126
8.618652343750 4.498535156250 59.344997406006 111 111 111
8.636230468750 4.487304687500 59.253997802734 131 131 131
8.569824218750 4.525878906250 59.182998657227 84 84 84
8.606689453125 4.504394531250 59.088996887207 192 192 192
8.603271484375 4.506347656250 59.003997802734 187 187 187
8.609375000000 4.502441406250 58.916999816895 188 188 188
8.607421875000 4.504882812500 58.833000183105 193 193 193
8.607421875000 4.504882812500 58.747997283936 191 191 191
8.608154296875 4.503906250000 58.663997650146 197 197 197
8.611572265625 4.501464843750 58.578998565674 197 197 197
8.605957031250 4.504882812500 58.495998382568 197 197 197
8.608886718750 4.502929687500 58.411998748779 200 200 200
8.603271484375 4.506347656250 58.328998565674 201 201 201
8.607421875000 4.504882812500 58.244998931885 206 206 206
8.610351562500 4.502929687500 58.160999298096 200 200 200
8.604736328125 4.506347656250 58.078998565674 211 211 211
8.607421875000 4.504882812500 57.994998931885 210 210 210
8.605957031250 4.504882812500 57.911998748779 205 205 205
8.611572265625 4.501464843750 57.828998565674 216 216 216
8.610351562500 4.502929687500 57.745998382568 220 220 220
8.608886718750 4.502929687500 57.662998199463 201 201 201
8.599365234375 4.509277343750 57.579998016357 179 179 179
8.604003906250 4.507324218750 57.496997833252 189 189 189
8.595703125000 4.511718750000 57.412998199463 180 180 180
8.592529296875 4.514160156250 57.329998016357 175 175 175
8.601318359375 4.508789062500 57.246997833252 173 173 173
8.600585937500 4.509277343750 57.162998199463 169 169 169
8.589111328125 4.515136718750 57.077999114990 168 168 168
8.595214843750 4.512695312500 56.994998931885 163 163 163
8.583984375000 4.517578125000 56.909000396729 162 162 162
8.580078125000 4.520507812500 56.823997497559 154 154 154
8.572753906250 4.524414062500 56.737998962402 158 158 158
8.571289062500 4.525878906250 56.652000427246 158 158 158
8.573974609375 4.524414062500 56.566997528076 159 159 159
8.572753906250 4.524414062500 56.480998992920 160 160 160
8.576171875000 4.523925781250 56.394996643066 154 154 154
8.559082031250 4.532714843750 56.305000305176 152 152 152
8.553222656250 4.535644531250 56.215999603271 151 151 151
8.550292968750 4.537109375000 56.127998352051 154 154 154
8.593750000000 4.342773437500 59.354999542236 116 116 116
8.393554687500 4.455078125000 59.316997528076 96 96 96
8.477050781250 4.407714843750 59.208000183105 15 15 15
8.558593750000 4.362304687500 58.930000305176 82 82 82
8.530761718750 4.378906250000 58.848999023438 124 124 124
8.524414062500 4.381347656250 58.764999389648 129 129 129
8.520996093750 4.383789062500 58.678997039795 131 131 131
8.515625000000 4.387207031250 58.594997406006 131 131 131
8.360839843750 4.474121093750 58.527996063232 16 16 16
8.350341796875 4.479492187500 58.441997528076 114 114 114
8.346191406250 4.481445312500 58.354999542236 102 102 102
8.459960937500 4.417968750000 58.258998870850 105 105 105
8.462890625000 4.416015625000 58.173999786377 120 120 120
8.370849609375 4.468750000000 58.092998504639 92 92 92
8.417480468750 4.441894531250 58.004997253418 50 50 50
8.392578125000 4.456054687500 57.919998168945 112 112 112
8.385253906250 4.459960937500 57.833999633789 118 118 118
8.540039062500 4.372558593750 57.747997283936 57 57 57
8.614746093750 4.162109375000 59.007999420166 121 121 121
8.611816406250 4.164062500000 58.923000335693 118 118 118
8.611328125000 4.164550781250 58.837997436523 99 99 99
8.610595703125 4.165039062500 58.584999084473 114 114 114
8.611816406250 4.164062500000 58.499996185303 115 115 115
8.605957031250 4.167480468750 58.416999816895 118 118 118
8.438476562500 4.261230468750 58.348999023438 62 62 62
8.446044921875 4.257324218750 58.262996673584 50 50 50
8.394775390625 4.286132812500 58.180000305176 119 119 119
8.448730468750 4.255859375000 58.090999603271 164 164 164
8.419921875000 4.271484375000 58.006996154785 126 126 126
8.688476562500 3.951171875000 59.079998016357 84 84 84
8.697265625000 3.945312500000 58.992996215820 141 141 141
8.686035156250 3.952636718750 58.492996215820 100 100 100
8.691406250000 3.949218750000 58.409996032715 95 95 95
8.399902343750 4.111816406250 58.353996276855 93 93 93
8.413574218750 4.104003906250 58.266998291016 66 66 66
8.699707031250 3.879394531250 59.083000183105 48 48 48
8.662109375000 3.900878906250 59.005996704102 21 21 21
8.689941406250 3.890625000000 58.500999450684 100 100 100
8.369628906250 4.067382812500 58.363998413086 67 67 67
8.628417968750 4.059082031250 59.097999572754 124 124 124
8.638916015625 4.055175781250 59.010997772217 177 177 177
8.631347656250 4.060546875000 58.927997589111 122 122 122
8.619140625000 4.069824218750 58.593997955322 115 115 115
8.627441406250 4.066406250000 58.508998870850 117 117 117
8.620117187500 4.070800781250 58.426998138428 124 124 124
8.418212890625 4.183105468750 58.360996246338 92 92 92
8.396484375000 4.195800781250 58.277000427246 101 101 101
8.404052734375 4.191894531250 58.189998626709 122 122 122
8.414306640625 4.187500000000 58.103996276855 128 128 128
8.483642578125 4.279785156250 59.394996643066 75 75 75
8.576416015625 4.232421875000 59.025997161865 86 86 86
8.565429687500 4.238769531250 58.942996978760 123 123 123
8.563476562500 4.240722656250 58.857997894287 117 117 117
8.533203125000 4.258300781250 58.777996063232 78 78 78
8.547363281250 4.251953125000 58.690998077393 120 120 120
8.552734375000 4.250488281250 58.604999542236 115 115 115
8.495605468750 4.282714843750 58.527000427246 119 119 119
8.354003906250 4.361328125000 58.455997467041 123 123 123
8.359863281250 4.358886718750 58.368999481201 161 161 161
8.362060546875 4.357910156250 58.282997131348 125 125 125
8.368652343750 4.355468750000 58.195999145508 118 118 118
8.379394531250 4.350585937500 58.108997344971 153 153 153
8.382812500000 4.349609375000 58.022998809814 144 144 144
8.394531250000 4.343750000000 57.937000274658 160 160 160
8.491210937500 4.291992187500 57.850997924805 18 18 18
8.595458984375 4.361816406250 59.458000183105 118 118 118
8.530273437500 4.398925781250 59.386997222900 99 99 99
8.594726562500 4.363769531250 59.284996032715 114 114 114
8.488769531250 4.423339843750 59.221996307373 86 86 86
8.491455078125 4.423339843750 59.133998870850 144 144 144
8.489501953125 4.425292968750 59.048000335693 145 145 145
8.496337890625 4.422363281250 58.959999084473 138 138 138
8.497558593750 4.421875000000 58.872997283936 159 159 159
8.493164062500 4.425781250000 58.787998199463 158 158 158
8.491699218750 4.427246093750 58.702999114990 158 158 158
8.484863281250 4.432128906250 58.617996215820 132 132 132
8.483642578125 4.433593750000 58.532997131348 139 139 139
8.455566406250 4.448730468750 58.451000213623 173 173 173
8.486328125000 4.433105468750 58.362998962402 146 146 146
8.466552734375 4.445312500000 58.278999328613 160 160 160
8.505859375000 4.424804687500 58.191997528076 135 135 135
8.491210937500 4.432128906250 58.107997894287 124 124 124
8.499023437500 4.429687500000 58.022998809814 114 114 114
8.475097656250 4.444824218750 57.939998626709 135 135 135
8.499755859375 4.431640625000 57.854999542236 114 114 114
8.507812500000 4.426757812500 57.770996093750 109 109 109
8.515136718750 4.425292968750 57.687000274658 98 98 98
8.501953125000 4.432617187500 57.601997375488 103 103 103
8.500488281250 4.434082031250 57.517997741699 98 98 98
8.510498046875 4.430664062500 57.433998107910 100 100 100
8.509765625000 4.431640625000 57.349998474121 96 96 96
8.515136718750 4.429687500000 57.264999389648 94 94 94
8.503417968750 4.435058593750 57.180000305176 90 90 90
8.510498046875 4.433593750000 57.095996856689 93 93 93
8.510742187500 4.435058593750 57.009998321533 82 82 82
8.511230468750 4.434082031250 56.924999237061 84 84 84
8.514160156250 4.433593750000 56.839996337891 76 76 76
8.506835937500 4.439453125000 56.752998352051 71 71 71
8.507324218750 4.439941406250 56.666999816895 62 62 62
8.509277343750 4.438964843750 56.580997467041 41 41 41
8.492431640625 4.449218750000 56.490997314453 22 22 22
8.680664062500 4.459960937500 59.437999725342 123 123 123
8.605957031250 4.501953125000 59.370998382568 87 87 87
8.642089843750 4.481933593750 59.275997161865 118 118 118
8.585449218750 4.514648437500 59.202999114990 95 95 95
8.605224609375 4.504394531250 59.112998962402 139 139 139
8.600097656250 4.508789062500 59.028999328613 142 142 142
8.601318359375 4.508789062500 58.942996978760 153 153 153
8.603515625000 4.507812500000 58.857997894287 161 161 161
8.599121093750 4.511230468750 58.773998260498 156 156 156
8.605468750000 4.508300781250 58.688999176025 162 162 162
8.604248046875 4.509765625000 58.605998992920 166 166 166
8.612792968750 4.506347656250 58.520996093750 164 164 164
8.604980468750 4.510742187500 58.437999725342 175 175 175
8.614746093750 4.507324218750 58.353996276855 173 173 173
8.604492187500 4.514160156250 58.271999359131 179 179 179
8.611328125000 4.511230468750 58.187999725342 176 176 176
8.622070312500 4.504394531250 58.104999542236 180 180 180
8.617675781250 4.508300781250 58.021999359131 183 183 183
8.615722656250 4.510742187500 57.939998626709 185 185 185
8.623291015625 4.508300781250 57.856998443604 199 199 199
8.621582031250 4.510253906250 57.773998260498 193 193 193
8.621582031250 4.510253906250 57.691997528076 193 193 193
8.611816406250 4.516601562500 57.608997344971 193 193 193
8.614746093750 4.515136718750 57.525997161865 193 193 193
8.615234375000 4.517089843750 57.442996978760 194 194 194
8.618652343750 4.516113281250 57.360996246338 194 194 194
8.615478515625 4.518554687500 57.277000427246 192 192 192
8.616699218750 4.518554687500 57.194000244141 196 196 196
8.622558593750 4.515136718750 57.110996246338 193 193 193
8.627929687500 4.513183593750 57.027996063232 192 192 192
8.617187500000 4.521484375000 56.942996978760 195 195 195
8.621582031250 4.519042968750 56.859996795654 190 190 190
8.622558593750 4.519531250000 56.775997161865 194 194 194
8.619628906250 4.520996093750 56.690998077393 190 190 190
8.613769531250 4.526367187500 56.604999542236 194 194 194
8.621093750000 4.522460937500 56.520996093750 187 187 187
8.617919921875 4.524414062500 56.434997558594 191 191 191
8.622802734375 4.523925781250 56.349998474121 186 186 186
8.620849609375 4.525878906250 56.262996673584 187 187 187
8.577636718750 4.550292968750 56.164997100830 139 139 139
8.538085937500 4.684082031250 59.389999389648 78 78 78
8.320312500000 4.807617187500 59.085998535156 112 112 112
8.318359375000 4.809570312500 58.997997283936 153 153 153
8.323242187500 4.807128906250 58.907997131348 119 119 119
8.336914062500 4.800781250000 58.641998291016 175 175 175
8.336914062500 4.803710937500 58.555000305176 159 159 159
8.347900390625 4.796875000000 58.466999053955 108 108 108
8.246826171875 4.989257812500 59.100997924805 88 88 88
8.262695312500 4.982421875000 59.007999420166 79 79 79
8.270507812500 4.980957031250 58.563999176025 109 109 109
8.271240234375 4.981933593750 58.475997924805 145 145 145
8.285644531250 4.974609375000 58.386997222900 85 85 85
8.698730468750 3.910644531250 58.420997619629 123 123 123
8.707519531250 3.916015625000 58.502998352051 204 204 204
8.701171875000 3.914062500000 59.001998901367 199 199 199
8.702880859375 3.915527343750 59.085998535156 180 180 180
8.639648437500 4.021484375000 58.347999572754 47 47 47
8.653564453125 4.029296875000 58.428997039795 212 212 212
8.657470703125 4.032714843750 58.511997222900 217 217 217
8.656738281250 4.032226562500 58.594997406006 202 202 202
8.651367187500 4.030273437500 58.930000305176 200 200 200
8.656738281250 4.033691406250 59.013996124268 202 202 202
8.647949218750 4.028808593750 59.099998474121 202 202 202
8.432128906250 4.045410156250 58.285999298096 85 85 85
8.435791015625 4.047851562500 58.370998382568 98 98 98
8.612304687500 4.155761718750 58.437999725342 148 148 148
8.607910156250 4.153320312500 58.521999359131 209 209 209
8.606445312500 4.151855468750 58.605998992920 211 211 211
8.616699218750 4.159667968750 58.688999176025 138 138 138
8.605957031250 4.152832031250 58.858997344971 203 203 203
8.609375000000 4.154785156250 58.942996978760 202 202 202
8.603027343750 4.151367187500 59.028999328613 203 203 203
8.444824218750 4.205078125000 58.034996032715 46 46 46
8.457031250000 4.213378906250 58.118999481201 174 174 174
8.417968750000 4.189453125000 58.205997467041 147 147 147
8.417968750000 4.189453125000 58.291999816895 124 124 124
8.411376953125 4.185058593750 58.377998352051 111 111 111
8.398925781250 4.177734375000 58.464996337891 164 164 164
8.551269531250 4.271484375000 58.532997131348 203 203 203
8.549804687500 4.270019531250 58.617996215820 206 206 206
8.548828125000 4.269531250000 58.702999114990 210 210 210
8.557128906250 4.275390625000 58.785999298096 203 203 203
8.556152343750 4.274902343750 58.871997833252 203 203 203
8.565185546875 4.279785156250 58.954998016357 202 202 202
8.564453125000 4.280761718750 59.386997222900 72 72 72
8.627929687500 4.468261718750 57.621997833252 35 35 35
8.614013671875 4.459960937500 57.702999114990 50 50 50
8.635253906250 4.471679687500 57.785999298096 45 45 45
8.613281250000 4.458984375000 57.867996215820 58 58 58
8.487060546875 4.382812500000 57.953998565674 169 169 169
8.487060546875 4.382812500000 58.037998199463 170 170 170
8.492919921875 4.386718750000 58.121997833252 183 183 183
8.563232421875 4.429687500000 58.201999664307 164 164 164
8.569335937500 4.433593750000 58.284996032715 163 163 163
8.559082031250 4.426757812500 58.368999481201 138 138 138
8.541992187500 4.416992187500 58.454998016357 152 152 152
8.624511718750 4.467773437500 58.528999328613 101 101 101
8.529785156250 4.410156250000 58.624996185303 203 203 203
8.546630859375 4.419921875000 58.706996917725 199 199 199
8.556884765625 4.426269531250 58.789997100830 199 199 199
8.552246093750 4.423828125000 58.875999450684 200 200 200
8.634765625000 4.474121093750 58.945999145508 109 109 109
8.625000000000 4.468261718750 59.031997680664 114 114 114
8.626464843750 4.469726562500 59.116996765137 109 109 109
8.541992187500 4.418945312500 59.220996856689 85 85 85
8.659667968750 4.489746093750 59.278999328613 113 113 113
8.618652343750 4.465332031250 59.374996185303 94 94 94
8.666503906250 4.494140625000 59.448997497559 116 116 116
8.609863281250 4.605957031250 56.541000366211 158 158 158
8.601074218750 4.601074218750 56.623996734619 159 159 159
8.595214843750 4.596679687500 56.706996917725 165 165 165
8.590820312500 4.594238281250 56.791000366211 163 163 163
8.577636718750 4.586425781250 56.872997283936 170 170 170
8.574707031250 4.585449218750 56.956996917725 180 180 180
8.573242187500 4.583984375000 57.041000366211 178 178 178
8.567871093750 4.580566406250 57.123996734619 182 182 182
8.559082031250 4.575683593750 57.206996917725 179 179 179
8.564453125000 4.579101562500 57.291000366211 186 186 186
8.547607421875 4.569335937500 57.372997283936 192 192 192
8.554687500000 4.573242187500 57.456996917725 190 190 190
8.547607421875 4.569335937500 57.539997100830 165 165 165
8.536621093750 4.562011718750 57.622997283936 178 178 178
8.532226562500 4.559570312500 57.705997467041 179 179 179
8.525634765625 4.556152343750 57.788997650146 178 178 178
8.510253906250 4.546875000000 57.872997283936 181 181 181
8.510253906250 4.546875000000 57.956996917725 182 182 182
8.524902343750 4.555664062500 58.039997100830 150 150 150
8.501220703125 4.541503906250 58.124996185303 170 170 170
8.499023437500 4.539550781250 58.208999633789 168 168 168
8.488281250000 4.533691406250 58.293998718262 166 166 166
8.472656250000 4.524414062500 58.379997253418 167 167 167
8.457275390625 4.515625000000 58.466999053955 184 184 184
8.500488281250 4.541015625000 58.546997070313 131 131 131
8.479492187500 4.528808593750 58.633998870850 201 201 201
8.470703125000 4.523925781250 58.720996856689 198 198 198
8.480224609375 4.529296875000 58.805000305176 201 201 201
8.469238281250 4.522460937500 58.892997741699 204 204 204
8.491699218750 4.537109375000 58.974998474121 151 151 151
8.501953125000 4.543457031250 59.058998107910 147 147 147
8.549804687500 4.572753906250 59.135997772217 89 89 89
8.552246093750 4.573242187500 59.220996856689 89 89 89
8.584960937500 4.593261718750 59.299999237061 76 76 76
8.622070312500 4.616699218750 59.376998901367 105 105 105
8.562500000000 4.579589843750 59.479999542236 66 66 66
8.342773437500 4.590820312500 57.960998535156 148 148 148
8.347900390625 4.593750000000 58.046997070313 151 151 151
8.333984375000 4.585449218750 58.133998870850 168 168 168
8.333984375000 4.585449218750 58.219997406006 183 183 183
8.335449218750 4.586914062500 58.305999755859 120 120 120
8.316406250000 4.575195312500 58.394996643066 67 67 67
8.311035156250 4.571777343750 58.481998443604 156 156 156
8.411865234375 4.633300781250 58.556999206543 201 201 201
8.415039062500 4.634765625000 58.642997741699 204 204 204
8.419921875000 4.637695312500 58.727996826172 204 204 204
8.409667968750 4.631347656250 58.816997528076 205 205 205
8.401611328125 4.626464843750 58.904998779297 207 207 207
8.404785156250 4.629394531250 58.990997314453 193 193 193
8.327148437500 4.582519531250 59.362998962402 52 52 52
8.295410156250 4.702636718750 58.133998870850 76 76 76
8.302734375000 4.708007812500 58.219997406006 156 156 156
8.296386718750 4.703613281250 58.307998657227 161 161 161
8.300781250000 4.706054687500 58.393997192383 165 165 165
8.334472656250 4.726562500000 58.477996826172 183 183 183
8.370605468750 4.749023437500 58.560997009277 202 202 202
8.377197265625 4.752441406250 58.645996093750 204 204 204
8.366210937500 4.746582031250 58.733997344971 107 107 107
8.363769531250 4.744628906250 58.821998596191 115 115 115
8.358886718750 4.741210937500 58.909996032715 202 202 202
8.357421875000 4.739746093750 58.998996734619 210 210 210
8.350585937500 4.736816406250 59.087997436523 95 95 95
8.336425781250 4.864746093750 58.473999023438 211 211 211
8.319580078125 4.854980468750 58.562000274658 204 204 204
8.323730468750 4.857421875000 58.648998260498 187 187 187
8.317382812500 4.853027343750 58.912998199463 205 205 205
8.319580078125 4.854980468750 59.000999450684 207 207 207
8.315429687500 4.852539062500 59.090999603271 208 208 208
8.286132812500 4.969238281250 58.387996673584 205 205 205
8.288818359375 4.970703125000 58.474998474121 203 203 203
8.286621093750 4.970214843750 58.562000274658 203 203 203
8.272705078125 4.961914062500 59.005996704102 207 207 207
8.271972656250 4.960937500000 59.095996856689 210 210 210
8.268554687500 4.959472656250 59.185997009277 195 195 195
8.669921875000 3.958496093750 58.375999450684 178 178 178
8.666992187500 3.958984375000 58.448997497559 179 179 179
8.660644531250 3.957031250000 58.522998809814 179 179 179
8.659667968750 3.956054687500 58.965999603271 190 190 190
8.657714843750 3.955566406250 59.041999816895 198 198 198
8.651855468750 3.954589843750 59.118999481201 176 176 176
8.404296875000 4.099609375000 58.115997314453 25 25 25
8.413574218750 4.100097656250 58.189998626709 176 176 176
8.413574218750 4.100097656250 58.264999389648 184 184 184
8.401855468750 4.099121093750 58.340999603271 185 185 185
8.402832031250 4.098144531250 58.416999816895 185 185 185
8.603515625000 4.102539062500 58.462997436523 178 178 178
8.600585937500 4.102539062500 58.536998748779 176 176 176
8.602050781250 4.102539062500 58.610996246338 180 180 180
8.599853515625 4.102050781250 58.684997558594 72 72 72
8.604492187500 4.101074218750 58.833000183105 91 91 91
8.607421875000 4.101074218750 58.907997131348 175 175 175
8.604492187500 4.101074218750 58.983997344971 182 182 182
8.599609375000 4.100585937500 59.060997009277 178 178 178
8.416503906250 4.247070312500 57.894996643066 50 50 50
8.399414062500 4.246582031250 57.970996856689 176 176 176
8.415039062500 4.247070312500 58.043998718262 175 175 175
8.402832031250 4.245605468750 58.119998931885 172 172 172
8.407226562500 4.245605468750 58.194000244141 192 192 192
8.429199218750 4.246093750000 58.265998840332 92 92 92
