10.569824218750 25.234375000000 63.544998168945 110 110 110
10.567138671875 25.235839843750 63.414997100830 91 91 91
10.572265625000 25.232421875000 63.275997161865 95 95 95
10.562988281250 25.237792968750 63.160999298096 97 97 97
10.567138671875 25.235839843750 63.034000396729 98 98 98
10.571289062500 25.233886718750 62.907997131348 100 100 100
10.567871093750 25.236328125000 62.795997619629 102 102 102
10.569824218750 25.235351562500 62.680000305176 101 101 101
10.576171875000 25.231933593750 62.559997558594 104 104 104
10.569335937500 25.236328125000 62.460998535156 105 105 105
10.574951171875 25.233398437500 62.349998474121 110 110 110
10.574951171875 25.233398437500 62.246997833252 105 105 105
10.577636718750 25.231445312500 62.142997741699 109 109 109
10.579589843750 25.230957031250 62.042999267578 111 111 111
10.577148437500 25.232421875000 61.948997497559 116 116 116
10.578369140625 25.232421875000 61.853996276855 117 117 117
10.576171875000 25.232910156250 61.764999389648 117 117 117
10.572753906250 25.235351562500 61.677997589111 119 119 119
10.581054687500 25.230957031250 61.580997467041 115 115 115
10.581054687500 25.230957031250 61.494998931885 117 117 117
10.587402343750 25.228027343750 61.404998779297 120 120 120
10.579101562500 25.231445312500 61.327999114990 115 115 115
10.579101562500 25.231445312500 61.246997833252 118 118 118
10.584472656250 25.229980468750 61.161998748779 118 118 118
10.587890625000 25.227539062500 61.080997467041 116 116 116
10.581054687500 25.230957031250 61.007999420166 121 121 121
10.580322265625 25.231445312500 60.933998107910 123 123 123
10.581054687500 25.230957031250 60.857997894287 122 122 122
10.585937500000 25.229980468750 60.780998229980 112 112 112
10.589843750000 25.226562500000 60.704998016357 120 120 120
10.589355468750 25.227539062500 60.633998870850 125 125 125
10.583740234375 25.230468750000 60.567996978760 122 122 122
10.587890625000 25.229003906250 60.494998931885 127 127 127
10.585937500000 25.229980468750 60.427997589111 125 125 125
10.426757812500 25.209960937500 64.051002502441 31 31 31
10.426269531250 25.210937500000 63.903995513916 36 36 36
10.418701171875 25.216308593750 63.771999359131 47 47 47
10.421386718750 25.214843750000 63.626998901367 57 57 57
10.417968750000 25.216796875000 63.496997833252 56 56 56
10.417480468750 25.217773437500 63.365997314453 71 71 71
10.417480468750 25.217773437500 63.237998962402 66 66 66
10.414550781250 25.219238281250 63.116996765137 76 76 76
10.416748046875 25.218261718750 62.992996215820 80 80 80
10.424804687500 25.213867187500 62.863998413086 80 80 80
10.413085937500 25.220703125000 62.761997222900 84 84 84
10.415283203125 25.220214843750 62.647998809814 87 87 87
10.407714843750 25.224121093750 62.546997070313 84 84 84
10.404296875000 25.226562500000 62.444000244141 90 90 90
10.407714843750 25.224121093750 62.333999633789 93 93 93
10.403076171875 25.228027343750 62.237998962402 100 100 100
10.412109375000 25.222167968750 62.126998901367 99 99 99
10.412597656250 25.221679687500 62.027996063232 103 103 103
10.411132812500 25.223144531250 61.933998107910 104 104 104
10.405761718750 25.226074218750 61.844997406006 108 108 108
10.400390625000 25.229492187500 61.757999420166 105 105 105
10.400390625000 25.229492187500 61.667999267578 97 97 97
10.404296875000 25.227539062500 61.576000213623 112 112 112
10.403076171875 25.228027343750 61.488998413086 111 111 111
10.405273437500 25.227050781250 61.402000427246 112 112 112
10.402343750000 25.228515625000 61.319999694824 113 113 113
10.397705078125 25.232421875000 61.242996215820 111 111 111
10.395507812500 25.233398437500 61.162998199463 115 115 115
10.395019531250 25.233886718750 61.083999633789 118 118 118
10.389160156250 25.237304687500 61.008998870850 120 120 120
10.393066406250 25.234863281250 60.928997039795 124 124 124
10.395019531250 25.233886718750 60.850997924805 118 118 118
10.389160156250 25.237304687500 60.779998779297 120 120 120
10.398437500000 25.231933593750 60.699996948242 126 126 126
10.406494140625 25.227050781250 60.620998382568 107 107 107
10.376953125000 25.243652343750 60.569999694824 124 124 124
10.602050781250 25.226562500000 60.472999572754 138 138 138
10.607421875000 25.224609375000 60.536998748779 136 136 136
10.604003906250 25.224121093750 60.610996246338 137 137 137
10.594726562500 25.222656250000 60.688999176025 135 135 135
10.598144531250 25.221679687500 60.759998321533 132 132 132
10.596679687500 25.220703125000 60.834999084473 129 129 129
10.601562500000 25.219726562500 60.906997680664 129 129 129
10.594482421875 25.218750000000 60.989997863770 129 129 129
10.599121093750 25.217773437500 61.065998077393 127 127 127
10.590332031250 25.215820312500 61.153999328613 127 127 127
10.593750000000 25.215332031250 61.233997344971 124 124 124
10.587890625000 25.213867187500 61.323997497559 116 116 116
10.595703125000 25.212890625000 61.402000427246 120 120 120
10.601074218750 25.212402343750 61.484996795654 116 116 116
10.591064453125 25.210449218750 61.585998535156 116 116 116
10.588867187500 25.209472656250 61.680999755859 118 118 118
10.583984375000 25.208007812500 61.780998229980 112 112 112
10.588134765625 25.206054687500 61.873996734619 108 108 108
10.575195312500 25.204101562500 61.988998413086 109 109 109
10.586425781250 25.203613281250 62.078998565674 98 98 98
10.584960937500 25.202148437500 62.185997009277 98 98 98
10.584960937500 25.200683593750 62.294998168945 97 97 97
10.577148437500 25.199218750000 62.416999816895 96 96 96
10.581054687500 25.197265625000 62.525997161865 90 90 90
10.581054687500 25.195800781250 62.645996093750 85 85 85
10.575195312500 25.193359375000 62.777000427246 88 88 88
10.570800781250 25.192382812500 62.909000396729 80 80 80
10.567871093750 25.190917968750 63.044998168945 74 74 74
10.573730468750 25.189453125000 63.171997070313 65 65 65
10.562255859375 25.187011718750 63.328998565674 53 53 53
10.564208984375 25.185058593750 63.470996856689 53 53 53
10.582519531250 25.184082031250 63.591999053955 106 106 106
10.554687500000 25.180664062500 63.791999816895 16 16 16
10.960205078125 25.196777343750 63.284996032715 109 109 109
11.018798828125 25.198242187500 63.335998535156 99 99 99
11.222656250000 25.203613281250 63.284996032715 113 113 113
11.268798828125 25.204589843750 63.357997894287 53 53 53
10.575683593750 25.249023437500 62.691997528076 76 76 76
10.577880859375 25.248046875000 62.802997589111 72 72 72
10.562988281250 25.237792968750 62.939998626709 63 63 63
10.574707031250 25.243652343750 63.044998168945 57 57 57
10.567382812500 25.238281250000 63.177997589111 40 40 40
10.573242187500 25.241210937500 63.296997070313 29 29 29
10.576660156250 25.240234375000 63.557998657227 111 111 111
11.237304687500 25.246093750000 63.307998657227 74 74 74
10.974609375000 25.153320312500 63.284996032715 87 87 87
11.233398437500 25.158691406250 63.289997100830 34 34 34
10.957519531250 25.248046875000 63.388996124268 93 93 93
10.959472656250 25.247070312500 63.250999450684 90 90 90
10.369628906250 25.236816406250 62.107997894287 19 19 19
10.367675781250 25.237792968750 62.011997222900 28 28 28
10.371582031250 25.236328125000 61.910999298096 34 34 34
10.381347656250 25.231445312500 61.808998107910 44 44 44
10.369628906250 25.236816406250 61.726997375488 49 49 49
10.375000000000 25.233886718750 61.630996704102 51 51 51
10.374511718750 25.234375000000 61.542999267578 55 55 55
10.368164062500 25.238281250000 61.461997985840 61 61 61
10.370849609375 25.236816406250 61.373996734619 67 67 67
10.361328125000 25.241699218750 61.298000335693 74 74 74
10.368896484375 25.237792968750 61.208999633789 76 76 76
10.368164062500 25.238281250000 61.128997802734 77 77 77
10.362060546875 25.242675781250 61.052997589111 80 80 80
10.368896484375 25.237792968750 60.968997955322 83 83 83
10.360839843750 25.242675781250 60.897998809814 85 85 85
10.350341796875 25.248046875000 60.829998016357 89 89 89
10.366210937500 25.239257812500 60.742996215820 89 89 89
10.362792968750 25.241699218750 60.670997619629 90 90 90
10.359375000000 25.244140625000 60.600997924805 88 88 88
10.368164062500 25.238281250000 60.522998809814 95 95 95
10.361328125000 25.243164062500 60.455997467041 97 97 97
10.370361328125 25.193847656250 62.466999053955 16 16 16
10.377441406250 25.191894531250 62.354999542236 23 23 23
10.379394531250 25.190917968750 62.249996185303 33 33 33
10.372558593750 25.195800781250 62.156997680664 44 44 44
10.376953125000 25.193847656250 62.053997039795 52 52 52
10.372802734375 25.197265625000 61.962997436523 67 67 67
10.365234375000 25.201171875000 61.874996185303 73 73 73
10.365478515625 25.202636718750 61.782997131348 69 69 69
10.369628906250 25.200683593750 61.687999725342 72 72 72
10.372314453125 25.200683593750 61.596996307373 78 78 78
10.376953125000 25.198242187500 61.504997253418 84 84 84
10.373046875000 25.201171875000 61.423999786377 84 84 84
10.366943359375 25.205566406250 61.343997955322 82 82 82
10.370605468750 25.204101562500 61.258998870850 86 86 86
10.369628906250 25.205078125000 61.178997039795 87 87 87
10.374023437500 25.203125000000 61.094997406006 94 94 94
10.374023437500 25.203125000000 61.015998840332 100 100 100
10.372070312500 25.205566406250 60.939998626709 101 101 101
10.367675781250 25.208496093750 60.866996765137 100 100 100
10.370605468750 25.207031250000 60.789997100830 110 110 110
10.366455078125 25.209960937500 60.718997955322 103 103 103
10.376464843750 25.206542968750 60.639999389648 108 108 108
10.372558593750 25.207519531250 60.569999694824 114 114 114
10.378417968750 25.206054687500 60.494998931885 111 111 111
10.570800781250 25.213867187500 64.099998474121 33 33 33
10.563964843750 25.219726562500 63.812000274658 83 83 83
10.577148437500 25.213867187500 63.650997161865 100 100 100
10.559326171875 25.223632812500 63.538997650146 103 103 103
10.560546875000 25.223632812500 63.403999328613 91 91 91
10.568847656250 25.221679687500 63.262996673584 95 95 95
10.573242187500 25.220214843750 63.130996704102 99 99 99
10.572753906250 25.220703125000 63.009998321533 95 95 95
10.566406250000 25.224609375000 62.898998260498 103 103 103
10.570800781250 25.223144531250 62.777000427246 100 100 100
10.571289062500 25.223632812500 62.663997650146 102 102 102
10.574218750000 25.223632812500 62.550998687744 104 104 104
10.574218750000 25.223632812500 62.442996978760 105 105 105
10.582519531250 25.220214843750 62.329998016357 109 109 109
10.577636718750 25.224121093750 62.232997894287 113 113 113
10.583007812500 25.220703125000 62.126998901367 113 113 113
10.583984375000 25.221191406250 62.028999328613 109 109 109
10.582519531250 25.222656250000 61.934997558594 110 110 110
10.583007812500 25.224121093750 61.841999053955 120 120 120
10.579833984375 25.226074218750 61.753997802734 113 113 113
10.584960937500 25.223632812500 61.659000396729 114 114 114
10.591796875000 25.221679687500 61.565998077393 116 116 116
10.578857421875 25.229003906250 61.491996765137 126 126 126
10.575927734375 25.230468750000 61.409996032715 115 115 115
10.583740234375 25.226074218750 61.319999694824 115 115 115
10.587890625000 25.226074218750 61.235996246338 120 120 120
10.583496093750 25.228027343750 61.159996032715 124 124 124
10.593750000000 25.223632812500 61.072998046875 123 123 123
10.590576171875 25.226074218750 60.998996734619 122 122 122
10.579589843750 25.232421875000 60.931999206543 127 127 127
10.593261718750 25.225585937500 60.846996307373 125 125 125
10.592041015625 25.227050781250 60.774997711182 125 125 125
10.594238281250 25.226562500000 60.701000213623 130 130 130
10.598388671875 25.224609375000 60.627998352051 127 127 127
10.591552734375 25.229492187500 60.562999725342 133 133 133
10.604003906250 25.223144531250 60.484996795654 128 128 128
10.922851562500 25.165039062500 63.388996124268 30 30 30
11.170898437500 25.166992187500 63.386997222900 38 38 38
11.284179687500 25.241210937500 63.608997344971 41 41 41
11.216308593750 25.156738281250 63.319999694824 55 55 55
10.973388671875 25.147460937500 63.321998596191 29 29 29
10.897460937500 25.240234375000 63.305999755859 21 21 21
10.604736328125 25.214355468750 60.425998687744 49 49 49
10.604736328125 25.214355468750 60.492996215820 44 44 44
10.611328125000 25.218750000000 60.556999206543 42 42 42
10.602539062500 25.212402343750 60.633998870850 37 37 37
10.599609375000 25.209960937500 60.706996917725 33 33 33
10.609863281250 25.216308593750 60.770996093750 29 29 29
10.562011718750 25.170898437500 63.555000305176 28 28 28
10.578125000000 25.179687500000 63.667999267578 68 68 68
10.595214843750 25.207031250000 60.472999572754 130 130 130
10.598144531250 25.207031250000 60.539997100830 131 131 131
10.590332031250 25.205566406250 60.615997314453 135 135 135
10.597656250000 25.205566406250 60.681999206543 126 126 126
10.575195312500 25.204101562500 60.771999359131 159 159 159
10.597656250000 25.204101562500 60.826999664307 119 119 119
10.592285156250 25.203125000000 60.906997680664 129 129 129
10.588867187500 25.202636718750 60.987998962402 126 126 126
10.588867187500 25.202636718750 61.065998077393 123 123 123
10.588378906250 25.201171875000 61.146999359131 122 122 122
10.591308593750 25.201171875000 61.225997924805 120 120 120
10.583496093750 25.200683593750 61.317996978760 126 126 126
10.589843750000 25.199707031250 61.397998809814 120 120 120
10.593261718750 25.198730468750 61.480998992920 116 116 116
10.587402343750 25.197753906250 61.577999114990 118 118 118
10.584472656250 25.196289062500 61.671997070313 122 122 122
10.586914062500 25.197265625000 61.763996124268 113 113 113
10.584472656250 25.195312500000 61.862998962402 110 110 110
10.584472656250 25.193847656250 61.962997436523 116 116 116
10.577392578125 25.193847656250 62.072998046875 113 113 113
10.576660156250 25.191894531250 62.178997039795 105 105 105
10.577880859375 25.190429687500 62.284996032715 108 108 108
10.585693359375 25.190917968750 62.386997222900 107 107 107
10.579101562500 25.188964843750 62.508998870850 104 104 104
10.578613281250 25.188476562500 62.626998901367 106 106 106
10.571289062500 25.187500000000 62.759998321533 107 107 107
10.574951171875 25.186523437500 62.880996704102 102 102 102
10.574707031250 25.185058593750 63.008998870850 104 104 104
10.570312500000 25.182617187500 63.149997711182 101 101 101
10.571044921875 25.181640625000 63.287998199463 98 98 98
10.570800781250 25.180175781250 63.430999755859 95 95 95
10.578125000000 25.179687500000 63.570999145508 130 130 130
10.597656250000 25.178710937500 63.690998077393 89 89 89
10.922363281250 25.192871093750 63.316997528076 109 109 109
11.006835937500 25.195312500000 63.326000213623 158 158 158
11.195312500000 25.201171875000 63.300998687744 100 100 100
11.256591796875 25.203125000000 63.343997955322 97 97 97
10.372070312500 25.219238281250 62.152000427246 17 17 17
10.370117187500 25.221191406250 62.056999206543 21 21 21
10.381835937500 25.215820312500 61.947998046875 22 22 22
10.374267578125 25.219726562500 61.860996246338 24 24 24
10.363281250000 25.227539062500 61.779998779297 33 33 33
10.367675781250 25.225585937500 61.685997009277 39 39 39
10.375244140625 25.223144531250 61.589996337891 50 50 50
10.359375000000 25.231933593750 61.516998291016 52 52 52
10.369628906250 25.226074218750 61.423000335693 51 51 51
10.366210937500 25.228515625000 61.340999603271 53 53 53
10.371093750000 25.227539062500 61.254997253418 63 63 63
10.375244140625 25.226074218750 61.169998168945 64 64 64
10.365722656250 25.230957031250 61.096996307373 64 64 64
10.370117187500 25.230468750000 61.015998840332 69 69 69
10.370117187500 25.230468750000 60.938999176025 67 67 67
10.367919921875 25.232910156250 60.863998413086 75 75 75
10.372070312500 25.230957031250 60.785999298096 78 78 78
10.374755859375 25.229492187500 60.709999084473 79 79 79
10.376220703125 25.229492187500 60.636997222900 83 83 83
10.367919921875 25.234375000000 60.570999145508 87 87 87
10.368652343750 25.234863281250 60.498996734619 96 96 96
10.556884765625 25.220214843750 64.101997375488 38 38 38
10.543945312500 25.228515625000 63.822998046875 69 69 69
10.576904296875 25.210937500000 63.630996704102 95 95 95
10.551757812500 25.226074218750 63.531997680664 82 82 82
10.551757812500 25.227539062500 63.398998260498 74 74 74
10.556640625000 25.225097656250 63.262996673584 71 71 71
10.551269531250 25.229980468750 63.144996643066 72 72 72
10.556640625000 25.226562500000 63.013996124268 74 74 74
10.560791015625 25.225097656250 62.888996124268 76 76 76
10.565673828125 25.223632812500 62.767997741699 73 73 73
10.562988281250 25.226562500000 62.659000396729 80 80 80
10.564453125000 25.226562500000 62.548000335693 78 78 78
10.564453125000 25.226562500000 62.439998626709 81 81 81
10.563720703125 25.229003906250 62.336997985840 76 76 76
10.565429687500 25.229003906250 62.232997894287 78 78 78
10.562500000000 25.230468750000 62.135997772217 86 86 86
10.566162109375 25.229492187500 62.034996032715 83 83 83
10.560546875000 25.232421875000 61.944999694824 84 84 84
10.566162109375 25.230957031250 61.845996856689 82 82 82
10.566162109375 25.230957031250 61.753997802734 85 85 85
10.566894531250 25.231445312500 61.663997650146 90 90 90
10.563476562500 25.233886718750 61.579998016357 83 83 83
10.577148437500 25.227539062500 61.481998443604 89 89 89
10.575683593750 25.229003906250 61.398998260498 92 92 92
10.569824218750 25.232910156250 61.320999145508 90 90 90
10.574707031250 25.230468750000 61.235996246338 89 89 89
10.573242187500 25.231933593750 61.157997131348 85 85 85
10.573974609375 25.232421875000 61.078998565674 93 93 93
10.576904296875 25.230957031250 60.998996734619 94 94 94
10.578857421875 25.229980468750 60.921997070313 95 95 95
10.583007812500 25.228515625000 60.843997955322 96 96 96
10.581054687500 25.230957031250 60.772998809814 96 96 96
10.580322265625 25.231445312500 60.701999664307 95 95 95
10.587402343750 25.228027343750 60.625999450684 97 97 97
10.590087890625 25.228027343750 60.555000305176 98 98 98
10.577636718750 25.234375000000 60.492996215820 100 100 100
10.973144531250 25.224121093750 63.404998779297 114 114 114
10.959472656250 25.232421875000 63.291999816895 96 96 96
11.177734375000 25.225585937500 63.465999603271 41 41 41
11.185546875000 25.223144531250 63.314998626709 75 75 75
10.550292968750 25.247558593750 63.123996734619 69 69 69
10.552246093750 25.248046875000 63.246997833252 59 59 59
10.545654296875 25.243652343750 63.383998870850 51 51 51
10.556640625000 25.249023437500 63.501998901367 47 47 47
10.593261718750 25.232421875000 60.453998565674 130 130 130
10.586669921875 25.231933593750 60.527996063232 129 129 129
10.590332031250 25.230957031250 60.594997406006 129 129 129
10.588134765625 25.229980468750 60.666999816895 130 130 130
10.585937500000 25.229980468750 60.740997314453 124 124 124
10.585937500000 25.229980468750 60.814998626709 129 129 129
10.589355468750 25.229003906250 60.885997772217 120 120 120
10.583007812500 25.227050781250 60.967998504639 122 122 122
10.578613281250 25.227539062500 61.050998687744 124 124 124
10.581542968750 25.226074218750 61.127998352051 122 122 122
10.584472656250 25.225585937500 61.206996917725 118 118 118
10.582275390625 25.225097656250 61.291999816895 119 119 119
10.581298828125 25.224121093750 61.377998352051 118 118 118
10.576171875000 25.222656250000 61.469997406006 117 117 117
10.580566406250 25.222167968750 61.555999755859 113 113 113
10.573242187500 25.221191406250 61.654998779297 114 114 114
10.572753906250 25.220703125000 61.749996185303 112 112 112
10.577636718750 25.219726562500 61.840999603271 110 110 110
10.570312500000 25.218750000000 61.947998046875 112 112 112
10.572265625000 25.217773437500 62.048000335693 112 112 112
10.572265625000 25.216308593750 62.152000427246 105 105 105
10.567871093750 25.215332031250 62.264999389648 109 109 109
10.567382812500 25.214843750000 62.375999450684 110 110 110
10.567138671875 25.213378906250 62.489997863770 103 103 103
10.566406250000 25.212402343750 62.608997344971 103 103 103
10.569335937500 25.210937500000 62.725997924805 104 104 104
10.565673828125 25.209960937500 62.855998992920 100 100 100
10.562744140625 25.207519531250 62.987998962402 102 102 102
10.555419921875 25.206542968750 63.133998870850 98 98 98
10.555175781250 25.205566406250 63.270996093750 98 98 98
10.556152343750 25.204589843750 63.412998199463 97 97 97
10.557617187500 25.203125000000 63.558998107910 116 116 116
10.584960937500 25.202148437500 63.669998168945 101 101 101
10.863281250000 25.210937500000 63.368999481201 109 109 109
10.982421875000 25.215332031250 63.319000244141 146 146 146
11.164550781250 25.219238281250 63.308998107910 92 92 92
11.231445312500 25.221191406250 63.342998504639 95 95 95
10.733154296875 25.644042968750 55.830997467041 175 175 175
10.566406250000 25.637695312500 55.981998443604 255 255 255
10.721191406250 25.551757812500 56.000999450684 157 157 157
10.725585937500 25.550292968750 55.944999694824 150 150 150
10.717773437500 25.553710937500 55.880996704102 155 155 155
10.771240234375 25.523925781250 55.850997924805 187 187 187
10.640136718750 25.498535156250 56.076999664307 124 124 124
10.622070312500 25.507812500000 56.008998870850 148 148 148
10.691406250000 25.469238281250 55.984996795654 137 137 137
10.670410156250 25.480957031250 55.913997650146 170 170 170
10.709472656250 25.459472656250 55.874996185303 172 172 172
10.769775390625 25.426269531250 55.848999023438 181 181 181
10.618652343750 25.409667968750 58.775997161865 126 126 126
10.618652343750 25.409667968750 58.723999023438 133 133 133
10.618652343750 25.409667968750 58.671997070313 112 112 112
10.633300781250 25.402832031250 58.362998962402 21 21 21
10.624023437500 25.406738281250 58.313999176025 30 30 30
10.633789062500 25.401855468750 58.261997222900 47 47 47
10.627441406250 25.405761718750 58.212997436523 56 56 56
10.633789062500 25.401855468750 58.161998748779 62 62 62
10.639892578125 25.397949218750 58.111999511719 58 58 58
10.638671875000 25.399414062500 58.062000274658 59 59 59
10.633300781250 25.402832031250 58.011997222900 70 70 70
10.646972656250 25.394531250000 57.961997985840 76 76 76
10.629394531250 25.404785156250 57.912998199463 72 72 72
10.644531250000 25.395507812500 57.862998962402 75 75 75
10.622558593750 25.408203125000 57.812999725342 74 74 74
10.632324218750 25.403320312500 57.762996673584 86 86 86
10.647460937500 25.394042968750 57.713996887207 84 84 84
10.645263671875 25.395019531250 57.663997650146 80 80 80
10.642089843750 25.396972656250 57.613998413086 86 86 86
10.648193359375 25.393066406250 57.564998626709 90 90 90
10.642089843750 25.396972656250 57.513996124268 91 91 91
10.647460937500 25.394042968750 57.464996337891 90 90 90
10.651367187500 25.392089843750 57.414997100830 86 86 86
10.639892578125 25.397949218750 57.362998962402 89 89 89
10.625976562500 25.407226562500 57.309997558594 86 86 86
10.645263671875 25.395019531250 57.262996673584 95 95 95
10.654785156250 25.390136718750 57.213996887207 93 93 93
10.641357421875 25.397949218750 57.159996032715 92 92 92
10.650878906250 25.393066406250 57.110996246338 96 96 96
10.636474609375 25.400390625000 57.056999206543 98 98 98
10.654296875000 25.390625000000 57.008998870850 95 95 95
10.650390625000 25.393554687500 56.955997467041 96 96 96
10.655761718750 25.390625000000 56.904998779297 100 100 100
10.650878906250 25.393066406250 56.851997375488 100 100 100
10.657226562500 25.389160156250 56.800998687744 98 98 98
10.649658203125 25.394531250000 56.745998382568 95 95 95
10.659667968750 25.387695312500 56.695999145508 98 98 98
10.667968750000 25.382812500000 56.644996643066 99 99 99
10.650390625000 25.393554687500 56.584999084473 104 104 104
10.651367187500 25.392089843750 56.530998229980 102 102 102
10.658447265625 25.389160156250 56.478996276855 102 102 102
10.664550781250 25.385253906250 56.425998687744 108 108 108
10.670898437500 25.381347656250 56.372997283936 108 108 108
10.657226562500 25.389160156250 56.312000274658 108 108 108
10.599365234375 25.420898437500 56.230998992920 215 215 215
10.650390625000 25.393554687500 56.194999694824 124 124 124
10.650878906250 25.393066406250 56.137996673584 155 155 155
10.657714843750 25.389648437500 56.083000183105 152 152 152
10.659179687500 25.388183593750 56.025997161865 154 154 154
10.694824218750 25.367675781250 55.984996795654 140 140 140
10.691406250000 25.370117187500 55.923999786377 164 164 164
10.707031250000 25.361328125000 55.871997833252 175 175 175
10.782714843750 25.319824218750 55.853996276855 181 181 181
10.602050781250 25.320312500000 60.417999267578 140 140 140
10.604003906250 25.319335937500 60.348999023438 138 138 138
10.602050781250 25.320312500000 60.284000396729 144 144 144
10.602050781250 25.320312500000 60.218997955322 146 146 146
10.607910156250 25.315917968750 60.150997161865 144 144 144
10.607421875000 25.316894531250 60.086997985840 149 149 149
10.610839843750 25.314453125000 60.022998809814 143 143 143
10.602050781250 25.320312500000 59.964996337891 148 148 148
10.602539062500 25.319335937500 59.902996063232 149 149 149
10.607421875000 25.316894531250 59.839996337891 152 152 152
10.607421875000 25.316894531250 59.778999328613 151 151 151
10.618652343750 25.312011718750 59.714996337891 151 151 151
10.610107421875 25.315429687500 59.659000396729 153 153 153
10.609375000000 25.315917968750 59.600997924805 156 156 156
10.606933593750 25.317382812500 59.544998168945 159 159 159
10.601074218750 25.320800781250 59.489997863770 155 155 155
10.616455078125 25.312988281250 59.426998138428 154 154 154
10.615722656250 25.313964843750 59.370998382568 157 157 157
10.608886718750 25.316894531250 59.316997528076 158 158 158
10.612060546875 25.314453125000 59.259998321533 160 160 160
10.612060546875 25.314453125000 59.204998016357 159 159 159
10.611328125000 25.315429687500 59.150997161865 158 158 158
10.622558593750 25.309082031250 59.092998504639 156 156 156
10.621093750000 25.310546875000 59.039997100830 159 159 159
10.617187500000 25.312011718750 58.986999511719 160 160 160
10.619140625000 25.311523437500 58.933998107910 159 159 159
10.625000000000 25.307617187500 58.878997802734 158 158 158
10.627929687500 25.305664062500 58.826000213623 158 158 158
10.618652343750 25.312011718750 58.775997161865 156 156 156
10.627441406250 25.306640625000 58.721996307373 161 161 161
10.619873046875 25.310546875000 58.671997070313 164 164 164
10.621093750000 25.310546875000 58.619998931885 162 162 162
10.622558593750 25.309082031250 58.567996978760 163 163 163
10.624511718750 25.308105468750 58.516998291016 163 163 163
10.622558593750 25.309082031250 58.465999603271 161 161 161
10.625000000000 25.307617187500 58.414997100830 162 162 162
10.629394531250 25.305664062500 58.363998413086 162 162 162
10.632080078125 25.304199218750 58.312999725342 163 163 163
10.625000000000 25.307617187500 58.262996673584 166 166 166
10.621826171875 25.309570312500 58.212997436523 160 160 160
10.634033203125 25.302246093750 58.161998748779 163 163 163
10.627929687500 25.305664062500 58.111999511719 161 161 161
10.632812500000 25.303710937500 58.062000274658 165 165 165
10.633300781250 25.302734375000 58.011997222900 165 165 165
10.634033203125 25.302246093750 57.961997985840 158 158 158
10.633300781250 25.302734375000 57.911998748779 164 164 164
10.628662109375 25.305175781250 57.862998962402 164 164 164
10.627441406250 25.306640625000 57.812999725342 164 164 164
10.621826171875 25.309570312500 57.761997222900 164 164 164
10.636718750000 25.300292968750 57.712997436523 161 161 161
10.635253906250 25.301757812500 57.662998199463 167 167 167
10.639648437500 25.300292968750 57.612998962402 165 165 165
10.639648437500 25.300292968750 57.562999725342 166 166 166
10.640136718750 25.299316406250 57.512996673584 165 165 165
10.635253906250 25.301757812500 57.462997436523 165 165 165
10.640869140625 25.298828125000 57.412998199463 164 164 164
10.636718750000 25.300292968750 57.361999511719 162 162 162
10.640869140625 25.298828125000 57.312000274658 163 163 163
10.632080078125 25.304199218750 57.259998321533 164 164 164
10.641845703125 25.299316406250 57.210998535156 162 162 162
10.640869140625 25.298828125000 57.159000396729 165 165 165
10.645996093750 25.296386718750 57.108997344971 163 163 163
10.645996093750 25.296386718750 57.057998657227 163 163 163
10.640136718750 25.299316406250 57.004997253418 165 165 165
10.642578125000 25.298828125000 56.952999114990 165 165 165
10.642578125000 25.298828125000 56.900997161865 160 160 160
10.651855468750 25.292480468750 56.850997924805 157 157 157
10.651855468750 25.292480468750 56.798999786377 161 161 161
10.645996093750 25.296386718750 56.743999481201 161 161 161
10.650634765625 25.293945312500 56.691997528076 158 158 158
10.654052734375 25.291503906250 56.639999389648 157 157 157
10.650634765625 25.293945312500 56.583999633789 159 159 159
10.650634765625 25.293945312500 56.529998779297 158 158 158
10.654052734375 25.291503906250 56.475997924805 156 156 156
10.651367187500 25.292968750000 56.419998168945 155 155 155
10.654052734375 25.291503906250 56.365997314453 154 154 154
10.653320312500 25.292480468750 56.308998107910 158 158 158
10.659667968750 25.288574218750 56.254997253418 151 151 151
10.656250000000 25.290527343750 56.196998596191 157 157 157
10.656250000000 25.290527343750 56.138996124268 157 157 157
10.669189453125 25.283691406250 56.087997436523 150 150 150
10.665771484375 25.285644531250 56.027000427246 155 155 155
10.700683593750 25.266113281250 55.985996246338 134 134 134
10.691650390625 25.271484375000 55.921997070313 164 164 164
10.719726562500 25.254882812500 55.876998901367 180 180 180
10.535156250000 25.258300781250 58.635997772217 161 161 161
10.538085937500 25.256347656250 58.583000183105 165 165 165
10.542968750000 25.254394531250 58.528999328613 164 164 164
10.534423828125 25.258789062500 58.478996276855 163 163 163
10.531738281250 25.259277343750 58.426998138428 161 161 161
10.531005859375 25.259765625000 58.374996185303 150 150 150
10.543457031250 25.253417968750 58.321998596191 151 151 151
10.548339843750 25.250976562500 58.269996643066 145 145 145
10.546875000000 25.251464843750 57.911998748779 134 134 134
10.541259765625 25.254394531250 57.242996215820 134 134 134
10.545410156250 25.252929687500 57.191997528076 138 138 138
10.544921875000 25.251953125000 57.085998535156 132 132 132
10.546142578125 25.251953125000 56.980998992920 127 127 127
10.546875000000 25.251464843750 56.927997589111 131 131 131
10.526123046875 25.262207031250 56.868999481201 132 132 132
10.537109375000 25.257324218750 56.817996978760 130 130 130
10.535156250000 25.258300781250 56.762996673584 133 133 133
10.534423828125 25.258789062500 56.708000183105 128 128 128
10.524902343750 25.263671875000 56.649997711182 139 139 139
10.508300781250 25.271972656250 56.419998168945 127 127 127
10.494140625000 25.280761718750 56.356998443604 165 165 165
10.520751953125 25.265625000000 56.308998107910 129 129 129
10.480468750000 25.288085937500 56.233997344971 149 149 149
10.483886718750 25.286132812500 56.176998138428 141 141 141
10.528808593750 25.260742187500 56.136997222900 131 131 131
10.360351562500 25.252929687500 60.368999481201 126 126 126
10.358398437500 25.253906250000 60.300998687744 136 136 136
10.359130859375 25.252929687500 60.232997894287 134 134 134
10.351806640625 25.258300781250 60.169998168945 134 134 134
10.346923828125 25.260742187500 60.105998992920 139 139 139
10.348144531250 25.260742187500 59.845996856689 145 145 145
10.345703125000 25.262207031250 59.784996032715 150 150 150
10.349121093750 25.260253906250 59.719997406006 153 153 153
10.340087890625 25.265625000000 59.662998199463 152 152 152
10.340087890625 25.265625000000 59.600997924805 152 152 152
10.331054687500 25.269531250000 59.543998718262 155 155 155
10.342285156250 25.265136718750 59.478996276855 155 155 155
10.335937500000 25.267578125000 59.420997619629 157 157 157
10.332519531250 25.269531250000 59.362998962402 158 158 158
10.327148437500 25.272949218750 59.305999755859 157 157 157
10.325195312500 25.273437500000 59.246997833252 160 160 160
10.320312500000 25.275878906250 59.189998626709 162 162 162
10.329589843750 25.270996093750 59.128997802734 160 160 160
10.316894531250 25.278320312500 59.074996948242 165 165 165
10.310546875000 25.280761718750 59.019996643066 156 156 156
10.313476562500 25.279296875000 58.961997985840 161 161 161
10.307617187500 25.282226562500 58.905998229980 159 159 159
10.310546875000 25.280761718750 58.848999023438 159 159 159
10.296142578125 25.289550781250 58.626998901367 157 157 157
10.299316406250 25.287109375000 58.570999145508 168 168 168
10.300292968750 25.287597656250 58.514999389648 164 164 164
10.296142578125 25.289550781250 58.460998535156 163 163 163
10.301513671875 25.286132812500 58.404998779297 165 165 165
10.305664062500 25.284667968750 58.349998474121 162 162 162
10.298339843750 25.288574218750 58.294998168945 162 162 162
10.291992187500 25.292480468750 58.240997314453 163 163 163
10.279785156250 25.299316406250 58.187999725342 163 163 163
10.288085937500 25.294433593750 58.131996154785 163 163 163
10.280517578125 25.298339843750 58.077999114990 162 162 162
10.282470703125 25.297363281250 58.022998809814 162 162 162
10.281738281250 25.298339843750 57.968997955322 162 162 162
10.285156250000 25.295898437500 57.913997650146 164 164 164
10.286621093750 25.294433593750 57.859996795654 163 163 163
10.285156250000 25.295898437500 57.805000305176 161 161 161
10.282470703125 25.297363281250 57.749996185303 162 162 162
10.282470703125 25.297363281250 57.695999145508 162 162 162
10.279296875000 25.299804687500 57.475997924805 159 159 159
10.270996093750 25.304199218750 57.419998168945 160 160 160
10.270019531250 25.305175781250 57.364997863770 160 160 160
10.275634765625 25.301757812500 57.309997558594 157 157 157
10.274169921875 25.302246093750 57.253997802734 160 160 160
10.270996093750 25.304199218750 57.197998046875 159 159 159
10.256591796875 25.311523437500 57.139999389648 159 159 159
10.267578125000 25.306640625000 57.084999084473 160 160 160
10.267578125000 25.306640625000 57.028999328613 156 156 156
10.262695312500 25.307617187500 56.970996856689 160 160 160
10.268798828125 25.305175781250 56.916000366211 157 157 157
10.264648437500 25.307128906250 56.856998443604 159 159 159
10.265380859375 25.306152343750 56.799999237061 159 159 159
10.259277343750 25.310058593750 56.740997314453 157 157 157
10.253662109375 25.313476562500 56.680999755859 160 160 160
10.262695312500 25.307617187500 56.624996185303 149 149 149
10.329101562500 25.271972656250 56.469997406006 136 136 136
10.253662109375 25.313476562500 56.382999420166 149 149 149
10.253662109375 25.313476562500 56.322998046875 147 147 147
10.252441406250 25.314941406250 56.260997772217 150 150 150
10.252441406250 25.314941406250 56.198997497559 149 149 149
10.238037109375 25.321777343750 56.130996704102 153 153 153
10.246093750000 25.318847656250 56.071998596191 154 154 154
10.247558593750 25.316894531250 56.008998870850 152 152 152
10.328613281250 25.272460937500 55.982997894287 130 130 130
10.784179687500 25.601074218750 55.819999694824 183 183 183
10.764160156250 25.599609375000 55.862998962402 171 171 171
10.653808593750 25.596191406250 55.860996246338 160 160 160
10.750976562500 25.598144531250 55.959999084473 150 150 150
10.676269531250 25.594726562500 55.976997375488 126 126 126
10.552978515625 25.592285156250 55.972999572754 130 130 130
10.430908203125 25.588378906250 55.973999023438 135 135 135
10.298828125000 25.584472656250 55.972999572754 143 143 143
10.149902343750 25.579589843750 55.967998504639 169 169 169
10.780517578125 25.501464843750 55.817996978760 181 181 181
10.762207031250 25.501464843750 55.860996246338 163 163 163
10.677734375000 25.498535156250 55.871997833252 175 175 175
10.751953125000 25.499023437500 55.958999633789 153 153 153
10.679199218750 25.497070312500 55.976997375488 133 133 133
10.596191406250 25.494140625000 55.991996765137 140 140 140
10.545410156250 25.492187500000 56.021999359131 137 137 137
10.310058593750 25.486328125000 55.976997375488 130 130 130
10.209960937500 25.482910156250 55.991996765137 130 130 130
10.171386718750 25.480957031250 56.032997131348 142 142 142
10.775878906250 25.401367187500 55.866996765137 167 167 167
10.687500000000 25.398437500000 55.875999450684 165 165 165
10.744628906250 25.398925781250 55.954998016357 157 157 157
10.689453125000 25.397949218750 55.980998992920 137 137 137
10.662353515625 25.396484375000 56.020996093750 159 159 159
10.667480468750 25.395507812500 56.073997497559 160 160 160
10.662109375000 25.395019531250 56.121997833252 156 156 156
10.663574218750 25.393554687500 56.173000335693 161 161 161
10.536621093750 25.389160156250 56.173999786377 166 166 166
10.564453125000 25.389648437500 56.234996795654 154 154 154
10.590332031250 25.390136718750 56.294998168945 157 157 157
10.665039062500 25.390625000000 56.369998931885 109 109 109
10.663574218750 25.389648437500 56.417999267578 111 111 111
10.659179687500 25.388183593750 56.463996887207 118 118 118
10.662109375000 25.388183593750 56.511997222900 115 115 115
10.662597656250 25.387695312500 56.558998107910 127 127 127
10.652587890625 25.386718750000 56.602996826172 133 133 133
10.656738281250 25.386230468750 56.649997711182 136 136 136
10.649902343750 25.385253906250 56.694999694824 137 137 137
10.658935546875 25.385253906250 56.742996215820 135 135 135
10.643066406250 25.383789062500 56.784996032715 142 142 142
10.654785156250 25.382812500000 56.833000183105 149 149 149
10.652343750000 25.382324218750 56.877998352051 149 149 149
10.645751953125 25.380859375000 56.920997619629 152 152 152
10.643554687500 25.379882812500 56.965999603271 155 155 155
10.648681640625 25.380371093750 57.010997772217 153 153 153
10.647216796875 25.378906250000 57.055999755859 159 159 159
10.647949218750 25.378417968750 57.099998474121 161 161 161
10.648437500000 25.377441406250 57.143997192383 159 159 159
10.647949218750 25.376953125000 57.187999725342 164 164 164
10.641113281250 25.376464843750 57.230998992920 163 163 163
10.642089843750 25.375488281250 57.274997711182 164 164 164
10.648925781250 25.375488281250 57.319000244141 171 171 171
10.638183593750 25.374023437500 57.361999511719 170 170 170
10.645507812500 25.373535156250 57.405998229980 172 172 172
10.646972656250 25.373535156250 57.448997497559 180 180 180
10.653808593750 25.373046875000 57.492996215820 176 176 176
10.647460937500 25.371582031250 57.535999298096 174 174 174
10.644531250000 25.371582031250 57.578998565674 171 171 171
10.635498046875 25.370117187500 57.621997833252 176 176 176
10.636718750000 25.369628906250 57.666000366211 179 179 179
10.635253906250 25.368164062500 57.708999633789 174 174 174
10.643554687500 25.368164062500 57.751998901367 179 179 179
10.644287109375 25.367187500000 57.795997619629 179 179 179
10.634277343750 25.366210937500 57.838996887207 178 178 178
10.640136718750 25.366210937500 57.882999420166 175 175 175
10.645019531250 25.364746093750 57.925998687744 176 176 176
10.636230468750 25.364257812500 57.969997406006 182 182 182
10.637695312500 25.364257812500 58.013996124268 179 179 179
10.638427734375 25.363281250000 58.056999206543 178 178 178
10.632812500000 25.362304687500 58.101997375488 180 180 180
10.633300781250 25.361328125000 58.145996093750 176 176 176
10.628417968750 25.361328125000 58.190998077393 177 177 177
10.639648437500 25.360351562500 58.233997344971 173 173 173
10.624755859375 25.358886718750 58.279998779297 177 177 177
10.633300781250 25.358886718750 58.323997497559 176 176 176
10.635253906250 25.357910156250 58.367996215820 175 175 175
10.624023437500 25.356933593750 58.414997100830 171 171 171
10.625976562500 25.356445312500 58.460998535156 175 175 175
10.622558593750 25.355957031250 58.506996154785 171 171 171
10.635253906250 25.354980468750 58.549999237061 173 173 173
10.631347656250 25.354492187500 58.596996307373 171 171 171
10.629882812500 25.353027343750 58.642997741699 169 169 169
10.620849609375 25.353027343750 58.692996978760 169 169 169
10.628417968750 25.352050781250 58.736999511719 167 167 167
10.625000000000 25.351562500000 58.785999298096 166 166 166
10.624267578125 25.350585937500 58.833999633789 164 164 164
10.623535156250 25.350097656250 58.881996154785 164 164 164
10.614990234375 25.349121093750 58.932998657227 165 165 165
10.620605468750 25.347656250000 58.979999542236 159 159 159
10.626464843750 25.348144531250 59.027000427246 164 164 164
10.620605468750 25.347656250000 59.078998565674 162 162 162
10.611816406250 25.345214843750 59.131996154785 162 162 162
10.617675781250 25.344726562500 59.180999755859 161 161 161
10.613281250000 25.343750000000 59.232997894287 160 160 160
10.612304687500 25.342773437500 59.285999298096 157 157 157
10.611816406250 25.342285156250 59.337997436523 160 160 160
10.614501953125 25.342285156250 59.388996124268 157 157 157
10.608886718750 25.340820312500 59.444999694824 159 159 159
10.614990234375 25.339843750000 59.495998382568 157 157 157
10.614990234375 25.339843750000 59.550998687744 154 154 154
10.607910156250 25.338867187500 59.609996795654 155 155 155
10.617675781250 25.336914062500 59.659996032715 153 153 153
10.613769531250 25.336914062500 59.718997955322 151 151 151
10.606933593750 25.335449218750 59.779998779297 152 152 152
10.609863281250 25.335449218750 59.835998535156 151 151 151
10.610839843750 25.334472656250 59.894996643066 150 150 150
10.607421875000 25.333496093750 59.955997467041 148 148 148
10.604492187500 25.332031250000 60.018997192383 145 145 145
10.610351562500 25.331542968750 60.076000213623 141 141 141
10.599609375000 25.330078125000 60.145996093750 144 144 144
10.600830078125 25.328613281250 60.208000183105 146 146 146
10.600097656250 25.328125000000 60.272998809814 142 142 142
10.602294921875 25.327148437500 60.336997985840 140 140 140
10.603027343750 25.326171875000 60.403999328613 139 139 139
10.766601562500 25.301757812500 55.860996246338 160 160 160
10.684326171875 25.298339843750 55.873996734619 168 168 168
10.755126953125 25.299804687500 55.959999084473 155 155 155
10.676757812500 25.297363281250 55.974998474121 147 147 147
10.672851562500 25.296386718750 56.024997711182 162 162 162
10.665527343750 25.294921875000 56.072998046875 163 163 163
10.665039062500 25.294433593750 56.122997283936 159 159 159
10.660644531250 25.293457031250 56.170997619629 163 163 163
10.657714843750 25.293457031250 56.219997406006 168 168 168
10.659667968750 25.292480468750 56.269996643066 164 164 164
10.670166015625 25.291503906250 56.322998046875 163 163 163
10.663085937500 25.290527343750 56.368999481201 165 165 165
10.664550781250 25.290527343750 56.416999816895 164 164 164
10.663085937500 25.289062500000 56.463996887207 165 165 165
10.659667968750 25.288574218750 56.510997772217 165 165 165
10.664306640625 25.287597656250 56.558998107910 167 167 167
10.659423828125 25.287109375000 56.603996276855 171 171 171
10.653808593750 25.286132812500 56.648998260498 170 170 170
10.656738281250 25.285644531250 56.695999145508 170 170 170
10.654541015625 25.285156250000 56.740997314453 172 172 172
10.657714843750 25.284179687500 56.787998199463 173 173 173
10.655761718750 25.283691406250 56.833000183105 176 176 176
10.655273437500 25.282226562500 56.877998352051 179 179 179
10.658447265625 25.282226562500 56.923000335693 179 179 179
10.649169921875 25.280761718750 56.965999603271 180 180 180
10.651855468750 25.280273437500 57.010997772217 179 179 179
10.656005859375 25.280273437500 57.055999755859 182 182 182
10.645507812500 25.278320312500 57.098999023438 179 179 179
10.645507812500 25.278320312500 57.142997741699 180 180 180
10.654296875000 25.277343750000 57.187999725342 185 185 185
10.652343750000 25.276855468750 57.231998443604 188 188 188
10.648925781250 25.276367187500 57.274997711182 183 183 183
10.645996093750 25.274902343750 57.319000244141 186 186 186
10.650390625000 25.274902343750 57.361999511719 190 190 190
10.652343750000 25.273925781250 57.405998229980 191 191 191
10.646484375000 25.272949218750 57.448997497559 198 198 198
10.648437500000 25.271972656250 57.492996215820 188 188 188
10.645019531250 25.271484375000 57.535999298096 198 198 198
10.640136718750 25.270996093750 57.578998565674 197 197 197
10.645019531250 25.270019531250 57.621997833252 193 193 193
10.644042968750 25.269531250000 57.666000366211 196 196 196
10.642089843750 25.269042968750 57.708999633789 200 200 200
10.632324218750 25.268066406250 57.751998901367 200 200 200
10.644042968750 25.268066406250 57.794998168945 196 196 196
10.643310546875 25.267578125000 57.838996887207 192 192 192
10.636718750000 25.265625000000 57.882999420166 195 195 195
10.636230468750 25.265136718750 57.925998687744 188 188 188
10.636230468750 25.265136718750 57.969997406006 185 185 185
10.637451171875 25.263671875000 58.012996673584 185 185 185
10.637451171875 25.263671875000 58.056999206543 183 183 183
10.633789062500 25.263183593750 58.101997375488 181 181 181
10.640136718750 25.261718750000 58.144996643066 180 180 180
10.630126953125 25.261230468750 58.189998626709 181 181 181
10.632812500000 25.259765625000 58.233997344971 178 178 178
10.628662109375 25.259765625000 58.279998779297 177 177 177
10.629394531250 25.259277343750 58.323997497559 176 176 176
10.634277343750 25.257812500000 58.367996215820 174 174 174
10.623046875000 25.257324218750 58.416000366211 172 172 172
10.629882812500 25.256835937500 58.459999084473 172 172 172
10.635742187500 25.256347656250 58.503997802734 171 171 171
10.622558593750 25.254394531250 58.552997589111 172 172 172
10.629150390625 25.254882812500 58.597999572754 171 171 171
10.630859375000 25.254394531250 58.642997741699 169 169 169
10.629394531250 25.253417968750 58.690998077393 166 166 166
10.620605468750 25.252441406250 58.739997863770 166 166 166
10.626953125000 25.250976562500 58.784996032715 166 166 166
10.632568359375 25.250976562500 58.830997467041 163 163 163
17.812011718750 25.824218750000 55.857997894287 143 143 143
17.782714843750 25.823730468750 55.823997497559 152 152 152
17.716796875000 25.821777343750 55.812000274658 145 145 145
17.635986328125 25.820800781250 55.810997009277 145 145 145
17.560791015625 25.817871093750 55.807998657227 148 148 148
17.486816406250 25.816894531250 55.805999755859 150 150 150
17.349609375000 25.813476562500 55.846996307373 149 149 149
17.281250000000 25.812011718750 55.844997406006 154 154 154
17.264160156250 25.811523437500 55.809997558594 147 147 147
17.287597656250 25.812011718750 55.746997833252 150 150 150
17.267822265625 25.812011718750 55.712997436523 162 162 162
17.229492187500 25.811523437500 55.692996978760 195 195 195
17.226806640625 25.811523437500 55.646999359131 198 198 198
17.713378906250 25.715332031250 58.475997924805 159 159 159
17.714843750000 25.715332031250 58.437000274658 175 175 175
17.758056640625 25.716308593750 58.409000396729 165 165 165
17.735351562500 25.717773437500 57.236999511719 176 176 176
17.783691406250 25.719238281250 57.191997528076 170 170 170
17.817138671875 25.722167968750 56.232997894287 69 69 69
17.813476562500 25.721191406250 56.188999176025 131 131 131
17.767578125000 25.720703125000 56.164997100830 125 125 125
17.753906250000 25.720703125000 55.984996795654 169 169 169
17.753417968750 25.721191406250 55.937999725342 168 168 168
17.761962890625 25.721191406250 55.883998870850 162 162 162
17.756103515625 25.721191406250 55.838996887207 157 157 157
17.620117187500 25.718261718750 55.867996215820 151 151 151
17.349121093750 25.711425781250 55.981998443604 167 167 167
17.349121093750 25.711425781250 55.937999725342 167 167 167
17.347656250000 25.711425781250 55.892997741699 167 167 167
17.349609375000 25.711914062500 55.845996856689 157 157 157
17.324707031250 25.711914062500 55.815998077393 150 150 150
17.264648437500 25.709960937500 55.809997558594 154 154 154
17.319335937500 25.711914062500 55.724998474121 150 150 150
17.259033203125 25.710449218750 55.719997406006 159 159 159
17.229003906250 25.709472656250 55.692996978760 190 190 190
