6.653808593750 6.514648437500 60.467998504639 175 175 175
6.744628906250 6.513671875000 60.754997253418 11 11 11
6.596923828125 6.414550781250 60.275997161865 205 205 205
6.625976562500 6.413574218750 60.370998382568 197 197 197
6.659179687500 6.413574218750 60.465999603271 186 186 186
6.778320312500 6.413574218750 60.740997314453 81 81 81
6.607910156250 6.314941406250 60.270996093750 201 201 201
6.622070312500 6.313964843750 60.371997833252 177 177 177
6.663085937500 6.314453125000 60.462997436523 193 193 193
6.807617187500 6.313964843750 60.727996826172 96 96 96
6.617431640625 6.213378906250 60.266998291016 192 192 192
6.650146484375 6.214355468750 60.361999511719 206 206 206
6.671875000000 6.213867187500 60.459999084473 192 192 192
6.720947265625 6.214843750000 60.548000335693 134 134 134
6.751953125000 6.214355468750 60.642997741699 145 145 145
6.819335937500 6.213378906250 60.722999572754 115 115 115
6.632812500000 6.114746093750 60.261997222900 140 140 140
6.961914062500 6.122558593750 60.253997802734 65 65 65
6.829101562500 6.115234375000 60.719997406006 136 136 136
6.660156250000 6.014648437500 60.252998352051 98 98 98
6.954589843750 6.020507812500 60.255996704102 96 96 96
6.843017578125 6.013671875000 60.712997436523 137 137 137
6.982421875000 5.919921875000 60.244998931885 51 51 51
6.855224609375 5.912597656250 60.706996917725 110 110 110
6.864257812500 5.812011718750 60.702999114990 76 76 76
6.981201171875 5.716796875000 60.344997406006 13 13 13
6.953369140625 5.714843750000 60.458000183105 12 12 12
6.913574218750 5.712890625000 60.576999664307 23 23 23
6.873779296875 5.710937500000 60.697998046875 40 40 40
7.080322265625 5.514648437500 60.306999206543 7 7 7
6.947265625000 5.507324218750 60.771999359131 63 63 63
7.086181640625 5.411621093750 60.302997589111 80 80 80
6.976562500000 5.405273437500 60.757999420166 110 110 110
7.114013671875 5.310546875000 60.292999267578 99 99 99
7.002441406250 5.303710937500 60.746997833252 129 129 129
7.129882812500 5.209960937500 60.286998748779 96 96 96
7.007812500000 5.203125000000 60.744998931885 150 150 150
7.150390625000 5.109863281250 60.278999328613 60 60 60
7.018066406250 5.102539062500 60.739997863770 123 123 123
7.167724609375 5.010742187500 60.273998260498 14 14 14
7.029785156250 5.003417968750 60.736999511719 109 109 109
7.047363281250 4.902343750000 60.729999542236 57 57 57
7.097412109375 4.699707031250 60.812999725342 67 67 67
7.034667968750 4.596679687500 60.732997894287 11 11 11
7.133300781250 4.599121093750 60.796997070313 114 114 114
7.148437500000 4.496093750000 60.789997100830 131 131 131
7.158691406250 4.394042968750 60.784996032715 139 139 139
7.173828125000 4.293945312500 60.777996063232 117 117 117
7.180175781250 4.192382812500 60.775997161865 83 83 83
7.195800781250 4.091796875000 60.769996643066 6 6 6
7.266357421875 3.893554687500 60.845996856689 81 81 81
7.274414062500 3.793457031250 60.842998504639 121 121 121
7.286132812500 3.694824218750 60.838996887207 140 140 140
7.310791015625 3.594726562500 60.829998016357 123 123 123
7.309082031250 3.492675781250 60.830997467041 95 95 95
7.323730468750 3.391601562500 60.823997497559 16 16 16
7.411621093750 3.188964843750 60.888996124268 70 70 70
7.423828125000 3.088867187500 60.884998321533 107 107 107
7.302246093750 3.023925781250 56.798999786377 46 46 46
7.311523437500 3.022949218750 56.887996673584 158 158 158
7.310791015625 3.022460937500 56.975997924805 146 146 146
7.305664062500 3.021972656250 57.062999725342 148 148 148
7.307128906250 3.020507812500 57.150997161865 146 146 146
7.331054687500 3.020019531250 57.239997863770 86 86 86
7.428466796875 2.989257812500 60.780998229980 24 24 24
7.471679687500 2.989746093750 60.864997863770 111 111 111
7.440429687500 2.987792968750 60.982997894287 72 72 72
7.437500000000 2.986328125000 61.088996887207 20 20 20
7.431884765625 2.985351562500 61.197998046875 22 22 22
7.430419921875 2.983886718750 61.305999755859 14 14 14
7.444335937500 2.982910156250 61.407997131348 27 27 27
7.449218750000 2.983398437500 61.514999389648 49 49 49
7.433105468750 2.934082031250 56.019996643066 179 179 179
7.445800781250 2.933593750000 56.111999511719 184 184 184
7.446777343750 2.932128906250 56.201000213623 186 186 186
7.447753906250 2.931152343750 56.289997100830 187 187 187
7.448242187500 2.930664062500 56.377998352051 185 185 185
7.443359375000 2.930175781250 56.464996337891 185 185 185
7.441894531250 2.928710937500 56.551998138428 190 190 190
7.450195312500 2.928222656250 56.640998840332 192 192 192
7.456542968750 2.928710937500 56.727996826172 193 193 193
7.446044921875 2.926757812500 56.813999176025 187 187 187
7.463134765625 2.926269531250 56.902000427246 195 195 195
7.451660156250 2.925292968750 56.986999511719 199 199 199
7.456542968750 2.924316406250 57.073997497559 200 200 200
7.452148437500 2.923339843750 57.159000396729 195 195 195
7.467041015625 2.922851562500 57.245998382568 197 197 197
7.463867187500 2.921875000000 57.330997467041 198 198 198
7.458984375000 2.921386718750 57.416999816895 202 202 202
7.464599609375 2.920898437500 57.502998352051 201 201 201
7.462402343750 2.918945312500 57.587997436523 190 190 190
7.471191406250 2.918457031250 57.673999786377 204 204 204
7.465332031250 2.918457031250 57.758998870850 201 201 201
7.464599609375 2.916503906250 57.844997406006 209 209 209
7.463867187500 2.916015625000 57.930999755859 198 198 198
7.475097656250 2.915527343750 58.015998840332 205 205 205
7.478515625000 2.914550781250 58.101997375488 197 197 197
7.472167968750 2.914062500000 58.187999725342 199 199 199
7.467041015625 2.912109375000 58.274997711182 201 201 201
7.469238281250 2.911621093750 58.360996246338 189 189 189
7.472656250000 2.912109375000 58.446998596191 194 194 194
7.468994140625 2.910156250000 58.534996032715 193 193 193
7.477050781250 2.910644531250 58.620998382568 193 193 193
7.467529296875 2.908691406250 58.709999084473 194 194 194
7.474121093750 2.909179687500 58.795997619629 188 188 188
7.470214843750 2.907226562500 58.884998321533 191 191 191
7.474609375000 2.906738281250 58.972999572754 190 190 190
7.482421875000 2.905761718750 59.059997558594 182 182 182
7.478515625000 2.905273437500 59.149997711182 187 187 187
7.479980468750 2.903808593750 59.239997863770 186 186 186
7.482910156250 2.903808593750 59.328998565674 186 186 186
7.478515625000 2.902343750000 59.420997619629 188 188 188
7.476318359375 2.901855468750 59.511997222900 181 181 181
7.487060546875 2.900390625000 59.600997924805 181 181 181
7.477783203125 2.900390625000 59.695999145508 184 184 184
7.481201171875 2.899414062500 59.788997650146 180 180 180
7.484619140625 2.898437500000 59.880996704102 177 177 177
7.489013671875 2.896972656250 59.973999023438 175 175 175
7.485839843750 2.896972656250 60.069999694824 169 169 169
7.480957031250 2.895019531250 60.166999816895 171 171 171
7.488769531250 2.895507812500 60.260997772217 171 171 171
7.488769531250 2.894042968750 60.358997344971 169 169 169
7.478759765625 2.893066406250 60.460998535156 167 167 167
7.480712890625 2.892578125000 60.558998107910 166 166 166
7.485839843750 2.891113281250 60.656997680664 159 159 159
7.492675781250 2.891113281250 60.754997253418 161 161 161
7.484863281250 2.889160156250 60.860996246338 168 168 168
7.488769531250 2.887695312500 60.961997985840 161 161 161
7.491210937500 2.888183593750 61.065998077393 171 171 171
7.493896484375 2.886718750000 61.169998168945 162 162 162
7.489501953125 2.885742187500 61.277996063232 164 164 164
7.491699218750 2.884765625000 61.384998321533 170 170 170
7.486816406250 2.884277343750 61.496997833252 166 166 166
7.500000000000 2.882812500000 61.600997924805 152 152 152
7.418945312500 2.933593750000 55.926998138428 43 43 43
7.407714843750 2.833007812500 56.015998840332 153 153 153
7.416259765625 2.832519531250 56.106998443604 146 146 146
7.407714843750 2.831542968750 56.194999694824 145 145 145
7.410400390625 2.830078125000 56.284000396729 143 143 143
7.414062500000 2.830566406250 56.372997283936 139 139 139
7.418945312500 2.829589843750 56.461997985840 123 123 123
7.414062500000 2.829101562500 56.548999786377 132 132 132
7.417480468750 2.828125000000 56.636997222900 118 118 118
7.424316406250 2.826171875000 56.725997924805 128 128 128
7.410888671875 2.824707031250 56.810997009277 127 127 127
7.383789062500 2.823730468750 56.895996093750 136 136 136
7.364746093750 2.822753906250 56.981998443604 147 147 147
7.376220703125 2.822265625000 57.069000244141 142 142 142
7.365234375000 2.820800781250 57.155998229980 148 148 148
7.395019531250 2.821777343750 57.243999481201 118 118 118
7.425292968750 2.820800781250 57.330997467041 108 108 108
7.406250000000 2.819824218750 57.416999816895 115 115 115
7.414550781250 2.819335937500 57.503997802734 110 110 110
7.423339843750 2.818847656250 57.589996337891 102 102 102
7.421875000000 2.817382812500 57.675998687744 108 108 108
7.427246093750 2.816894531250 57.761997222900 103 103 103
7.416015625000 2.815917968750 57.847999572754 98 98 98
7.417968750000 2.815429687500 57.934997558594 91 91 91
7.417968750000 2.813964843750 58.020996093750 87 87 87
7.406738281250 2.812988281250 58.107997894287 76 76 76
7.408691406250 2.812500000000 58.194999694824 61 61 61
7.412353515625 2.811523437500 58.281997680664 10 10 10
7.390136718750 2.833496093750 55.921997070313 29 29 29
5.804687500000 11.490234375000 60.132999420166 24 24 24
5.785644531250 11.477539062500 60.262996673584 56 56 56
5.781982421875 11.474121093750 60.390998840332 63 63 63
5.787597656250 11.476562500000 60.515998840332 79 79 79
5.771972656250 11.465332031250 60.648998260498 101 101 101
5.780761718750 11.469238281250 60.774997711182 92 92 92
5.788085937500 11.473144531250 60.902996063232 98 98 98
5.772460937500 11.461914062500 61.038997650146 100 100 100
5.780029296875 11.464355468750 61.167999267578 97 97 97
5.773193359375 11.459960937500 61.302997589111 97 97 97
5.958496093750 11.522460937500 56.305999755859 21 21 21
5.953125000000 11.517578125000 56.424999237061 56 56 56
5.951416015625 11.514648437500 56.542999267578 80 80 80
5.944824218750 11.510253906250 56.660999298096 93 93 93
5.945556640625 11.509765625000 56.778999328613 99 99 99
5.947021484375 11.509765625000 56.896999359131 117 117 117
5.940429687500 11.503417968750 57.013996124268 112 112 112
5.948974609375 11.507324218750 57.131996154785 128 128 128
5.941406250000 11.501953125000 57.248996734619 137 137 137
5.945800781250 11.503417968750 57.366996765137 140 140 140
5.946289062500 11.502441406250 57.483997344971 141 141 141
5.941894531250 11.498535156250 57.600997924805 137 137 137
5.936035156250 11.493164062500 57.716999053955 146 146 146
5.925048828125 11.486328125000 57.834999084473 172 172 172
5.927734375000 11.485839843750 57.951999664307 170 170 170
5.928710937500 11.485351562500 58.069000244141 164 164 164
5.920898437500 11.479980468750 58.187000274658 166 166 166
5.915039062500 11.474609375000 58.303997039795 179 179 179
5.915039062500 11.473144531250 58.421997070313 183 183 183
5.910644531250 11.469238281250 58.539997100830 183 183 183
5.906738281250 11.465820312500 58.659000396729 182 182 182
5.904785156250 11.463867187500 58.777996063232 168 168 168
5.905273437500 11.463378906250 58.895996093750 167 167 167
5.898437500000 11.457031250000 59.015998840332 164 164 164
5.900878906250 11.457519531250 59.134998321533 170 170 170
5.896484375000 11.453613281250 59.255996704102 166 166 166
5.891113281250 11.449218750000 59.376998901367 169 169 169
5.891601562500 11.448242187500 59.497997283936 169 169 169
5.895019531250 11.448730468750 59.618999481201 163 163 163
5.893554687500 11.447753906250 59.740997314453 157 157 157
5.886230468750 11.440917968750 59.864997863770 158 158 158
5.888183593750 11.441406250000 59.986999511719 158 158 158
5.888916015625 11.440917968750 60.110996246338 145 145 145
5.879394531250 11.433593750000 60.237998962402 152 152 152
5.873535156250 11.428222656250 60.364997863770 145 145 145
5.876953125000 11.428710937500 60.489997863770 146 146 146
5.874023437500 11.426269531250 60.616996765137 144 144 144
5.860107421875 11.416503906250 60.748996734619 151 151 151
5.862792968750 11.416015625000 60.876998901367 152 152 152
5.849609375000 11.407226562500 61.011997222900 141 141 141
5.843750000000 11.403320312500 61.143997192383 137 137 137
5.840332031250 11.398925781250 61.277000427246 133 133 133
6.061523437500 11.489257812500 55.847999572754 150 150 150
6.061279296875 11.487792968750 55.967998504639 170 170 170
6.053222656250 11.481933593750 56.084999084473 185 185 185
6.056640625000 11.482421875000 56.204998016357 190 190 190
6.055664062500 11.480468750000 56.321998596191 195 195 195
6.047851562500 11.474609375000 56.438999176025 202 202 202
6.045898437500 11.471679687500 56.555999755859 205 205 205
6.034912109375 11.464355468750 56.671997070313 206 206 206
6.031982421875 11.461914062500 56.787998199463 207 207 207
6.035644531250 11.462402343750 56.905998229980 206 206 206
6.034667968750 11.460449218750 57.021999359131 214 214 214
6.026611328125 11.454589843750 57.137996673584 214 214 214
6.027832031250 11.454589843750 57.253997802734 214 214 214
6.028564453125 11.453613281250 57.369998931885 210 210 210
6.013183593750 11.442382812500 57.484996795654 213 213 213
6.014404296875 11.442382812500 57.601997375488 215 215 215
6.012207031250 11.438964843750 57.717998504639 212 212 212
6.007568359375 11.435058593750 57.833999633789 208 208 208
5.996582031250 11.427734375000 57.949996948242 207 207 207
5.988525390625 11.421875000000 58.065998077393 208 208 208
5.984130859375 11.417968750000 58.182998657227 205 205 205
5.982421875000 11.415039062500 58.299999237061 207 207 207
5.984375000000 11.416015625000 58.416000366211 201 201 201
5.978515625000 11.410644531250 58.534000396729 200 200 200
5.973388671875 11.405761718750 58.652000427246 202 202 202
5.972656250000 11.403808593750 58.768997192383 200 200 200
5.956542968750 11.393554687500 58.888996124268 195 195 195
5.954101562500 11.390136718750 59.007999420166 192 192 192
5.942138671875 11.382324218750 59.128997802734 194 194 194
5.948242187500 11.384765625000 59.246997833252 188 188 188
5.944335937500 11.381347656250 59.366996765137 193 193 193
5.939941406250 11.377441406250 59.487998962402 182 182 182
5.927246093750 11.367675781250 59.610996246338 189 189 189
5.927246093750 11.366210937500 59.732997894287 178 178 178
5.916015625000 11.358886718750 59.856998443604 188 188 188
5.918945312500 11.358886718750 59.978996276855 169 169 169
5.906250000000 11.350585937500 60.105998992920 155 155 155
5.903320312500 11.346191406250 60.230998992920 142 142 142
5.898925781250 11.342285156250 60.356998443604 130 130 130
5.887695312500 11.334960937500 60.485996246338 118 118 118
5.886230468750 11.332519531250 60.612998962402 110 110 110
5.867187500000 11.319335937500 60.746997833252 109 109 109
5.867187500000 11.317871093750 60.874996185303 90 90 90
5.849121093750 11.306640625000 61.010997772217 88 88 88
5.849121093750 11.305175781250 61.141998291016 77 77 77
5.833496093750 11.293945312500 61.279998779297 44 44 44
6.108642578125 11.417480468750 55.858997344971 167 167 167
6.102783203125 11.412597656250 55.975997924805 171 171 171
6.101318359375 11.411132812500 56.093997955322 181 181 181
6.097412109375 11.406250000000 56.210998535156 190 190 190
6.090820312500 11.401855468750 56.327999114990 193 193 193
6.083251953125 11.395019531250 56.444000244141 202 202 202
6.072265625000 11.388183593750 56.558998107910 201 201 201
6.066162109375 11.382812500000 56.674999237061 204 204 204
6.065429687500 11.380859375000 56.791999816895 204 204 204
6.052246093750 11.371582031250 56.906997680664 207 207 207
6.045410156250 11.367187500000 57.021999359131 208 208 208
6.041503906250 11.363769531250 57.137996673584 203 203 203
6.029052734375 11.354003906250 57.252998352051 212 212 212
6.025390625000 11.350585937500 57.368999481201 203 203 203
6.028808593750 11.351074218750 57.484996795654 177 177 177
6.020751953125 11.345214843750 57.600997924805 193 193 193
6.010986328125 11.337890625000 57.716999053955 192 192 192
6.013916015625 11.339355468750 57.833000183105 171 171 171
6.014160156250 11.337890625000 57.948997497559 143 143 143
5.999023437500 11.327148437500 58.065998077393 148 148 148
6.004394531250 11.329101562500 58.181999206543 131 131 131
5.994384765625 11.321777343750 58.298999786377 149 149 149
5.980468750000 11.312011718750 58.416000366211 127 127 127
5.976074218750 11.308105468750 58.534000396729 121 121 121
5.967041015625 11.301757812500 58.652000427246 112 112 112
5.975097656250 11.306152343750 58.768997192383 111 111 111
5.944824218750 11.285644531250 58.889999389648 119 119 119
5.941894531250 11.283203125000 59.008998870850 25 25 25
5.826904296875 11.194335937500 60.759998321533 21 21 21
5.866455078125 11.015625000000 60.747997283936 10 10 10
5.937988281250 10.443847656250 60.719997406006 24 24 24
6.072265625000 9.821289062500 60.302997589111 78 78 78
6.065429687500 9.815429687500 60.428997039795 68 68 68
6.068603515625 9.816406250000 60.551998138428 68 68 68
6.072265625000 9.816894531250 60.675998687744 67 67 67
6.102050781250 9.834472656250 60.791000366211 32 32 32
6.131103515625 9.747558593750 60.779998779297 34 34 34
6.150390625000 9.654785156250 60.772998809814 52 52 52
6.172607421875 9.564941406250 60.763996124268 78 78 78
6.121582031250 9.435546875000 60.284000396729 10 10 10
6.188476562500 9.472167968750 60.756996154785 87 87 87
6.103515625000 9.323730468750 60.287998199463 17 17 17
6.207031250000 9.381835937500 60.749996185303 88 88 88
6.118652343750 9.231445312500 60.284996032715 31 31 31
6.220703125000 9.288085937500 60.745998382568 102 102 102
6.126464843750 9.135253906250 60.284000396729 35 35 35
6.243164062500 9.201171875000 60.738998413086 120 120 120
6.140625000000 9.043457031250 60.278999328613 20 20 20
6.258789062500 9.109375000000 60.733997344971 114 114 114
6.141845703125 8.941406250000 60.277996063232 21 21 21
6.277587890625 9.019042968750 60.726997375488 119 119 119
6.128417968750 8.831542968750 60.284000396729 77 77 77
6.159667968750 8.848632812500 60.396999359131 68 68 68
6.185058593750 8.863769531250 60.511997222900 38 38 38
6.283691406250 8.921875000000 60.725997924805 108 108 108
6.148925781250 8.740722656250 60.277000427246 64 64 64
6.319824218750 8.840332031250 60.712997436523 106 106 106
6.167480468750 8.648925781250 60.270996093750 87 87 87
6.333251953125 8.745117187500 60.706996917725 119 119 119
6.163330078125 8.541992187500 60.269996643066 92 92 92
6.347656250000 8.650878906250 60.701000213623 115 115 115
6.183593750000 8.450195312500 60.264999389648 73 73 73
6.364746093750 8.556640625000 60.694999694824 111 111 111
6.209472656250 8.363769531250 60.255996704102 77 77 77
6.218750000000 8.368164062500 60.374996185303 125 125 125
6.250488281250 8.386718750000 60.486999511719 90 90 90
6.273925781250 8.399414062500 60.601997375488 71 71 71
6.381835937500 8.464843750000 60.687999725342 91 91 91
6.228027343750 8.273437500000 60.250999450684 58 58 58
6.248046875000 8.284179687500 60.366996765137 200 200 200
6.268310546875 8.295898437500 60.481998443604 191 191 191
6.403564453125 8.375488281250 60.680999755859 104 104 104
6.235839843750 8.177246093750 60.248996734619 46 46 46
6.258300781250 8.189453125000 60.363998413086 216 216 216
6.292236328125 8.208496093750 60.474998474121 209 209 209
6.409667968750 8.278320312500 60.680000305176 74 74 74
6.258789062500 8.090820312500 60.243999481201 49 49 49
6.278076171875 8.101074218750 60.358997344971 219 219 219
6.324951171875 8.127929687500 60.465999603271 186 186 186
6.432128906250 8.190917968750 60.673000335693 75 75 75
6.268310546875 7.996093750000 60.241996765137 28 28 28
6.297363281250 8.012695312500 60.354999542236 199 199 199
6.333496093750 8.032714843750 60.464996337891 204 204 204
6.442871093750 8.097656250000 60.670997619629 43 43 43
6.309082031250 7.918457031250 60.231998443604 20 20 20
6.320556640625 7.924804687500 60.348999023438 139 139 139
6.351562500000 7.942871093750 60.459999084473 204 204 204
6.460937500000 8.007812500000 60.666000366211 23 23 23
6.317382812500 7.823242187500 60.229999542236 18 18 18
6.348144531250 7.841308593750 60.340999603271 205 205 205
6.378906250000 7.858886718750 60.451999664307 205 205 205
6.373046875000 7.754882812500 60.333000183105 195 195 195
6.396972656250 7.768066406250 60.445999145508 212 212 212
6.386230468750 7.659667968750 60.328998565674 164 164 164
6.416259765625 7.676757812500 60.439998626709 208 208 208
6.403320312500 7.566406250000 60.322998046875 204 204 204
6.449707031250 7.594238281250 60.428997039795 159 159 159
6.427246093750 7.478027343750 60.314998626709 214 214 214
6.469726562500 7.502441406250 60.420997619629 208 208 208
6.450927734375 7.389648437500 60.307998657227 209 209 209
6.487792968750 7.411132812500 60.416000366211 220 220 220
6.578613281250 7.462402343750 60.744998931885 34 34 34
6.479248046875 7.304687500000 60.299999237061 215 215 215
6.516113281250 7.325195312500 60.406997680664 185 185 185
6.598632812500 7.373535156250 60.737998962402 63 63 63
6.485351562500 7.207519531250 60.298999786377 218 218 218
6.524414062500 7.229980468750 60.405998229980 204 204 204
6.615966796875 7.283203125000 60.732997894287 70 70 70
6.500000000000 7.115722656250 60.295997619629 216 216 216
6.547851562500 7.143554687500 60.399997711182 210 210 210
6.587402343750 7.166503906250 60.504997253418 91 91 91
6.595214843750 7.169921875000 60.621997833252 82 82 82
6.641601562500 7.197753906250 60.724998474121 91 91 91
6.515625000000 7.024414062500 60.292999267578 214 214 214
6.555175781250 7.047363281250 60.398998260498 218 218 218
6.657714843750 7.106445312500 60.719997406006 102 102 102
6.537597656250 6.937988281250 60.286998748779 217 217 217
6.560791015625 6.950683593750 60.397998809814 146 146 146
6.601318359375 6.974609375000 60.503997802734 17 17 17
6.673095703125 7.015625000000 60.715999603271 113 113 113
6.549560546875 6.844726562500 60.284996032715 217 217 217
6.597900390625 6.873046875000 60.387996673584 196 196 196
6.637695312500 6.895996093750 60.491996765137 18 18 18
6.688232421875 6.924804687500 60.711997985840 119 119 119
6.563964843750 6.751464843750 60.280998229980 214 214 214
6.604248046875 6.775390625000 60.385997772217 158 158 158
6.635253906250 6.793457031250 60.493999481201 42 42 42
6.704101562500 6.833007812500 60.706996917725 117 117 117
6.576171875000 6.658203125000 60.279998779297 215 215 215
6.611816406250 6.677734375000 60.385997772217 143 143 143
6.640625000000 6.695312500000 60.493999481201 75 75 75
6.722900390625 6.742675781250 60.701999664307 114 114 114
6.591064453125 6.565917968750 60.273998260498 208 208 208
6.629150390625 6.587402343750 60.379997253418 151 151 151
6.648193359375 6.597656250000 60.490997314453 93 93 93
6.737792968750 6.650390625000 60.695999145508 104 104 104
6.600830078125 6.467285156250 60.270996093750 203 203 203
6.635742187500 6.488281250000 60.377998352051 165 165 165
6.653808593750 6.498046875000 60.489997863770 100 100 100
6.745361328125 6.551757812500 60.694000244141 88 88 88
6.625488281250 6.380859375000 60.263996124268 153 153 153
6.647460937500 6.394042968750 60.374996185303 201 201 201
6.671630859375 6.407226562500 60.483997344971 126 126 126
6.770751953125 6.465820312500 60.684997558594 33 33 33
6.630371093750 6.282226562500 60.262996673584 153 153 153
6.654785156250 6.296386718750 60.371997833252 216 216 216
6.692382812500 6.317382812500 60.476997375488 126 126 126
6.784179687500 6.372070312500 60.680000305176 29 29 29
6.631103515625 6.180175781250 60.263996124268 93 93 93
6.681640625000 6.210449218750 60.364997863770 35 35 35
6.710449218750 6.228027343750 60.471996307373 68 68 68
6.736816406250 6.241699218750 60.580997467041 87 87 87
6.777832031250 6.266601562500 60.683998107910 76 76 76
6.655761718750 6.095214843750 60.256996154785 80 80 80
6.972167968750 6.086914062500 60.274997711182 60 60 60
6.989990234375 5.998535156250 60.270996093750 84 84 84
6.878906250000 5.926757812500 60.768997192383 39 39 39
7.021484375000 5.918457031250 60.260997772217 72 72 72
6.904296875000 5.842285156250 60.758998870850 79 79 79
7.041015625000 5.828613281250 60.254997253418 48 48 48
6.995117187500 5.799804687500 60.381996154785 74 74 74
6.969238281250 5.784179687500 60.504997253418 51 51 51
6.920898437500 5.751464843750 60.753997802734 102 102 102
6.938720703125 5.661621093750 60.746997833252 123 123 123
6.960449218750 5.572753906250 60.738998413086 126 126 126
6.963623046875 5.472656250000 60.737998962402 110 110 110
6.981445312500 5.381347656250 60.729999542236 75 75 75
7.003906250000 5.292968750000 60.721996307373 58 58 58
7.007324218750 5.192871093750 60.719997406006 13 13 13
7.179687500000 5.099609375000 60.319999694824 61 61 61
7.064453125000 5.025878906250 60.813999176025 21 21 21
7.188964843750 5.006347656250 60.315998077393 77 77 77
7.084228515625 4.939453125000 60.805999755859 69 69 69
7.196533203125 4.910644531250 60.314998626709 80 80 80
7.103271484375 4.853027343750 60.569999694824 13 13 13
7.059082031250 4.824218750000 60.701000213623 71 71 71
7.100097656250 4.848632812500 60.799999237061 91 91 91
7.213867187500 4.821289062500 60.307998657227 65 65 65
7.165283203125 4.790527343750 60.435997009277 50 50 50
7.119628906250 4.760742187500 60.791999816895 107 107 107
7.147949218750 4.677246093750 60.780998229980 112 112 112
7.154296875000 4.580078125000 60.777996063232 124 124 124
7.150146484375 4.474609375000 60.777996063232 99 99 99
7.165039062500 4.380859375000 60.770996093750 52 52 52
7.231445312500 4.112304687500 60.853996276855 25 25 25
7.251464843750 4.022949218750 60.845996856689 90 90 90
7.270751953125 3.933593750000 60.836997985840 121 121 121
7.286621093750 3.843261718750 60.829998016357 124 124 124
7.295166015625 3.749023437500 60.826000213623 113 113 113
7.305175781250 3.653808593750 60.821998596191 71 71 71
7.372558593750 3.391113281250 60.906997680664 16 16 16
7.385253906250 3.296875000000 60.899997711182 67 67 67
7.411865234375 3.210937500000 60.888996124268 97 97 97
7.308105468750 3.063964843750 56.873996734619 108 108 108
7.294921875000 3.055175781250 56.973999023438 106 106 106
7.308105468750 3.062988281250 57.076999664307 106 106 106
7.305175781250 3.060058593750 57.177997589111 106 106 106
7.419433593750 3.113281250000 60.884998321533 102 102 102
7.401367187500 3.020996093750 56.171997070313 195 195 195
7.405761718750 3.023925781250 56.274997711182 178 178 178
7.409179687500 3.025390625000 56.377998352051 199 199 199
7.401855468750 3.020507812500 56.478996276855 197 197 197
7.404785156250 3.021484375000 56.580997467041 197 197 197
7.412841796875 3.025878906250 56.682998657227 194 194 194
7.410644531250 3.023925781250 56.784000396729 199 199 199
7.411376953125 3.024902343750 56.883998870850 202 202 202
7.418945312500 3.028320312500 56.984996795654 202 202 202
7.418945312500 3.027343750000 57.084999084473 203 203 203
7.418945312500 3.027343750000 57.184997558594 206 206 206
7.434082031250 3.037109375000 57.285999298096 200 200 200
7.421630859375 3.028320312500 57.383998870850 203 203 203
7.420898437500 3.027832031250 57.483997344971 204 204 204
7.427490234375 3.030761718750 57.583000183105 200 200 200
7.413574218750 3.022460937500 57.681999206543 203 203 203
7.426025390625 3.029785156250 57.780998229980 204 204 204
7.425292968750 3.028808593750 57.879997253418 207 207 207
7.427246093750 3.029785156250 57.978996276855 204 204 204
7.420898437500 3.024902343750 58.078998565674 208 208 208
7.419921875000 3.024414062500 58.177997589111 205 205 205
7.425781250000 3.026855468750 58.277000427246 205 205 205
7.430175781250 3.029296875000 58.375999450684 207 207 207
7.427978515625 3.027343750000 58.475997924805 203 203 203
7.421875000000 3.023437500000 58.576999664307 204 204 204
7.431640625000 3.029296875000 58.675998687744 195 195 195
7.429199218750 3.027343750000 58.775997161865 200 200 200
7.432373046875 3.028320312500 58.875999450684 195 195 195
7.436035156250 3.030273437500 58.975997924805 194 194 194
7.443847656250 3.034667968750 59.076000213623 187 187 187
7.429443359375 3.025878906250 59.180000305176 195 195 195
7.424804687500 3.021484375000 59.282997131348 193 193 193
7.429199218750 3.024414062500 59.384998321533 181 181 181
7.432128906250 3.025390625000 59.486999511719 193 193 193
7.430664062500 3.024414062500 59.589996337891 178 178 178
7.440185546875 3.030273437500 59.690998077393 168 168 168
7.435058593750 3.026855468750 59.796997070313 160 160 160
7.439941406250 3.028808593750 59.899997711182 156 156 156
7.439941406250 3.028808593750 60.005996704102 146 146 146
7.436279296875 3.025390625000 60.112998962402 136 136 136
7.439208984375 3.026367187500 60.218997955322 142 142 142
7.439941406250 3.027343750000 60.324996948242 135 135 135
7.444335937500 3.028320312500 60.431999206543 143 143 143
7.445800781250 3.029785156250 60.539997100830 145 145 145
7.443359375000 3.027832031250 60.650997161865 143 143 143
7.447265625000 3.029785156250 60.759998321533 137 137 137
7.451660156250 3.032226562500 60.868999481201 109 109 109
7.444335937500 3.027343750000 60.984996795654 129 129 129
7.451416015625 3.030761718750 61.094997406006 138 138 138
7.446289062500 3.027343750000 61.211997985840 130 130 130
7.449218750000 3.028808593750 61.326000213623 133 133 133
7.446289062500 3.026367187500 61.444000244141 136 136 136
7.458740234375 3.033203125000 61.555000305176 134 134 134
7.375000000000 3.006835937500 55.853996276855 116 116 116
7.382324218750 3.010742187500 55.959999084473 109 109 109
7.371093750000 3.003906250000 56.060997009277 102 102 102
7.445800781250 2.946777343750 55.870998382568 196 196 196
7.437011718750 2.941894531250 55.971996307373 203 203 203
7.447265625000 2.946777343750 56.077999114990 198 198 198
7.446533203125 2.946289062500 56.180000305176 199 199 199
7.446533203125 2.946289062500 56.282997131348 203 203 203
7.453125000000 2.949218750000 56.384998321533 203 203 203
7.447753906250 2.946289062500 56.485996246338 203 203 203
7.452392578125 2.948730468750 56.586997985840 201 201 201
7.443359375000 2.941894531250 56.687000274658 204 204 204
7.457519531250 2.950683593750 56.788997650146 205 205 205
7.457519531250 2.950683593750 56.888996124268 208 208 208
7.458007812500 2.949707031250 56.988998413086 208 208 208
7.455078125000 2.948242187500 57.087997436523 209 209 209
7.460937500000 2.951171875000 57.187999725342 208 208 208
7.458740234375 2.949218750000 57.285999298096 201 201 201
7.465332031250 2.953613281250 57.385997772217 210 210 210
7.468750000000 2.954101562500 57.484996795654 209 209 209
7.455566406250 2.946289062500 57.583000183105 208 208 208
7.467285156250 2.952636718750 57.681999206543 210 210 210
7.468261718750 2.953613281250 57.779998779297 210 210 210
7.468750000000 2.952636718750 57.878997802734 211 211 211
7.472167968750 2.954589843750 57.976997375488 210 210 210
7.477050781250 2.957031250000 58.076000213623 210 210 210
7.479003906250 2.957519531250 58.173999786377 211 211 211
7.475097656250 2.954101562500 58.272998809814 210 210 210
7.480468750000 2.957519531250 58.371997833252 209 209 209
7.479003906250 2.956054687500 58.470996856689 207 207 207
7.476074218750 2.955078125000 58.569999694824 210 210 210
7.467285156250 2.948242187500 58.670997619629 201 201 201
7.478515625000 2.955566406250 58.768997192383 208 208 208
7.484863281250 2.958496093750 58.867996215820 206 206 206
7.483886718750 2.958007812500 58.967998504639 203 203 203
7.475830078125 2.952148437500 59.069999694824 202 202 202
7.485351562500 2.958007812500 59.168998718262 201 201 201
7.485351562500 2.956542968750 59.269996643066 204 204 204
7.483154296875 2.954589843750 59.371997833252 200 200 200
7.488281250000 2.958007812500 59.472999572754 186 186 186
7.489746093750 2.959472656250 59.574996948242 200 200 200
7.482421875000 2.954101562500 59.680000305176 202 202 202
7.496826171875 2.961425781250 59.778999328613 196 196 196
7.494628906250 2.960937500000 59.883998870850 189 189 189
7.487304687500 2.955566406250 59.990997314453 183 183 183
7.497558593750 2.960449218750 60.092998504639 176 176 176
7.496093750000 2.959472656250 60.198997497559 179 179 179
7.500488281250 2.961914062500 60.303997039795 178 178 178
7.496093750000 2.959472656250 60.412998199463 183 183 183
7.497558593750 2.959472656250 60.519996643066 171 171 171
7.500488281250 2.960449218750 60.627998352051 167 167 167
7.501220703125 2.961425781250 60.736999511719 179 179 179
7.497558593750 2.958007812500 60.849998474121 186 186 186
7.505371093750 2.962402343750 60.958000183105 163 163 163
7.493652343750 2.954589843750 61.074996948242 183 183 183
7.501708984375 2.958984375000 61.184997558594 166 166 166
7.503906250000 2.959960937500 61.298999786377 165 165 165
7.502441406250 2.958496093750 61.414997100830 170 170 170
7.502441406250 2.958496093750 61.531997680664 173 173 173
7.510253906250 2.962890625000 61.645996093750 26 26 26
6.024658203125 11.492675781250 55.808998107910 128 128 128
6.043701171875 11.492675781250 55.916999816895 120 120 120
6.024414062500 11.490234375000 56.016998291016 134 134 134
6.019531250000 11.488281250000 56.118999481201 136 136 136
6.024414062500 11.487304687500 56.222999572754 149 149 149
6.014892578125 11.485839843750 56.323997497559 157 157 157
6.021972656250 11.483886718750 56.426998138428 157 157 157
6.016113281250 11.482910156250 56.527996063232 154 154 154
6.001464843750 11.479980468750 56.627998352051 158 158 158
6.000000000000 11.479003906250 56.728996276855 151 151 151
5.993896484375 11.478027343750 56.829998016357 168 168 168
5.989013671875 11.476074218750 56.930999755859 162 162 162
5.991699218750 11.474609375000 57.031997680664 171 171 171
5.987304687500 11.473144531250 57.132999420166 166 166 166
5.980957031250 11.471679687500 57.233997344971 170 170 170
5.979492187500 11.470214843750 57.333999633789 166 166 166
5.967773437500 11.468261718750 57.434997558594 157 157 157
5.979736328125 11.466308593750 57.535999298096 164 164 164
5.964843750000 11.465332031250 57.636997222900 163 163 163
5.955566406250 11.463867187500 57.737998962402 162 162 162
5.959960937500 11.461914062500 57.838996887207 157 157 157
5.958007812500 11.460937500000 57.939998626709 158 158 158
5.942382812500 11.458984375000 58.042999267578 162 162 162
5.937011718750 11.458007812500 58.144996643066 163 163 163
5.918945312500 11.455078125000 58.247997283936 183 183 183
5.913085937500 11.454101562500 58.350997924805 184 184 184
5.919921875000 11.452636718750 58.452999114990 145 145 145
5.906005859375 11.450195312500 58.556999206543 147 147 147
5.896484375000 11.448730468750 58.660999298096 179 179 179
5.879394531250 11.446777343750 58.767997741699 185 185 185
5.905029296875 11.446777343750 58.867996215820 131 131 131
5.895019531250 11.444824218750 58.973999023438 125 125 125
5.897949218750 11.442871093750 59.077999114990 124 124 124
5.896484375000 11.441894531250 59.182998657227 124 124 124
5.883300781250 11.439941406250 59.291999816895 127 127 127
5.875488281250 11.437988281250 59.399997711182 126 126 126
5.880859375000 11.436035156250 59.504997253418 125 125 125
5.877929687500 11.435058593750 59.612998962402 123 123 123
5.875976562500 11.433105468750 59.721996307373 118 118 118
5.868164062500 11.431152343750 59.833000183105 126 126 126
5.873535156250 11.429687500000 59.940998077393 124 124 124
5.858398437500 11.428222656250 60.055000305176 125 125 125
5.867187500000 11.426757812500 60.162998199463 125 125 125
5.856933593750 11.424316406250 60.277996063232 127 127 127
5.838378906250 11.422363281250 60.396999359131 117 117 117
5.835449218750 11.419921875000 60.511997222900 118 118 118
5.827636718750 11.419433593750 60.628997802734 128 128 128
5.821777343750 11.416992187500 60.746997833252 124 124 124
5.814453125000 11.414550781250 60.865997314453 116 116 116
5.807617187500 11.414062500000 60.986999511719 113 113 113
5.802246093750 11.412109375000 61.107997894287 112 112 112
5.800292968750 11.410156250000 61.229999542236 116 116 116
6.046142578125 11.318359375000 55.809997558594 175 175 175
6.041015625000 11.316406250000 55.911998748779 174 174 174
6.040283203125 11.315429687500 56.015998840332 174 174 174
6.041503906250 11.313964843750 56.118999481201 179 179 179
6.038085937500 11.312011718750 56.220996856689 177 177 177
6.031494140625 11.310546875000 56.321998596191 182 182 182
6.020019531250 11.309570312500 56.423000335693 189 189 189
6.018554687500 11.307128906250 56.524997711182 183 183 183
6.013183593750 11.305175781250 56.625999450684 189 189 189
6.011230468750 11.304687500000 56.726997375488 189 189 189
6.002441406250 11.302246093750 56.826999664307 191 191 191
5.991943359375 11.300781250000 56.927997589111 194 194 194
5.996826171875 11.299804687500 57.028999328613 195 195 195
5.993896484375 11.298828125000 57.129997253418 194 194 194
5.976074218750 11.295898437500 57.229999542236 195 195 195
5.975830078125 11.294433593750 57.330997467041 195 195 195
5.971679687500 11.293457031250 57.431999206543 187 187 187
5.961669921875 11.291015625000 57.532997131348 190 190 190
5.953125000000 11.290527343750 57.633998870850 190 190 190
5.950195312500 11.289062500000 57.734996795654 187 187 187
5.948730468750 11.286621093750 57.835998535156 186 186 186
5.942871093750 11.285156250000 57.937999725342 173 173 173
5.925781250000 11.283203125000 58.041000366211 182 182 182
5.927001953125 11.282226562500 58.141998291016 166 166 166
5.919189453125 11.280273437500 58.244998931885 176 176 176
5.909667968750 11.278808593750 58.347999572754 175 175 175
5.912353515625 11.277343750000 58.451000213623 180 180 180
5.904785156250 11.275390625000 58.553997039795 177 177 177
5.898193359375 11.273925781250 58.657997131348 172 172 172
5.891845703125 11.271972656250 58.762996673584 165 165 165
5.896484375000 11.270996093750 58.865997314453 159 159 159
5.891601562500 11.269042968750 58.971996307373 149 149 149
5.881591796875 11.267089843750 59.077999114990 145 145 145
5.883544921875 11.266113281250 59.182998657227 139 139 139
5.872314453125 11.264160156250 59.291000366211 142 142 142
5.874267578125 11.263183593750 59.396999359131 123 123 123
5.881347656250 11.261230468750 59.502998352051 114 114 114
5.865478515625 11.259277343750 59.613998413086 124 124 124
5.855468750000 11.257324218750 59.723999023438 112 112 112
5.862548828125 11.256835937500 59.831996917725 114 114 114
5.841796875000 11.254394531250 59.946998596191 104 104 104
5.852539062500 11.253417968750 60.053997039795 94 94 94
5.833007812500 11.250976562500 60.170997619629 91 91 91
5.830078125000 11.249511718750 60.284996032715 83 83 83
5.825683593750 11.247070312500 60.398998260498 77 77 77
5.811523437500 11.246093750000 60.516998291016 77 77 77
5.809326171875 11.244140625000 60.633998870850 57 57 57
5.800781250000 11.242187500000 60.751998901367 112 112 112
5.792480468750 11.240234375000 60.872997283936 45 45 45
5.782714843750 11.238281250000 60.994998931885 68 68 68
5.781738281250 11.235839843750 61.113998413086 58 58 58
5.766845703125 11.234863281250 61.240997314453 47 47 47
5.828613281250 11.070312500000 60.742996215820 91 91 91
5.855957031250 10.899414062500 60.733997344971 66 66 66
5.890625000000 10.730957031250 60.724998474121 83 83 83
5.911865234375 10.562500000000 60.720996856689 86 86 86
5.963378906250 10.394531250000 60.705997467041 101 101 101
5.978759765625 10.223632812500 60.701999664307 72 72 72
6.018066406250 10.052246093750 60.689998626709 24 24 24
6.055175781250 9.709472656250 60.226997375488 121 121 121
6.053955078125 9.534667968750 60.224998474121 118 118 118
6.156250000000 9.530761718750 60.747997283936 12 12 12
6.062011718750 9.361328125000 60.220996856689 106 106 106
6.186523437500 9.356933593750 60.734996795654 61 61 61
6.087890625000 9.187500000000 60.210998535156 91 91 91
6.224121093750 9.184570312500 60.718997955322 100 100 100
6.101562500000 9.015625000000 60.206996917725 87 87 87
6.260742187500 9.012207031250 60.705997467041 116 116 116
6.112060546875 8.844238281250 60.203998565674 79 79 79
6.196044921875 8.841308593750 60.618999481201 20 20 20
6.290039062500 8.841796875000 60.695999145508 112 112 112
6.106689453125 8.673828125000 60.208000183105 33 33 33
6.314941406250 8.672363281250 60.688999176025 131 131 131
6.335937500000 8.502929687500 60.682998657227 131 131 131
6.186523437500 8.335449218750 60.298999786377 145 145 145
6.223876953125 8.334960937500 60.394996643066 174 174 174
6.250000000000 8.334472656250 60.496997833252 111 111 111
6.273437500000 8.333496093750 60.598999023438 99 99 99
6.377441406250 8.334960937500 60.670997619629 142 142 142
6.226562500000 8.166503906250 60.286998748779 199 199 199
6.259277343750 8.166015625000 60.385997772217 209 209 209
6.287597656250 8.165527343750 60.485996246338 60 60 60
6.410888671875 8.165527343750 60.660999298096 116 116 116
6.256835937500 7.996582031250 60.278999328613 203 203 203
6.288574218750 7.995605468750 60.376998901367 140 140 140
6.338867187500 7.996093750000 60.468997955322 115 115 115
6.443847656250 7.995605468750 60.649997711182 94 94 94
6.310546875000 7.825195312500 60.261997222900 208 208 208
6.329589843750 7.824707031250 60.363998413086 169 169 169
6.378417968750 7.825195312500 60.454998016357 146 146 146
6.470458984375 7.823730468750 60.639999389648 45 45 45
6.343261718750 7.652343750000 60.249996185303 200 200 200
6.376464843750 7.652343750000 60.346996307373 187 187 187
6.426269531250 7.652343750000 60.437999725342 174 174 174
6.378417968750 7.477539062500 60.234996795654 186 186 186
6.425781250000 7.478027343750 60.326999664307 196 196 196
6.461914062500 7.478027343750 60.421997070313 192 192 192
6.560546875000 7.477050781250 60.710998535156 58 58 58
6.422363281250 7.304199218750 60.218997955322 163 163 163
6.459960937500 7.302246093750 60.313999176025 158 158 158
6.494628906250 7.302734375000 60.409000396729 202 202 202
6.588134765625 7.301269531250 60.698997497559 108 108 108
6.462402343750 7.129882812500 60.202999114990 113 113 113
6.490722656250 7.129394531250 60.299999237061 187 187 187
6.525390625000 7.129394531250 60.394996643066 195 195 195
6.557128906250 7.127929687500 60.490997314453 87 87 87
6.582031250000 7.127441406250 60.589996337891 69 69 69
6.625976562500 7.127441406250 60.680999755859 124 124 124
6.485351562500 6.956054687500 60.194000244141 72 72 72
6.512939453125 6.955078125000 60.291000366211 170 170 170
6.550292968750 6.955078125000 60.384998321533 135 135 135
6.645996093750 6.954101562500 60.671997070313 129 129 129
6.545898437500 6.784179687500 60.278999328613 197 197 197
6.572753906250 6.783691406250 60.375999450684 145 145 145
6.592773437500 6.782226562500 60.475997924805 40 40 40
6.679199218750 6.782714843750 60.657997131348 101 101 101
6.569580078125 6.612304687500 60.271999359131 194 194 194
6.596679687500 6.612304687500 60.368999481201 157 157 157
6.650390625000 6.613281250000 60.455997467041 105 105 105
6.694335937500 6.611816406250 60.652996063232 59 59 59
6.587890625000 6.442871093750 60.265998840332 207 207 207
6.619873046875 6.442871093750 60.360996246338 195 195 195
6.654785156250 6.442871093750 60.454998016357 153 153 153
6.609375000000 6.274414062500 60.259998321533 208 208 208
6.627441406250 6.273437500000 60.358997344971 210 210 210
6.671386718750 6.273437500000 60.449996948242 159 159 159
6.791992187500 6.273437500000 60.723999023438 59 59 59
6.635253906250 6.104980468750 60.252998352051 95 95 95
6.934326171875 6.109375000000 60.253997802734 22 22 22
6.827636718750 6.103515625000 60.710998535156 115 115 115
6.978759765625 5.938964843750 60.238998413086 97 97 97
6.860107421875 5.932617187500 60.698997497559 139 139 139
7.010253906250 5.766601562500 60.225997924805 8 8 8
6.979736328125 5.765136718750 60.338996887207 78 78 78
6.932128906250 5.762695312500 60.458999633789 74 74 74
6.889648437500 5.760742187500 60.579998016357 84 84 84
6.883789062500 5.760253906250 60.687999725342 109 109 109
6.900390625000 5.585937500000 60.677997589111 22 22 22
6.982421875000 5.412597656250 60.747997283936 64 64 64
7.118652343750 5.243652343750 60.279998779297 85 85 85
7.000000000000 5.237304687500 60.736999511719 133 133 133
7.151367187500 5.069824218750 60.265998840332 90 90 90
7.017089843750 5.062988281250 60.727996826172 143 143 143
7.040771484375 4.888671875000 60.715999603271 78 78 78
7.125000000000 4.544921875000 60.784000396729 86 86 86
7.162353515625 4.373535156250 60.768997192383 133 133 133
7.180664062500 4.201171875000 60.760997772217 113 113 113
7.253417968750 3.854980468750 60.831996917725 77 77 77
7.281250000000 3.682128906250 60.819000244141 134 134 134
7.307617187500 3.507812500000 60.806999206543 108 108 108
7.401855468750 3.160644531250 60.866996765137 81 81 81
7.372558593750 3.035644531250 55.988998413086 106 106 106
7.375976562500 3.034667968750 56.078998565674 104 104 104
7.381835937500 3.034179687500 56.169998168945 126 126 126
7.375244140625 3.032226562500 56.257999420166 122 122 122
7.379882812500 3.031738281250 56.346996307373 139 139 139
7.388671875000 3.030761718750 56.437000274658 139 139 139
7.383544921875 3.030761718750 56.523998260498 144 144 144
7.386230468750 3.028808593750 56.611999511719 158 158 158
7.386962890625 3.028320312500 56.698997497559 157 157 157
7.386962890625 3.028320312500 56.786998748779 166 166 166
7.373046875000 3.025390625000 56.872997283936 179 179 179
7.383789062500 3.025390625000 56.959999084473 174 174 174
7.391113281250 3.025390625000 57.046997070313 183 183 183
7.385742187500 3.023437500000 57.133998870850 180 180 180
7.406250000000 3.022949218750 57.220996856689 171 171 171
7.407714843750 3.022949218750 57.306999206543 167 167 167
7.404785156250 3.021484375000 57.392997741699 173 173 173
7.416992187500 3.021484375000 57.478996276855 178 178 178
7.401367187500 3.019531250000 57.564998626709 169 169 169
7.414062500000 3.019042968750 57.650997161865 177 177 177
7.410400390625 3.018554687500 57.736999511719 180 180 180
7.415039062500 3.017578125000 57.822998046875 178 178 178
7.423828125000 3.017089843750 57.909000396729 179 179 179
7.415039062500 3.016113281250 57.994998931885 181 181 181
7.417968750000 3.014160156250 58.081996917725 177 177 177
7.421386718750 3.013671875000 58.167999267578 179 179 179
7.424316406250 3.013183593750 58.253997802734 179 179 179
7.419921875000 3.012207031250 58.340999603271 182 182 182
7.431396484375 3.011718750000 58.426998138428 174 174 174
7.431152343750 3.010253906250 58.513996124268 177 177 177
7.427490234375 3.009277343750 58.601997375488 176 176 176
7.437988281250 3.008300781250 58.687999725342 169 169 169
7.430175781250 3.007812500000 58.777996063232 172 172 172
7.439453125000 3.006835937500 58.863998413086 164 164 164
7.436523437500 3.005859375000 58.953998565674 167 167 167
7.435791015625 3.004882812500 59.042999267578 164 164 164
7.432128906250 3.004394531250 59.132999420166 159 159 159
7.431396484375 3.003906250000 59.223999023438 157 157 157
7.432128906250 3.002929687500 59.313999176025 156 156 156
7.434814453125 3.001464843750 59.403999328613 157 157 157
7.438476562500 3.000488281250 59.494998931885 155 155 155
7.431884765625 2.998535156250 59.588996887207 150 150 150
7.432617187500 2.998046875000 59.680999755859 145 145 145
7.434570312500 2.997070312500 59.773998260498 140 140 140
7.447265625000 2.996093750000 59.863998413086 147 147 147
7.438476562500 2.995605468750 59.961997985840 142 142 142
7.450683593750 2.995605468750 60.052997589111 140 140 140
7.443847656250 2.994628906250 60.152000427246 136 136 136
7.443359375000 2.993164062500 60.248996734619 133 133 133
7.448730468750 2.992187500000 60.344997406006 134 134 134
7.452636718750 2.990234375000 60.441997528076 137 137 137
7.451171875000 2.990722656250 60.541999816895 135 135 135
7.448242187500 2.989257812500 60.642997741699 135 135 135
7.453369140625 2.988281250000 60.741996765137 141 141 141
7.468017578125 2.986816406250 60.837997436523 132 132 132
7.455322265625 2.985839843750 60.947998046875 130 130 130
7.457275390625 2.985351562500 61.050998687744 134 134 134
7.455810546875 2.983886718750 61.157997131348 142 142 142
7.452636718750 2.982421875000 61.266998291016 136 136 136
