29.625000000000 2.453125000000 60.806999206543 53 53 53
29.656250000000 2.429687500000 60.818992614746 130 130 130
29.687500000000 2.414062500000 60.805992126465 157 157 157
29.718750000000 2.375000000000 60.818992614746 163 163 163
29.750000000000 2.367187500000 60.821998596191 163 163 163
29.781250000000 2.351562500000 60.812995910645 163 163 163
29.843750000000 2.320312500000 60.818992614746 159 159 159
29.875000000000 2.304687500000 60.838996887207 224 224 224
29.656250000000 2.437500000000 59.778999328613 54 54 54
29.656250000000 2.437500000000 59.747993469238 159 159 159
29.687500000000 2.437500000000 59.734001159668 178 178 178
29.687500000000 2.421875000000 59.708000183105 178 178 178
29.718750000000 2.398437500000 59.700996398926 176 176 176
29.718750000000 2.398437500000 59.689994812012 171 171 171
29.750000000000 2.390625000000 59.668998718262 155 155 155
29.781250000000 2.359375000000 59.682991027832 143 143 143
29.781250000000 2.359375000000 59.657005310059 110 110 110
29.812500000000 2.335937500000 59.646995544434 99 99 99
29.031250000000 2.445312500000 61.355995178223 116 116 116
29.062500000000 2.429687500000 61.342994689941 144 144 144
29.093750000000 2.414062500000 61.335990905762 110 110 110
29.031250000000 2.476562500000 60.077003479004 104 104 104
29.062500000000 2.460937500000 60.057991027832 156 156 156
29.062500000000 2.445312500000 60.038993835449 176 176 176
29.093750000000 2.437500000000 60.025001525879 174 174 174
29.093750000000 2.429687500000 60.019996643066 142 142 142
29.125000000000 2.421875000000 60.013999938965 61 61 61
28.437500000000 2.468750000000 61.331001281738 73 73 73
28.468750000000 2.453125000000 61.333000183105 144 144 144
28.500000000000 2.445312500000 61.319999694824 148 148 148
28.531250000000 2.421875000000 61.333992004395 90 90 90
28.406250000000 2.507812500000 60.376991271973 129 129 129
28.406250000000 2.492187500000 60.357002258301 167 167 167
28.437500000000 2.484375000000 60.342002868652 179 179 179
28.468750000000 2.468750000000 60.342002868652 165 165 165
28.468750000000 2.460937500000 60.308998107910 130 130 130
28.437500000000 2.492187500000 60.133995056152 136 136 136
28.437500000000 2.484375000000 60.107994079590 161 161 161
28.468750000000 2.468750000000 60.105995178223 165 165 165
28.468750000000 2.468750000000 60.107994079590 144 144 144
28.500000000000 2.445312500000 60.120002746582 64 64 64
27.781250000000 2.531250000000 60.872001647949 156 156 156
27.781250000000 2.531250000000 60.726997375488 162 162 162
27.812500000000 2.515625000000 60.668998718262 163 163 163
27.812500000000 2.515625000000 60.657997131348 172 172 172
27.843750000000 2.507812500000 60.654991149902 156 156 156
27.875000000000 2.492187500000 60.650001525879 98 98 98
27.812500000000 2.523437500000 60.120002746582 94 94 94
27.843750000000 2.515625000000 60.111000061035 154 154 154
27.843750000000 2.500000000000 60.101997375488 177 177 177
27.875000000000 2.492187500000 60.101997375488 173 173 173
27.906250000000 2.476562500000 60.109001159668 131 131 131
27.156250000000 2.570312500000 61.012001037598 116 116 116
27.156250000000 2.546875000000 60.987998962402 162 162 162
27.187500000000 2.546875000000 60.980003356934 169 169 169
27.218750000000 2.531250000000 60.971992492676 137 137 137
27.218750000000 2.546875000000 60.135002136230 145 145 145
27.218750000000 2.539062500000 60.100990295410 160 160 160
27.250000000000 2.523437500000 60.090003967285 183 183 183
27.281250000000 2.515625000000 60.098991394043 175 175 175
27.281250000000 2.500000000000 60.114997863770 143 143 143
27.281250000000 2.500000000000 60.114997863770 47 47 47
26.718750000000 2.468750000000 61.312004089355 71 71 71
30.406250000000 2.000000000000 54.340003967285 103 103 103
30.406250000000 2.015625000000 54.370994567871 139 139 139
30.437500000000 2.023437500000 54.379997253418 132 132 132
30.500000000000 2.054687500000 54.376991271973 138 138 138
30.531250000000 2.070312500000 54.378990173340 136 136 136
30.562500000000 2.093750000000 54.381004333496 140 140 140
30.437500000000 2.031250000000 54.491004943848 136 136 136
30.406250000000 2.007812500000 54.540000915527 142 142 142
30.437500000000 2.039062500000 54.543998718262 153 153 153
30.500000000000 2.070312500000 54.543998718262 151 151 151
30.531250000000 2.085937500000 54.544990539551 150 150 150
30.593750000000 2.125000000000 54.540000915527 152 152 152
30.656250000000 2.140625000000 54.534996032715 159 159 159
30.093750000000 2.132812500000 54.338996887207 116 116 116
30.062500000000 2.117187500000 54.376991271973 154 154 154
30.093750000000 2.140625000000 54.381004333496 140 140 140
30.125000000000 2.164062500000 54.381004333496 142 142 142
30.187500000000 2.187500000000 54.379997253418 140 140 140
30.218750000000 2.203125000000 54.381996154785 149 149 149
30.125000000000 2.148437500000 54.482002258301 154 154 154
30.062500000000 2.125000000000 54.540992736816 151 151 151
30.093750000000 2.140625000000 54.540992736816 150 150 150
30.125000000000 2.171875000000 54.542991638184 172 172 172
30.156250000000 2.164062500000 54.564994812012 164 164 164
30.156250000000 2.164062500000 54.590003967285 162 162 162
30.156250000000 2.164062500000 54.616996765137 154 154 154
30.156250000000 2.171875000000 54.640998840332 155 155 155
30.156250000000 2.164062500000 54.669990539551 157 157 157
30.187500000000 2.179687500000 54.687995910645 150 150 150
30.250000000000 2.234375000000 54.666999816895 155 155 155
30.468750000000 2.359375000000 54.551994323730 154 154 154
30.531250000000 2.382812500000 54.547004699707 165 165 165
30.562500000000 2.390625000000 54.566001892090 164 164 164
30.562500000000 2.398437500000 54.590995788574 161 161 161
30.531250000000 2.390625000000 54.627998352051 159 159 159
30.531250000000 2.398437500000 54.653999328613 158 158 158
30.531250000000 2.390625000000 54.682991027832 159 159 159
30.562500000000 2.390625000000 54.709999084473 155 155 155
30.531250000000 2.390625000000 54.739997863770 153 153 153
30.531250000000 2.367187500000 54.782997131348 88 88 88
30.531250000000 2.375000000000 54.805992126465 102 102 102
30.531250000000 2.375000000000 54.835990905762 98 98 98
30.531250000000 2.367187500000 54.892997741699 94 94 94
30.375000000000 2.312500000000 55.008995056152 240 240 240
30.281250000000 2.242187500000 55.084999084473 138 138 138
30.281250000000 2.250000000000 55.107994079590 138 138 138
30.281250000000 2.242187500000 55.133995056152 137 137 137
30.281250000000 2.257812500000 55.154991149902 137 137 137
30.281250000000 2.242187500000 55.183998107910 129 129 129
30.312500000000 2.265625000000 55.189002990723 127 127 127
30.500000000000 2.367187500000 55.140998840332 144 144 144
30.500000000000 2.367187500000 55.167991638184 141 141 141
30.500000000000 2.367187500000 55.193000793457 138 138 138
30.531250000000 2.367187500000 55.209999084473 102 102 102
30.531250000000 2.375000000000 55.307991027832 78 78 78
30.531250000000 2.367187500000 55.336997985840 81 81 81
30.500000000000 2.367187500000 55.361991882324 82 82 82
30.500000000000 2.367187500000 55.387001037598 83 83 83
30.531250000000 2.367187500000 55.411003112793 82 82 82
30.500000000000 2.367187500000 55.437004089355 89 89 89
30.500000000000 2.367187500000 55.460990905762 84 84 84
30.500000000000 2.382812500000 55.486000061035 84 84 84
30.531250000000 2.367187500000 55.508995056152 93 93 93
30.531250000000 2.367187500000 55.532997131348 91 91 91
30.531250000000 2.367187500000 55.557991027832 88 88 88
30.500000000000 2.375000000000 55.584999084473 88 88 88
30.531250000000 2.367187500000 55.605995178223 87 87 87
30.531250000000 2.367187500000 55.629997253418 81 81 81
30.531250000000 2.367187500000 55.652992248535 89 89 89
30.500000000000 2.382812500000 55.680000305176 88 88 88
30.500000000000 2.382812500000 55.702995300293 85 85 85
30.500000000000 2.382812500000 55.726997375488 93 93 93
30.531250000000 2.367187500000 55.749000549316 95 95 95
30.500000000000 2.375000000000 55.775993347168 97 97 97
30.500000000000 2.375000000000 55.799995422363 100 100 100
30.500000000000 2.382812500000 55.820991516113 96 96 96
30.500000000000 2.382812500000 55.844001770020 103 103 103
30.500000000000 2.382812500000 55.868003845215 101 101 101
30.531250000000 2.367187500000 55.888999938965 108 108 108
30.500000000000 2.367187500000 55.916999816895 109 109 109
30.500000000000 2.382812500000 55.935997009277 109 109 109
30.500000000000 2.375000000000 55.961997985840 112 112 112
30.500000000000 2.375000000000 55.984992980957 110 110 110
30.500000000000 2.375000000000 56.008995056152 108 108 108
30.500000000000 2.367187500000 56.032005310059 110 110 110
30.312500000000 2.273437500000 56.083992004395 123 123 123
30.281250000000 2.242187500000 56.111000061035 129 129 129
30.281250000000 2.242187500000 56.131996154785 130 130 130
30.281250000000 2.250000000000 56.152992248535 132 132 132
30.281250000000 2.234375000000 56.176002502441 130 130 130
30.281250000000 2.242187500000 56.196998596191 129 129 129
30.281250000000 2.250000000000 56.219001770020 117 117 117
30.343750000000 2.273437500000 56.234001159668 116 116 116
30.500000000000 2.367187500000 56.237998962402 115 115 115
30.500000000000 2.375000000000 56.258995056152 115 115 115
30.500000000000 2.382812500000 56.282005310059 131 131 131
30.500000000000 2.375000000000 56.305000305176 138 138 138
30.500000000000 2.375000000000 56.327003479004 137 137 137
30.500000000000 2.382812500000 56.348991394043 134 134 134
30.500000000000 2.382812500000 56.372001647949 138 138 138
30.500000000000 2.375000000000 56.394996643066 144 144 144
30.500000000000 2.375000000000 56.417991638184 138 138 138
30.500000000000 2.375000000000 56.439994812012 145 145 145
30.500000000000 2.367187500000 56.463005065918 144 144 144
30.500000000000 2.367187500000 56.484992980957 149 149 149
30.500000000000 2.367187500000 56.508003234863 158 158 158
30.500000000000 2.375000000000 56.529991149902 151 151 151
30.500000000000 2.367187500000 56.551994323730 155 155 155
30.500000000000 2.367187500000 56.575004577637 151 151 151
30.500000000000 2.367187500000 56.596992492676 147 147 147
30.500000000000 2.367187500000 56.620002746582 151 151 151
30.468750000000 2.359375000000 56.641990661621 154 154 154
30.468750000000 2.359375000000 56.663993835449 158 158 158
30.468750000000 2.351562500000 56.685997009277 147 147 147
30.437500000000 2.343750000000 56.708000183105 149 149 149
30.437500000000 2.335937500000 56.730003356934 157 157 157
30.437500000000 2.335937500000 56.750999450684 171 171 171
30.406250000000 2.328125000000 56.771995544434 147 147 147
30.406250000000 2.328125000000 56.793998718262 159 159 159
30.406250000000 2.328125000000 56.816001892090 159 159 159
30.406250000000 2.320312500000 56.836997985840 163 163 163
30.406250000000 2.312500000000 56.857994079590 153 153 153
30.406250000000 2.312500000000 56.879997253418 158 158 158
30.406250000000 2.312500000000 56.902000427246 159 159 159
30.375000000000 2.312500000000 56.922004699707 155 155 155
30.375000000000 2.312500000000 56.943992614746 152 152 152
30.375000000000 2.312500000000 56.965995788574 159 159 159
30.375000000000 2.320312500000 56.988990783691 159 159 159
30.406250000000 2.312500000000 57.012001037598 162 162 162
30.375000000000 2.312500000000 57.030998229980 155 155 155
30.375000000000 2.320312500000 57.053993225098 161 161 161
30.375000000000 2.304687500000 57.073997497559 157 157 157
30.375000000000 2.312500000000 57.096992492676 165 165 165
30.375000000000 2.304687500000 57.116996765137 161 161 161
30.375000000000 2.320312500000 57.141990661621 162 162 162
30.375000000000 2.312500000000 57.163002014160 157 157 157
30.343750000000 2.296875000000 57.181999206543 147 147 147
30.343750000000 2.289062500000 57.200996398926 142 142 142
30.281250000000 2.273437500000 57.213005065918 138 138 138
30.281250000000 2.250000000000 57.230003356934 139 139 139
30.250000000000 2.242187500000 57.245994567871 154 154 154
30.250000000000 2.242187500000 57.266990661621 169 169 169
30.218750000000 2.234375000000 57.288002014160 162 162 162
30.250000000000 2.242187500000 57.310005187988 160 160 160
30.250000000000 2.242187500000 57.331001281738 165 165 165
30.250000000000 2.234375000000 57.355995178223 158 158 158
30.343750000000 2.289062500000 57.402000427246 153 153 153
30.343750000000 2.289062500000 57.422996520996 151 151 151
30.343750000000 2.289062500000 57.445991516113 150 150 150
30.312500000000 2.289062500000 57.465003967285 147 147 147
30.312500000000 2.289062500000 57.486991882324 148 148 148
30.312500000000 2.281250000000 57.508995056152 145 145 145
30.312500000000 2.273437500000 57.527992248535 144 144 144
30.312500000000 2.273437500000 57.547996520996 135 135 135
30.312500000000 2.273437500000 57.571998596191 133 133 133
30.281250000000 2.257812500000 57.590995788574 128 128 128
30.281250000000 2.273437500000 57.611991882324 130 130 130
30.281250000000 2.273437500000 57.631996154785 125 125 125
30.281250000000 2.265625000000 57.652000427246 126 126 126
30.281250000000 2.265625000000 57.674995422363 127 127 127
30.281250000000 2.265625000000 57.698997497559 127 127 127
30.281250000000 2.265625000000 57.721000671387 124 124 124
30.281250000000 2.257812500000 57.741996765137 128 128 128
30.281250000000 2.257812500000 57.765998840332 124 124 124
30.281250000000 2.250000000000 57.786003112793 130 130 130
30.281250000000 2.250000000000 57.810005187988 130 130 130
30.281250000000 2.250000000000 57.831993103027 131 131 131
30.281250000000 2.257812500000 57.857002258301 127 127 127
30.281250000000 2.250000000000 57.878990173340 128 128 128
30.281250000000 2.250000000000 57.903999328613 128 128 128
30.250000000000 2.250000000000 57.922996520996 129 129 129
30.281250000000 2.257812500000 57.952003479004 128 128 128
30.281250000000 2.257812500000 57.975990295410 126 126 126
30.281250000000 2.250000000000 57.997001647949 129 129 129
30.281250000000 2.257812500000 58.023002624512 133 133 133
30.281250000000 2.250000000000 58.043998718262 128 128 128
30.281250000000 2.250000000000 58.068992614746 129 129 129
30.281250000000 2.250000000000 58.092994689941 127 127 127
30.281250000000 2.250000000000 58.118003845215 128 128 128
30.281250000000 2.250000000000 58.141990661621 127 127 127
30.062500000000 2.429687500000 54.366996765137 151 151 151
30.093750000000 2.445312500000 54.378990173340 141 141 141
30.125000000000 2.468750000000 54.375999450684 142 142 142
30.156250000000 2.484375000000 54.381996154785 146 146 146
30.218750000000 2.500000000000 54.381004333496 151 151 151
30.218750000000 2.500000000000 54.413002014160 155 155 155
30.062500000000 2.437500000000 54.530998229980 152 152 152
30.093750000000 2.445312500000 54.545997619629 148 148 148
30.125000000000 2.468750000000 54.547996520996 150 150 150
30.156250000000 2.484375000000 54.549003601074 150 150 150
30.218750000000 2.507812500000 54.547004699707 153 153 153
30.250000000000 2.539062500000 54.549003601074 153 153 153
30.281250000000 2.554687500000 54.549995422363 155 155 155
30.343750000000 2.585937500000 54.543998718262 150 150 150
30.375000000000 2.601562500000 54.549003601074 119 119 119
30.281250000000 2.164062500000 54.790000915527 3 3 3
30.156250000000 2.242187500000 54.831001281738 105 105 105
30.250000000000 2.179687500000 54.743003845215 3 3 3
30.156250000000 2.250000000000 54.782997131348 120 120 120
30.187500000000 2.218750000000 54.736000061035 161 161 161
30.156250000000 2.242187500000 54.736991882324 161 161 161
30.125000000000 2.250000000000 54.715995788574 157 157 157
30.125000000000 2.250000000000 54.685005187988 161 161 161
30.156250000000 2.250000000000 54.653999328613 162 162 162
30.125000000000 2.250000000000 54.631004333496 165 165 165
30.125000000000 2.250000000000 54.605003356934 168 168 168
30.125000000000 2.250000000000 54.581001281738 165 165 165
30.125000000000 2.250000000000 54.553993225098 176 176 176
30.093750000000 2.265625000000 54.547004699707 167 167 167
30.062500000000 2.296875000000 54.543998718262 162 162 162
30.062500000000 2.304687500000 54.532005310059 159 159 159
30.187500000000 2.226562500000 54.411003112793 163 163 163
30.187500000000 2.226562500000 54.381004333496 157 157 157
30.125000000000 2.257812500000 54.378990173340 147 147 147
30.093750000000 2.281250000000 54.381004333496 142 142 142
30.062500000000 2.296875000000 54.383003234863 148 148 148
30.062500000000 2.312500000000 54.355003356934 157 157 157
30.500000000000 2.289062500000 58.144996643066 173 173 173
30.500000000000 2.296875000000 58.116996765137 173 173 173
30.500000000000 2.296875000000 58.090003967285 174 174 174
30.500000000000 2.289062500000 58.068992614746 173 173 173
30.500000000000 2.289062500000 58.040992736816 170 170 170
30.500000000000 2.289062500000 58.015998840332 170 170 170
30.500000000000 2.289062500000 57.988990783691 173 173 173
30.500000000000 2.289062500000 57.963005065918 171 171 171
30.500000000000 2.289062500000 57.939002990723 171 171 171
30.500000000000 2.289062500000 57.913002014160 171 171 171
30.500000000000 2.289062500000 57.887992858887 171 171 171
30.500000000000 2.296875000000 57.859992980957 170 170 170
30.500000000000 2.296875000000 57.840003967285 170 170 170
30.500000000000 2.289062500000 57.810997009277 170 170 170
30.500000000000 2.296875000000 57.788002014160 169 169 169
30.500000000000 2.296875000000 57.763999938965 166 166 166
30.500000000000 2.296875000000 57.736991882324 169 169 169
30.500000000000 2.296875000000 57.713996887207 168 168 168
30.500000000000 2.296875000000 57.689002990723 170 170 170
30.500000000000 2.296875000000 57.663993835449 169 169 169
30.500000000000 2.296875000000 57.638999938965 166 166 166
30.500000000000 2.296875000000 57.616996765137 166 166 166
30.531250000000 2.289062500000 57.592994689941 166 166 166
30.500000000000 2.296875000000 57.566001892090 165 165 165
30.500000000000 2.296875000000 57.543998718262 167 167 167
30.500000000000 2.296875000000 57.517997741699 167 167 167
30.500000000000 2.296875000000 57.495002746582 166 166 166
30.500000000000 2.296875000000 57.471000671387 166 166 166
30.500000000000 2.296875000000 57.444999694824 168 168 168
30.500000000000 2.296875000000 57.422004699707 168 168 168
30.375000000000 2.375000000000 57.368995666504 162 162 162
30.343750000000 2.406250000000 57.333992004395 166 166 166
30.343750000000 2.406250000000 57.312004089355 169 169 169
30.343750000000 2.406250000000 57.288993835449 189 189 189
30.312500000000 2.414062500000 57.264991760254 167 167 167
30.343750000000 2.406250000000 57.243995666504 164 164 164
30.375000000000 2.375000000000 57.228996276855 125 125 125
30.500000000000 2.304687500000 57.230003356934 166 166 166
30.531250000000 2.289062500000 57.211997985840 172 172 172
30.531250000000 2.296875000000 57.185997009277 169 169 169
30.531250000000 2.296875000000 57.163002014160 168 168 168
30.531250000000 2.296875000000 57.138999938965 166 166 166
30.531250000000 2.296875000000 57.114997863770 167 167 167
30.531250000000 2.296875000000 57.092002868652 168 168 168
30.500000000000 2.296875000000 57.068000793457 167 167 167
30.531250000000 2.296875000000 57.045997619629 170 170 170
30.531250000000 2.296875000000 57.021995544434 171 171 171
30.531250000000 2.289062500000 56.999992370605 170 170 170
30.531250000000 2.296875000000 56.975990295410 170 170 170
30.531250000000 2.296875000000 56.952003479004 169 169 169
30.531250000000 2.296875000000 56.928993225098 169 169 169
30.531250000000 2.296875000000 56.905998229980 167 167 167
30.531250000000 2.296875000000 56.881996154785 170 170 170
30.531250000000 2.296875000000 56.859992980957 167 167 167
30.531250000000 2.289062500000 56.836997985840 171 171 171
30.531250000000 2.296875000000 56.812995910645 170 170 170
30.531250000000 2.296875000000 56.790000915527 168 168 168
30.531250000000 2.296875000000 56.766990661621 169 169 169
30.531250000000 2.296875000000 56.743995666504 167 167 167
30.531250000000 2.296875000000 56.721000671387 169 169 169
30.531250000000 2.289062500000 56.697990417480 171 171 171
30.531250000000 2.296875000000 56.674995422363 172 172 172
30.531250000000 2.296875000000 56.652000427246 171 171 171
30.531250000000 2.289062500000 56.627998352051 167 167 167
30.531250000000 2.289062500000 56.605003356934 170 170 170
30.531250000000 2.296875000000 56.581993103027 169 169 169
30.531250000000 2.296875000000 56.558998107910 169 169 169
30.531250000000 2.296875000000 56.536003112793 170 170 170
30.531250000000 2.296875000000 56.512001037598 170 170 170
30.531250000000 2.296875000000 56.489997863770 168 168 168
30.531250000000 2.304687500000 56.467002868652 169 169 169
30.531250000000 2.296875000000 56.443000793457 169 169 169
30.531250000000 2.304687500000 56.419990539551 168 168 168
30.531250000000 2.304687500000 56.396995544434 168 168 168
30.531250000000 2.296875000000 56.372993469238 167 167 167
30.531250000000 2.304687500000 56.350990295410 167 167 167
30.531250000000 2.304687500000 56.327003479004 169 169 169
30.531250000000 2.304687500000 56.303993225098 166 166 166
30.531250000000 2.304687500000 56.280998229980 167 167 167
30.531250000000 2.296875000000 56.256996154785 166 166 166
30.531250000000 2.304687500000 56.234001159668 165 165 165
30.406250000000 2.382812500000 56.225990295410 124 124 124
30.406250000000 2.367187500000 56.202003479004 141 141 141
30.406250000000 2.367187500000 56.178993225098 153 153 153
30.406250000000 2.367187500000 56.155998229980 154 154 154
30.406250000000 2.382812500000 56.135002136230 150 150 150
30.406250000000 2.367187500000 56.111991882324 151 151 151
30.437500000000 2.343750000000 56.083000183105 148 148 148
30.531250000000 2.296875000000 56.043998718262 166 166 166
30.531250000000 2.304687500000 56.019996643066 166 166 166
30.531250000000 2.296875000000 55.995994567871 167 167 167
30.531250000000 2.296875000000 55.972999572754 165 165 165
30.531250000000 2.304687500000 55.948997497559 170 170 170
30.531250000000 2.304687500000 55.924003601074 166 166 166
30.531250000000 2.296875000000 55.902000427246 167 167 167
30.531250000000 2.304687500000 55.876991271973 166 166 166
30.531250000000 2.296875000000 55.853996276855 168 168 168
30.531250000000 2.296875000000 55.829994201660 173 173 173
30.531250000000 2.304687500000 55.805992126465 169 169 169
30.531250000000 2.304687500000 55.780998229980 165 165 165
30.531250000000 2.304687500000 55.754997253418 167 167 167
30.531250000000 2.304687500000 55.730995178223 170 170 170
30.531250000000 2.289062500000 55.704994201660 170 170 170
30.531250000000 2.304687500000 55.682991027832 166 166 166
30.531250000000 2.304687500000 55.655998229980 166 166 166
30.531250000000 2.312500000000 55.635002136230 167 167 167
30.531250000000 2.304687500000 55.609001159668 170 170 170
30.531250000000 2.304687500000 55.584999084473 166 166 166
30.531250000000 2.304687500000 55.560997009277 165 165 165
30.531250000000 2.304687500000 55.534004211426 167 167 167
30.531250000000 2.304687500000 55.510002136230 168 168 168
30.531250000000 2.312500000000 55.486000061035 164 164 164
30.531250000000 2.304687500000 55.458992004395 165 165 165
30.531250000000 2.304687500000 55.435005187988 165 165 165
30.531250000000 2.304687500000 55.407005310059 168 168 168
30.531250000000 2.304687500000 55.383003234863 164 164 164
30.531250000000 2.304687500000 55.357002258301 163 163 163
30.531250000000 2.304687500000 55.331001281738 162 162 162
30.531250000000 2.304687500000 55.305992126465 163 163 163
30.531250000000 2.304687500000 55.277992248535 164 164 164
30.531250000000 2.312500000000 55.250999450684 163 163 163
30.531250000000 2.304687500000 55.226997375488 164 164 164
30.531250000000 2.304687500000 55.200996398926 166 166 166
30.500000000000 2.312500000000 55.187995910645 153 153 153
30.437500000000 2.375000000000 55.193000793457 141 141 141
30.437500000000 2.367187500000 55.166999816895 154 154 154
30.437500000000 2.375000000000 55.142997741699 157 157 157
30.437500000000 2.375000000000 55.120002746582 154 154 154
30.437500000000 2.375000000000 55.090995788574 159 159 159
30.437500000000 2.367187500000 55.056999206543 157 157 157
30.531250000000 2.312500000000 54.986000061035 157 157 157
30.531250000000 2.312500000000 54.958000183105 156 156 156
30.531250000000 2.312500000000 54.931999206543 156 156 156
30.531250000000 2.312500000000 54.903999328613 155 155 155
30.531250000000 2.312500000000 54.875999450684 151 151 151
30.531250000000 2.312500000000 54.849998474121 153 153 153
30.531250000000 2.312500000000 54.821998596191 155 155 155
30.531250000000 2.312500000000 54.790000915527 158 158 158
30.531250000000 2.312500000000 54.762992858887 154 154 154
30.531250000000 2.312500000000 54.732994079590 157 157 157
30.531250000000 2.312500000000 54.704994201660 162 162 162
30.531250000000 2.320312500000 54.682991027832 163 163 163
30.531250000000 2.312500000000 54.646003723145 161 161 161
30.531250000000 2.312500000000 54.618995666504 164 164 164
30.531250000000 2.312500000000 54.590995788574 162 162 162
30.531250000000 2.312500000000 54.560005187988 162 162 162
30.531250000000 2.312500000000 54.542991638184 172 172 172
30.468750000000 2.335937500000 54.540000915527 160 160 160
30.437500000000 2.375000000000 54.536994934082 159 159 159
30.406250000000 2.398437500000 54.540992736816 158 158 158
30.343750000000 2.429687500000 54.540000915527 160 160 160
30.312500000000 2.460937500000 54.542991638184 161 161 161
30.218750000000 2.500000000000 54.562995910645 158 158 158
30.187500000000 2.531250000000 54.572990417480 157 157 157
30.125000000000 2.562500000000 54.566001892090 155 155 155
30.093750000000 2.585937500000 54.566993713379 149 149 149
30.093750000000 2.578125000000 54.545997619629 163 163 163
30.062500000000 2.601562500000 54.536994934082 155 155 155
30.093750000000 2.578125000000 54.491996765137 166 166 166
30.156250000000 2.539062500000 54.407005310059 157 157 157
30.125000000000 2.562500000000 54.402000427246 152 152 152
30.093750000000 2.585937500000 54.398994445801 152 152 152
30.062500000000 2.593750000000 54.383995056152 162 162 162
30.062500000000 2.601562500000 54.361000061035 165 165 165
30.625000000000 2.562500000000 54.555000305176 175 175 175
30.593750000000 2.585937500000 54.544990539551 161 161 161
30.562500000000 2.609375000000 54.534996032715 152 152 152
30.562500000000 2.609375000000 54.506004333496 113 113 113
30.625000000000 2.562500000000 54.407005310059 109 109 109
30.593750000000 2.585937500000 54.387992858887 153 153 153
30.562500000000 2.601562500000 54.372993469238 159 159 159
30.562500000000 2.601562500000 54.344993591309 169 169 169
30.062500000000 2.257812500000 54.359992980957 122 122 122
30.062500000000 2.257812500000 54.379997253418 151 151 151
30.093750000000 2.250000000000 54.398002624512 137 137 137
30.125000000000 2.242187500000 54.396003723145 141 141 141
30.187500000000 2.257812500000 54.387001037598 147 147 147
30.218750000000 2.257812500000 54.388999938965 151 151 151
30.250000000000 2.250000000000 54.400001525879 153 153 153
30.062500000000 2.257812500000 54.527992248535 159 159 159
30.062500000000 2.257812500000 54.551994323730 159 159 159
30.125000000000 2.257812500000 54.555000305176 161 161 161
30.125000000000 2.257812500000 54.557991027832 183 183 183
30.125000000000 2.257812500000 54.581001281738 168 168 168
30.156250000000 2.250000000000 54.601997375488 167 167 167
30.156250000000 2.250000000000 54.622001647949 161 161 161
30.156250000000 2.250000000000 54.646003723145 159 159 159
30.156250000000 2.257812500000 54.666999816895 159 159 159
30.156250000000 2.250000000000 54.694999694824 158 158 158
30.156250000000 2.250000000000 54.717002868652 164 164 164
30.156250000000 2.250000000000 54.739997863770 167 167 167
30.156250000000 2.250000000000 54.762001037598 173 173 173
30.187500000000 2.257812500000 54.773994445801 178 178 178
30.156250000000 2.257812500000 54.801994323730 177 177 177
30.156250000000 2.257812500000 54.823997497559 172 172 172
30.156250000000 2.257812500000 54.846992492676 171 171 171
30.156250000000 2.265625000000 54.866004943848 171 171 171
30.156250000000 2.257812500000 54.889991760254 172 172 172
30.156250000000 2.257812500000 54.913002014160 173 173 173
30.156250000000 2.265625000000 54.931999206543 175 175 175
30.156250000000 2.257812500000 54.958000183105 163 163 163
30.156250000000 2.257812500000 54.978004455566 161 161 161
30.156250000000 2.250000000000 55.004997253418 162 162 162
30.156250000000 2.250000000000 55.025993347168 164 164 164
30.156250000000 2.250000000000 55.047004699707 162 162 162
30.156250000000 2.257812500000 55.066001892090 167 167 167
30.156250000000 2.257812500000 55.088005065918 166 166 166
30.156250000000 2.250000000000 55.109992980957 166 166 166
30.156250000000 2.257812500000 55.128990173340 165 165 165
30.156250000000 2.257812500000 55.148994445801 171 171 171
30.156250000000 2.257812500000 55.169990539551 173 173 173
30.156250000000 2.257812500000 55.189994812012 174 174 174
30.156250000000 2.250000000000 55.213005065918 174 174 174
30.156250000000 2.257812500000 55.230995178223 174 174 174
30.156250000000 2.250000000000 55.253990173340 175 175 175
30.156250000000 2.257812500000 55.271995544434 176 176 176
30.156250000000 2.257812500000 55.288993835449 175 175 175
30.156250000000 2.257812500000 55.312004089355 173 173 173
30.156250000000 2.257812500000 55.331001281738 172 172 172
30.156250000000 2.257812500000 55.349998474121 174 174 174
30.156250000000 2.257812500000 55.370994567871 172 172 172
30.156250000000 2.257812500000 55.390998840332 174 174 174
30.156250000000 2.265625000000 55.407005310059 175 175 175
30.156250000000 2.265625000000 55.426994323730 173 173 173
30.156250000000 2.265625000000 55.445991516113 169 169 169
30.156250000000 2.265625000000 55.467002868652 173 173 173
30.156250000000 2.265625000000 55.484992980957 172 172 172
30.156250000000 2.265625000000 55.503990173340 174 174 174
30.156250000000 2.257812500000 55.525993347168 176 176 176
30.156250000000 2.257812500000 55.545997619629 177 177 177
30.156250000000 2.265625000000 55.560997009277 176 176 176
30.156250000000 2.265625000000 55.581993103027 179 179 179
30.156250000000 2.265625000000 55.598991394043 183 183 183
30.156250000000 2.265625000000 55.618003845215 185 185 185
30.156250000000 2.265625000000 55.637992858887 181 181 181
30.156250000000 2.265625000000 55.657005310059 185 185 185
30.156250000000 2.265625000000 55.676994323730 186 186 186
30.187500000000 2.257812500000 55.691993713379 184 184 184
30.156250000000 2.265625000000 55.713005065918 186 186 186
30.156250000000 2.265625000000 55.730995178223 187 187 187
30.156250000000 2.265625000000 55.749992370605 184 184 184
30.156250000000 2.265625000000 55.767997741699 185 185 185
30.156250000000 2.265625000000 55.786994934082 187 187 187
30.156250000000 2.265625000000 55.805000305176 185 185 185
30.187500000000 2.257812500000 55.821998596191 188 188 188
30.156250000000 2.265625000000 55.842002868652 190 190 190
30.156250000000 2.265625000000 55.859992980957 192 192 192
30.187500000000 2.257812500000 55.877998352051 195 195 195
30.156250000000 2.265625000000 55.896995544434 194 194 194
30.187500000000 2.265625000000 55.915000915527 194 194 194
30.187500000000 2.265625000000 55.932991027832 193 193 193
30.187500000000 2.265625000000 55.950996398926 194 194 194
30.156250000000 2.265625000000 55.969993591309 192 192 192
30.187500000000 2.257812500000 55.986991882324 198 198 198
30.187500000000 2.265625000000 56.004997253418 193 193 193
30.187500000000 2.257812500000 56.023002624512 198 198 198
30.187500000000 2.257812500000 56.040992736816 200 200 200
30.187500000000 2.265625000000 56.060005187988 202 202 202
30.187500000000 2.265625000000 56.077995300293 200 200 200
30.187500000000 2.257812500000 56.094993591309 202 202 202
30.187500000000 2.257812500000 56.112998962402 199 199 199
30.156250000000 2.265625000000 56.131996154785 198 198 198
30.187500000000 2.265625000000 56.148994445801 197 197 197
30.187500000000 2.257812500000 56.166999816895 197 197 197
30.187500000000 2.265625000000 56.185005187988 203 203 203
30.187500000000 2.265625000000 56.202995300293 205 205 205
30.187500000000 2.265625000000 56.221000671387 208 208 208
30.187500000000 2.265625000000 56.238990783691 208 208 208
30.187500000000 2.265625000000 56.256996154785 208 208 208
30.187500000000 2.265625000000 56.275001525879 204 204 204
30.187500000000 2.265625000000 56.292991638184 211 211 211
30.187500000000 2.265625000000 56.310997009277 211 211 211
30.187500000000 2.273437500000 56.327995300293 214 214 214
30.187500000000 2.265625000000 56.346000671387 210 210 210
30.187500000000 2.265625000000 56.363990783691 207 207 207
30.187500000000 2.265625000000 56.381996154785 205 205 205
30.187500000000 2.265625000000 56.400001525879 204 204 204
30.187500000000 2.265625000000 56.417991638184 204 204 204
30.187500000000 2.265625000000 56.435997009277 208 208 208
30.187500000000 2.273437500000 56.454002380371 205 205 205
30.187500000000 2.265625000000 56.471992492676 204 204 204
30.187500000000 2.265625000000 56.489997863770 201 201 201
30.187500000000 2.273437500000 56.508003234863 200 200 200
30.187500000000 2.273437500000 56.525993347168 200 200 200
30.187500000000 2.265625000000 56.542991638184 200 200 200
30.187500000000 2.273437500000 56.560997009277 199 199 199
30.187500000000 2.273437500000 56.579002380371 199 199 199
30.187500000000 2.273437500000 56.596992492676 200 200 200
30.187500000000 2.265625000000 56.614997863770 197 197 197
30.187500000000 2.273437500000 56.633995056152 196 196 196
30.187500000000 2.273437500000 56.652000427246 195 195 195
30.187500000000 2.265625000000 56.668998718262 194 194 194
30.187500000000 2.273437500000 56.687995910645 196 196 196
30.187500000000 2.273437500000 56.706001281738 195 195 195
30.187500000000 2.265625000000 56.722999572754 195 195 195
30.187500000000 2.273437500000 56.743003845215 191 191 191
30.187500000000 2.273437500000 56.760002136230 192 192 192
30.187500000000 2.273437500000 56.778999328613 189 189 189
30.187500000000 2.273437500000 56.797004699707 189 189 189
30.187500000000 2.273437500000 56.814994812012 189 189 189
30.187500000000 2.273437500000 56.833992004395 188 188 188
30.187500000000 2.273437500000 56.851997375488 184 184 184
30.187500000000 2.273437500000 56.870002746582 184 184 184
30.187500000000 2.281250000000 56.889991760254 187 187 187
30.187500000000 2.273437500000 56.905998229980 185 185 185
30.187500000000 2.273437500000 56.924995422363 183 183 183
30.187500000000 2.273437500000 56.944999694824 185 185 185
30.187500000000 2.273437500000 56.963005065918 184 184 184
30.187500000000 2.281250000000 56.982002258301 187 187 187
30.187500000000 2.273437500000 56.999992370605 184 184 184
30.187500000000 2.273437500000 57.019004821777 184 184 184
30.187500000000 2.273437500000 57.038002014160 180 180 180
30.187500000000 2.281250000000 57.057991027832 182 182 182
30.187500000000 2.281250000000 57.077003479004 183 183 183
30.187500000000 2.273437500000 57.094001770020 180 180 180
30.187500000000 2.281250000000 57.113990783691 184 184 184
30.187500000000 2.273437500000 57.131996154785 179 179 179
30.187500000000 2.273437500000 57.150993347168 179 179 179
30.187500000000 2.281250000000 57.172004699707 177 177 177
30.218750000000 2.265625000000 57.193992614746 176 176 176
30.187500000000 2.281250000000 57.210990905762 177 177 177
30.187500000000 2.281250000000 57.228996276855 176 176 176
30.187500000000 2.281250000000 57.247993469238 176 176 176
30.187500000000 2.281250000000 57.269004821777 177 177 177
30.218750000000 2.265625000000 57.290992736816 178 178 178
30.187500000000 2.281250000000 57.306999206543 178 178 178
30.187500000000 2.281250000000 57.329002380371 180 180 180
30.187500000000 2.281250000000 57.346992492676 179 179 179
30.187500000000 2.281250000000 57.368003845215 181 181 181
30.187500000000 2.281250000000 57.387001037598 177 177 177
30.187500000000 2.281250000000 57.405998229980 177 177 177
30.187500000000 2.281250000000 57.426994323730 175 175 175
30.218750000000 2.265625000000 57.450996398926 176 176 176
30.187500000000 2.281250000000 57.467002868652 175 175 175
30.187500000000 2.281250000000 57.488990783691 174 174 174
30.187500000000 2.281250000000 57.508995056152 177 177 177
30.218750000000 2.265625000000 57.532005310059 177 177 177
30.187500000000 2.281250000000 57.549995422363 175 175 175
30.218750000000 2.265625000000 57.573997497559 174 174 174
30.187500000000 2.281250000000 57.592002868652 172 172 172
30.187500000000 2.281250000000 57.612998962402 175 175 175
30.187500000000 2.281250000000 57.635002136230 176 176 176
30.218750000000 2.265625000000 57.657997131348 173 173 173
30.218750000000 2.273437500000 57.678993225098 173 173 173
30.218750000000 2.273437500000 57.700004577637 173 173 173
30.218750000000 2.273437500000 57.722999572754 170 170 170
30.218750000000 2.273437500000 57.743995666504 172 172 172
30.218750000000 2.273437500000 57.769004821777 171 171 171
30.218750000000 2.265625000000 57.784996032715 167 167 167
30.218750000000 2.273437500000 57.810997009277 171 171 171
30.218750000000 2.273437500000 57.833000183105 172 172 172
30.218750000000 2.273437500000 57.853004455566 171 171 171
30.218750000000 2.273437500000 57.874992370605 169 169 169
30.218750000000 2.273437500000 57.900993347168 170 170 170
30.218750000000 2.281250000000 57.924995422363 172 172 172
30.218750000000 2.273437500000 57.945991516113 170 170 170
30.218750000000 2.273437500000 57.965995788574 171 171 171
30.218750000000 2.273437500000 57.991004943848 169 169 169
30.218750000000 2.281250000000 58.015998840332 168 168 168
30.218750000000 2.281250000000 58.038993835449 169 169 169
30.218750000000 2.273437500000 58.058998107910 168 168 168
30.218750000000 2.281250000000 58.085990905762 167 167 167
30.218750000000 2.273437500000 58.107002258301 167 167 167
30.218750000000 2.281250000000 58.133995056152 168 168 168
30.218750000000 2.281250000000 58.159996032715 167 167 167
30.093750000000 2.554687500000 54.344993591309 155 155 155
30.062500000000 2.554687500000 54.379997253418 163 163 163
30.093750000000 2.554687500000 54.394004821777 157 157 157
30.093750000000 2.562500000000 54.413002014160 154 154 154
30.093750000000 2.562500000000 54.430992126465 162 162 162
30.093750000000 2.562500000000 54.454994201660 162 162 162
30.093750000000 2.562500000000 54.486000061035 164 164 164
30.062500000000 2.562500000000 54.521003723145 158 158 158
30.062500000000 2.554687500000 54.547996520996 159 159 159
30.093750000000 2.562500000000 54.560005187988 158 158 158
30.093750000000 2.562500000000 54.581993103027 158 158 158
30.093750000000 2.570312500000 54.603004455566 166 166 166
30.093750000000 2.570312500000 54.625999450684 162 162 162
30.093750000000 2.562500000000 54.644004821777 155 155 155
30.250000000000 2.562500000000 54.584999084473 150 150 150
30.343750000000 2.554687500000 54.553001403809 153 153 153
30.406250000000 2.554687500000 54.555000305176 152 152 152
30.437500000000 2.546875000000 54.556999206543 152 152 152
30.500000000000 2.562500000000 54.549995422363 154 154 154
30.531250000000 2.562500000000 54.551994323730 158 158 158
30.562500000000 2.554687500000 54.555000305176 157 157 157
30.593750000000 2.546875000000 54.575996398926 159 159 159
30.593750000000 2.554687500000 54.594001770020 161 161 161
30.593750000000 2.554687500000 54.622993469238 161 161 161
30.625000000000 2.546875000000 54.641990661621 153 153 153
30.625000000000 2.492187500000 54.572990417480 158 158 158
30.562500000000 2.507812500000 54.562995910645 157 157 157
30.531250000000 2.531250000000 54.562995910645 162 162 162
30.468750000000 2.570312500000 54.562995910645 161 161 161
30.406250000000 2.609375000000 54.566993713379 159 159 159
30.375000000000 2.625000000000 54.568000793457 156 156 156
30.375000000000 2.632812500000 54.551994323730 144 144 144
30.437500000000 2.585937500000 54.469993591309 160 160 160
30.500000000000 2.546875000000 54.400993347168 171 171 171
30.468750000000 2.570312500000 54.396995544434 165 165 165
30.406250000000 2.609375000000 54.400001525879 153 153 153
30.375000000000 2.625000000000 54.394004821777 150 150 150
30.375000000000 2.632812500000 54.375999450684 158 158 158
30.250000000000 2.429687500000 58.152992248535 151 151 151
30.250000000000 2.429687500000 58.127998352051 151 151 151
30.250000000000 2.429687500000 58.105003356934 149 149 149
30.250000000000 2.414062500000 58.083000183105 145 145 145
30.250000000000 2.429687500000 58.053993225098 145 145 145
30.250000000000 2.429687500000 58.027992248535 143 143 143
30.250000000000 2.429687500000 58.006004333496 140 140 140
30.250000000000 2.429687500000 57.980003356934 142 142 142
30.250000000000 2.414062500000 57.960990905762 147 147 147
30.250000000000 2.429687500000 57.933998107910 145 145 145
30.250000000000 2.429687500000 57.911994934082 147 147 147
30.250000000000 2.429687500000 57.885002136230 144 144 144
30.250000000000 2.429687500000 57.862998962402 147 147 147
30.250000000000 2.429687500000 57.840003967285 148 148 148
30.250000000000 2.429687500000 57.816001892090 143 143 143
30.250000000000 2.429687500000 57.794990539551 145 145 145
30.250000000000 2.414062500000 57.771995544434 146 146 146
30.250000000000 2.429687500000 57.747001647949 145 145 145
30.250000000000 2.429687500000 57.722999572754 144 144 144
30.250000000000 2.429687500000 57.697990417480 143 143 143
30.250000000000 2.429687500000 57.678001403809 142 142 142
30.250000000000 2.429687500000 57.652000427246 144 144 144
30.250000000000 2.429687500000 57.631004333496 140 140 140
30.250000000000 2.414062500000 57.611000061035 143 143 143
30.250000000000 2.414062500000 57.588996887207 142 142 142
30.250000000000 2.429687500000 57.562995910645 143 143 143
30.250000000000 2.429687500000 57.541999816895 143 143 143
30.250000000000 2.429687500000 57.517997741699 142 142 142
30.250000000000 2.429687500000 57.497001647949 140 140 140
30.250000000000 2.429687500000 57.473991394043 142 142 142
30.218750000000 2.421875000000 57.450004577637 139 139 139
30.250000000000 2.429687500000 57.430000305176 141 141 141
30.218750000000 2.421875000000 57.407005310059 134 134 134
30.218750000000 2.429687500000 57.383003234863 143 143 143
30.187500000000 2.429687500000 57.357002258301 163 163 163
30.218750000000 2.429687500000 57.335990905762 161 161 161
30.218750000000 2.429687500000 57.314994812012 168 168 168
30.187500000000 2.429687500000 57.290992736816 162 162 162
30.187500000000 2.429687500000 57.271003723145 164 164 164
30.218750000000 2.421875000000 57.253990173340 158 158 158
30.218750000000 2.421875000000 57.232002258301 147 147 147
30.218750000000 2.421875000000 57.210990905762 140 140 140
30.218750000000 2.421875000000 57.187995910645 143 143 143
30.218750000000 2.421875000000 57.166999816895 140 140 140
30.250000000000 2.406250000000 57.146003723145 143 143 143
30.218750000000 2.421875000000 57.124000549316 142 142 142
30.218750000000 2.421875000000 57.100990295410 147 147 147
30.218750000000 2.421875000000 57.081001281738 141 141 141
30.218750000000 2.421875000000 57.058998107910 143 143 143
30.218750000000 2.421875000000 57.036994934082 141 141 141
30.218750000000 2.421875000000 57.015998840332 142 142 142
30.218750000000 2.421875000000 56.995002746582 145 145 145
30.218750000000 2.421875000000 56.973991394043 142 142 142
30.218750000000 2.414062500000 56.952003479004 140 140 140
30.218750000000 2.421875000000 56.930000305176 141 141 141
30.218750000000 2.414062500000 56.909004211426 140 140 140
30.250000000000 2.406250000000 56.888999938965 139 139 139
30.218750000000 2.414062500000 56.866996765137 135 135 135
30.218750000000 2.414062500000 56.846000671387 140 140 140
30.218750000000 2.414062500000 56.825004577637 138 138 138
30.218750000000 2.414062500000 56.803993225098 140 140 140
30.218750000000 2.414062500000 56.782997131348 137 137 137
30.218750000000 2.414062500000 56.760993957520 137 137 137
30.218750000000 2.421875000000 56.739997863770 136 136 136
30.218750000000 2.414062500000 56.719001770020 137 137 137
30.218750000000 2.414062500000 56.697990417480 136 136 136
30.218750000000 2.414062500000 56.676994323730 134 134 134
30.218750000000 2.414062500000 56.655998229980 135 135 135
30.218750000000 2.421875000000 56.635002136230 135 135 135
30.218750000000 2.414062500000 56.613990783691 134 134 134
30.218750000000 2.414062500000 56.592994689941 136 136 136
30.218750000000 2.414062500000 56.571998596191 136 136 136
30.250000000000 2.398437500000 56.549995422363 138 138 138
30.218750000000 2.414062500000 56.528999328613 138 138 138
30.218750000000 2.414062500000 56.508003234863 137 137 137
30.218750000000 2.414062500000 56.486991882324 138 138 138
30.218750000000 2.414062500000 56.465995788574 139 139 139
30.218750000000 2.414062500000 56.444999694824 138 138 138
30.218750000000 2.414062500000 56.422996520996 141 141 141
30.218750000000 2.406250000000 56.402992248535 130 130 130
30.218750000000 2.406250000000 56.381996154785 135 135 135
30.218750000000 2.414062500000 56.361000061035 134 134 134
30.218750000000 2.406250000000 56.340003967285 138 138 138
30.218750000000 2.406250000000 56.318000793457 134 134 134
30.218750000000 2.414062500000 56.297004699707 134 134 134
30.218750000000 2.414062500000 56.275001525879 143 143 143
30.218750000000 2.406250000000 56.253990173340 150 150 150
30.218750000000 2.406250000000 56.232002258301 152 152 152
30.218750000000 2.406250000000 56.210990905762 152 152 152
30.218750000000 2.406250000000 56.189994812012 153 153 153
30.218750000000 2.414062500000 56.169990539551 153 153 153
30.218750000000 2.406250000000 56.146995544434 156 156 156
30.218750000000 2.406250000000 56.125999450684 155 155 155
30.218750000000 2.406250000000 56.103996276855 140 140 140
30.218750000000 2.414062500000 56.084999084473 135 135 135
30.218750000000 2.406250000000 56.062004089355 134 134 134
30.218750000000 2.414062500000 56.042991638184 135 135 135
30.218750000000 2.414062500000 56.019996643066 131 131 131
30.218750000000 2.414062500000 55.999992370605 130 130 130
30.218750000000 2.414062500000 55.975990295410 133 133 133
30.218750000000 2.414062500000 55.954994201660 136 136 136
30.218750000000 2.406250000000 55.931999206543 129 129 129
30.218750000000 2.406250000000 55.907997131348 134 134 134
30.218750000000 2.414062500000 55.888999938965 133 133 133
30.218750000000 2.406250000000 55.866004943848 132 132 132
30.218750000000 2.406250000000 55.842994689941 134 134 134
30.218750000000 2.414062500000 55.825004577637 130 130 130
30.218750000000 2.414062500000 55.801002502441 134 134 134
30.218750000000 2.406250000000 55.777992248535 134 134 134
30.218750000000 2.414062500000 55.758003234863 131 131 131
30.218750000000 2.414062500000 55.734992980957 135 135 135
30.218750000000 2.414062500000 55.715003967285 128 128 128
30.218750000000 2.406250000000 55.687995910645 129 129 129
30.218750000000 2.414062500000 55.668998718262 134 134 134
30.218750000000 2.414062500000 55.646995544434 132 132 132
30.218750000000 2.414062500000 55.622001647949 133 133 133
30.218750000000 2.406250000000 55.597999572754 127 127 127
30.218750000000 2.414062500000 55.577995300293 127 127 127
30.187500000000 2.406250000000 55.557991027832 129 129 129
30.218750000000 2.406250000000 55.528999328613 132 132 132
30.218750000000 2.414062500000 55.508995056152 129 129 129
30.187500000000 2.414062500000 55.489997863770 129 129 129
30.187500000000 2.406250000000 55.463996887207 129 129 129
30.312500000000 2.351562500000 55.396003723145 233 233 233
30.312500000000 2.343750000000 55.374000549316 240 240 240
30.187500000000 2.406250000000 55.392997741699 135 135 135
30.187500000000 2.406250000000 55.372001647949 135 135 135
30.187500000000 2.406250000000 55.344993591309 132 132 132
30.218750000000 2.398437500000 55.319999694824 139 139 139
30.218750000000 2.390625000000 55.288993835449 146 146 146
30.218750000000 2.390625000000 55.264991760254 148 148 148
30.218750000000 2.398437500000 55.245994567871 140 140 140
