15.156250000000 1.187500000000 56.289001464844 188 188 188
15.156250000000 1.187500000000 56.268997192383 187 187 187
15.156250000000 1.187500000000 56.250999450684 184 184 184
15.156250000000 1.187500000000 56.231002807617 184 184 184
15.156250000000 1.187500000000 56.211997985840 191 191 191
15.156250000000 1.187500000000 56.193000793457 187 187 187
15.156250000000 1.187500000000 56.173995971680 192 192 192
15.156250000000 1.187500000000 56.154998779297 190 190 190
15.156250000000 1.187500000000 56.136001586914 192 192 192
15.156250000000 1.187500000000 56.116996765137 194 194 194
15.156250000000 1.187500000000 56.097999572754 191 191 191
15.156250000000 1.171875000000 56.079002380371 196 196 196
15.156250000000 1.187500000000 56.059997558594 186 186 186
15.156250000000 1.171875000000 56.041000366211 195 195 195
15.156250000000 1.171875000000 56.021995544434 188 188 188
15.156250000000 1.171875000000 56.002998352051 188 188 188
15.156250000000 1.171875000000 55.984001159668 188 188 188
15.156250000000 1.171875000000 55.964996337891 189 189 189
15.156250000000 1.171875000000 55.945999145508 190 190 190
15.156250000000 1.171875000000 55.927001953125 187 187 187
15.156250000000 1.171875000000 55.907997131348 187 187 187
15.156250000000 1.171875000000 55.888999938965 186 186 186
15.156250000000 1.171875000000 55.870002746582 187 187 187
15.156250000000 1.171875000000 55.850997924805 188 188 188
15.156250000000 1.171875000000 55.832000732422 184 184 184
15.156250000000 1.171875000000 55.812995910645 189 189 189
15.156250000000 1.171875000000 55.793998718262 187 187 187
15.156250000000 1.171875000000 55.775001525879 187 187 187
15.156250000000 1.171875000000 55.755996704102 190 190 190
15.156250000000 1.171875000000 55.736999511719 182 182 182
15.156250000000 1.171875000000 55.717002868652 186 186 186
15.156250000000 1.171875000000 55.697998046875 184 184 184
15.156250000000 1.171875000000 55.679000854492 183 183 183
15.156250000000 1.171875000000 55.658996582031 184 184 184
15.156250000000 1.171875000000 55.639999389648 187 187 187
15.156250000000 1.171875000000 55.621002197266 185 185 185
15.156250000000 1.171875000000 55.600997924805 182 182 182
15.156250000000 1.171875000000 55.582000732422 189 189 189
15.156250000000 1.171875000000 55.562995910645 184 184 184
15.156250000000 1.171875000000 55.542999267578 180 180 180
15.156250000000 1.171875000000 55.525001525879 181 181 181
15.156250000000 1.171875000000 55.503997802734 177 177 177
15.156250000000 1.156250000000 55.485000610352 180 180 180
15.156250000000 1.156250000000 55.464996337891 173 173 173
15.156250000000 1.171875000000 55.445999145508 173 173 173
15.156250000000 1.171875000000 55.427001953125 170 170 170
15.156250000000 1.171875000000 55.406997680664 172 172 172
15.156250000000 1.156250000000 55.386001586914 174 174 174
15.156250000000 1.156250000000 55.365997314453 173 173 173
15.156250000000 1.156250000000 55.347000122070 177 177 177
15.156250000000 1.156250000000 55.325996398926 169 169 169
15.156250000000 1.171875000000 55.308998107910 172 172 172
15.156250000000 1.156250000000 55.285995483398 171 171 171
15.156250000000 1.156250000000 55.264999389648 171 171 171
15.156250000000 1.156250000000 55.243995666504 173 173 173
15.156250000000 1.156250000000 55.225997924805 169 169 169
15.156250000000 1.156250000000 55.205001831055 172 172 172
15.156250000000 1.156250000000 55.185997009277 167 167 167
15.156250000000 1.156250000000 55.164001464844 168 168 168
15.156250000000 1.156250000000 55.144996643066 168 168 168
15.156250000000 1.156250000000 55.122001647949 165 165 165
15.156250000000 1.156250000000 55.103996276855 170 170 170
15.156250000000 1.171875000000 55.084999084473 164 164 164
15.156250000000 1.156250000000 55.059997558594 172 172 172
15.156250000000 1.156250000000 55.041000366211 171 171 171
15.156250000000 1.171875000000 55.021995544434 165 165 165
15.156250000000 1.156250000000 54.999000549316 169 169 169
15.156250000000 1.156250000000 54.982002258301 164 164 164
15.156250000000 1.156250000000 54.958000183105 167 167 167
15.156250000000 1.156250000000 54.935997009277 163 163 163
15.156250000000 1.156250000000 54.915000915527 163 163 163
15.156250000000 1.171875000000 54.894996643066 160 160 160
15.156250000000 1.171875000000 54.874000549316 161 161 161
15.156250000000 1.156250000000 54.849998474121 164 164 164
15.156250000000 1.171875000000 54.831001281738 160 160 160
15.156250000000 1.156250000000 54.805000305176 162 162 162
15.156250000000 1.156250000000 54.784996032715 160 160 160
15.156250000000 1.156250000000 54.763000488281 158 158 158
15.156250000000 1.156250000000 54.746002197266 160 160 160
15.156250000000 1.156250000000 54.719001770020 160 160 160
15.156250000000 1.156250000000 54.695999145508 159 159 159
15.156250000000 1.156250000000 54.681999206543 158 158 158
15.281250000000 1.156250000000 54.707000732422 173 173 173
15.312500000000 1.156250000000 54.637001037598 170 170 170
15.250000000000 1.156250000000 54.582000732422 167 167 167
15.250000000000 1.156250000000 54.555999755859 165 165 165
15.250000000000 1.156250000000 54.540000915527 165 165 165
15.250000000000 1.156250000000 54.519996643066 165 165 165
15.250000000000 1.156250000000 54.493995666504 164 164 164
15.218750000000 1.156250000000 54.452995300293 157 157 157
15.218750000000 1.156250000000 54.427001953125 156 156 156
15.187500000000 1.156250000000 54.387001037598 156 156 156
15.156250000000 1.281250000000 55.352996826172 58 58 58
15.156250000000 1.281250000000 55.329002380371 79 79 79
15.156250000000 1.265625000000 55.307998657227 90 90 90
15.156250000000 1.281250000000 55.282997131348 96 96 96
15.156250000000 1.281250000000 55.257995605469 107 107 107
15.156250000000 1.265625000000 55.236999511719 109 109 109
15.156250000000 1.265625000000 55.213996887207 110 110 110
15.156250000000 1.281250000000 55.187995910645 117 117 117
15.156250000000 1.281250000000 55.165000915527 125 125 125
15.156250000000 1.265625000000 55.140998840332 125 125 125
15.125000000000 1.265625000000 55.115997314453 125 125 125
15.156250000000 1.265625000000 55.093002319336 124 124 124
15.156250000000 1.250000000000 55.071998596191 122 122 122
15.156250000000 1.265625000000 55.045997619629 120 120 120
15.156250000000 1.250000000000 55.024002075195 121 121 121
15.031250000000 1.328125000000 54.955001831055 0 0 0
15.062500000000 1.312500000000 54.934997558594 0 0 0
15.062500000000 1.312500000000 54.914001464844 246 246 246
15.093750000000 1.296875000000 54.894996643066 248 248 248
15.125000000000 1.265625000000 54.896995544434 179 179 179
15.125000000000 1.265625000000 54.868995666504 156 156 156
15.125000000000 1.265625000000 54.847000122070 155 155 155
15.156250000000 1.250000000000 54.824996948242 149 149 149
15.156250000000 1.250000000000 54.803001403809 145 145 145
15.125000000000 1.250000000000 54.773002624512 142 142 142
15.156250000000 1.250000000000 54.750000000000 141 141 141
15.156250000000 1.250000000000 54.725997924805 143 143 143
15.156250000000 1.250000000000 54.705001831055 139 139 139
15.156250000000 1.250000000000 54.673995971680 142 142 142
15.156250000000 1.250000000000 54.646995544434 136 136 136
15.156250000000 1.250000000000 54.624000549316 139 139 139
15.156250000000 1.250000000000 54.597999572754 142 142 142
15.156250000000 1.250000000000 54.572998046875 142 142 142
15.156250000000 1.234375000000 54.551002502441 144 144 144
15.156250000000 1.234375000000 54.524002075195 142 142 142
15.156250000000 1.234375000000 54.500999450684 138 138 138
15.156250000000 1.234375000000 54.442001342773 143 143 143
15.156250000000 1.234375000000 54.380996704102 138 138 138
15.093750000000 1.093750000000 58.646995544434 148 148 148
15.093750000000 1.093750000000 58.616996765137 146 146 146
15.093750000000 1.093750000000 58.587997436523 148 148 148
15.093750000000 1.093750000000 58.556999206543 146 146 146
15.093750000000 1.093750000000 58.527999877930 146 146 146
15.093750000000 1.093750000000 58.495002746582 148 148 148
15.093750000000 1.093750000000 58.467002868652 145 145 145
15.093750000000 1.093750000000 58.440002441406 147 147 147
15.093750000000 1.093750000000 58.415000915527 147 147 147
15.093750000000 1.093750000000 58.385002136230 146 146 146
15.093750000000 1.078125000000 58.353996276855 148 148 148
15.093750000000 1.093750000000 58.327995300293 147 147 147
15.093750000000 1.093750000000 58.308998107910 147 147 147
15.093750000000 1.093750000000 58.287002563477 152 152 152
15.093750000000 1.093750000000 58.246002197266 147 147 147
15.093750000000 1.093750000000 58.215995788574 153 153 153
15.093750000000 1.093750000000 58.190002441406 154 154 154
15.093750000000 1.093750000000 58.165000915527 153 153 153
15.093750000000 1.093750000000 58.136001586914 148 148 148
15.093750000000 1.093750000000 58.111000061035 143 143 143
15.000000000000 1.125000000000 58.124000549316 169 169 169
15.000000000000 1.125000000000 58.098999023438 164 164 164
15.000000000000 1.140625000000 58.076995849609 166 166 166
15.000000000000 1.140625000000 58.049995422363 160 160 160
14.968750000000 1.140625000000 58.026000976563 159 159 159
14.968750000000 1.156250000000 58.005996704102 163 163 163
14.968750000000 1.156250000000 57.976997375488 162 162 162
14.937500000000 1.156250000000 57.959999084473 164 164 164
14.937500000000 1.156250000000 57.934997558594 164 164 164
14.937500000000 1.171875000000 57.915000915527 163 163 163
14.906250000000 1.187500000000 57.895996093750 163 163 163
14.875000000000 1.187500000000 57.876998901367 161 161 161
14.875000000000 1.187500000000 57.850997924805 166 166 166
14.875000000000 1.203125000000 57.826995849609 160 160 160
14.843750000000 1.203125000000 57.805999755859 160 160 160
14.843750000000 1.218750000000 57.780998229980 163 163 163
14.843750000000 1.218750000000 57.755996704102 162 162 162
14.843750000000 1.203125000000 57.728996276855 161 161 161
14.843750000000 1.218750000000 57.700996398926 163 163 163
14.843750000000 1.203125000000 57.676002502441 163 163 163
14.843750000000 1.203125000000 57.649002075195 162 162 162
14.843750000000 1.218750000000 57.624000549316 162 162 162
14.843750000000 1.203125000000 57.596000671387 160 160 160
14.843750000000 1.218750000000 57.570999145508 161 161 161
14.843750000000 1.203125000000 57.543998718262 160 160 160
14.843750000000 1.203125000000 57.513999938965 160 160 160
14.843750000000 1.218750000000 57.491996765137 158 158 158
14.843750000000 1.203125000000 57.464996337891 158 158 158
14.843750000000 1.203125000000 57.438995361328 159 159 159
14.843750000000 1.203125000000 57.410995483398 158 158 158
14.843750000000 1.203125000000 57.387001037598 158 158 158
14.843750000000 1.203125000000 57.361999511719 158 158 158
14.843750000000 1.203125000000 57.335998535156 158 158 158
14.843750000000 1.203125000000 57.309997558594 157 157 157
14.843750000000 1.203125000000 57.282997131348 155 155 155
14.812500000000 1.203125000000 57.259002685547 157 157 157
14.812500000000 1.203125000000 57.235000610352 154 154 154
14.843750000000 1.203125000000 57.208000183105 157 157 157
14.812500000000 1.203125000000 57.184997558594 154 154 154
14.812500000000 1.203125000000 57.156997680664 156 156 156
14.812500000000 1.203125000000 57.134002685547 153 153 153
14.968750000000 1.125000000000 57.073997497559 147 147 147
15.062500000000 1.062500000000 57.028999328613 156 156 156
15.062500000000 1.062500000000 57.005996704102 155 155 155
15.062500000000 1.062500000000 56.983001708984 187 187 187
15.062500000000 1.062500000000 56.959999084473 157 157 157
15.062500000000 1.062500000000 56.937995910645 154 154 154
15.000000000000 1.093750000000 56.924995422363 130 130 130
14.812500000000 1.187500000000 56.931999206543 153 153 153
14.812500000000 1.187500000000 56.907997131348 151 151 151
14.812500000000 1.187500000000 56.882995605469 153 153 153
14.812500000000 1.187500000000 56.859001159668 154 154 154
14.812500000000 1.187500000000 56.833999633789 152 152 152
14.812500000000 1.187500000000 56.809997558594 154 154 154
14.812500000000 1.187500000000 56.783996582031 151 151 151
14.812500000000 1.187500000000 56.761001586914 152 152 152
14.812500000000 1.187500000000 56.735000610352 150 150 150
14.812500000000 1.187500000000 56.710998535156 151 151 151
14.812500000000 1.187500000000 56.686996459961 155 155 155
14.812500000000 1.187500000000 56.662002563477 152 152 152
14.812500000000 1.187500000000 56.638000488281 154 154 154
14.812500000000 1.187500000000 56.613998413086 153 153 153
14.812500000000 1.187500000000 56.588996887207 155 155 155
14.812500000000 1.187500000000 56.565002441406 156 156 156
14.812500000000 1.187500000000 56.540000915527 155 155 155
14.812500000000 1.187500000000 56.515998840332 154 154 154
14.812500000000 1.187500000000 56.491996765137 154 154 154
14.812500000000 1.187500000000 56.467002868652 154 154 154
14.812500000000 1.187500000000 56.444000244141 156 156 156
14.812500000000 1.187500000000 56.418998718262 152 152 152
14.812500000000 1.187500000000 56.394996643066 155 155 155
14.812500000000 1.187500000000 56.370002746582 156 156 156
14.812500000000 1.187500000000 56.346000671387 154 154 154
14.812500000000 1.187500000000 56.321998596191 155 155 155
14.812500000000 1.187500000000 56.297996520996 156 156 156
14.812500000000 1.187500000000 56.273002624512 156 156 156
14.812500000000 1.187500000000 56.249000549316 152 152 152
14.812500000000 1.171875000000 56.224998474121 152 152 152
14.812500000000 1.187500000000 56.199996948242 155 155 155
14.812500000000 1.187500000000 56.176002502441 155 155 155
14.812500000000 1.187500000000 56.152000427246 153 153 153
14.781250000000 1.187500000000 56.126998901367 154 154 154
14.812500000000 1.187500000000 56.102996826172 150 150 150
14.781250000000 1.187500000000 56.079002380371 153 153 153
14.781250000000 1.187500000000 56.054000854492 152 152 152
14.781250000000 1.187500000000 56.028999328613 153 153 153
14.781250000000 1.187500000000 56.005996704102 153 153 153
14.781250000000 1.187500000000 55.981002807617 153 153 153
14.781250000000 1.187500000000 55.956001281738 153 153 153
14.812500000000 1.171875000000 55.932998657227 150 150 150
14.937500000000 1.093750000000 55.921997070313 118 118 118
14.937500000000 1.093750000000 55.896995544434 123 123 123
14.937500000000 1.093750000000 55.873001098633 127 127 127
14.937500000000 1.093750000000 55.850997924805 130 130 130
14.937500000000 1.093750000000 55.826995849609 124 124 124
14.937500000000 1.093750000000 55.802001953125 125 125 125
14.781250000000 1.171875000000 55.761001586914 147 147 147
14.781250000000 1.187500000000 55.734001159668 151 151 151
14.781250000000 1.187500000000 55.708999633789 149 149 149
14.781250000000 1.187500000000 55.684997558594 149 149 149
14.781250000000 1.187500000000 55.659996032715 150 150 150
14.781250000000 1.187500000000 55.635002136230 147 147 147
14.781250000000 1.187500000000 55.610000610352 148 148 148
14.781250000000 1.187500000000 55.583999633789 149 149 149
14.781250000000 1.171875000000 55.560997009277 146 146 146
14.781250000000 1.187500000000 55.533996582031 145 145 145
14.781250000000 1.171875000000 55.512001037598 145 145 145
14.781250000000 1.187500000000 55.483001708984 146 146 146
14.781250000000 1.171875000000 55.458999633789 147 147 147
14.781250000000 1.171875000000 55.433998107910 146 146 146
14.781250000000 1.156250000000 55.408996582031 142 142 142
14.781250000000 1.171875000000 55.382995605469 144 144 144
14.781250000000 1.187500000000 55.356002807617 146 146 146
14.781250000000 1.171875000000 55.330001831055 145 145 145
14.750000000000 1.171875000000 55.303001403809 143 143 143
14.781250000000 1.156250000000 55.281997680664 143 143 143
14.781250000000 1.171875000000 55.253997802734 143 143 143
14.781250000000 1.171875000000 55.227996826172 147 147 147
14.781250000000 1.171875000000 55.199996948242 145 145 145
14.781250000000 1.156250000000 55.176002502441 142 142 142
14.750000000000 1.171875000000 55.148002624512 145 145 145
14.781250000000 1.171875000000 55.123001098633 146 146 146
14.750000000000 1.171875000000 55.096000671387 143 143 143
14.750000000000 1.171875000000 55.069000244141 143 143 143
14.781250000000 1.156250000000 55.045997619629 138 138 138
14.750000000000 1.171875000000 55.013999938965 143 143 143
14.750000000000 1.156250000000 54.990997314453 143 143 143
14.750000000000 1.156250000000 54.963996887207 141 141 141
14.750000000000 1.156250000000 54.935997009277 143 143 143
14.750000000000 1.156250000000 54.908996582031 142 142 142
14.781250000000 1.156250000000 54.885002136230 141 141 141
14.875000000000 1.093750000000 54.894996643066 119 119 119
14.875000000000 1.093750000000 54.866996765137 121 121 121
14.875000000000 1.093750000000 54.839996337891 118 118 118
14.875000000000 1.109375000000 54.809997558594 120 120 120
14.875000000000 1.093750000000 54.784996032715 117 117 117
14.812500000000 1.140625000000 54.734001159668 133 133 133
14.750000000000 1.156250000000 54.686996459961 142 142 142
14.750000000000 1.156250000000 54.660995483398 143 143 143
14.750000000000 1.156250000000 54.630996704102 143 143 143
15.093750000000 0.953125000000 54.706001281738 184 184 184
14.718750000000 1.187500000000 54.499000549316 138 138 138
14.750000000000 1.156250000000 54.488998413086 138 138 138
14.718750000000 1.171875000000 54.447998046875 140 140 140
14.718750000000 1.171875000000 54.590995788574 140 140 140
15.125000000000 1.250000000000 54.404998779297 143 143 143
15.062500000000 1.203125000000 54.408996582031 131 131 131
15.062500000000 1.218750000000 54.437995910645 128 128 128
15.093750000000 1.218750000000 54.473999023438 130 130 130
15.093750000000 1.218750000000 54.565002441406 122 122 122
15.093750000000 1.218750000000 54.592002868652 118 118 118
15.125000000000 1.218750000000 54.621002197266 115 115 115
15.125000000000 1.218750000000 54.645996093750 122 122 122
15.125000000000 1.218750000000 54.673995971680 120 120 120
15.125000000000 1.218750000000 54.699996948242 125 125 125
15.125000000000 1.218750000000 54.722000122070 125 125 125
15.125000000000 1.218750000000 54.750000000000 127 127 127
15.125000000000 1.218750000000 54.776000976563 126 126 126
15.125000000000 1.218750000000 54.802001953125 125 125 125
15.125000000000 1.218750000000 54.824996948242 123 123 123
15.125000000000 1.218750000000 54.848999023438 123 123 123
15.125000000000 1.218750000000 54.875999450684 126 126 126
15.125000000000 1.218750000000 54.902000427246 129 129 129
15.125000000000 1.218750000000 54.930000305176 129 129 129
15.125000000000 1.218750000000 54.954002380371 134 134 134
15.125000000000 1.218750000000 54.975997924805 134 134 134
15.125000000000 1.218750000000 54.999000549316 136 136 136
15.125000000000 1.218750000000 55.023002624512 133 133 133
15.125000000000 1.218750000000 55.048995971680 136 136 136
15.125000000000 1.218750000000 55.072998046875 136 136 136
15.125000000000 1.218750000000 55.095001220703 138 138 138
15.125000000000 1.218750000000 55.118995666504 134 134 134
15.125000000000 1.218750000000 55.142997741699 137 137 137
15.125000000000 1.218750000000 55.166000366211 136 136 136
15.125000000000 1.218750000000 55.188995361328 138 138 138
15.125000000000 1.218750000000 55.212997436523 136 136 136
15.125000000000 1.218750000000 55.235000610352 136 136 136
15.125000000000 1.218750000000 55.259002685547 143 143 143
15.156250000000 1.218750000000 55.282997131348 145 145 145
15.156250000000 1.218750000000 55.305999755859 145 145 145
15.156250000000 1.218750000000 55.329002380371 144 144 144
15.125000000000 1.218750000000 55.349998474121 148 148 148
15.156250000000 1.218750000000 55.374000549316 150 150 150
15.125000000000 1.218750000000 55.394996643066 148 148 148
15.125000000000 1.218750000000 55.417999267578 147 147 147
15.125000000000 1.218750000000 55.440002441406 145 145 145
15.125000000000 1.218750000000 55.462997436523 149 149 149
15.125000000000 1.218750000000 55.484001159668 147 147 147
15.125000000000 1.203125000000 55.505996704102 147 147 147
15.156250000000 1.218750000000 55.530998229980 147 147 147
15.125000000000 1.203125000000 55.551002502441 148 148 148
15.125000000000 1.203125000000 55.571998596191 148 148 148
15.125000000000 1.203125000000 55.596000671387 149 149 149
15.125000000000 1.203125000000 55.615997314453 148 148 148
15.125000000000 1.203125000000 55.638999938965 148 148 148
15.125000000000 1.203125000000 55.662002563477 149 149 149
15.125000000000 1.203125000000 55.682998657227 151 151 151
15.125000000000 1.203125000000 55.705001831055 149 149 149
15.125000000000 1.203125000000 55.726997375488 150 150 150
15.125000000000 1.203125000000 55.749000549316 150 150 150
15.125000000000 1.187500000000 55.769996643066 150 150 150
15.125000000000 1.187500000000 55.792999267578 153 153 153
15.125000000000 1.187500000000 55.813995361328 152 152 152
15.125000000000 1.187500000000 55.834999084473 149 149 149
15.125000000000 1.187500000000 55.857002258301 151 151 151
15.125000000000 1.187500000000 55.877998352051 151 151 151
15.125000000000 1.187500000000 55.900001525879 153 153 153
15.125000000000 1.187500000000 55.921997070313 155 155 155
15.125000000000 1.187500000000 55.944000244141 152 152 152
15.125000000000 1.187500000000 55.964996337891 153 153 153
15.125000000000 1.187500000000 55.986999511719 151 151 151
15.125000000000 1.187500000000 56.007995605469 154 154 154
15.125000000000 1.187500000000 56.029998779297 154 154 154
15.125000000000 1.187500000000 56.052001953125 152 152 152
15.125000000000 1.187500000000 56.072998046875 154 154 154
15.125000000000 1.187500000000 56.095001220703 154 154 154
15.125000000000 1.187500000000 56.115997314453 153 153 153
15.125000000000 1.187500000000 56.138000488281 151 151 151
15.125000000000 1.187500000000 56.158996582031 153 153 153
15.125000000000 1.187500000000 56.180999755859 151 151 151
15.125000000000 1.187500000000 56.201995849609 151 151 151
15.125000000000 1.187500000000 56.223999023438 154 154 154
15.125000000000 1.187500000000 56.245002746582 154 154 154
15.125000000000 1.171875000000 56.266998291016 154 154 154
15.125000000000 1.171875000000 56.288002014160 152 152 152
15.125000000000 1.171875000000 56.309997558594 151 151 151
15.125000000000 1.171875000000 56.331001281738 154 154 154
15.156250000000 1.187500000000 56.352996826172 151 151 151
15.125000000000 1.171875000000 56.375000000000 151 151 151
15.125000000000 1.171875000000 56.395996093750 151 151 151
15.125000000000 1.171875000000 56.417999267578 154 154 154
15.125000000000 1.171875000000 56.438995361328 153 153 153
15.125000000000 1.171875000000 56.460998535156 155 155 155
15.125000000000 1.171875000000 56.482002258301 154 154 154
15.125000000000 1.171875000000 56.503997802734 153 153 153
15.125000000000 1.171875000000 56.526000976563 151 151 151
15.125000000000 1.171875000000 56.547996520996 153 153 153
15.125000000000 1.171875000000 56.569000244141 151 151 151
15.125000000000 1.171875000000 56.592002868652 150 150 150
15.156250000000 1.171875000000 56.611999511719 148 148 148
15.125000000000 1.171875000000 56.634002685547 153 153 153
15.125000000000 1.156250000000 56.656997680664 152 152 152
15.125000000000 1.156250000000 56.678001403809 150 150 150
15.125000000000 1.171875000000 56.699996948242 149 149 149
15.125000000000 1.156250000000 56.722999572754 151 151 151
15.125000000000 1.156250000000 56.743995666504 150 150 150
15.125000000000 1.156250000000 56.766998291016 152 152 152
15.125000000000 1.156250000000 56.789001464844 152 152 152
15.125000000000 1.156250000000 56.810997009277 151 151 151
15.125000000000 1.156250000000 56.833000183105 154 154 154
15.125000000000 1.156250000000 56.854995727539 151 151 151
15.125000000000 1.156250000000 56.875999450684 151 151 151
15.125000000000 1.156250000000 56.899002075195 151 151 151
15.125000000000 1.156250000000 56.920997619629 150 150 150
15.125000000000 1.156250000000 56.943000793457 151 151 151
15.125000000000 1.156250000000 56.967002868652 150 150 150
15.125000000000 1.156250000000 56.988998413086 152 152 152
15.125000000000 1.156250000000 57.010002136230 152 152 152
15.125000000000 1.156250000000 57.035995483398 159 159 159
15.125000000000 1.156250000000 57.055999755859 154 154 154
15.125000000000 1.156250000000 57.077995300293 155 155 155
15.125000000000 1.156250000000 57.101997375488 156 156 156
15.125000000000 1.140625000000 57.125000000000 155 155 155
15.125000000000 1.140625000000 57.149002075195 154 154 154
15.125000000000 1.140625000000 57.172996520996 155 155 155
15.125000000000 1.140625000000 57.195999145508 157 157 157
15.125000000000 1.140625000000 57.217002868652 154 154 154
15.125000000000 1.140625000000 57.242996215820 152 152 152
15.125000000000 1.140625000000 57.263999938965 153 153 153
15.125000000000 1.125000000000 57.290000915527 152 152 152
15.125000000000 1.125000000000 57.313995361328 150 150 150
15.125000000000 1.125000000000 57.336997985840 151 151 151
15.125000000000 1.125000000000 57.359001159668 150 150 150
15.125000000000 1.125000000000 57.381996154785 151 151 151
15.125000000000 1.125000000000 57.407997131348 151 151 151
15.125000000000 1.140625000000 57.429000854492 148 148 148
15.125000000000 1.140625000000 57.451995849609 152 152 152
15.125000000000 1.125000000000 57.477996826172 152 152 152
15.093750000000 1.125000000000 57.505996704102 152 152 152
15.125000000000 1.140625000000 57.524002075195 147 147 147
15.125000000000 1.125000000000 57.551002502441 149 149 149
15.125000000000 1.125000000000 57.574996948242 152 152 152
15.125000000000 1.140625000000 57.597999572754 148 148 148
15.125000000000 1.125000000000 57.625000000000 149 149 149
15.125000000000 1.125000000000 57.648002624512 151 151 151
15.125000000000 1.125000000000 57.672996520996 151 151 151
15.125000000000 1.125000000000 57.700996398926 151 151 151
15.125000000000 1.125000000000 57.726997375488 150 150 150
15.125000000000 1.125000000000 57.750999450684 148 148 148
15.125000000000 1.125000000000 57.776000976563 148 148 148
15.125000000000 1.125000000000 57.799995422363 149 149 149
15.125000000000 1.125000000000 57.825996398926 150 150 150
15.125000000000 1.125000000000 57.850997924805 151 151 151
15.125000000000 1.125000000000 57.877998352051 149 149 149
15.125000000000 1.125000000000 57.904998779297 150 150 150
15.125000000000 1.125000000000 57.930999755859 151 151 151
15.125000000000 1.125000000000 57.958000183105 151 151 151
15.125000000000 1.125000000000 57.984001159668 150 150 150
15.125000000000 1.125000000000 58.009002685547 153 153 153
15.125000000000 1.125000000000 58.037002563477 153 153 153
15.125000000000 1.125000000000 58.061996459961 153 153 153
15.125000000000 1.109375000000 58.093002319336 153 153 153
15.125000000000 1.109375000000 58.122001647949 155 155 155
15.125000000000 1.125000000000 58.144996643066 155 155 155
15.125000000000 1.125000000000 58.172996520996 158 158 158
15.125000000000 1.125000000000 58.200996398926 157 157 157
15.125000000000 1.125000000000 58.225997924805 157 157 157
15.125000000000 1.109375000000 58.255996704102 156 156 156
15.125000000000 1.109375000000 58.284996032715 158 158 158
15.125000000000 1.109375000000 58.313995361328 155 155 155
15.125000000000 1.109375000000 58.346000671387 156 156 156
15.125000000000 1.093750000000 58.377998352051 156 156 156
15.125000000000 1.109375000000 58.402000427246 152 152 152
15.125000000000 1.093750000000 58.431999206543 153 153 153
15.125000000000 1.109375000000 58.456001281738 153 153 153
15.125000000000 1.093750000000 58.491996765137 147 147 147
15.125000000000 1.093750000000 58.517997741699 149 149 149
15.125000000000 1.093750000000 58.554000854492 147 147 147
15.125000000000 1.093750000000 58.580001831055 147 147 147
15.125000000000 1.093750000000 58.612998962402 148 148 148
15.125000000000 1.093750000000 58.640998840332 145 145 145
15.156250000000 1.046875000000 54.371002197266 146 146 146
15.156250000000 1.046875000000 54.402000427246 150 150 150
15.093750000000 1.046875000000 54.395996093750 144 144 144
14.750000000000 1.062500000000 54.422996520996 163 163 163
14.750000000000 1.062500000000 54.446998596191 186 186 186
14.750000000000 1.062500000000 54.472999572754 193 193 193
14.781250000000 1.062500000000 54.511001586914 122 122 122
14.750000000000 1.062500000000 54.524002075195 193 193 193
14.750000000000 1.062500000000 54.548995971680 197 197 197
14.718750000000 1.062500000000 54.563995361328 201 201 201
14.781250000000 1.062500000000 54.608001708984 126 126 126
14.718750000000 1.062500000000 54.611000061035 211 211 211
14.718750000000 1.062500000000 54.637001037598 232 232 232
14.812500000000 1.046875000000 54.700996398926 108 108 108
14.718750000000 1.046875000000 54.687995910645 1 1 1
14.750000000000 1.062500000000 54.713996887207 1 1 1
14.812500000000 1.062500000000 54.858001708984 112 112 112
14.750000000000 1.046875000000 54.864997863770 143 143 143
14.750000000000 1.046875000000 54.888000488281 162 162 162
14.781250000000 1.062500000000 54.913002014160 163 163 163
14.781250000000 1.062500000000 54.937995910645 136 136 136
14.781250000000 1.046875000000 54.965995788574 125 125 125
14.781250000000 1.062500000000 54.986999511719 130 130 130
14.781250000000 1.046875000000 55.011001586914 125 125 125
14.781250000000 1.046875000000 55.033996582031 130 130 130
14.781250000000 1.046875000000 55.056999206543 130 130 130
14.812500000000 1.062500000000 55.081001281738 134 134 134
14.781250000000 1.046875000000 55.099998474121 132 132 132
14.812500000000 1.062500000000 55.125999450684 134 134 134
14.781250000000 1.046875000000 55.145996093750 130 130 130
14.812500000000 1.062500000000 55.167999267578 131 131 131
14.812500000000 1.062500000000 55.191001892090 132 132 132
14.781250000000 1.046875000000 55.210998535156 136 136 136
14.781250000000 1.046875000000 55.234001159668 137 137 137
14.812500000000 1.062500000000 55.255996704102 133 133 133
14.812500000000 1.062500000000 55.277999877930 134 134 134
14.812500000000 1.062500000000 55.298995971680 135 135 135
14.812500000000 1.062500000000 55.322998046875 136 136 136
14.781250000000 1.046875000000 55.342002868652 138 138 138
14.812500000000 1.062500000000 55.364997863770 139 139 139
14.781250000000 1.046875000000 55.385002136230 139 139 139
14.812500000000 1.062500000000 55.406997680664 140 140 140
14.812500000000 1.062500000000 55.429000854492 141 141 141
14.812500000000 1.062500000000 55.451995849609 139 139 139
14.812500000000 1.062500000000 55.471000671387 145 145 145
14.812500000000 1.062500000000 55.493995666504 138 138 138
14.812500000000 1.062500000000 55.514999389648 141 141 141
14.812500000000 1.062500000000 55.535995483398 144 144 144
14.812500000000 1.062500000000 55.556999206543 147 147 147
14.812500000000 1.062500000000 55.577995300293 145 145 145
14.812500000000 1.062500000000 55.598999023438 144 144 144
14.812500000000 1.062500000000 55.620002746582 145 145 145
14.812500000000 1.062500000000 55.641998291016 148 148 148
14.812500000000 1.062500000000 55.662002563477 150 150 150
14.812500000000 1.062500000000 55.683998107910 146 146 146
14.812500000000 1.062500000000 55.704002380371 146 146 146
14.812500000000 1.046875000000 55.726997375488 145 145 145
14.968750000000 1.062500000000 55.756996154785 108 108 108
15.000000000000 1.062500000000 55.778999328613 117 117 117
14.968750000000 1.062500000000 55.797996520996 118 118 118
14.968750000000 1.062500000000 55.818000793457 111 111 111
14.968750000000 1.062500000000 55.836997985840 115 115 115
14.968750000000 1.062500000000 55.858001708984 113 113 113
15.000000000000 1.062500000000 55.878997802734 117 117 117
14.906250000000 1.062500000000 55.894996643066 126 126 126
14.812500000000 1.062500000000 55.912002563477 152 152 152
14.812500000000 1.062500000000 55.932998657227 154 154 154
14.812500000000 1.062500000000 55.954002380371 156 156 156
14.812500000000 1.046875000000 55.973999023438 159 159 159
14.812500000000 1.062500000000 55.995002746582 159 159 159
14.843750000000 1.046875000000 56.014999389648 159 159 159
14.812500000000 1.062500000000 56.035995483398 160 160 160
14.843750000000 1.046875000000 56.056999206543 156 156 156
14.843750000000 1.046875000000 56.076995849609 155 155 155
14.843750000000 1.062500000000 56.097000122070 157 157 157
14.843750000000 1.062500000000 56.117996215820 153 153 153
14.843750000000 1.062500000000 56.138000488281 151 151 151
14.843750000000 1.062500000000 56.158996582031 157 157 157
14.843750000000 1.062500000000 56.179000854492 153 153 153
14.843750000000 1.062500000000 56.198997497559 153 153 153
14.875000000000 1.062500000000 56.219001770020 154 154 154
14.875000000000 1.062500000000 56.239997863770 152 152 152
14.906250000000 1.062500000000 56.259002685547 152 152 152
14.875000000000 1.062500000000 56.278999328613 151 151 151
14.875000000000 1.062500000000 56.299995422363 151 151 151
14.906250000000 1.062500000000 56.319000244141 152 152 152
14.906250000000 1.062500000000 56.339996337891 151 151 151
14.906250000000 1.062500000000 56.360000610352 152 152 152
14.906250000000 1.062500000000 56.379997253418 156 156 156
14.906250000000 1.062500000000 56.399002075195 153 153 153
14.906250000000 1.062500000000 56.419998168945 151 151 151
14.937500000000 1.062500000000 56.438995361328 150 150 150
14.937500000000 1.062500000000 56.459999084473 156 156 156
14.937500000000 1.062500000000 56.478996276855 152 152 152
14.937500000000 1.062500000000 56.498001098633 152 152 152
14.937500000000 1.062500000000 56.518997192383 152 152 152
14.937500000000 1.062500000000 56.540000915527 155 155 155
14.937500000000 1.062500000000 56.559997558594 156 156 156
14.937500000000 1.062500000000 56.580001831055 157 157 157
14.937500000000 1.062500000000 56.598999023438 157 157 157
14.937500000000 1.062500000000 56.620002746582 153 153 153
14.968750000000 1.062500000000 56.638999938965 153 153 153
14.937500000000 1.062500000000 56.660995483398 154 154 154
14.968750000000 1.062500000000 56.680000305176 153 153 153
14.937500000000 1.062500000000 56.701995849609 152 152 152
14.968750000000 1.062500000000 56.721000671387 154 154 154
14.968750000000 1.062500000000 56.740997314453 154 154 154
14.968750000000 1.062500000000 56.763000488281 156 156 156
14.968750000000 1.062500000000 56.782997131348 155 155 155
14.968750000000 1.062500000000 56.801002502441 158 158 158
14.968750000000 1.062500000000 56.823997497559 153 153 153
15.000000000000 1.062500000000 56.838996887207 146 146 146
15.031250000000 1.062500000000 56.847000122070 132 132 132
15.062500000000 1.062500000000 56.861999511719 124 124 124
15.062500000000 1.062500000000 56.880996704102 128 128 128
15.093750000000 1.062500000000 56.894996643066 120 120 120
15.062500000000 1.062500000000 56.920997619629 128 128 128
15.062500000000 1.062500000000 56.941001892090 126 126 126
15.062500000000 1.062500000000 56.962997436523 125 125 125
15.031250000000 1.062500000000 56.991996765137 144 144 144
15.031250000000 1.062500000000 57.019996643066 157 157 157
15.000000000000 1.062500000000 57.048995971680 160 160 160
15.000000000000 1.062500000000 57.066001892090 153 153 153
15.000000000000 1.062500000000 57.090995788574 153 153 153
15.000000000000 1.062500000000 57.110000610352 155 155 155
15.000000000000 1.062500000000 57.131996154785 154 154 154
15.000000000000 1.062500000000 57.153999328613 151 151 151
15.000000000000 1.062500000000 57.179000854492 155 155 155
15.000000000000 1.062500000000 57.197998046875 153 153 153
15.031250000000 1.062500000000 57.214996337891 151 151 151
15.031250000000 1.062500000000 57.234001159668 151 151 151
15.000000000000 1.062500000000 57.260002136230 151 151 151
15.031250000000 1.062500000000 57.278999328613 150 150 150
15.031250000000 1.062500000000 57.303001403809 147 147 147
15.031250000000 1.062500000000 57.321998596191 148 148 148
15.031250000000 1.062500000000 57.346000671387 150 150 150
15.031250000000 1.062500000000 57.363998413086 148 148 148
15.031250000000 1.062500000000 57.390998840332 147 147 147
15.031250000000 1.062500000000 57.415000915527 156 156 156
15.031250000000 1.062500000000 57.431999206543 150 150 150
15.031250000000 1.062500000000 57.454002380371 153 153 153
15.031250000000 1.062500000000 57.478996276855 154 154 154
15.031250000000 1.062500000000 57.501998901367 149 149 149
15.031250000000 1.062500000000 57.527000427246 149 149 149
15.031250000000 1.062500000000 57.543998718262 146 146 146
15.031250000000 1.062500000000 57.574996948242 145 145 145
15.031250000000 1.062500000000 57.590995788574 147 147 147
15.031250000000 1.062500000000 57.620002746582 149 149 149
15.031250000000 1.062500000000 57.640998840332 143 143 143
15.031250000000 1.062500000000 57.659996032715 146 146 146
15.031250000000 1.062500000000 57.686996459961 144 144 144
15.031250000000 1.062500000000 57.708000183105 143 143 143
15.031250000000 1.062500000000 57.734001159668 145 145 145
15.031250000000 1.062500000000 57.761001586914 142 142 142
15.031250000000 1.062500000000 57.782997131348 143 143 143
15.031250000000 1.062500000000 57.807998657227 143 143 143
15.031250000000 1.062500000000 57.833999633789 146 146 146
15.031250000000 1.062500000000 57.856002807617 144 144 144
15.031250000000 1.062500000000 57.881996154785 146 146 146
15.062500000000 1.062500000000 57.902000427246 143 143 143
15.062500000000 1.062500000000 57.930000305176 142 142 142
15.031250000000 1.062500000000 57.958000183105 142 142 142
15.062500000000 1.062500000000 57.975997924805 134 134 134
15.062500000000 1.062500000000 57.990997314453 132 132 132
15.093750000000 1.062500000000 58.011001586914 122 122 122
15.093750000000 1.062500000000 58.034996032715 120 120 120
15.093750000000 1.062500000000 58.063995361328 122 122 122
15.093750000000 1.062500000000 58.089996337891 129 129 129
15.062500000000 1.062500000000 58.124000549316 132 132 132
15.062500000000 1.062500000000 58.151000976563 136 136 136
15.062500000000 1.062500000000 58.180000305176 141 141 141
15.062500000000 1.062500000000 58.215995788574 142 142 142
15.062500000000 1.062500000000 58.247001647949 142 142 142
15.062500000000 1.062500000000 58.277000427246 141 141 141
15.062500000000 1.062500000000 58.299995422363 138 138 138
15.062500000000 1.062500000000 58.327995300293 137 137 137
15.062500000000 1.062500000000 58.360000610352 135 135 135
15.062500000000 1.062500000000 58.389999389648 141 141 141
15.062500000000 1.062500000000 58.417999267578 137 137 137
15.062500000000 1.062500000000 58.449996948242 140 140 140
15.062500000000 1.062500000000 58.476997375488 135 135 135
15.062500000000 1.062500000000 58.503997802734 136 136 136
15.062500000000 1.062500000000 58.535995483398 140 140 140
15.062500000000 1.062500000000 58.562995910645 133 133 133
15.062500000000 1.062500000000 58.593002319336 132 132 132
15.062500000000 1.062500000000 58.625000000000 138 138 138
15.093750000000 1.062500000000 58.639999389648 145 145 145
15.093750000000 1.062500000000 58.607002258301 151 151 151
15.093750000000 1.062500000000 58.574996948242 152 152 152
15.093750000000 1.062500000000 58.541999816895 152 152 152
15.093750000000 1.062500000000 58.517997741699 156 156 156
15.093750000000 1.062500000000 58.482002258301 148 148 148
15.093750000000 1.062500000000 58.454002380371 155 155 155
15.093750000000 1.062500000000 58.422996520996 153 153 153
15.093750000000 1.062500000000 58.395996093750 153 153 153
15.093750000000 1.062500000000 58.365997314453 158 158 158
15.093750000000 1.062500000000 58.334999084473 157 157 157
15.093750000000 1.062500000000 58.305999755859 158 158 158
15.093750000000 1.062500000000 58.277999877930 161 161 161
15.093750000000 1.062500000000 58.249000549316 157 157 157
15.093750000000 1.062500000000 58.221000671387 157 157 157
15.093750000000 1.062500000000 58.195999145508 155 155 155
15.093750000000 1.062500000000 58.168998718262 157 157 157
15.093750000000 1.062500000000 58.134002685547 156 156 156
15.093750000000 1.062500000000 58.111000061035 159 159 159
15.093750000000 1.062500000000 58.082000732422 157 157 157
15.093750000000 1.062500000000 58.055999755859 156 156 156
15.093750000000 1.062500000000 58.023002624512 154 154 154
15.093750000000 1.062500000000 57.999000549316 155 155 155
15.093750000000 1.062500000000 57.974998474121 156 156 156
15.093750000000 1.062500000000 57.946998596191 159 159 159
15.093750000000 1.062500000000 57.920997619629 158 158 158
15.093750000000 1.062500000000 57.898002624512 156 156 156
15.093750000000 1.062500000000 57.863998413086 157 157 157
15.093750000000 1.062500000000 57.842002868652 157 157 157
15.093750000000 1.062500000000 57.816001892090 157 157 157
15.093750000000 1.062500000000 57.791000366211 154 154 154
15.093750000000 1.062500000000 57.763999938965 156 156 156
15.093750000000 1.062500000000 57.739997863770 157 157 157
15.093750000000 1.062500000000 57.712997436523 156 156 156
15.093750000000 1.062500000000 57.686996459961 156 156 156
15.093750000000 1.062500000000 57.658996582031 156 156 156
15.093750000000 1.062500000000 57.635002136230 156 156 156
15.093750000000 1.062500000000 57.612998962402 158 158 158
15.093750000000 1.062500000000 57.583999633789 153 153 153
15.093750000000 1.062500000000 57.562995910645 153 153 153
15.093750000000 1.062500000000 57.533996582031 156 156 156
15.093750000000 1.062500000000 57.511001586914 158 158 158
15.093750000000 1.062500000000 57.486999511719 155 155 155
15.093750000000 1.062500000000 57.463996887207 152 152 152
15.093750000000 1.062500000000 57.437995910645 155 155 155
15.093750000000 1.062500000000 57.414001464844 156 156 156
15.093750000000 1.062500000000 57.388999938965 154 154 154
15.093750000000 1.062500000000 57.364997863770 157 157 157
15.093750000000 1.062500000000 57.340995788574 156 156 156
15.093750000000 1.062500000000 57.318000793457 156 156 156
15.093750000000 1.062500000000 57.292999267578 157 157 157
15.093750000000 1.062500000000 57.270996093750 160 160 160
15.093750000000 1.062500000000 57.245002746582 160 160 160
15.093750000000 1.062500000000 57.222000122070 159 159 159
15.093750000000 1.062500000000 57.197998046875 161 161 161
15.093750000000 1.062500000000 57.176002502441 161 161 161
15.093750000000 1.062500000000 57.152999877930 159 159 159
15.093750000000 1.062500000000 57.126998901367 157 157 157
15.093750000000 1.062500000000 57.104995727539 161 161 161
15.093750000000 1.062500000000 57.083000183105 161 161 161
15.093750000000 1.062500000000 57.059997558594 161 161 161
15.125000000000 1.046875000000 57.033996582031 159 159 159
15.093750000000 1.062500000000 57.013999938965 158 158 158
15.093750000000 1.062500000000 56.989997863770 164 164 164
15.093750000000 1.062500000000 56.967002868652 164 164 164
15.093750000000 1.062500000000 56.944999694824 165 165 165
15.093750000000 1.062500000000 56.920997619629 163 163 163
15.093750000000 1.062500000000 56.898002624512 162 162 162
15.093750000000 1.062500000000 56.875999450684 162 162 162
15.093750000000 1.062500000000 56.852996826172 160 160 160
15.093750000000 1.062500000000 56.831001281738 157 157 157
15.093750000000 1.062500000000 56.807998657227 153 153 153
15.093750000000 1.062500000000 56.784996032715 155 155 155
15.093750000000 1.062500000000 56.763000488281 156 156 156
15.093750000000 1.062500000000 56.740997314453 154 154 154
15.093750000000 1.062500000000 56.719001770020 154 154 154
15.093750000000 1.062500000000 56.695999145508 154 154 154
15.093750000000 1.062500000000 56.673995971680 154 154 154
15.093750000000 1.062500000000 56.651000976563 152 152 152
15.093750000000 1.062500000000 56.628997802734 155 155 155
15.093750000000 1.062500000000 56.607002258301 155 155 155
15.093750000000 1.062500000000 56.583999633789 157 157 157
15.093750000000 1.062500000000 56.561996459961 159 159 159
15.093750000000 1.062500000000 56.539001464844 158 158 158
15.093750000000 1.062500000000 56.517997741699 159 159 159
15.093750000000 1.062500000000 56.495002746582 160 160 160
15.093750000000 1.062500000000 56.472999572754 162 162 162
15.093750000000 1.062500000000 56.450996398926 161 161 161
15.093750000000 1.062500000000 56.428001403809 158 158 158
15.093750000000 1.062500000000 56.406997680664 158 158 158
15.093750000000 1.062500000000 56.384002685547 153 153 153
15.093750000000 1.062500000000 56.361999511719 153 153 153
15.093750000000 1.062500000000 56.340995788574 152 152 152
15.093750000000 1.062500000000 56.318000793457 148 148 148
15.093750000000 1.062500000000 56.295997619629 152 152 152
15.093750000000 1.062500000000 56.274002075195 151 151 151
15.093750000000 1.062500000000 56.251998901367 149 149 149
15.093750000000 1.062500000000 56.229995727539 150 150 150
15.093750000000 1.062500000000 56.208000183105 152 152 152
15.093750000000 1.062500000000 56.185997009277 148 148 148
15.093750000000 1.062500000000 56.164001464844 152 152 152
15.093750000000 1.062500000000 56.141998291016 155 155 155
15.093750000000 1.062500000000 56.118995666504 152 152 152
15.093750000000 1.062500000000 56.097000122070 157 157 157
15.093750000000 1.062500000000 56.074996948242 149 149 149
15.093750000000 1.062500000000 56.053001403809 157 157 157
15.093750000000 1.062500000000 56.030998229980 152 152 152
15.093750000000 1.062500000000 56.009002685547 158 158 158
15.093750000000 1.062500000000 55.986000061035 158 158 158
15.093750000000 1.062500000000 55.963996887207 157 157 157
15.093750000000 1.062500000000 55.942001342773 155 155 155
15.093750000000 1.062500000000 55.919998168945 147 147 147
15.093750000000 1.062500000000 55.896995544434 152 152 152
15.093750000000 1.062500000000 55.875999450684 156 156 156
15.093750000000 1.062500000000 55.852996826172 154 154 154
15.093750000000 1.062500000000 55.830001831055 155 155 155
15.093750000000 1.062500000000 55.806999206543 154 154 154
15.093750000000 1.062500000000 55.787002563477 154 154 154
15.093750000000 1.062500000000 55.763000488281 156 156 156
15.093750000000 1.062500000000 55.740997314453 156 156 156
15.093750000000 1.062500000000 55.719001770020 155 155 155
15.093750000000 1.062500000000 55.696998596191 153 153 153
15.093750000000 1.062500000000 55.673995971680 148 148 148
15.093750000000 1.062500000000 55.650001525879 151 151 151
15.093750000000 1.062500000000 55.626998901367 154 154 154
15.093750000000 1.062500000000 55.606002807617 151 151 151
15.093750000000 1.062500000000 55.582000732422 148 148 148
15.093750000000 1.062500000000 55.559997558594 148 148 148
15.093750000000 1.062500000000 55.535995483398 146 146 146
15.093750000000 1.062500000000 55.513000488281 147 147 147
15.093750000000 1.062500000000 55.490997314453 148 148 148
15.093750000000 1.062500000000 55.467002868652 150 150 150
15.093750000000 1.062500000000 55.444000244141 149 149 149
15.093750000000 1.062500000000 55.421997070313 146 146 146
15.093750000000 1.062500000000 55.398002624512 147 147 147
15.093750000000 1.062500000000 55.375000000000 147 147 147
15.093750000000 1.062500000000 55.352996826172 142 142 142
15.093750000000 1.062500000000 55.327995300293 145 145 145
15.093750000000 1.062500000000 55.304000854492 146 146 146
15.093750000000 1.062500000000 55.280998229980 143 143 143
15.093750000000 1.062500000000 55.261001586914 145 145 145
15.093750000000 1.062500000000 55.234001159668 142 142 142
15.093750000000 1.062500000000 55.211997985840 145 145 145
15.093750000000 1.062500000000 55.186996459961 144 144 144
15.093750000000 1.062500000000 55.162002563477 140 140 140
15.093750000000 1.062500000000 55.138999938965 134 134 134
15.093750000000 1.062500000000 55.113998413086 133 133 133
15.093750000000 1.062500000000 55.093002319336 136 136 136
15.093750000000 1.078125000000 55.063995361328 130 130 130
15.093750000000 1.062500000000 55.040000915527 135 135 135
15.093750000000 1.078125000000 55.015998840332 133 133 133
15.093750000000 1.062500000000 54.991996765137 137 137 137
15.093750000000 1.062500000000 54.970001220703 142 142 142
15.093750000000 1.062500000000 54.943000793457 132 132 132
15.093750000000 1.062500000000 54.919998168945 127 127 127
15.093750000000 1.078125000000 54.891998291016 133 133 133
15.093750000000 1.062500000000 54.870002746582 147 147 147
