12.562500000000 6.859375000000 55.720001220703 200 200 200
12.562500000000 6.859375000000 55.760002136230 203 203 203
12.562500000000 6.859375000000 55.799995422363 201 201 201
12.562500000000 6.859375000000 55.837997436523 206 206 206
12.562500000000 6.859375000000 55.876998901367 210 210 210
12.562500000000 6.859375000000 55.916999816895 210 210 210
12.562500000000 6.859375000000 55.956001281738 208 208 208
12.562500000000 6.843750000000 55.995002746582 208 208 208
12.562500000000 6.859375000000 56.033996582031 208 208 208
12.562500000000 6.843750000000 56.072998046875 212 212 212
12.562500000000 6.843750000000 56.111999511719 218 218 218
12.562500000000 6.843750000000 56.151000976563 215 215 215
12.562500000000 6.843750000000 56.190002441406 212 212 212
12.562500000000 6.843750000000 56.228996276855 214 214 214
12.562500000000 6.843750000000 56.267997741699 217 217 217
12.562500000000 6.843750000000 56.306999206543 215 215 215
12.562500000000 6.843750000000 56.346000671387 218 218 218
12.562500000000 6.843750000000 56.385002136230 217 217 217
12.562500000000 6.843750000000 56.423995971680 219 219 219
12.562500000000 6.843750000000 56.462997436523 218 218 218
12.562500000000 6.843750000000 56.501998901367 218 218 218
12.562500000000 6.843750000000 56.541000366211 219 219 219
12.562500000000 6.843750000000 56.580001831055 217 217 217
12.562500000000 6.843750000000 56.618995666504 216 216 216
12.562500000000 6.843750000000 56.657997131348 217 217 217
12.562500000000 6.828125000000 56.696998596191 215 215 215
12.562500000000 6.828125000000 56.736000061035 211 211 211
12.593750000000 6.828125000000 56.774002075195 213 213 213
12.562500000000 6.828125000000 56.813995361328 213 213 213
12.562500000000 6.828125000000 56.852996826172 213 213 213
12.593750000000 6.828125000000 56.891998291016 210 210 210
12.562500000000 6.812500000000 56.931999206543 215 215 215
12.562500000000 6.812500000000 56.971000671387 212 212 212
12.562500000000 6.812500000000 57.011001586914 201 201 201
12.562500000000 6.812500000000 57.049995422363 205 205 205
12.562500000000 6.812500000000 57.088996887207 211 211 211
12.562500000000 6.812500000000 57.128997802734 208 208 208
12.562500000000 6.812500000000 57.167999267578 210 210 210
12.562500000000 6.812500000000 57.207000732422 205 205 205
12.562500000000 6.812500000000 57.248001098633 209 209 209
12.593750000000 6.812500000000 57.285995483398 202 202 202
12.562500000000 6.812500000000 57.326995849609 203 203 203
12.593750000000 6.812500000000 57.365997314453 202 202 202
12.562500000000 6.812500000000 57.406997680664 203 203 203
12.593750000000 6.812500000000 57.445999145508 202 202 202
12.562500000000 6.812500000000 57.486999511719 205 205 205
12.562500000000 6.796875000000 57.527000427246 200 200 200
12.562500000000 6.796875000000 57.568000793457 198 198 198
12.593750000000 6.796875000000 57.607002258301 195 195 195
12.562500000000 6.796875000000 57.649002075195 198 198 198
12.562500000000 6.796875000000 57.690002441406 194 194 194
12.562500000000 6.796875000000 57.731002807617 197 197 197
12.562500000000 6.796875000000 57.771995544434 195 195 195
12.562500000000 6.781250000000 57.815002441406 188 188 188
12.562500000000 6.781250000000 57.856002807617 177 177 177
12.562500000000 6.781250000000 57.894996643066 181 181 181
12.562500000000 6.781250000000 57.936996459961 187 187 187
12.562500000000 6.781250000000 57.978996276855 187 187 187
12.562500000000 6.781250000000 58.019996643066 171 171 171
12.562500000000 6.781250000000 58.061996459961 147 147 147
12.562500000000 6.781250000000 58.106002807617 153 153 153
12.562500000000 6.781250000000 58.148002624512 160 160 160
12.500000000000 7.000000000000 59.237998962402 107 107 107
12.531250000000 7.031250000000 59.256996154785 129 129 129
12.500000000000 6.968750000000 60.129997253418 21 21 21
12.500000000000 6.968750000000 60.178001403809 35 35 35
12.500000000000 6.968750000000 60.229995727539 76 76 76
12.531250000000 6.968750000000 60.280998229980 107 107 107
12.531250000000 6.968750000000 60.332000732422 111 111 111
12.531250000000 6.968750000000 60.381996154785 128 128 128
12.531250000000 6.984375000000 60.416000366211 115 115 115
12.531250000000 6.984375000000 60.469001770020 128 128 128
12.531250000000 6.968750000000 60.539001464844 150 150 150
12.531250000000 6.968750000000 60.593002319336 150 150 150
12.531250000000 6.968750000000 60.645996093750 156 156 156
12.531250000000 6.968750000000 60.695999145508 165 165 165
12.531250000000 6.968750000000 60.750000000000 154 154 154
12.562500000000 6.968750000000 60.799995422363 156 156 156
12.562500000000 6.968750000000 60.856002807617 157 157 157
12.562500000000 6.968750000000 60.914001464844 160 160 160
12.562500000000 6.968750000000 60.968002319336 162 162 162
12.562500000000 6.968750000000 61.026000976563 162 162 162
12.593750000000 6.968750000000 61.082000732422 166 166 166
12.593750000000 6.953125000000 61.139999389648 161 161 161
12.593750000000 6.953125000000 61.197998046875 161 161 161
12.593750000000 6.953125000000 61.254997253418 164 164 164
12.593750000000 6.953125000000 61.313995361328 159 159 159
12.593750000000 6.953125000000 61.382995605469 161 161 161
12.593750000000 6.953125000000 61.432998657227 117 117 117
12.562500000000 7.343750000000 59.238998413086 135 135 135
12.531250000000 7.296875000000 60.303001403809 68 68 68
12.562500000000 7.671875000000 59.222000122070 130 130 130
12.562500000000 7.625000000000 60.166000366211 56 56 56
12.562500000000 8.000000000000 59.206001281738 119 119 119
12.562500000000 8.000000000000 59.248001098633 68 68 68
12.562500000000 7.968750000000 59.986999511719 58 58 58
12.562500000000 8.328125000000 59.190002441406 79 79 79
12.593750000000 8.343750000000 59.228996276855 100 100 100
12.593750000000 8.312500000000 59.862998962402 74 74 74
12.593750000000 8.656250000000 59.214996337891 137 137 137
12.562500000000 8.625000000000 59.699996948242 17 17 17
12.593750000000 8.640625000000 59.740997314453 16 16 16
12.656250000000 9.031250000000 58.890998840332 16 16 16
12.656250000000 9.031250000000 58.931999206543 36 36 36
12.593750000000 8.984375000000 59.192001342773 129 129 129
12.593750000000 9.000000000000 59.233001708984 60 60 60
12.593750000000 8.968750000000 59.574996948242 80 80 80
12.656250000000 9.359375000000 58.914001464844 85 85 85
12.593750000000 9.312500000000 59.173995971680 93 93 93
12.625000000000 9.312500000000 59.210998535156 114 114 114
12.593750000000 9.312500000000 59.449996948242 49 49 49
12.687500000000 9.703125000000 58.885002136230 37 37 37
12.687500000000 9.687500000000 58.931999206543 18 18 18
12.625000000000 9.640625000000 59.192001342773 131 131 131
12.593750000000 9.625000000000 59.294998168945 76 76 76
12.687500000000 10.015625000000 58.908996582031 88 88 88
12.625000000000 9.968750000000 59.173995971680 129 129 129
12.625000000000 9.968750000000 59.221000671387 75 75 75
12.718750000000 10.343750000000 58.885002136230 118 118 118
12.718750000000 10.343750000000 58.930999755859 84 84 84
12.625000000000 10.281250000000 59.157997131348 90 90 90
12.656250000000 10.296875000000 59.191001892090 114 114 114
12.718750000000 10.671875000000 58.868995666504 46 46 46
12.718750000000 10.671875000000 58.915000915527 176 176 176
12.687500000000 10.656250000000 58.967002868652 169 169 169
12.656250000000 10.625000000000 59.031997680664 133 133 133
12.625000000000 10.625000000000 59.084999084473 167 167 167
12.656250000000 10.625000000000 59.171997070313 126 126 126
12.718750000000 11.000000000000 58.894996643066 149 149 149
12.718750000000 11.000000000000 58.944999694824 167 167 167
12.656250000000 10.968750000000 59.009002685547 188 188 188
12.625000000000 10.937500000000 59.069000244141 185 185 185
12.625000000000 10.937500000000 59.111000061035 54 54 54
12.656250000000 10.953125000000 59.154998779297 128 128 128
12.656250000000 10.968750000000 59.192001342773 88 88 88
12.750000000000 11.328125000000 58.873001098633 116 116 116
12.718750000000 11.312500000000 58.922996520996 175 175 175
12.687500000000 11.296875000000 58.978996276855 141 141 141
12.656250000000 11.281250000000 59.038002014160 160 160 160
12.656250000000 11.281250000000 59.090995788574 139 139 139
12.625000000000 11.250000000000 59.148002624512 76 76 76
12.687500000000 11.281250000000 59.167999267578 114 114 114
12.750000000000 11.656250000000 58.856002807617 57 57 57
12.750000000000 11.640625000000 58.902999877930 166 166 166
12.718750000000 11.625000000000 58.954002380371 154 154 154
12.656250000000 11.609375000000 59.017997741699 154 154 154
12.656250000000 11.593750000000 59.070999145508 181 181 181
12.656250000000 11.593750000000 59.158996582031 130 130 130
12.687500000000 11.609375000000 59.194999694824 33 33 33
12.750000000000 11.984375000000 58.875999450684 138 138 138
12.750000000000 11.968750000000 58.928001403809 193 193 193
12.687500000000 11.937500000000 58.988998413086 180 180 180
12.656250000000 11.921875000000 59.048995971680 184 184 184
12.656250000000 11.906250000000 59.100997924805 80 80 80
12.656250000000 11.921875000000 59.138999938965 106 106 106
12.687500000000 11.937500000000 59.176002502441 105 105 105
12.781250000000 12.312500000000 58.856002807617 89 89 89
12.750000000000 12.312500000000 58.904998779297 186 186 186
12.750000000000 12.296875000000 58.958999633789 197 197 197
12.687500000000 12.265625000000 59.019996643066 159 159 159
12.656250000000 12.250000000000 59.079002380371 162 162 162
12.687500000000 12.250000000000 59.126998901367 21 21 21
12.687500000000 12.250000000000 59.157997131348 126 126 126
12.781250000000 12.640625000000 58.878997802734 95 95 95
12.687500000000 12.578125000000 59.059997558594 63 63 63
12.687500000000 12.562500000000 59.111000061035 74 74 74
12.718750000000 12.578125000000 59.141998291016 129 129 129
12.718750000000 12.593750000000 59.183998107910 95 95 95
12.781250000000 12.968750000000 58.858001708984 41 41 41
12.687500000000 12.906250000000 59.125999450684 52 52 52
12.718750000000 12.906250000000 59.164001464844 131 131 131
12.781250000000 13.281250000000 58.884002685547 71 71 71
12.687500000000 13.218750000000 59.100997924805 23 23 23
12.718750000000 13.218750000000 59.138000488281 127 127 127
12.750000000000 13.234375000000 59.179000854492 101 101 101
12.718750000000 13.218750000000 59.224998474121 44 44 44
12.781250000000 13.593750000000 58.862998962402 84 84 84
12.718750000000 13.531250000000 59.125000000000 59 59 59
12.718750000000 13.546875000000 59.166999816895 131 131 131
12.718750000000 13.546875000000 59.345001220703 99 99 99
12.812500000000 13.921875000000 58.893997192383 58 58 58
12.718750000000 13.875000000000 59.145996093750 126 126 126
12.750000000000 13.875000000000 59.190002441406 68 68 68
12.750000000000 13.875000000000 59.506996154785 89 89 89
12.718750000000 14.187500000000 59.138999938965 72 72 72
12.750000000000 14.203125000000 59.169998168945 121 121 121
12.750000000000 14.187500000000 59.638000488281 71 71 71
12.718750000000 14.515625000000 59.156997680664 134 134 134
12.750000000000 14.531250000000 59.197998046875 35 35 35
12.750000000000 14.500000000000 59.801002502441 103 103 103
12.718750000000 14.828125000000 59.150001525879 85 85 85
12.750000000000 14.843750000000 59.180999755859 94 94 94
12.781250000000 14.828125000000 59.928001403809 67 67 67
12.781250000000 14.828125000000 59.977996826172 17 17 17
12.750000000000 15.156250000000 59.169998168945 118 118 118
12.781250000000 15.125000000000 60.122001647949 111 111 111
12.750000000000 15.484375000000 59.155998229980 87 87 87
12.750000000000 15.500000000000 59.193000793457 85 85 85
12.750000000000 15.437500000000 60.281997680664 87 87 87
12.781250000000 15.796875000000 59.183998107910 122 122 122
12.781250000000 15.750000000000 60.472999572754 71 71 71
12.812500000000 16.359375000000 54.844001770020 187 187 187
12.781250000000 16.328125000000 54.865997314453 180 180 180
12.781250000000 16.328125000000 54.906997680664 184 184 184
12.781250000000 16.328125000000 54.947998046875 180 180 180
12.781250000000 16.328125000000 54.986999511719 185 185 185
12.781250000000 16.328125000000 55.028999328613 187 187 187
12.781250000000 16.328125000000 55.068000793457 185 185 185
12.781250000000 16.328125000000 55.108001708984 187 187 187
12.781250000000 16.328125000000 55.146995544434 185 185 185
12.781250000000 16.328125000000 55.185997009277 193 193 193
12.812500000000 16.328125000000 55.310997009277 195 195 195
12.812500000000 16.328125000000 55.350997924805 199 199 199
12.781250000000 16.312500000000 55.382995605469 190 190 190
12.781250000000 16.312500000000 55.422996520996 193 193 193
12.781250000000 16.312500000000 55.461997985840 194 194 194
12.781250000000 16.312500000000 55.500999450684 197 197 197
12.781250000000 16.312500000000 55.540000915527 193 193 193
12.781250000000 16.312500000000 55.577995300293 190 190 190
12.781250000000 16.312500000000 55.616996765137 194 194 194
12.781250000000 16.312500000000 55.655998229980 209 209 209
12.781250000000 16.296875000000 55.694999694824 205 205 205
12.781250000000 16.296875000000 55.733001708984 205 205 205
12.781250000000 16.296875000000 55.771995544434 200 200 200
12.781250000000 16.296875000000 55.809997558594 201 201 201
12.781250000000 16.296875000000 55.848999023438 205 205 205
12.781250000000 16.296875000000 55.888000488281 201 201 201
12.781250000000 16.296875000000 55.926002502441 211 211 211
12.781250000000 16.296875000000 55.964996337891 207 207 207
12.781250000000 16.296875000000 56.002998352051 210 210 210
12.781250000000 16.296875000000 56.041999816895 208 208 208
12.781250000000 16.281250000000 56.080001831055 213 213 213
12.781250000000 16.281250000000 56.118995666504 213 213 213
12.781250000000 16.281250000000 56.156997680664 208 208 208
12.781250000000 16.281250000000 56.194999694824 210 210 210
12.781250000000 16.281250000000 56.234001159668 213 213 213
12.781250000000 16.281250000000 56.271995544434 212 212 212
12.781250000000 16.281250000000 56.309997558594 215 215 215
12.781250000000 16.265625000000 56.348999023438 212 212 212
12.781250000000 16.265625000000 56.387001037598 211 211 211
12.781250000000 16.265625000000 56.426002502441 211 211 211
12.781250000000 16.265625000000 56.463996887207 211 211 211
12.781250000000 16.265625000000 56.501998901367 213 213 213
12.781250000000 16.265625000000 56.541000366211 202 202 202
12.781250000000 16.265625000000 56.579002380371 205 205 205
12.781250000000 16.265625000000 56.617996215820 201 201 201
12.781250000000 16.265625000000 56.655998229980 210 210 210
12.781250000000 16.265625000000 56.694000244141 213 213 213
12.781250000000 16.265625000000 56.733001708984 209 209 209
12.781250000000 16.250000000000 56.770996093750 198 198 198
12.781250000000 16.250000000000 56.809997558594 199 199 199
12.781250000000 16.250000000000 56.848999023438 206 206 206
12.781250000000 16.250000000000 56.887001037598 209 209 209
12.781250000000 16.250000000000 56.926002502441 208 208 208
12.781250000000 16.250000000000 56.964996337891 206 206 206
12.781250000000 16.250000000000 57.002998352051 204 204 204
12.781250000000 16.250000000000 57.042999267578 200 200 200
12.781250000000 16.250000000000 57.081001281738 191 191 191
12.781250000000 16.234375000000 57.120002746582 199 199 199
12.781250000000 16.234375000000 57.158996582031 196 196 196
12.781250000000 16.234375000000 57.197998046875 195 195 195
12.781250000000 16.234375000000 57.236999511719 192 192 192
12.781250000000 16.234375000000 57.275001525879 190 190 190
12.781250000000 16.234375000000 57.316001892090 186 186 186
12.781250000000 16.234375000000 57.354995727539 191 191 191
12.781250000000 16.234375000000 57.393997192383 187 187 187
12.781250000000 16.218750000000 57.433998107910 192 192 192
12.781250000000 16.218750000000 57.472999572754 196 196 196
12.781250000000 16.218750000000 57.512001037598 204 204 204
12.781250000000 16.218750000000 57.551002502441 177 177 177
12.781250000000 16.218750000000 57.589996337891 183 183 183
12.781250000000 16.218750000000 57.629997253418 192 192 192
12.812500000000 16.218750000000 57.670997619629 186 186 186
12.812500000000 16.218750000000 57.710998535156 190 190 190
12.812500000000 16.218750000000 57.751998901367 191 191 191
12.812500000000 16.218750000000 57.790000915527 189 189 189
12.812500000000 16.203125000000 57.831001281738 188 188 188
12.812500000000 16.203125000000 57.872001647949 184 184 184
12.781250000000 16.203125000000 57.914001464844 175 175 175
12.812500000000 16.203125000000 57.952995300293 180 180 180
12.812500000000 16.203125000000 57.993995666504 188 188 188
12.812500000000 16.203125000000 58.032997131348 179 179 179
12.812500000000 16.203125000000 58.073997497559 181 181 181
12.812500000000 16.203125000000 58.115997314453 171 171 171
12.812500000000 16.187500000000 58.157997131348 180 180 180
12.812500000000 16.187500000000 58.198997497559 175 175 175
12.812500000000 16.187500000000 58.237998962402 178 178 178
12.812500000000 16.187500000000 58.283996582031 182 182 182
12.812500000000 16.187500000000 58.323997497559 191 191 191
12.812500000000 16.187500000000 58.364997863770 174 174 174
12.812500000000 16.187500000000 58.407997131348 179 179 179
12.812500000000 16.187500000000 58.450996398926 178 178 178
12.812500000000 16.171875000000 58.492996215820 181 181 181
12.812500000000 16.171875000000 58.534996032715 184 184 184
12.812500000000 16.171875000000 58.576995849609 171 171 171
12.781250000000 16.171875000000 58.623001098633 171 171 171
12.812500000000 16.171875000000 58.663002014160 177 177 177
12.812500000000 16.171875000000 58.708000183105 168 168 168
12.781250000000 16.156250000000 58.751998901367 167 167 167
12.781250000000 16.156250000000 58.795997619629 164 164 164
12.812500000000 16.171875000000 58.835998535156 168 168 168
12.812500000000 16.156250000000 58.880996704102 164 164 164
12.812500000000 16.156250000000 58.923995971680 159 159 159
12.812500000000 16.156250000000 58.971000671387 162 162 162
12.812500000000 16.156250000000 59.012001037598 173 173 173
12.812500000000 16.156250000000 59.059997558594 173 173 173
12.812500000000 16.156250000000 59.103996276855 166 166 166
12.812500000000 16.156250000000 59.150001525879 147 147 147
12.843750000000 16.156250000000 59.186996459961 135 135 135
12.812500000000 16.140625000000 59.239997863770 168 168 168
12.812500000000 16.140625000000 59.284996032715 172 172 172
12.812500000000 16.140625000000 59.329002380371 169 169 169
12.812500000000 16.140625000000 59.377998352051 168 168 168
12.812500000000 16.140625000000 59.422996520996 163 163 163
12.812500000000 16.140625000000 59.472999572754 164 164 164
12.812500000000 16.140625000000 59.519996643066 162 162 162
12.812500000000 16.125000000000 59.567001342773 167 167 167
12.812500000000 16.125000000000 59.614997863770 176 176 176
12.812500000000 16.125000000000 59.658996582031 164 164 164
12.812500000000 16.125000000000 59.712997436523 153 153 153
12.812500000000 16.125000000000 59.761001586914 151 151 151
12.812500000000 16.125000000000 59.812995910645 157 157 157
12.812500000000 16.125000000000 59.859001159668 174 174 174
12.812500000000 16.109375000000 59.906997680664 171 171 171
12.812500000000 16.109375000000 59.957000732422 162 162 162
12.812500000000 16.109375000000 60.006996154785 145 145 145
12.812500000000 16.093750000000 60.062995910645 164 164 164
12.812500000000 16.109375000000 60.108001708984 168 168 168
12.812500000000 16.109375000000 60.157997131348 167 167 167
12.812500000000 16.093750000000 60.214996337891 162 162 162
12.812500000000 16.093750000000 60.264999389648 165 165 165
12.812500000000 16.093750000000 60.317001342773 168 168 168
12.812500000000 16.093750000000 60.367996215820 172 172 172
12.812500000000 16.093750000000 60.417999267578 169 169 169
12.812500000000 16.093750000000 60.471000671387 155 155 155
12.812500000000 16.093750000000 60.524002075195 122 122 122
12.843750000000 16.078125000000 60.581001281738 171 171 171
12.843750000000 16.078125000000 60.635002136230 174 174 174
12.843750000000 16.078125000000 60.686996459961 173 173 173
12.843750000000 16.078125000000 60.743995666504 173 173 173
12.843750000000 16.078125000000 60.799995422363 162 162 162
12.812500000000 16.062500000000 60.861000061035 161 161 161
12.812500000000 16.062500000000 60.914001464844 169 169 169
12.812500000000 16.062500000000 60.971000671387 171 171 171
12.812500000000 16.062500000000 61.030998229980 167 167 167
12.812500000000 16.062500000000 61.086997985840 162 162 162
12.843750000000 16.062500000000 61.143997192383 160 160 160
12.812500000000 16.062500000000 61.205001831055 168 168 168
12.843750000000 16.062500000000 61.262001037598 158 158 158
12.843750000000 16.062500000000 61.319000244141 149 149 149
12.843750000000 16.062500000000 61.377998352051 152 152 152
12.812500000000 16.046875000000 61.444999694824 160 160 160
12.843750000000 16.046875000000 61.497001647949 156 156 156
12.843750000000 16.046875000000 61.566001892090 149 149 149
12.843750000000 16.046875000000 61.627998352051 161 161 161
12.812500000000 16.031250000000 61.697998046875 164 164 164
12.812500000000 16.031250000000 61.763000488281 148 148 148
12.812500000000 16.031250000000 61.824996948242 145 145 145
12.843750000000 16.031250000000 61.892997741699 152 152 152
12.843750000000 16.031250000000 61.937995910645 45 45 45
12.500000000000 6.921875000000 54.121002197266 187 187 187
12.468750000000 6.921875000000 54.152999877930 188 188 188
12.468750000000 6.921875000000 54.191001892090 189 189 189
12.500000000000 6.921875000000 54.234001159668 182 182 182
12.437500000000 6.921875000000 54.257995605469 184 184 184
12.437500000000 6.921875000000 55.386001586914 110 110 110
12.468750000000 6.921875000000 55.427001953125 121 121 121
12.468750000000 6.921875000000 55.460998535156 62 62 62
12.531250000000 6.906250000000 57.705001831055 20 20 20
12.500000000000 6.906250000000 57.748001098633 21 21 21
12.531250000000 6.906250000000 57.781997680664 30 30 30
12.531250000000 6.906250000000 57.815002441406 48 48 48
12.500000000000 6.906250000000 57.860000610352 69 69 69
12.531250000000 6.906250000000 57.894996643066 96 96 96
12.531250000000 6.906250000000 57.930000305176 81 81 81
12.531250000000 6.906250000000 57.969001770020 101 101 101
12.531250000000 6.906250000000 58.005996704102 117 117 117
12.468750000000 6.906250000000 58.065002441406 189 189 189
12.531250000000 6.906250000000 58.082000732422 107 107 107
12.531250000000 6.906250000000 58.118995666504 111 111 111
12.531250000000 6.906250000000 58.158996582031 122 122 122
12.500000000000 6.906250000000 58.210998535156 184 184 184
12.531250000000 6.906250000000 58.231002807617 111 111 111
12.531250000000 6.906250000000 58.271995544434 118 118 118
12.531250000000 6.906250000000 58.311996459961 120 120 120
12.531250000000 6.906250000000 58.347000122070 124 124 124
12.531250000000 6.906250000000 58.388999938965 133 133 133
12.531250000000 6.906250000000 58.430999755859 136 136 136
12.500000000000 6.906250000000 58.489997863770 215 215 215
12.531250000000 6.906250000000 58.506996154785 143 143 143
12.531250000000 6.906250000000 58.544998168945 145 145 145
12.531250000000 6.906250000000 58.583999633789 144 144 144
12.468750000000 6.906250000000 58.655998229980 241 241 241
12.500000000000 6.906250000000 58.685997009277 216 216 216
12.500000000000 6.906250000000 58.725997924805 207 207 207
12.500000000000 6.906250000000 58.767997741699 209 209 209
12.531250000000 6.906250000000 58.790000915527 157 157 157
12.531250000000 6.906250000000 58.829002380371 151 151 151
12.531250000000 6.906250000000 58.870002746582 155 155 155
12.531250000000 6.906250000000 58.910995483398 156 156 156
12.531250000000 6.906250000000 58.956001281738 169 169 169
12.531250000000 6.906250000000 58.998001098633 162 162 162
12.531250000000 6.906250000000 59.038002014160 157 157 157
12.531250000000 6.906250000000 59.080001831055 162 162 162
12.531250000000 6.906250000000 59.125999450684 164 164 164
12.531250000000 6.906250000000 59.166000366211 159 159 159
12.562500000000 6.906250000000 59.202995300293 150 150 150
12.593750000000 6.906250000000 59.239997863770 145 145 145
12.531250000000 6.906250000000 59.296997070313 161 161 161
12.531250000000 6.906250000000 59.339996337891 162 162 162
12.531250000000 6.906250000000 59.384002685547 170 170 170
12.531250000000 6.906250000000 59.435997009277 174 174 174
12.531250000000 6.906250000000 59.478996276855 162 162 162
12.531250000000 6.906250000000 59.523002624512 167 167 167
12.531250000000 6.906250000000 59.569999694824 165 165 165
12.531250000000 6.906250000000 59.611999511719 157 157 157
12.562500000000 6.906250000000 59.652999877930 163 163 163
12.562500000000 6.906250000000 59.704002380371 174 174 174
12.562500000000 6.906250000000 59.751998901367 165 165 165
12.562500000000 6.890625000000 59.795997619629 165 165 165
12.562500000000 6.906250000000 59.847000122070 165 165 165
12.562500000000 6.890625000000 59.893997192383 166 166 166
12.562500000000 6.890625000000 59.940002441406 171 171 171
12.531250000000 6.906250000000 59.995002746582 174 174 174
12.562500000000 6.890625000000 60.032997131348 167 167 167
12.562500000000 6.890625000000 60.083999633789 166 166 166
12.562500000000 6.890625000000 60.142997741699 163 163 163
12.562500000000 6.890625000000 60.185997009277 164 164 164
12.562500000000 6.890625000000 60.236000061035 163 163 163
12.562500000000 6.890625000000 60.288002014160 166 166 166
12.562500000000 6.890625000000 60.339996337891 161 161 161
12.593750000000 6.890625000000 60.382995605469 116 116 116
12.562500000000 6.890625000000 60.446998596191 167 167 167
12.562500000000 6.890625000000 60.501998901367 166 166 166
12.562500000000 6.890625000000 60.555999755859 170 170 170
12.562500000000 6.890625000000 60.607002258301 163 163 163
12.562500000000 6.890625000000 60.669998168945 162 162 162
12.562500000000 6.890625000000 60.717002868652 162 162 162
12.562500000000 6.890625000000 60.771995544434 168 168 168
12.562500000000 6.890625000000 60.830001831055 161 161 161
12.562500000000 6.890625000000 60.890998840332 162 162 162
12.562500000000 6.890625000000 60.944999694824 160 160 160
12.562500000000 6.890625000000 61.004997253418 158 158 158
12.562500000000 6.890625000000 61.062995910645 157 157 157
12.562500000000 6.890625000000 61.122001647949 156 156 156
12.562500000000 6.890625000000 61.180999755859 165 165 165
12.562500000000 6.890625000000 61.245002746582 161 161 161
12.562500000000 6.890625000000 61.304000854492 153 153 153
12.562500000000 6.890625000000 61.371002197266 149 149 149
12.500000000000 7.218750000000 59.178001403809 17 17 17
12.500000000000 7.218750000000 59.208999633789 165 165 165
12.500000000000 7.218750000000 60.309997558594 67 67 67
12.500000000000 7.562500000000 59.202995300293 171 171 171
12.531250000000 7.562500000000 59.236999511719 69 69 69
12.531250000000 7.546875000000 60.136001586914 64 64 64
12.562500000000 7.546875000000 60.167999267578 48 48 48
12.531250000000 7.875000000000 59.179000854492 110 110 110
12.562500000000 7.875000000000 59.210998535156 127 127 127
12.531250000000 7.875000000000 60.012001037598 80 80 80
12.531250000000 8.203125000000 59.165000915527 52 52 52
12.562500000000 8.203125000000 59.191001892090 145 145 145
12.562500000000 8.187500000000 59.875999450684 88 88 88
12.562500000000 8.531250000000 59.174995422363 161 161 161
12.562500000000 8.515625000000 59.222000122070 23 23 23
12.562500000000 8.515625000000 59.722000122070 87 87 87
12.562500000000 8.843750000000 59.157997131348 153 153 153
12.593750000000 8.843750000000 59.190002441406 148 148 148
12.593750000000 8.843750000000 59.599998474121 98 98 98
12.656250000000 9.171875000000 58.888999938965 97 97 97
12.562500000000 9.171875000000 59.142997741699 97 97 97
12.593750000000 9.171875000000 59.177001953125 148 148 148
12.562500000000 9.171875000000 59.450996398926 89 89 89
12.656250000000 9.500000000000 58.879997253418 107 107 107
12.562500000000 9.500000000000 59.135002136230 48 48 48
12.593750000000 9.500000000000 59.165000915527 170 170 170
12.562500000000 9.500000000000 59.301002502441 41 41 41
12.593750000000 9.484375000000 59.335998535156 68 68 68
12.687500000000 9.812500000000 58.861999511719 57 57 57
12.687500000000 9.812500000000 58.900001525879 19 19 19
12.593750000000 9.828125000000 59.150001525879 155 155 155
12.625000000000 9.812500000000 59.181999206543 81 81 81
12.687500000000 10.140625000000 58.881996154785 95 95 95
12.593750000000 10.140625000000 59.137001037598 140 140 140
12.625000000000 10.140625000000 59.163002014160 117 117 117
12.718750000000 10.468750000000 58.864997863770 144 144 144
12.687500000000 10.468750000000 58.916000366211 197 197 197
12.656250000000 10.468750000000 58.971000671387 196 196 196
12.625000000000 10.468750000000 59.024002075195 196 196 196
12.625000000000 10.468750000000 59.073997497559 117 117 117
12.593750000000 10.468750000000 59.125999450684 85 85 85
12.625000000000 10.468750000000 59.152000427246 156 156 156
12.718750000000 10.781250000000 58.847999572754 102 102 102
12.687500000000 10.781250000000 58.895996093750 187 187 187
12.687500000000 10.781250000000 58.945999145508 171 171 171
12.656250000000 10.781250000000 59.000999450684 172 172 172
12.625000000000 10.781250000000 59.056999206543 176 176 176
12.625000000000 10.781250000000 59.138000488281 166 166 166
12.625000000000 10.781250000000 59.178001403809 51 51 51
12.687500000000 11.109375000000 58.840995788574 49 49 49
12.718750000000 11.109375000000 58.876998901367 170 170 170
12.687500000000 11.109375000000 58.929000854492 146 146 146
12.656250000000 11.109375000000 58.983001708984 96 96 96
12.625000000000 11.125000000000 59.043998718262 187 187 187
12.593750000000 11.109375000000 59.088996887207 58 58 58
12.625000000000 11.109375000000 59.124000549316 156 156 156
12.656250000000 11.109375000000 59.159996032715 103 103 103
12.718750000000 11.437500000000 58.859001159668 159 159 159
12.718750000000 11.437500000000 58.914001464844 168 168 168
12.687500000000 11.437500000000 58.970001220703 176 176 176
12.625000000000 11.437500000000 59.030998229980 183 183 183
12.656250000000 11.437500000000 59.070999145508 94 94 94
12.656250000000 11.437500000000 59.112998962402 121 121 121
12.656250000000 11.437500000000 59.144996643066 132 132 132
12.750000000000 11.765625000000 58.845001220703 138 138 138
12.718750000000 11.765625000000 58.894996643066 189 189 189
12.687500000000 11.765625000000 58.952995300293 178 178 178
12.656250000000 11.765625000000 59.011001586914 172 172 172
12.656250000000 11.765625000000 59.056999206543 143 143 143
12.625000000000 11.765625000000 59.103996276855 62 62 62
12.656250000000 11.765625000000 59.129997253418 184 184 184
12.687500000000 11.765625000000 59.167999267578 24 24 24
12.750000000000 12.093750000000 58.831001281738 48 48 48
12.750000000000 12.093750000000 58.867996215820 170 170 170
12.718750000000 12.093750000000 58.922996520996 162 162 162
12.687500000000 12.093750000000 58.978996276855 164 164 164
12.656250000000 12.078125000000 59.034996032715 183 183 183
12.656250000000 12.078125000000 59.075996398926 37 37 37
12.656250000000 12.078125000000 59.122001647949 142 142 142
12.687500000000 12.093750000000 59.151000976563 116 116 116
12.750000000000 12.406250000000 58.844001770020 149 149 149
12.750000000000 12.406250000000 58.895996093750 179 179 179
12.718750000000 12.406250000000 58.949996948242 179 179 179
12.687500000000 12.406250000000 59.010002136230 187 187 187
12.656250000000 12.406250000000 59.057998657227 124 124 124
12.656250000000 12.406250000000 59.104995727539 85 85 85
12.687500000000 12.406250000000 59.131996154785 163 163 163
12.750000000000 12.734375000000 58.831001281738 43 43 43
12.750000000000 12.734375000000 58.868995666504 33 33 33
12.687500000000 12.734375000000 59.112998962402 163 163 163
12.656250000000 12.734375000000 59.163002014160 72 72 72
12.781250000000 13.062500000000 58.849998474121 91 91 91
12.656250000000 13.062500000000 59.111999511719 137 137 137
12.687500000000 13.062500000000 59.135002136230 144 144 144
12.781250000000 13.375000000000 58.839996337891 87 87 87
12.687500000000 13.375000000000 59.126998901367 169 169 169
12.687500000000 13.375000000000 59.164001464844 73 73 73
12.718750000000 13.375000000000 59.249000549316 106 106 106
12.781250000000 13.687500000000 58.832000732422 25 25 25
12.781250000000 13.703125000000 58.864997863770 58 58 58
12.687500000000 13.687500000000 59.108001708984 132 132 132
12.718750000000 13.703125000000 59.144996643066 128 128 128
12.750000000000 13.687500000000 59.398002624512 99 99 99
12.812500000000 14.015625000000 58.843002319336 39 39 39
12.781250000000 14.031250000000 58.894996643066 27 27 27
12.750000000000 14.015625000000 58.952995300293 38 38 38
12.750000000000 14.015625000000 58.993995666504 43 43 43
12.687500000000 14.031250000000 59.062995910645 33 33 33
12.687500000000 14.031250000000 59.106002807617 73 73 73
12.718750000000 14.031250000000 59.130996704102 177 177 177
12.718750000000 14.031250000000 59.174995422363 30 30 30
12.750000000000 14.031250000000 59.551002502441 68 68 68
12.718750000000 14.343750000000 59.117996215820 152 152 152
12.750000000000 14.343750000000 59.148002624512 106 106 106
12.750000000000 14.343750000000 59.678001403809 74 74 74
12.687500000000 14.671875000000 59.110000610352 65 65 65
12.718750000000 14.671875000000 59.136001586914 161 161 161
12.750000000000 14.671875000000 59.834999084473 107 107 107
12.718750000000 15.000000000000 59.124000549316 134 134 134
12.750000000000 15.000000000000 59.164001464844 80 80 80
12.781250000000 15.000000000000 60.005996704102 95 95 95
12.718750000000 15.312500000000 59.118995666504 56 56 56
12.750000000000 15.312500000000 59.144996643066 153 153 153
12.750000000000 15.312500000000 60.191001892090 64 64 64
12.750000000000 15.640625000000 59.137001037598 145 145 145
12.750000000000 15.640625000000 59.177001953125 78 78 78
12.718750000000 15.640625000000 60.360000610352 70 70 70
12.687500000000 15.968750000000 59.145996093750 93 93 93
12.750000000000 15.968750000000 59.155998229980 151 151 151
12.843750000000 15.968750000000 59.154998779297 88 88 88
12.687500000000 15.968750000000 60.428001403809 73 73 73
12.687500000000 15.968750000000 60.474998474121 119 119 119
12.750000000000 15.953125000000 60.469001770020 107 107 107
12.812500000000 15.953125000000 60.477996826172 115 115 115
12.781250000000 15.953125000000 60.551002502441 79 79 79
12.750000000000 15.968750000000 60.637001037598 71 71 71
12.750000000000 15.968750000000 60.694999694824 84 84 84
12.750000000000 15.968750000000 60.748001098633 87 87 87
12.750000000000 15.953125000000 60.792999267578 95 95 95
12.750000000000 15.953125000000 60.842002868652 102 102 102
12.750000000000 15.953125000000 60.900001525879 118 118 118
12.750000000000 15.953125000000 60.952995300293 115 115 115
12.750000000000 15.953125000000 61.013000488281 117 117 117
12.781250000000 15.953125000000 61.062995910645 120 120 120
12.750000000000 15.953125000000 61.130996704102 129 129 129
12.750000000000 15.953125000000 61.186996459961 136 136 136
12.750000000000 15.953125000000 61.249000549316 135 135 135
12.750000000000 15.953125000000 61.306999206543 132 132 132
12.750000000000 15.953125000000 61.364997863770 132 132 132
12.750000000000 15.953125000000 61.426002502441 129 129 129
12.750000000000 15.953125000000 61.485000610352 143 143 143
12.750000000000 15.953125000000 61.545997619629 136 136 136
12.781250000000 15.953125000000 61.606002807617 145 145 145
12.781250000000 15.953125000000 61.665000915527 148 148 148
12.750000000000 15.953125000000 61.737998962402 134 134 134
12.781250000000 15.953125000000 61.794998168945 137 137 137
12.781250000000 15.937500000000 61.854995727539 140 140 140
12.781250000000 16.296875000000 54.954002380371 188 188 188
12.781250000000 16.296875000000 54.988998413086 184 184 184
12.781250000000 16.296875000000 55.025001525879 184 184 184
12.781250000000 16.296875000000 55.057998657227 182 182 182
12.781250000000 16.296875000000 55.094001770020 180 180 180
12.781250000000 16.296875000000 55.126998901367 183 183 183
12.781250000000 16.296875000000 55.162002563477 183 183 183
12.781250000000 16.296875000000 55.195999145508 189 189 189
12.781250000000 16.296875000000 55.233001708984 190 190 190
12.781250000000 16.296875000000 55.264999389648 183 183 183
12.781250000000 16.296875000000 55.298995971680 188 188 188
12.781250000000 16.296875000000 55.333999633789 190 190 190
12.781250000000 16.296875000000 55.366996765137 184 184 184
12.781250000000 16.296875000000 55.402000427246 189 189 189
12.781250000000 16.296875000000 55.435997009277 179 179 179
12.781250000000 16.296875000000 55.471000671387 179 179 179
12.781250000000 16.296875000000 55.503997802734 181 181 181
12.781250000000 16.296875000000 55.539001464844 183 183 183
12.781250000000 16.296875000000 55.571998596191 187 187 187
12.781250000000 16.296875000000 55.606002807617 180 180 180
12.781250000000 16.296875000000 55.639999389648 192 192 192
12.781250000000 16.296875000000 55.673995971680 193 193 193
12.781250000000 16.296875000000 55.708000183105 196 196 196
12.750000000000 16.296875000000 55.740997314453 198 198 198
12.781250000000 16.296875000000 55.776000976563 201 201 201
12.750000000000 16.296875000000 55.808998107910 201 201 201
12.781250000000 16.296875000000 55.843002319336 202 202 202
12.750000000000 16.296875000000 55.875999450684 196 196 196
12.750000000000 16.296875000000 55.908996582031 203 203 203
12.750000000000 16.296875000000 55.944000244141 218 218 218
12.718750000000 16.296875000000 55.976997375488 209 209 209
12.750000000000 16.296875000000 56.011001586914 198 198 198
12.750000000000 16.296875000000 56.044998168945 200 200 200
12.718750000000 16.312500000000 56.079002380371 204 204 204
12.718750000000 16.296875000000 56.112998962402 221 221 221
12.718750000000 16.296875000000 56.146995544434 204 204 204
12.718750000000 16.312500000000 56.180999755859 197 197 197
12.718750000000 16.312500000000 56.214996337891 203 203 203
12.718750000000 16.296875000000 56.249000549316 204 204 204
12.750000000000 16.296875000000 54.906997680664 147 147 147
12.562500000000 6.890625000000 61.385002136230 125 125 125
12.562500000000 6.875000000000 61.323997497559 123 123 123
12.562500000000 6.890625000000 61.259002685547 131 131 131
12.562500000000 6.890625000000 61.204002380371 136 136 136
12.562500000000 6.875000000000 61.139999389648 133 133 133
12.562500000000 6.875000000000 61.082000732422 134 134 134
12.562500000000 6.875000000000 61.023002624512 138 138 138
12.562500000000 6.875000000000 60.960998535156 135 135 135
12.562500000000 6.875000000000 60.904998779297 140 140 140
12.562500000000 6.875000000000 60.846000671387 142 142 142
12.562500000000 6.875000000000 60.791999816895 143 143 143
12.562500000000 6.875000000000 60.731002807617 141 141 141
12.562500000000 6.875000000000 60.676002502441 143 143 143
12.562500000000 6.875000000000 60.616996765137 150 150 150
12.562500000000 6.875000000000 60.562995910645 143 143 143
12.562500000000 6.875000000000 60.507995605469 144 144 144
12.562500000000 6.875000000000 60.444000244141 121 121 121
12.562500000000 6.875000000000 60.395996093750 137 137 137
12.562500000000 6.875000000000 60.349998474121 150 150 150
12.562500000000 6.875000000000 60.291999816895 149 149 149
12.562500000000 6.875000000000 60.237998962402 141 141 141
12.562500000000 6.875000000000 60.181999206543 140 140 140
12.562500000000 6.875000000000 60.131996154785 145 145 145
12.562500000000 6.875000000000 60.076995849609 143 143 143
12.562500000000 6.875000000000 60.026000976563 141 141 141
12.562500000000 6.875000000000 59.971000671387 139 139 139
12.562500000000 6.875000000000 59.923995971680 127 127 127
12.562500000000 6.875000000000 59.874000549316 130 130 130
12.562500000000 6.875000000000 59.822998046875 133 133 133
12.562500000000 6.875000000000 59.768997192383 130 130 130
12.562500000000 6.875000000000 59.724998474121 137 137 137
12.562500000000 6.875000000000 59.677001953125 127 127 127
12.562500000000 6.875000000000 59.625999450684 124 124 124
12.562500000000 6.875000000000 59.573997497559 130 130 130
12.562500000000 6.875000000000 59.526000976563 133 133 133
12.562500000000 6.859375000000 59.471000671387 134 134 134
12.562500000000 6.875000000000 59.427001953125 131 131 131
12.562500000000 6.859375000000 59.379997253418 131 131 131
12.562500000000 6.859375000000 59.332000732422 125 125 125
12.562500000000 6.875000000000 59.281997680664 130 130 130
12.562500000000 6.859375000000 59.231002807617 124 124 124
12.562500000000 6.875000000000 59.194999694824 141 141 141
12.562500000000 6.875000000000 59.139999389648 130 130 130
12.562500000000 6.875000000000 59.094001770020 139 139 139
12.562500000000 6.859375000000 59.044998168945 125 125 125
12.562500000000 6.859375000000 59.002998352051 130 130 130
12.562500000000 6.859375000000 58.952995300293 126 126 126
12.562500000000 6.859375000000 58.910995483398 120 120 120
12.562500000000 6.843750000000 58.859001159668 120 120 120
12.562500000000 6.843750000000 58.813995361328 122 122 122
12.562500000000 6.859375000000 58.776000976563 115 115 115
12.562500000000 6.859375000000 58.724998474121 113 113 113
12.562500000000 6.859375000000 58.682998657227 124 124 124
12.562500000000 6.859375000000 58.635002136230 115 115 115
12.562500000000 6.859375000000 58.592002868652 122 122 122
12.562500000000 6.859375000000 58.551002502441 122 122 122
12.562500000000 6.859375000000 58.505996704102 122 122 122
12.562500000000 6.859375000000 58.460998535156 125 125 125
12.562500000000 6.859375000000 58.420997619629 126 126 126
12.562500000000 6.859375000000 58.375999450684 120 120 120
12.562500000000 6.843750000000 58.327995300293 120 120 120
12.562500000000 6.859375000000 58.288002014160 129 129 129
12.562500000000 6.859375000000 58.243995666504 126 126 126
12.562500000000 6.859375000000 58.200996398926 140 140 140
12.562500000000 6.859375000000 58.159996032715 145 145 145
12.562500000000 6.859375000000 58.115997314453 145 145 145
12.562500000000 6.859375000000 58.072998046875 147 147 147
12.562500000000 6.843750000000 58.027999877930 151 151 151
12.562500000000 6.843750000000 57.986000061035 150 150 150
12.562500000000 6.859375000000 57.945999145508 147 147 147
12.562500000000 6.859375000000 57.903999328613 157 157 157
12.562500000000 6.843750000000 57.860000610352 160 160 160
12.562500000000 6.843750000000 57.818000793457 151 151 151
12.562500000000 6.843750000000 57.777000427246 150 150 150
12.562500000000 6.859375000000 57.736000061035 154 154 154
12.562500000000 6.843750000000 57.694000244141 160 160 160
12.562500000000 6.859375000000 57.652999877930 159 159 159
12.562500000000 6.843750000000 57.611000061035 161 161 161
12.562500000000 6.859375000000 57.569999694824 165 165 165
12.562500000000 6.843750000000 57.527999877930 173 173 173
12.562500000000 6.843750000000 57.486000061035 165 165 165
12.562500000000 6.843750000000 57.445999145508 166 166 166
12.562500000000 6.843750000000 57.404998779297 168 168 168
12.531250000000 6.843750000000 57.365997314453 164 164 164
12.531250000000 6.843750000000 57.323997497559 172 172 172
12.562500000000 6.843750000000 57.281997680664 166 166 166
12.531250000000 6.843750000000 57.242996215820 173 173 173
12.562500000000 6.843750000000 57.201995849609 179 179 179
12.562500000000 6.843750000000 57.159996032715 173 173 173
12.562500000000 6.843750000000 57.120002746582 176 176 176
12.562500000000 6.843750000000 57.079002380371 178 178 178
12.562500000000 6.843750000000 57.039001464844 181 181 181
12.562500000000 6.843750000000 56.999000549316 188 188 188
12.562500000000 6.843750000000 56.958000183105 177 177 177
12.562500000000 6.843750000000 56.918998718262 185 185 185
12.562500000000 6.843750000000 56.877998352051 184 184 184
12.562500000000 6.843750000000 56.838996887207 186 186 186
12.562500000000 6.843750000000 56.797996520996 188 188 188
12.562500000000 6.843750000000 56.757995605469 192 192 192
12.562500000000 6.843750000000 56.718002319336 193 193 193
12.531250000000 6.843750000000 56.679000854492 196 196 196
12.562500000000 6.843750000000 56.638000488281 195 195 195
12.562500000000 6.828125000000 56.597999572754 197 197 197
12.562500000000 6.828125000000 56.557998657227 195 195 195
12.562500000000 6.843750000000 56.518997192383 196 196 196
12.531250000000 6.843750000000 56.478996276855 200 200 200
12.562500000000 6.828125000000 56.438995361328 201 201 201
12.562500000000 6.828125000000 56.399002075195 201 201 201
12.562500000000 6.828125000000 56.359001159668 201 201 201
12.562500000000 6.843750000000 56.319000244141 204 204 204
12.531250000000 6.843750000000 56.279998779297 199 199 199
12.531250000000 6.843750000000 56.239997863770 198 198 198
12.531250000000 6.843750000000 56.199996948242 199 199 199
12.562500000000 6.828125000000 56.159996032715 200 200 200
12.531250000000 6.843750000000 56.120002746582 204 204 204
12.562500000000 6.828125000000 56.081001281738 203 203 203
12.531250000000 6.843750000000 56.041000366211 200 200 200
12.531250000000 6.843750000000 56.000999450684 200 200 200
12.531250000000 6.843750000000 55.960998535156 202 202 202
12.531250000000 6.843750000000 55.920997619629 199 199 199
12.531250000000 6.843750000000 55.880996704102 204 204 204
12.531250000000 6.828125000000 55.840995788574 198 198 198
12.531250000000 6.843750000000 55.801002502441 196 196 196
12.531250000000 6.843750000000 55.760002136230 205 205 205
12.531250000000 6.843750000000 55.720001220703 199 199 199
12.531250000000 6.843750000000 55.680000305176 198 198 198
12.531250000000 6.843750000000 55.639999389648 205 205 205
12.531250000000 6.843750000000 55.599998474121 198 198 198
12.531250000000 6.843750000000 55.559997558594 201 201 201
12.531250000000 6.843750000000 55.518997192383 199 199 199
12.531250000000 6.843750000000 55.477996826172 200 200 200
12.531250000000 6.843750000000 55.437995910645 200 200 200
12.531250000000 6.828125000000 55.396995544434 201 201 201
12.531250000000 6.843750000000 55.357002258301 195 195 195
12.531250000000 6.843750000000 55.317001342773 198 198 198
12.531250000000 6.843750000000 55.276000976563 195 195 195
12.531250000000 6.828125000000 55.235000610352 198 198 198
12.531250000000 6.843750000000 55.194999694824 194 194 194
12.531250000000 6.843750000000 55.153999328613 194 194 194
12.531250000000 6.828125000000 55.111999511719 189 189 189
12.531250000000 6.828125000000 55.070999145508 196 196 196
12.531250000000 6.828125000000 55.029998779297 191 191 191
12.531250000000 6.843750000000 54.987998962402 191 191 191
12.531250000000 6.828125000000 54.946998596191 187 187 187
12.531250000000 6.828125000000 54.905998229980 180 180 180
12.531250000000 6.828125000000 54.863998413086 181 181 181
12.531250000000 6.843750000000 54.820999145508 185 185 185
12.531250000000 6.843750000000 54.778999328613 180 180 180
12.531250000000 6.828125000000 54.738998413086 180 180 180
12.531250000000 6.843750000000 54.694999694824 187 187 187
12.531250000000 6.828125000000 54.653999328613 182 182 182
12.500000000000 6.843750000000 54.610000610352 166 166 166
12.500000000000 6.843750000000 54.567001342773 165 165 165
12.531250000000 6.828125000000 54.527999877930 169 169 169
12.531250000000 6.828125000000 54.483001708984 162 162 162
12.531250000000 6.828125000000 54.442001342773 132 132 132
12.531250000000 6.828125000000 54.399002075195 133 133 133
12.531250000000 6.828125000000 54.357002258301 129 129 129
12.531250000000 6.828125000000 54.313995361328 149 149 149
12.531250000000 6.828125000000 54.271995544434 92 92 92
12.531250000000 6.828125000000 54.225997924805 84 84 84
12.562500000000 6.812500000000 54.196998596191 106 106 106
12.562500000000 6.812500000000 54.152000427246 98 98 98
12.531250000000 6.828125000000 54.097999572754 89 89 89
12.500000000000 7.250000000000 60.311996459961 102 102 102
12.500000000000 7.218750000000 59.239997863770 135 135 135
12.468750000000 7.234375000000 59.202995300293 14 14 14
