11.500000000000 5.625000000000 64.264999389648 163 163 163
11.500000000000 5.687500000000 64.381004333496 165 165 165
11.500000000000 5.687500000000 64.500000000000 100 100 100
11.500000000000 5.625000000000 64.623001098633 132 132 132
11.437500000000 5.812500000000 63.194000244141 85 85 85
11.437500000000 5.687500000000 64.202003479004 36 36 36
11.437500000000 5.687500000000 64.319000244141 73 73 73
11.437500000000 5.687500000000 64.440002441406 113 113 113
11.500000000000 5.812500000000 64.516998291016 91 91 91
11.437500000000 5.875000000000 63.205001831055 116 116 116
11.437500000000 6.062500000000 63.223999023438 53 53 53
11.375000000000 5.937500000000 64.374000549316 50 50 50
11.250000000000 6.062500000000 64.282997131348 16 16 16
11.250000000000 6.187500000000 63.166000366211 65 65 65
11.250000000000 6.375000000000 63.181999206543 114 114 114
11.125000000000 6.437500000000 63.201000213623 95 95 95
11.062500000000 6.562500000000 63.222999572754 23 23 23
11.062500000000 6.562500000000 64.030998229980 24 24 24
11.000000000000 6.687500000000 63.144001007080 50 50 50
11.062500000000 6.687500000000 63.230003356934 27 27 27
11.000000000000 6.812500000000 63.152000427246 86 86 86
11.000000000000 6.937500000000 62.840003967285 57 57 57
11.000000000000 6.937500000000 63.165000915527 103 103 103
11.000000000000 6.937500000000 63.861003875732 14 14 14
10.937500000000 7.062500000000 62.857002258301 93 93 93
10.937500000000 7.062500000000 63.181999206543 95 95 95
10.937500000000 7.062500000000 63.765998840332 24 24 24
10.875000000000 7.187500000000 62.873001098633 41 41 41
10.875000000000 7.187500000000 63.202999114990 17 17 17
10.750000000000 7.437500000000 63.131000518799 65 65 65
10.687500000000 7.437500000000 63.600002288818 30 30 30
10.687500000000 7.437500000000 63.149002075195 103 103 103
10.687500000000 7.687500000000 62.833000183105 91 91 91
10.687500000000 7.687500000000 63.161998748779 88 88 88
10.625000000000 7.687500000000 62.850002288818 93 93 93
10.625000000000 7.812500000000 63.188999176025 22 22 22
10.625000000000 7.687500000000 63.425998687744 23 23 23
10.562500000000 7.937500000000 62.861003875732 61 61 61
10.500000000000 7.937500000000 62.875999450684 21 21 21
10.500000000000 7.937500000000 63.108001708984 21 21 21
10.437500000000 8.062500000000 62.893001556396 79 79 79
10.437500000000 8.062500000000 63.013999938965 77 77 77
10.500000000000 8.125000000000 63.116001129150 79 79 79
10.375000000000 8.187500000000 62.908000946045 194 194 194
10.375000000000 8.187500000000 63.027000427246 211 211 211
10.437500000000 8.187500000000 63.129001617432 99 99 99
10.312500000000 8.312500000000 62.804000854492 20 20 20
10.312500000000 8.312500000000 62.921001434326 164 164 164
10.312500000000 8.312500000000 63.041000366211 192 192 192
10.375000000000 8.375000000000 63.145999908447 104 104 104
10.250000000000 8.437500000000 62.819999694824 88 88 88
10.312500000000 8.437500000000 62.935001373291 130 130 130
10.312500000000 8.437500000000 63.052001953125 133 133 133
10.375000000000 8.437500000000 63.154998779297 53 53 53
10.250000000000 8.562500000000 62.828998565674 149 149 149
10.250000000000 8.562500000000 62.953998565674 93 93 93
10.250000000000 8.562500000000 63.071998596191 72 72 72
10.187500000000 8.687500000000 62.850002288818 199 199 199
10.187500000000 8.687500000000 62.970001220703 168 168 168
10.187500000000 8.687500000000 63.089000701904 30 30 30
10.125000000000 8.750000000000 62.864002227783 209 209 209
10.125000000000 8.750000000000 62.987003326416 126 126 126
10.187500000000 8.812500000000 63.088001251221 30 30 30
10.125000000000 8.937500000000 62.881999969482 207 207 207
10.125000000000 8.937500000000 63.004001617432 176 176 176
10.125000000000 8.937500000000 63.109001159668 80 80 80
10.062500000000 9.062500000000 62.895000457764 185 185 185
10.062500000000 9.000000000000 63.020000457764 205 205 205
10.062500000000 9.062500000000 63.122001647949 100 100 100
9.937500000000 9.187500000000 62.793998718262 87 87 87
9.937500000000 9.187500000000 62.913002014160 145 145 145
9.937500000000 9.187500000000 63.034999847412 161 161 161
10.000000000000 9.187500000000 63.137001037598 84 84 84
9.875000000000 9.250000000000 62.805000305176 118 118 118
9.875000000000 9.250000000000 62.931999206543 165 165 165
9.875000000000 9.250000000000 63.048000335693 103 103 103
10.000000000000 9.312500000000 63.150001525879 47 47 47
9.875000000000 9.312500000000 62.813999176025 143 143 143
9.875000000000 9.312500000000 62.937999725342 164 164 164
9.875000000000 9.312500000000 63.062999725342 52 52 52
9.875000000000 9.437500000000 62.825000762939 183 183 183
9.875000000000 9.437500000000 62.951999664307 126 126 126
9.750000000000 9.562500000000 62.840003967285 212 212 212
9.750000000000 9.562500000000 62.965003967285 127 127 127
9.750000000000 9.687500000000 62.848999023438 201 201 201
9.750000000000 9.750000000000 62.976001739502 162 162 162
9.750000000000 9.687500000000 63.085998535156 34 34 34
9.687500000000 9.812500000000 62.861003875732 204 204 204
9.687500000000 9.812500000000 62.990001678467 209 209 209
9.687500000000 9.812500000000 63.100002288818 80 80 80
9.625000000000 9.937500000000 62.875000000000 168 168 168
9.625000000000 9.937500000000 63.006999969482 213 213 213
9.687500000000 9.937500000000 63.111003875732 93 93 93
9.562500000000 10.062500000000 62.887001037598 212 212 212
9.562500000000 10.062500000000 63.019001007080 191 191 191
9.625000000000 10.125000000000 63.125999450684 79 79 79
9.562500000000 10.187500000000 62.770000457764 46 46 46
9.625000000000 10.187500000000 63.139999389648 34 34 34
9.500000000000 10.312500000000 62.784000396729 69 69 69
9.500000000000 10.437500000000 62.796001434326 69 69 69
9.500000000000 10.437500000000 63.173999786377 44 44 44
9.375000000000 10.562500000000 62.811000823975 52 52 52
9.312500000000 10.687500000000 62.821998596191 20 20 20
9.375000000000 10.812500000000 63.082000732422 35 35 35
9.375000000000 10.937500000000 63.087001800537 62 62 62
9.250000000000 10.937500000000 63.364002227783 9 9 9
9.250000000000 11.062500000000 63.103000640869 72 72 72
9.250000000000 11.062500000000 63.374000549316 14 14 14
9.187500000000 11.187500000000 63.111003875732 90 90 90
9.125000000000 11.187500000000 63.125000000000 77 77 77
9.125000000000 11.375000000000 63.138000488281 75 75 75
8.937500000000 11.437500000000 62.904998779297 73 73 73
9.000000000000 11.500000000000 63.034999847412 74 74 74
9.062500000000 11.562500000000 63.149002075195 27 27 27
9.000000000000 11.500000000000 63.575000762939 21 21 21
8.937500000000 11.562500000000 63.594001770020 14 14 14
8.812500000000 12.125000000000 63.084999084473 40 40 40
8.750000000000 12.062500000000 63.804000854492 22 22 22
8.812500000000 12.187500000000 63.094001770020 62 62 62
8.750000000000 12.187500000000 63.805999755859 18 18 18
8.750000000000 12.312500000000 63.109001159668 80 80 80
8.687500000000 12.437500000000 63.121002197266 88 88 88
8.625000000000 12.562500000000 63.127002716064 73 73 73
8.562500000000 12.687500000000 63.144001007080 69 69 69
8.562500000000 12.687500000000 64.025001525879 14 14 14
8.500000000000 12.812500000000 63.152999877930 31 31 31
8.812500000000 13.062500000000 57.677001953125 182 182 182
8.812500000000 13.062500000000 57.812999725342 186 186 186
8.750000000000 13.062500000000 57.944000244141 187 187 187
8.812500000000 13.062500000000 58.081001281738 156 156 156
8.750000000000 13.062500000000 58.212001800537 159 159 159
8.750000000000 13.062500000000 58.345001220703 145 145 145
8.750000000000 13.062500000000 58.477001190186 134 134 134
8.750000000000 13.062500000000 58.609001159668 131 131 131
8.750000000000 13.062500000000 58.740001678467 128 128 128
8.687500000000 13.062500000000 58.870002746582 121 121 121
8.687500000000 13.062500000000 59.000000000000 98 98 98
8.687500000000 13.062500000000 59.129001617432 76 76 76
8.625000000000 13.187500000000 57.498001098633 234 234 234
8.750000000000 13.187500000000 57.657001495361 153 153 153
8.750000000000 13.187500000000 57.798999786377 160 160 160
8.750000000000 13.187500000000 57.930000305176 181 181 181
8.750000000000 13.187500000000 58.065002441406 184 184 184
8.750000000000 13.187500000000 58.197002410889 178 178 178
8.750000000000 13.187500000000 58.331001281738 168 168 168
8.750000000000 13.187500000000 58.466999053955 160 160 160
8.625000000000 13.187500000000 58.597999572754 179 179 179
8.625000000000 13.187500000000 58.732002258301 185 185 185
8.625000000000 13.187500000000 58.863002777100 193 193 193
8.625000000000 13.187500000000 58.996002197266 186 186 186
8.625000000000 13.187500000000 59.128002166748 198 198 198
8.625000000000 13.187500000000 59.257999420166 184 184 184
8.625000000000 13.187500000000 59.389999389648 188 188 188
8.625000000000 13.187500000000 59.521999359131 189 189 189
8.625000000000 13.187500000000 59.652999877930 203 203 203
8.625000000000 13.187500000000 59.784000396729 194 194 194
8.625000000000 13.187500000000 59.915000915527 189 189 189
8.562500000000 13.187500000000 60.046001434326 204 204 204
8.562500000000 13.187500000000 60.178001403809 204 204 204
8.562500000000 13.187500000000 60.309001922607 189 189 189
8.562500000000 13.187500000000 60.441001892090 199 199 199
8.562500000000 13.187500000000 60.573001861572 208 208 208
8.562500000000 13.187500000000 60.705001831055 196 196 196
8.500000000000 13.062500000000 60.838001251221 194 194 194
8.500000000000 13.062500000000 60.971000671387 205 205 205
8.500000000000 13.062500000000 61.105003356934 191 191 191
8.500000000000 13.062500000000 61.238002777100 179 179 179
8.500000000000 13.062500000000 61.372001647949 166 166 166
8.500000000000 13.062500000000 61.506000518799 155 155 155
8.500000000000 13.062500000000 61.641002655029 151 151 151
8.500000000000 13.062500000000 61.777999877930 146 146 146
8.500000000000 13.062500000000 61.914001464844 140 140 140
8.500000000000 13.062500000000 62.051002502441 142 142 142
8.500000000000 13.062500000000 62.188999176025 130 130 130
8.500000000000 13.062500000000 62.327999114990 125 125 125
8.500000000000 13.062500000000 62.465999603271 125 125 125
8.500000000000 13.062500000000 62.608001708984 124 124 124
8.500000000000 13.062500000000 62.748001098633 117 117 117
8.437500000000 13.062500000000 62.892002105713 112 112 112
8.437500000000 13.062500000000 63.036998748779 97 97 97
8.500000000000 13.062500000000 63.172000885010 61 61 61
8.437500000000 13.062500000000 63.326000213623 94 94 94
8.437500000000 13.062500000000 63.471000671387 81 81 81
8.437500000000 13.062500000000 63.618000030518 74 74 74
8.437500000000 13.062500000000 63.767002105713 66 66 66
8.437500000000 13.062500000000 63.913002014160 59 59 59
8.375000000000 12.937500000000 64.066001892090 69 69 69
8.375000000000 12.937500000000 64.215003967285 26 26 26
8.500000000000 13.250000000000 60.442001342773 103 103 103
8.500000000000 13.250000000000 60.575000762939 110 110 110
8.500000000000 13.250000000000 60.708999633789 105 105 105
8.500000000000 13.250000000000 60.841999053955 116 116 116
8.500000000000 13.250000000000 60.976001739502 115 115 115
8.500000000000 13.250000000000 61.109001159668 112 112 112
8.500000000000 13.250000000000 61.244003295898 115 115 115
8.437500000000 13.187500000000 61.378002166748 116 116 116
8.437500000000 13.187500000000 61.513999938965 128 128 128
8.437500000000 13.187500000000 61.649002075195 136 136 136
8.437500000000 13.187500000000 61.787002563477 140 140 140
8.437500000000 13.187500000000 61.924999237061 131 131 131
8.437500000000 13.187500000000 62.061000823975 135 135 135
8.437500000000 13.187500000000 62.201000213623 139 139 139
8.437500000000 13.187500000000 62.339000701904 142 142 142
8.437500000000 13.187500000000 62.477001190186 147 147 147
8.437500000000 13.187500000000 62.619003295898 153 153 153
8.437500000000 13.187500000000 62.758998870850 155 155 155
8.437500000000 13.187500000000 62.900001525879 159 159 159
8.437500000000 13.187500000000 63.043998718262 157 157 157
8.437500000000 13.187500000000 63.189998626709 135 135 135
8.437500000000 13.187500000000 63.335998535156 161 161 161
8.437500000000 13.187500000000 63.482002258301 169 169 169
8.437500000000 13.187500000000 63.629001617432 174 174 174
8.437500000000 13.187500000000 63.775001525879 171 171 171
8.375000000000 13.125000000000 63.925998687744 177 177 177
8.375000000000 13.125000000000 64.079002380371 168 168 168
8.375000000000 13.125000000000 64.231002807617 150 150 150
11.687500000000 5.312500000000 58.194999694824 184 184 184
11.750000000000 5.312500000000 58.284999847412 172 172 172
11.687500000000 5.312500000000 58.366001129150 130 130 130
11.687500000000 5.312500000000 58.445999145508 131 131 131
11.687500000000 5.312500000000 58.534999847412 96 96 96
11.687500000000 5.312500000000 58.618000030518 96 96 96
11.687500000000 5.312500000000 58.701000213623 92 92 92
11.687500000000 5.312500000000 58.780002593994 87 87 87
11.687500000000 5.312500000000 58.863002777100 75 75 75
11.687500000000 5.312500000000 58.944000244141 33 33 33
11.625000000000 5.312500000000 59.255001068115 189 189 189
11.625000000000 5.312500000000 59.337001800537 191 191 191
11.625000000000 5.312500000000 59.500000000000 225 225 225
11.625000000000 5.312500000000 59.660999298096 211 211 211
11.687500000000 5.437500000000 59.034000396729 178 178 178
11.687500000000 5.437500000000 59.114002227783 181 181 181
11.687500000000 5.437500000000 59.194000244141 191 191 191
11.687500000000 5.437500000000 59.274002075195 189 189 189
11.687500000000 5.437500000000 59.354000091553 190 190 190
11.687500000000 5.437500000000 59.434001922607 188 188 188
11.687500000000 5.437500000000 59.512001037598 191 191 191
11.687500000000 5.437500000000 59.590999603271 192 192 192
11.687500000000 5.437500000000 59.670001983643 190 190 190
11.687500000000 5.437500000000 59.750000000000 194 194 194
11.687500000000 5.500000000000 59.827999114990 198 198 198
11.687500000000 5.500000000000 59.907001495361 191 191 191
11.687500000000 5.500000000000 59.986000061035 200 200 200
11.687500000000 5.500000000000 60.065002441406 199 199 199
11.687500000000 5.500000000000 60.144001007080 190 190 190
11.687500000000 5.500000000000 60.223999023438 196 196 196
11.687500000000 5.500000000000 60.303001403809 196 196 196
11.687500000000 5.500000000000 60.382999420166 185 185 185
11.687500000000 5.500000000000 60.462001800537 197 197 197
11.687500000000 5.500000000000 60.541999816895 193 193 193
11.687500000000 5.500000000000 60.623001098633 194 194 194
11.687500000000 5.500000000000 60.702999114990 193 193 193
11.687500000000 5.500000000000 60.783000946045 193 193 193
11.687500000000 5.437500000000 60.866001129150 194 194 194
11.687500000000 5.437500000000 60.947002410889 186 186 186
11.687500000000 5.437500000000 61.028999328613 189 189 189
11.687500000000 5.437500000000 61.110000610352 188 188 188
11.687500000000 5.437500000000 61.193000793457 192 192 192
11.687500000000 5.437500000000 61.275001525879 195 195 195
11.687500000000 5.437500000000 61.359001159668 190 190 190
11.687500000000 5.437500000000 61.442001342773 179 179 179
11.687500000000 5.437500000000 61.526000976563 187 187 187
11.687500000000 5.437500000000 61.612003326416 184 184 184
11.687500000000 5.437500000000 61.698001861572 184 184 184
11.687500000000 5.437500000000 61.784000396729 183 183 183
11.687500000000 5.437500000000 61.872001647949 180 180 180
11.687500000000 5.437500000000 61.961002349854 183 183 183
11.625000000000 5.437500000000 62.052001953125 173 173 173
11.625000000000 5.437500000000 62.141002655029 162 162 162
11.625000000000 5.437500000000 62.228000640869 151 151 151
11.562500000000 5.437500000000 62.322002410889 132 132 132
11.625000000000 5.437500000000 62.409999847412 118 118 118
11.562500000000 5.437500000000 62.502002716064 109 109 109
11.562500000000 5.437500000000 62.594001770020 99 99 99
11.562500000000 5.437500000000 62.688999176025 86 86 86
11.562500000000 5.437500000000 62.791999816895 61 61 61
11.875000000000 5.625000000000 58.487003326416 255 255 255
11.562500000000 5.687500000000 61.884002685547 21 21 21
11.562500000000 5.625000000000 61.964000701904 75 75 75
11.562500000000 5.625000000000 62.049999237061 93 93 93
11.562500000000 5.625000000000 62.137001037598 117 117 117
11.562500000000 5.625000000000 62.228000640869 116 116 116
11.562500000000 5.625000000000 62.315002441406 116 116 116
11.562500000000 5.687500000000 62.409999847412 123 123 123
11.562500000000 5.687500000000 62.499000549316 127 127 127
11.562500000000 5.625000000000 62.583999633789 142 142 142
11.562500000000 5.625000000000 62.680999755859 152 152 152
11.562500000000 5.625000000000 62.774002075195 151 151 151
11.562500000000 5.625000000000 62.867000579834 153 153 153
11.562500000000 5.687500000000 62.965003967285 146 146 146
11.562500000000 5.625000000000 63.059001922607 146 146 146
11.562500000000 5.687500000000 63.156002044678 156 156 156
11.562500000000 5.687500000000 63.257999420166 131 131 131
11.562500000000 5.562500000000 63.359001159668 156 156 156
11.562500000000 5.562500000000 63.458000183105 155 155 155
11.562500000000 5.687500000000 63.555999755859 155 155 155
11.562500000000 5.562500000000 63.661998748779 159 159 159
11.562500000000 5.562500000000 63.768001556396 161 161 161
11.562500000000 5.562500000000 63.874000549316 153 153 153
11.562500000000 5.562500000000 63.983001708984 157 157 157
11.562500000000 5.562500000000 64.093002319336 159 159 159
11.562500000000 5.562500000000 64.201004028320 147 147 147
11.562500000000 5.562500000000 64.324996948242 155 155 155
11.562500000000 5.562500000000 64.440002441406 149 149 149
11.562500000000 5.562500000000 64.557998657227 153 153 153
11.562500000000 5.562500000000 64.664001464844 61 61 61
11.437500000000 5.812500000000 63.205001831055 109 109 109
11.437500000000 5.750000000000 64.413002014160 23 23 23
11.437500000000 5.812500000000 64.466003417969 16 16 16
11.437500000000 5.875000000000 63.227001190186 40 40 40
11.312500000000 5.937500000000 64.427001953125 22 22 22
11.312500000000 6.062500000000 63.173000335693 38 38 38
11.312500000000 6.187500000000 63.191001892090 121 121 121
11.250000000000 6.312500000000 63.213001251221 72 72 72
11.062500000000 6.562500000000 63.167999267578 113 113 113
11.000000000000 6.812500000000 63.192001342773 117 117 117
10.875000000000 7.062500000000 62.840003967285 83 83 83
10.937500000000 7.062500000000 63.142002105713 74 74 74
10.875000000000 7.187500000000 62.858001708984 95 95 95
10.875000000000 7.187500000000 63.158000946045 111 111 111
10.750000000000 7.312500000000 63.178001403809 85 85 85
10.750000000000 7.312500000000 63.620002746582 35 35 35
10.687500000000 7.437500000000 63.540000915527 49 49 49
10.625000000000 7.562500000000 62.827999114990 64 64 64
10.687500000000 7.625000000000 63.125000000000 89 89 89
10.625000000000 7.562500000000 63.459999084473 22 22 22
10.562500000000 7.750000000000 62.846000671387 104 104 104
10.625000000000 7.812500000000 63.146999359131 101 101 101
10.562500000000 7.750000000000 63.374000549316 5 5 5
10.562500000000 7.937500000000 62.864002227783 57 57 57
10.562500000000 7.937500000000 63.175998687744 39 39 39
10.437500000000 8.062500000000 62.896999359131 152 152 152
10.437500000000 8.062500000000 63.006999969482 159 159 159
10.437500000000 8.062500000000 63.109001159668 90 90 90
10.375000000000 8.187500000000 62.811000823975 26 26 26
10.312500000000 8.187500000000 62.918998718262 90 90 90
10.312500000000 8.187500000000 63.033000946045 179 179 179
10.437500000000 8.187500000000 63.116001129150 101 101 101
10.312500000000 8.312500000000 62.833000183105 132 132 132
10.312500000000 8.312500000000 62.944999694824 124 124 124
10.312500000000 8.312500000000 63.052001953125 156 156 156
10.375000000000 8.437500000000 63.138999938965 104 104 104
10.250000000000 8.562500000000 62.857002258301 189 189 189
10.250000000000 8.562500000000 62.964000701904 105 105 105
10.250000000000 8.562500000000 63.068000793457 43 43 43
10.250000000000 8.500000000000 63.161998748779 41 41 41
10.187500000000 8.687500000000 62.880001068115 182 182 182
10.187500000000 8.687500000000 62.990001678467 155 155 155
10.125000000000 8.812500000000 62.791999816895 47 47 47
10.125000000000 8.812500000000 62.901000976563 119 119 119
10.125000000000 8.812500000000 63.011001586914 197 197 197
10.187500000000 8.812500000000 63.101001739502 80 80 80
10.062500000000 8.937500000000 62.812000274658 127 127 127
10.062500000000 8.937500000000 62.924999237061 164 164 164
10.125000000000 8.937500000000 63.028999328613 127 127 127
10.125000000000 8.937500000000 63.114002227783 107 107 107
10.000000000000 9.062500000000 62.838001251221 192 192 192
10.000000000000 9.062500000000 62.950000762939 169 169 169
10.000000000000 9.125000000000 63.052001953125 85 85 85
10.000000000000 9.062500000000 63.140998840332 80 80 80
9.875000000000 9.187500000000 62.853000640869 192 192 192
9.875000000000 9.250000000000 62.969001770020 182 182 182
9.875000000000 9.312500000000 62.877002716064 151 151 151
9.875000000000 9.375000000000 62.993000030518 189 189 189
9.937500000000 9.437500000000 63.085998535156 20 20 20
9.812500000000 9.562500000000 62.788002014160 75 75 75
9.812500000000 9.562500000000 62.896999359131 170 170 170
9.812500000000 9.562500000000 63.014999389648 169 169 169
9.937500000000 9.562500000000 63.096000671387 92 92 92
9.750000000000 9.687500000000 62.805999755859 137 137 137
9.687500000000 9.687500000000 62.923999786377 187 187 187
9.750000000000 9.687500000000 63.034999847412 99 99 99
9.812500000000 9.687500000000 63.117000579834 100 100 100
9.687500000000 9.812500000000 62.826000213623 186 186 186
9.687500000000 9.812500000000 62.944000244141 189 189 189
9.687500000000 9.812500000000 63.050998687744 8 8 8
9.687500000000 9.812500000000 63.147998809814 25 25 25
9.562500000000 9.937500000000 62.844001770020 197 197 197
9.562500000000 9.937500000000 62.964000701904 171 171 171
9.625000000000 10.187500000000 63.077999114990 66 66 66
9.500000000000 10.312500000000 62.763000488281 16 16 16
9.625000000000 10.250000000000 63.091999053955 94 94 94
9.500000000000 10.437500000000 62.784999847412 77 77 77
9.500000000000 10.312500000000 63.109001159668 113 113 113
9.375000000000 10.500000000000 62.798000335693 80 80 80
9.437500000000 10.562500000000 63.129001617432 79 79 79
9.312500000000 10.687500000000 62.814998626709 43 43 43
9.375000000000 10.687500000000 63.137001037598 29 29 29
9.250000000000 10.937500000000 63.076999664307 2 2 2
9.187500000000 11.125000000000 63.088001251221 50 50 50
9.062500000000 11.312500000000 62.777999877930 2 2 2
9.125000000000 11.187500000000 63.103000640869 103 103 103
9.000000000000 11.437500000000 62.798000335693 42 42 42
9.000000000000 11.375000000000 62.910999298096 75 75 75
9.000000000000 11.375000000000 63.025001525879 38 38 38
9.125000000000 11.437500000000 63.122001647949 81 81 81
9.062500000000 11.562500000000 63.145999908447 14 14 14
8.937500000000 11.687500000000 63.691001892090 2 2 2
8.812500000000 12.000000000000 63.083999633789 37 37 37
8.750000000000 12.187500000000 63.097999572754 78 78 78
8.750000000000 12.312500000000 63.112003326416 105 105 105
8.625000000000 12.312500000000 63.899002075195 25 25 25
8.750000000000 12.437500000000 63.124000549316 103 103 103
8.625000000000 12.562500000000 63.143001556396 63 63 63
8.375000000000 12.875000000000 64.118003845215 47 47 47
8.812500000000 13.062500000000 57.658000946045 172 172 172
8.812500000000 13.062500000000 57.776000976563 185 185 185
8.750000000000 13.062500000000 57.893001556396 191 191 191
8.750000000000 12.937500000000 58.010002136230 184 184 184
8.687500000000 13.000000000000 58.125000000000 182 182 182
8.687500000000 13.000000000000 58.242000579834 193 193 193
8.687500000000 13.000000000000 58.357002258301 191 191 191
8.687500000000 13.000000000000 58.472999572754 185 185 185
8.687500000000 13.000000000000 58.588001251221 185 185 185
8.687500000000 13.000000000000 58.702999114990 186 186 186
8.687500000000 13.000000000000 58.817001342773 194 194 194
8.687500000000 13.062500000000 58.930000305176 189 189 189
8.687500000000 13.062500000000 59.044002532959 187 187 187
8.625000000000 12.937500000000 59.158000946045 185 185 185
8.625000000000 12.937500000000 59.273002624512 180 180 180
8.625000000000 12.937500000000 59.386001586914 184 184 184
8.625000000000 12.937500000000 59.500000000000 159 159 159
8.625000000000 12.937500000000 59.614002227783 161 161 161
8.625000000000 12.937500000000 59.729000091553 152 152 152
8.625000000000 12.937500000000 59.843002319336 154 154 154
8.625000000000 13.000000000000 59.957000732422 162 162 162
8.625000000000 13.000000000000 60.070999145508 170 170 170
8.625000000000 13.000000000000 60.186000823975 174 174 174
8.562500000000 13.000000000000 60.301002502441 170 170 170
8.562500000000 13.000000000000 60.416000366211 161 161 161
8.562500000000 13.062500000000 60.531002044678 162 162 162
8.562500000000 13.062500000000 60.646999359131 167 167 167
8.562500000000 13.062500000000 60.763000488281 172 172 172
8.562500000000 13.062500000000 60.879001617432 175 175 175
8.562500000000 13.062500000000 60.996002197266 173 173 173
8.562500000000 13.062500000000 61.113002777100 167 167 167
8.562500000000 13.062500000000 61.230998992920 172 172 172
8.562500000000 13.062500000000 61.347999572754 168 168 168
8.562500000000 13.062500000000 61.468002319336 162 162 162
8.562500000000 13.062500000000 61.586002349854 174 174 174
8.500000000000 13.000000000000 61.706001281738 170 170 170
8.500000000000 13.000000000000 61.825000762939 179 179 179
8.500000000000 13.000000000000 61.947002410889 186 186 186
8.500000000000 13.000000000000 62.067001342773 182 182 182
8.500000000000 13.000000000000 62.187999725342 182 182 182
8.500000000000 13.000000000000 62.312000274658 189 189 189
8.500000000000 13.000000000000 62.436000823975 186 186 186
8.500000000000 13.000000000000 62.558002471924 178 178 178
8.500000000000 13.000000000000 62.684001922607 184 184 184
8.500000000000 13.000000000000 62.809001922607 182 182 182
8.437500000000 13.062500000000 62.935001373291 176 176 176
8.437500000000 13.062500000000 63.064998626709 171 171 171
8.437500000000 13.062500000000 63.192001342773 155 155 155
8.437500000000 13.062500000000 63.325000762939 175 175 175
8.437500000000 13.062500000000 63.456001281738 177 177 177
8.437500000000 13.062500000000 63.585998535156 177 177 177
8.437500000000 13.062500000000 63.718002319336 179 179 179
8.375000000000 12.937500000000 63.855998992920 177 177 177
8.375000000000 12.937500000000 63.990001678467 174 174 174
8.375000000000 12.937500000000 64.121002197266 130 130 130
8.375000000000 12.937500000000 64.267997741699 166 166 166
8.750000000000 13.187500000000 57.525001525879 147 147 147
8.750000000000 13.125000000000 57.656002044678 147 147 147
8.750000000000 13.125000000000 57.775001525879 153 153 153
8.750000000000 13.125000000000 57.891002655029 149 149 149
8.750000000000 13.187500000000 58.002002716064 180 180 180
8.750000000000 13.187500000000 58.122001647949 152 152 152
8.750000000000 13.187500000000 58.238002777100 136 136 136
8.687500000000 13.187500000000 58.353000640869 113 113 113
8.687500000000 13.187500000000 58.470001220703 118 118 118
8.687500000000 13.187500000000 58.584999084473 124 124 124
8.687500000000 13.187500000000 58.700000762939 137 137 137
8.687500000000 13.187500000000 58.813999176025 143 143 143
8.687500000000 13.187500000000 58.930000305176 134 134 134
8.687500000000 13.187500000000 59.042999267578 157 157 157
8.687500000000 13.187500000000 59.158000946045 152 152 152
8.687500000000 13.187500000000 59.271999359131 161 161 161
8.625000000000 13.187500000000 59.386001586914 164 164 164
8.625000000000 13.187500000000 59.500999450684 167 167 167
8.625000000000 13.187500000000 59.615001678467 165 165 165
8.625000000000 13.187500000000 59.729000091553 165 165 165
8.562500000000 13.187500000000 59.843002319336 158 158 158
8.562500000000 13.187500000000 59.957000732422 161 161 161
8.562500000000 13.187500000000 60.072002410889 142 142 142
8.562500000000 13.187500000000 60.186000823975 151 151 151
8.562500000000 13.187500000000 60.301002502441 141 141 141
8.562500000000 13.187500000000 60.416000366211 142 142 142
8.562500000000 13.187500000000 60.531002044678 147 147 147
8.562500000000 13.187500000000 60.646999359131 126 126 126
8.562500000000 13.187500000000 60.763000488281 128 128 128
8.562500000000 13.187500000000 60.878002166748 122 122 122
8.500000000000 13.062500000000 60.996002197266 123 123 123
8.500000000000 13.062500000000 61.113002777100 112 112 112
8.500000000000 13.125000000000 61.232002258301 116 116 116
8.500000000000 13.125000000000 61.348999023438 111 111 111
8.500000000000 13.125000000000 61.469001770020 110 110 110
8.500000000000 13.125000000000 61.588001251221 119 119 119
8.500000000000 13.125000000000 61.708000183105 106 106 106
8.437500000000 13.187500000000 61.827999114990 99 99 99
8.437500000000 13.187500000000 61.949001312256 77 77 77
8.437500000000 13.187500000000 62.073001861572 60 60 60
8.437500000000 13.187500000000 62.197002410889 25 25 25
25.312500000000 26.500000000000 58.181999206543 208 208 208
29.437500000000 19.562500000000 58.107002258301 14 14 14
29.437500000000 19.562500000000 57.980003356934 69 69 69
29.437500000000 19.562500000000 57.854000091553 108 108 108
29.437500000000 19.562500000000 57.716999053955 179 179 179
29.562500000000 19.437500000000 60.020999908447 191 191 191
29.562500000000 19.437500000000 59.893001556396 199 199 199
29.562500000000 19.437500000000 59.766002655029 202 202 202
29.562500000000 19.437500000000 59.638999938965 208 208 208
29.500000000000 19.437500000000 59.512001037598 203 203 203
29.500000000000 19.437500000000 59.386001586914 204 204 204
29.437500000000 19.437500000000 59.259002685547 202 202 202
29.437500000000 19.437500000000 59.132999420166 206 206 206
29.437500000000 19.437500000000 59.006000518799 204 204 204
29.437500000000 19.437500000000 58.879001617432 204 204 204
29.437500000000 19.437500000000 58.753002166748 203 203 203
29.437500000000 19.437500000000 58.625999450684 204 204 204
29.437500000000 19.437500000000 58.498001098633 207 207 207
29.437500000000 19.437500000000 58.370002746582 198 198 198
29.375000000000 19.437500000000 58.243000030518 200 200 200
29.375000000000 19.437500000000 58.115001678467 201 201 201
29.375000000000 19.437500000000 57.988002777100 192 192 192
29.375000000000 19.437500000000 57.858001708984 192 192 192
29.375000000000 19.437500000000 57.729000091553 192 192 192
29.375000000000 19.437500000000 57.596000671387 157 157 157
29.500000000000 19.312500000000 59.893001556396 120 120 120
29.312500000000 19.437500000000 57.637001037598 179 179 179
29.312500000000 19.437500000000 57.784000396729 184 184 184
29.312500000000 19.437500000000 57.931999206543 181 181 181
29.375000000000 19.562500000000 58.079002380371 175 175 175
29.375000000000 19.562500000000 58.227001190186 153 153 153
29.375000000000 19.562500000000 58.375999450684 133 133 133
29.375000000000 19.562500000000 58.521999359131 119 119 119
29.375000000000 19.562500000000 58.666999816895 97 97 97
29.437500000000 19.437500000000 57.600002288818 255 255 255
29.375000000000 19.437500000000 57.763000488281 146 146 146
29.375000000000 19.437500000000 57.916000366211 143 143 143
29.375000000000 19.437500000000 58.067001342773 166 166 166
29.375000000000 19.437500000000 58.215999603271 187 187 187
29.375000000000 19.437500000000 58.364002227783 190 190 190
29.375000000000 19.437500000000 58.514999389648 199 199 199
29.437500000000 19.437500000000 58.662002563477 204 204 204
29.437500000000 19.437500000000 58.810001373291 199 199 199
29.437500000000 19.437500000000 58.957000732422 205 205 205
29.437500000000 19.437500000000 59.105003356934 205 205 205
29.437500000000 19.437500000000 59.250999450684 196 196 196
29.437500000000 19.437500000000 59.399002075195 207 207 207
29.500000000000 19.437500000000 59.545001983643 204 204 204
29.500000000000 19.437500000000 59.692001342773 205 205 205
29.500000000000 19.437500000000 59.839000701904 166 166 166
29.500000000000 19.437500000000 59.987003326416 141 141 141
29.500000000000 19.437500000000 60.134002685547 142 142 142
29.500000000000 19.437500000000 60.282001495361 121 121 121
29.562500000000 19.500000000000 60.430000305176 90 90 90
29.562500000000 19.500000000000 60.577999114990 17 17 17
29.500000000000 19.312500000000 59.242000579834 8 8 8
29.500000000000 19.312500000000 59.389999389648 96 96 96
29.500000000000 19.312500000000 59.539001464844 132 132 132
29.625000000000 19.312500000000 59.687000274658 153 153 153
29.625000000000 19.312500000000 59.834999084473 167 167 167
29.625000000000 19.312500000000 59.983001708984 182 182 182
29.625000000000 19.312500000000 60.131999969482 203 203 203
29.625000000000 19.312500000000 60.280002593994 205 205 205
29.625000000000 19.312500000000 60.429000854492 210 210 210
29.625000000000 19.312500000000 60.577999114990 210 210 210
29.562500000000 19.500000000000 59.412002563477 189 189 189
29.562500000000 19.500000000000 59.116001129150 180 180 180
29.500000000000 19.562500000000 58.530002593994 156 156 156
29.500000000000 19.562500000000 58.381000518799 151 151 151
29.500000000000 19.562500000000 58.233001708984 155 155 155
29.500000000000 19.562500000000 58.079002380371 214 214 214
29.500000000000 19.562500000000 57.929000854492 212 212 212
29.437500000000 19.562500000000 57.784999847412 16 16 16
29.625000000000 19.312500000000 60.151000976563 70 70 70
29.562500000000 19.375000000000 60.004001617432 90 90 90
29.500000000000 19.375000000000 59.857002258301 184 184 184
29.500000000000 19.375000000000 59.709999084473 137 137 137
29.500000000000 19.437500000000 59.562999725342 133 133 133
29.500000000000 19.437500000000 59.416999816895 145 145 145
29.500000000000 19.437500000000 59.270000457764 157 157 157
29.500000000000 19.437500000000 59.124000549316 164 164 164
29.437500000000 19.437500000000 58.978000640869 169 169 169
29.437500000000 19.437500000000 58.831001281738 166 166 166
29.437500000000 19.437500000000 58.686000823975 173 173 173
29.437500000000 19.437500000000 58.541000366211 174 174 174
29.437500000000 19.437500000000 58.392002105713 170 170 170
29.437500000000 19.437500000000 58.243000030518 188 188 188
29.437500000000 19.500000000000 58.096000671387 175 175 175
29.375000000000 19.500000000000 57.949001312256 177 177 177
29.500000000000 19.312500000000 59.861000061035 84 84 84
29.562500000000 19.500000000000 59.537002563477 128 128 128
29.562500000000 19.500000000000 59.388999938965 126 126 126
29.500000000000 19.562500000000 58.055999755859 38 38 38
29.562500000000 19.312500000000 60.569999694824 16 16 16
29.562500000000 19.312500000000 60.422000885010 86 86 86
29.562500000000 19.312500000000 60.274002075195 114 114 114
29.500000000000 19.312500000000 60.127002716064 123 123 123
29.500000000000 19.375000000000 59.980003356934 130 130 130
29.500000000000 19.375000000000 59.833000183105 174 174 174
29.500000000000 19.437500000000 59.686000823975 150 150 150
29.500000000000 19.437500000000 59.540000915527 153 153 153
29.500000000000 19.437500000000 59.394001007080 162 162 162
29.500000000000 19.437500000000 59.248001098633 162 162 162
29.500000000000 19.437500000000 59.100002288818 166 166 166
29.500000000000 19.437500000000 58.954002380371 177 177 177
29.437500000000 19.437500000000 58.808002471924 176 176 176
29.375000000000 19.437500000000 58.662002563477 188 188 188
29.437500000000 19.437500000000 58.513000488281 187 187 187
29.375000000000 19.437500000000 58.368000030518 173 173 173
29.375000000000 19.437500000000 58.220001220703 183 183 183
29.375000000000 19.437500000000 58.074001312256 180 180 180
29.375000000000 19.437500000000 57.928001403809 173 173 173
29.375000000000 19.437500000000 57.594001770020 176 176 176
29.375000000000 19.437500000000 57.746002197266 178 178 178
29.375000000000 19.437500000000 57.895999908447 176 176 176
29.375000000000 19.437500000000 58.042999267578 180 180 180
29.375000000000 19.437500000000 58.191001892090 189 189 189
29.375000000000 19.500000000000 58.336002349854 195 195 195
29.375000000000 19.500000000000 58.485000610352 196 196 196
29.375000000000 19.500000000000 58.631999969482 172 172 172
29.375000000000 19.500000000000 58.780002593994 154 154 154
29.375000000000 19.500000000000 58.929000854492 135 135 135
29.437500000000 19.500000000000 59.073001861572 126 126 126
29.500000000000 19.500000000000 59.218002319336 105 105 105
29.500000000000 19.500000000000 59.365001678467 89 89 89
29.500000000000 19.375000000000 58.468002319336 88 88 88
29.500000000000 19.375000000000 58.615001678467 168 168 168
29.500000000000 19.375000000000 58.768001556396 135 135 135
29.500000000000 19.375000000000 58.916999816895 152 152 152
29.500000000000 19.375000000000 59.066001892090 165 165 165
29.500000000000 19.375000000000 59.213001251221 185 185 185
29.500000000000 19.375000000000 59.360000610352 196 196 196
29.500000000000 19.375000000000 59.507999420166 199 199 199
29.500000000000 19.375000000000 59.656002044678 208 208 208
29.500000000000 19.375000000000 59.803001403809 208 208 208
29.500000000000 19.375000000000 59.951000213623 191 191 191
29.562500000000 19.375000000000 60.098999023438 207 207 207
29.562500000000 19.375000000000 60.246002197266 209 209 209
29.562500000000 19.375000000000 60.395000457764 190 190 190
29.562500000000 19.375000000000 60.542999267578 193 193 193
29.562500000000 19.500000000000 59.729000091553 144 144 144
29.562500000000 19.500000000000 59.602001190186 137 137 137
29.500000000000 19.437500000000 59.475002288818 156 156 156
29.500000000000 19.437500000000 59.347999572754 161 161 161
29.500000000000 19.437500000000 59.221000671387 175 175 175
29.500000000000 19.437500000000 59.094001770020 170 170 170
29.500000000000 19.437500000000 58.968002319336 183 183 183
29.500000000000 19.437500000000 58.840999603271 184 184 184
29.437500000000 19.500000000000 58.714000701904 189 189 189
29.375000000000 19.500000000000 58.588001251221 192 192 192
29.375000000000 19.500000000000 58.459999084473 193 193 193
29.375000000000 19.500000000000 58.332000732422 193 193 193
29.375000000000 19.562500000000 58.205001831055 196 196 196
29.375000000000 19.562500000000 58.076999664307 192 192 192
29.375000000000 19.562500000000 57.951000213623 192 192 192
29.312500000000 19.437500000000 57.822002410889 193 193 193
29.312500000000 19.437500000000 57.691001892090 180 180 180
29.625000000000 19.312500000000 60.889999389648 146 146 146
29.625000000000 19.312500000000 60.759002685547 153 153 153
29.625000000000 19.312500000000 60.629001617432 149 149 149
29.625000000000 19.312500000000 60.499000549316 145 145 145
29.625000000000 19.312500000000 60.371002197266 135 135 135
29.625000000000 19.312500000000 60.242000579834 141 141 141
29.562500000000 19.312500000000 60.114002227783 148 148 148
29.562500000000 19.312500000000 59.986000061035 131 131 131
29.437500000000 19.312500000000 59.859001159668 186 186 186
29.562500000000 19.312500000000 59.730998992920 130 130 130
29.562500000000 19.312500000000 59.603000640869 119 119 119
29.562500000000 19.312500000000 59.476001739502 122 122 122
29.562500000000 19.312500000000 59.347999572754 121 121 121
29.500000000000 19.312500000000 59.222000122070 107 107 107
29.437500000000 19.312500000000 59.095001220703 85 85 85
29.437500000000 19.312500000000 58.966999053955 52 52 52
29.437500000000 19.250000000000 59.893001556396 118 118 118
29.625000000000 19.312500000000 61.076000213623 94 94 94
29.625000000000 19.312500000000 60.926002502441 111 111 111
29.625000000000 19.312500000000 60.776000976563 121 121 121
29.625000000000 19.312500000000 60.627002716064 141 141 141
29.625000000000 19.312500000000 60.478000640869 149 149 149
29.562500000000 19.375000000000 60.330001831055 160 160 160
29.562500000000 19.375000000000 60.183002471924 171 171 171
29.562500000000 19.375000000000 60.034999847412 165 165 165
29.562500000000 19.437500000000 59.888000488281 208 208 208
29.562500000000 19.437500000000 59.741001129150 191 191 191
29.562500000000 19.437500000000 59.594001770020 191 191 191
29.562500000000 19.437500000000 59.448001861572 192 192 192
29.500000000000 19.437500000000 59.301002502441 197 197 197
29.437500000000 19.437500000000 59.155002593994 196 196 196
29.437500000000 19.437500000000 59.007999420166 193 193 193
29.437500000000 19.437500000000 58.862003326416 195 195 195
29.437500000000 19.437500000000 58.715000152588 196 196 196
29.437500000000 19.437500000000 58.568000793457 185 185 185
29.437500000000 19.500000000000 58.421001434326 181 181 181
29.375000000000 19.500000000000 58.275001525879 187 187 187
29.375000000000 19.500000000000 58.125000000000 184 184 184
29.375000000000 19.562500000000 57.977001190186 181 181 181
29.375000000000 19.562500000000 57.827999114990 35 35 35
29.687500000000 19.312500000000 61.074001312256 189 189 189
29.687500000000 19.312500000000 60.943000793457 187 187 187
29.625000000000 19.312500000000 60.812000274658 184 184 184
29.625000000000 19.312500000000 60.681999206543 188 188 188
29.625000000000 19.312500000000 60.552001953125 189 189 189
29.625000000000 19.312500000000 60.423000335693 186 186 186
29.625000000000 19.312500000000 60.294002532959 185 185 185
29.625000000000 19.312500000000 60.166000366211 190 190 190
29.625000000000 19.312500000000 60.038002014160 172 172 172
29.500000000000 19.375000000000 59.909999847412 189 189 189
29.500000000000 19.312500000000 59.782001495361 184 184 184
29.500000000000 19.375000000000 59.653999328613 178 178 178
29.500000000000 19.375000000000 59.527000427246 175 175 175
29.500000000000 19.375000000000 59.400001525879 179 179 179
29.500000000000 19.375000000000 59.271999359131 181 181 181
29.500000000000 19.437500000000 59.145999908447 174 174 174
29.437500000000 19.312500000000 59.020000457764 175 175 175
29.437500000000 19.312500000000 58.893001556396 160 160 160
29.437500000000 19.312500000000 58.763999938965 149 149 149
29.437500000000 19.312500000000 58.637001037598 142 142 142
29.437500000000 19.312500000000 58.510002136230 125 125 125
29.375000000000 19.375000000000 58.382999420166 123 123 123
29.375000000000 19.375000000000 58.255001068115 112 112 112
29.375000000000 19.375000000000 58.125000000000 103 103 103
29.375000000000 19.375000000000 57.998001098633 85 85 85
29.437500000000 19.312500000000 57.853000640869 175 175 175
29.500000000000 19.437500000000 57.719001770020 148 148 148
29.437500000000 19.562500000000 58.504001617432 14 14 14
29.437500000000 19.562500000000 58.377002716064 64 64 64
29.437500000000 19.562500000000 58.249000549316 95 95 95
29.437500000000 19.562500000000 58.122001647949 118 118 118
29.437500000000 19.562500000000 57.994003295898 130 130 130
29.375000000000 19.562500000000 57.865001678467 149 149 149
29.437500000000 19.562500000000 57.719001770020 184 184 184
29.500000000000 19.437500000000 58.671001434326 89 89 89
29.500000000000 19.437500000000 58.822002410889 120 120 120
29.500000000000 19.437500000000 58.971000671387 145 145 145
29.500000000000 19.437500000000 59.120002746582 156 156 156
29.500000000000 19.437500000000 59.268001556396 176 176 176
29.500000000000 19.375000000000 59.414001464844 191 191 191
29.500000000000 19.437500000000 59.562999725342 202 202 202
29.500000000000 19.437500000000 59.709999084473 214 214 214
29.500000000000 19.437500000000 59.859001159668 183 183 183
29.500000000000 19.437500000000 60.006000518799 207 207 207
29.562500000000 19.375000000000 60.153999328613 213 213 213
29.562500000000 19.375000000000 60.302001953125 215 215 215
29.562500000000 19.375000000000 60.450000762939 183 183 183
29.562500000000 19.375000000000 60.597999572754 194 194 194
29.562500000000 19.375000000000 60.748001098633 175 175 175
29.312500000000 19.437500000000 57.652999877930 171 171 171
29.312500000000 19.437500000000 57.798999786377 179 179 179
29.312500000000 19.437500000000 57.948001861572 176 176 176
29.312500000000 19.437500000000 58.098999023438 185 185 185
29.312500000000 19.437500000000 58.246002197266 189 189 189
29.312500000000 19.437500000000 58.392002105713 181 181 181
29.375000000000 19.562500000000 58.540000915527 185 185 185
29.375000000000 19.562500000000 58.687000274658 165 165 165
29.375000000000 19.562500000000 58.833999633789 145 145 145
29.375000000000 19.562500000000 58.980998992920 137 137 137
29.375000000000 19.562500000000 59.129001617432 127 127 127
29.500000000000 19.500000000000 59.271999359131 98 98 98
29.500000000000 19.500000000000 59.420001983643 7 7 7
25.250000000000 26.562500000000 58.249000549316 20 20 20
29.625000000000 19.312500000000 61.073001861572 196 196 196
29.625000000000 19.312500000000 60.942001342773 189 189 189
29.625000000000 19.312500000000 60.811000823975 185 185 185
29.625000000000 19.312500000000 60.680999755859 201 201 201
29.625000000000 19.312500000000 60.551002502441 196 196 196
29.625000000000 19.312500000000 60.422000885010 190 190 190
29.625000000000 19.312500000000 60.294002532959 197 197 197
29.562500000000 19.312500000000 60.165000915527 200 200 200
29.500000000000 19.312500000000 60.038002014160 195 195 195
29.500000000000 19.375000000000 59.909999847412 194 194 194
29.500000000000 19.375000000000 59.783000946045 199 199 199
29.500000000000 19.375000000000 59.656002044678 207 207 207
29.500000000000 19.375000000000 59.527999877930 202 202 202
29.437500000000 19.312500000000 59.402000427246 204 204 204
29.437500000000 19.312500000000 59.275001525879 208 208 208
29.437500000000 19.312500000000 59.146999359131 206 206 206
29.437500000000 19.312500000000 59.020999908447 211 211 211
29.437500000000 19.312500000000 58.894001007080 207 207 207
29.437500000000 19.312500000000 58.767002105713 204 204 204
29.437500000000 19.312500000000 58.639999389648 205 205 205
29.437500000000 19.312500000000 58.513000488281 201 201 201
29.375000000000 19.375000000000 58.385002136230 194 194 194
29.375000000000 19.375000000000 58.256000518799 196 196 196
29.375000000000 19.312500000000 58.129001617432 192 192 192
29.375000000000 19.312500000000 57.997001647949 181 181 181
29.375000000000 19.312500000000 57.869003295898 181 181 181
29.375000000000 19.312500000000 57.743000030518 177 177 177
29.375000000000 19.312500000000 57.609001159668 165 165 165
29.500000000000 19.500000000000 58.378002166748 25 25 25
29.375000000000 19.500000000000 58.250999450684 83 83 83
29.375000000000 19.562500000000 58.124000549316 104 104 104
29.375000000000 19.562500000000 57.996002197266 120 120 120
29.375000000000 19.562500000000 57.867000579834 154 154 154
29.375000000000 19.562500000000 57.730003356934 181 181 181
29.500000000000 19.500000000000 57.588001251221 192 192 192
29.687500000000 19.187500000000 60.748001098633 68 68 68
29.687500000000 19.187500000000 60.898002624512 115 115 115
29.687500000000 19.187500000000 61.048999786377 123 123 123
29.562500000000 19.312500000000 58.819999694824 88 88 88
29.500000000000 19.312500000000 58.971000671387 129 129 129
29.500000000000 19.312500000000 59.119003295898 145 145 145
29.500000000000 19.312500000000 59.267002105713 169 169 169
29.562500000000 19.312500000000 59.414001464844 173 173 173
29.562500000000 19.312500000000 59.562999725342 172 172 172
29.562500000000 19.312500000000 59.709999084473 198 198 198
29.562500000000 19.312500000000 59.858001708984 167 167 167
29.562500000000 19.312500000000 60.005001068115 194 194 194
29.562500000000 19.312500000000 60.152999877930 206 206 206
29.625000000000 19.312500000000 60.301002502441 202 202 202
29.625000000000 19.312500000000 60.450000762939 188 188 188
29.625000000000 19.312500000000 60.598999023438 197 197 197
29.625000000000 19.312500000000 60.748001098633 178 178 178
29.625000000000 19.312500000000 60.896999359131 167 167 167
29.375000000000 19.375000000000 57.641002655029 189 189 189
29.375000000000 19.375000000000 57.794002532959 185 185 185
29.375000000000 19.375000000000 57.944999694824 183 183 183
29.375000000000 19.375000000000 58.095001220703 180 180 180
