21.937500000000 20.875000000000 65.494003295898 66 66 66
23.250000000000 20.062500000000 66.206001281738 58 58 58
18.500000000000 22.937500000000 63.824001312256 254 254 254
21.000000000000 21.562500000000 64.291999816895 98 98 98
22.312500000000 20.812500000000 66.225006103516 94 94 94
21.875000000000 21.062500000000 65.500000000000 83 83 83
23.250000000000 20.187500000000 66.205001831055 51 51 51
18.562500000000 23.187500000000 63.831001281738 254 254 254
20.937500000000 21.687500000000 64.317001342773 107 107 107
22.250000000000 21.062500000000 66.225006103516 90 90 90
21.937500000000 21.187500000000 65.502998352051 69 69 69
23.250000000000 20.437500000000 66.206001281738 52 52 52
18.562500000000 23.312500000000 63.819999694824 254 254 254
21.000000000000 21.937500000000 64.291999816895 99 99 99
22.312500000000 21.187500000000 66.222000122070 97 97 97
21.875000000000 21.437500000000 65.498001098633 72 72 72
23.250000000000 20.625000000000 66.205001831055 47 47 47
18.562500000000 23.437500000000 63.819999694824 254 254 254
20.937500000000 22.187500000000 64.290000915527 100 100 100
22.250000000000 21.312500000000 66.217002868652 94 94 94
21.875000000000 21.562500000000 65.498001098633 74 74 74
23.250000000000 20.812500000000 66.208000183105 53 53 53
18.562500000000 23.687500000000 63.812000274658 254 254 254
21.000000000000 22.312500000000 64.295997619629 94 94 94
22.312500000000 21.562500000000 66.215003967285 99 99 99
21.937500000000 21.687500000000 65.497001647949 81 81 81
23.250000000000 20.937500000000 66.196998596191 39 39 39
18.562500000000 23.875000000000 63.819999694824 254 254 254
20.937500000000 22.437500000000 64.291999816895 103 103 103
22.250000000000 21.687500000000 66.205001831055 93 93 93
21.875000000000 21.937500000000 65.496002197266 75 75 75
23.250000000000 21.125000000000 66.194000244141 43 43 43
18.625000000000 24.062500000000 63.821998596191 254 254 254
18.625000000000 24.062500000000 63.906002044678 107 107 107
20.937500000000 22.687500000000 64.291999816895 100 100 100
22.250000000000 21.812500000000 66.217002868652 96 96 96
21.937500000000 22.062500000000 65.501998901367 74 74 74
23.250000000000 21.312500000000 66.204002380371 50 50 50
18.500000000000 24.187500000000 63.816001892090 254 254 254
18.625000000000 24.187500000000 63.875000000000 117 117 117
21.000000000000 22.812500000000 64.298004150391 98 98 98
22.250000000000 22.062500000000 66.212997436523 95 95 95
21.875000000000 22.312500000000 65.499000549316 75 75 75
23.250000000000 21.562500000000 66.192001342773 31 31 31
18.562500000000 24.375000000000 63.826000213623 223 223 223
18.625000000000 24.437500000000 63.855003356934 128 128 128
20.937500000000 23.062500000000 64.289001464844 105 105 105
22.250000000000 22.250000000000 66.207000732422 94 94 94
21.937500000000 22.500000000000 65.495002746582 78 78 78
23.250000000000 21.687500000000 66.208000183105 30 30 30
18.500000000000 24.562500000000 63.812000274658 186 186 186
18.562500000000 24.562500000000 63.834999084473 166 166 166
20.937500000000 23.187500000000 64.281997680664 99 99 99
22.250000000000 22.437500000000 66.209999084473 96 96 96
21.875000000000 22.687500000000 65.496002197266 83 83 83
23.250000000000 21.812500000000 66.212997436523 32 32 32
18.562500000000 24.812500000000 63.812000274658 175 175 175
18.625000000000 24.750000000000 63.833000183105 210 210 210
20.937500000000 23.375000000000 64.294998168945 100 100 100
22.250000000000 22.687500000000 66.199996948242 94 94 94
21.937500000000 22.812500000000 65.488998413086 78 78 78
23.250000000000 22.062500000000 66.201004028320 31 31 31
18.562500000000 24.937500000000 63.799999237061 160 160 160
18.562500000000 24.937500000000 63.826000213623 254 254 254
21.000000000000 23.562500000000 64.288002014160 100 100 100
22.312500000000 22.812500000000 66.218002319336 95 95 95
21.875000000000 23.062500000000 65.494003295898 82 82 82
23.250000000000 22.312500000000 66.193000793457 34 34 34
18.562500000000 25.125000000000 63.805000305176 176 176 176
18.625000000000 25.062500000000 63.833999633789 246 246 246
20.937500000000 23.812500000000 64.285003662109 98 98 98
22.250000000000 23.000000000000 66.203002929688 91 91 91
21.875000000000 23.187500000000 65.483001708984 82 82 82
23.250000000000 22.437500000000 66.209999084473 25 25 25
18.562500000000 25.312500000000 63.803001403809 156 156 156
18.562500000000 25.312500000000 63.824001312256 254 254 254
21.000000000000 23.937500000000 64.285003662109 100 100 100
22.312500000000 23.187500000000 66.199996948242 91 91 91
21.875000000000 23.437500000000 65.481002807617 73 73 73
23.250000000000 22.562500000000 66.195999145508 35 35 35
18.562500000000 25.500000000000 63.806999206543 175 175 175
18.625000000000 25.437500000000 63.814998626709 254 254 254
20.937500000000 24.125000000000 64.281997680664 101 101 101
22.250000000000 23.312500000000 66.203002929688 87 87 87
21.875000000000 23.562500000000 65.486000061035 76 76 76
23.250000000000 22.812500000000 66.201004028320 27 27 27
18.562500000000 25.625000000000 63.796001434326 113 113 113
18.562500000000 25.687500000000 63.816001892090 254 254 254
20.937500000000 24.312500000000 64.282997131348 97 97 97
22.250000000000 23.500000000000 66.201004028320 84 84 84
21.937500000000 23.750000000000 65.485000610352 62 62 62
23.250000000000 22.937500000000 66.195999145508 47 47 47
18.500000000000 25.812500000000 63.804000854492 90 90 90
18.625000000000 25.812500000000 63.821998596191 254 254 254
21.000000000000 24.500000000000 64.291000366211 93 93 93
22.250000000000 23.687500000000 66.207000732422 80 80 80
21.875000000000 23.937500000000 65.486999511719 53 53 53
23.250000000000 23.187500000000 66.195999145508 42 42 42
18.562500000000 26.000000000000 63.798999786377 94 94 94
18.625000000000 25.937500000000 63.817001342773 254 254 254
20.937500000000 24.687500000000 64.289001464844 91 91 91
22.250000000000 23.937500000000 66.202003479004 84 84 84
21.937500000000 24.125000000000 65.488998413086 43 43 43
23.250000000000 23.312500000000 66.188003540039 32 32 32
18.562500000000 26.187500000000 63.827999114990 254 254 254
21.000000000000 24.812500000000 64.291999816895 93 93 93
22.250000000000 24.062500000000 66.192001342773 81 81 81
21.875000000000 24.312500000000 65.486999511719 48 48 48
23.250000000000 23.500000000000 66.182998657227 44 44 44
18.625000000000 26.375000000000 63.819000244141 254 254 254
20.937500000000 25.000000000000 64.279998779297 93 93 93
22.250000000000 24.312500000000 66.208999633789 76 76 76
21.937500000000 24.437500000000 65.475006103516 43 43 43
23.250000000000 23.750000000000 66.178001403809 42 42 42
18.562500000000 26.562500000000 63.820999145508 254 254 254
21.000000000000 25.250000000000 64.279998779297 87 87 87
22.312500000000 24.437500000000 66.193000793457 76 76 76
21.875000000000 24.687500000000 65.479003906250 43 43 43
23.250000000000 23.937500000000 66.181999206543 43 43 43
18.625000000000 26.687500000000 63.827999114990 254 254 254
20.937500000000 25.437500000000 64.291000366211 81 81 81
22.250000000000 24.625000000000 66.206001281738 78 78 78
21.875000000000 24.812500000000 65.483001708984 27 27 27
23.250000000000 24.062500000000 66.192001342773 49 49 49
18.562500000000 26.937500000000 63.819000244141 254 254 254
21.000000000000 25.562500000000 64.287002563477 86 86 86
22.312500000000 24.875000000000 66.194999694824 75 75 75
21.875000000000 25.062500000000 65.483001708984 33 33 33
23.250000000000 24.250000000000 66.181999206543 43 43 43
20.875000000000 25.750000000000 64.290000915527 80 80 80
22.187500000000 24.937500000000 66.210998535156 81 81 81
21.875000000000 25.187500000000 65.490005493164 35 35 35
23.250000000000 24.437500000000 66.190002441406 44 44 44
20.937500000000 25.937500000000 64.282997131348 74 74 74
22.250000000000 25.187500000000 66.201004028320 70 70 70
21.875000000000 25.375000000000 65.484001159668 22 22 22
23.250000000000 24.562500000000 66.194000244141 46 46 46
20.875000000000 26.187500000000 64.284004211426 67 67 67
22.250000000000 25.312500000000 66.196998596191 64 64 64
21.875000000000 25.562500000000 65.487998962402 18 18 18
23.250000000000 24.812500000000 66.182998657227 47 47 47
20.937500000000 26.312500000000 64.284004211426 38 38 38
22.250000000000 25.562500000000 66.198997497559 49 49 49
23.250000000000 24.937500000000 66.191001892090 60 60 60
20.937500000000 26.437500000000 64.282997131348 41 41 41
22.312500000000 25.687500000000 66.190002441406 50 50 50
23.250000000000 25.125000000000 66.182998657227 59 59 59
22.250000000000 25.937500000000 66.199996948242 34 34 34
23.250000000000 25.375000000000 66.177001953125 69 69 69
22.312500000000 26.062500000000 66.196998596191 27 27 27
23.250000000000 25.562500000000 66.192001342773 73 73 73
22.187500000000 26.250000000000 66.198997497559 24 24 24
23.250000000000 25.687500000000 66.183998107910 72 72 72
22.250000000000 26.437500000000 66.197998046875 18 18 18
23.187500000000 25.812500000000 66.178001403809 76 76 76
22.187500000000 26.562500000000 66.185997009277 12 12 12
23.250000000000 26.062500000000 66.175003051758 73 73 73
23.187500000000 26.250000000000 66.190002441406 80 80 80
23.250000000000 26.437500000000 66.174003601074 77 77 77
23.187500000000 26.562500000000 66.185997009277 77 77 77
23.250000000000 26.750000000000 66.178001403809 81 81 81
23.250000000000 26.937500000000 66.170997619629 73 73 73
18.500000000000 0.125000000000 63.825000762939 221 221 221
21.187500000000 0.062500000000 64.856002807617 90 90 90
22.062500000000 0.062500000000 66.253997802734 102 102 102
18.437500000000 0.187500000000 63.824001312256 182 182 182
21.250000000000 0.312500000000 64.855003356934 102 102 102
22.000000000000 0.312500000000 66.250999450684 21 21 21
22.125000000000 0.312500000000 65.843002319336 17 17 17
23.500000000000 0.312500000000 66.851997375488 7 7 7
18.437500000000 0.437500000000 63.823001861572 157 157 157
21.125000000000 0.437500000000 64.841003417969 117 117 117
22.125000000000 0.437500000000 65.836997985840 18 18 18
23.500000000000 0.437500000000 66.859001159668 51 51 51
18.437500000000 0.625000000000 63.819000244141 71 71 71
21.125000000000 0.625000000000 64.830001831055 129 129 129
22.125000000000 0.687500000000 65.829002380371 17 17 17
23.437500000000 0.687500000000 66.850006103516 78 78 78
21.125000000000 0.812500000000 64.827003479004 127 127 127
22.125000000000 0.812500000000 65.824996948242 24 24 24
23.500000000000 0.812500000000 66.837997436523 107 107 107
21.125000000000 1.062500000000 64.820999145508 118 118 118
22.437500000000 1.000000000000 66.845001220703 10 10 10
22.062500000000 1.000000000000 65.812004089355 46 46 46
23.437500000000 1.000000000000 66.826004028320 104 104 104
21.125000000000 1.187500000000 64.822998046875 58 58 58
22.187500000000 1.187500000000 66.202003479004 110 110 110
22.062500000000 1.187500000000 65.805000305176 42 42 42
23.500000000000 1.187500000000 66.829002380371 111 111 111
21.125000000000 1.437500000000 64.813003540039 48 48 48
22.062500000000 1.375000000000 66.188003540039 111 111 111
22.062500000000 1.437500000000 65.809997558594 43 43 43
23.437500000000 1.437500000000 66.823997497559 99 99 99
18.437500000000 1.500000000000 63.830001831055 91 91 91
22.125000000000 1.562500000000 66.162002563477 146 146 146
22.062500000000 1.562500000000 65.812004089355 18 18 18
23.375000000000 1.562500000000 66.817001342773 73 73 73
18.500000000000 1.750000000000 63.821998596191 165 165 165
22.062500000000 1.687500000000 66.161003112793 153 153 153
23.437500000000 1.750000000000 66.810997009277 36 36 36
18.500000000000 1.937500000000 63.817001342773 189 189 189
22.125000000000 1.937500000000 66.141998291016 143 143 143
18.500000000000 2.062500000000 63.820999145508 191 191 191
18.500000000000 2.062500000000 64.998001098633 28 28 28
22.062500000000 2.125000000000 66.138000488281 146 146 146
18.500000000000 2.312500000000 63.819999694824 182 182 182
22.062500000000 2.312500000000 66.127998352051 151 151 151
18.437500000000 2.437500000000 63.818000793457 176 176 176
18.500000000000 2.437500000000 64.994003295898 30 30 30
22.062500000000 2.437500000000 66.118003845215 163 163 163
18.500000000000 2.562500000000 63.830001831055 169 169 169
18.562500000000 2.625000000000 64.975006103516 43 43 43
21.187500000000 2.625000000000 64.737998962402 18 18 18
22.062500000000 2.625000000000 66.117004394531 165 165 165
18.437500000000 2.812500000000 63.828998565674 209 209 209
18.500000000000 2.812500000000 64.961997985840 41 41 41
21.125000000000 2.812500000000 64.722000122070 54 54 54
22.062500000000 2.812500000000 66.101005554199 138 138 138
18.500000000000 2.937500000000 63.828998565674 221 221 221
18.500000000000 2.937500000000 64.970001220703 28 28 28
21.187500000000 3.062500000000 64.731002807617 80 80 80
22.062500000000 3.062500000000 66.086997985840 81 81 81
18.437500000000 3.187500000000 63.826000213623 221 221 221
18.500000000000 3.125000000000 64.963996887207 33 33 33
21.125000000000 3.187500000000 64.713996887207 88 88 88
23.500000000000 3.187500000000 66.708000183105 12 12 12
18.500000000000 3.375000000000 63.823001861572 176 176 176
18.500000000000 3.375000000000 64.556999206543 54 54 54
18.500000000000 3.312500000000 64.894996643066 84 84 84
21.187500000000 3.375000000000 64.722999572754 113 113 113
23.437500000000 3.375000000000 66.696998596191 84 84 84
18.437500000000 3.562500000000 63.820999145508 164 164 164
18.500000000000 3.562500000000 64.955001831055 53 53 53
21.125000000000 3.562500000000 64.705001831055 113 113 113
23.437500000000 3.562500000000 66.694000244141 87 87 87
18.500000000000 3.687500000000 63.826999664307 161 161 161
18.500000000000 3.687500000000 64.931999206543 65 65 65
21.125000000000 3.687500000000 64.708000183105 118 118 118
23.375000000000 3.687500000000 66.681999206543 104 104 104
18.437500000000 3.875000000000 63.826000213623 58 58 58
18.500000000000 3.937500000000 64.930000305176 77 77 77
21.125000000000 3.937500000000 64.703002929688 126 126 126
23.437500000000 3.937500000000 66.684997558594 113 113 113
18.437500000000 4.062500000000 63.819000244141 62 62 62
18.500000000000 4.062500000000 64.917999267578 78 78 78
21.125000000000 4.062500000000 64.701004028320 128 128 128
23.375000000000 4.062500000000 66.674003601074 113 113 113
18.500000000000 4.312500000000 63.825000762939 38 38 38
18.500000000000 4.250000000000 64.910003662109 73 73 73
21.125000000000 4.312500000000 64.691001892090 115 115 115
22.062500000000 4.250000000000 65.997001647949 78 78 78
22.062500000000 4.250000000000 65.693000793457 13 13 13
23.437500000000 4.312500000000 66.668998718262 117 117 117
18.500000000000 4.437500000000 64.903999328613 60 60 60
21.125000000000 4.437500000000 64.677001953125 100 100 100
22.125000000000 4.437500000000 65.999000549316 115 115 115
22.125000000000 4.437500000000 65.703002929688 23 23 23
23.500000000000 4.500000000000 66.659004211426 116 116 116
18.500000000000 4.562500000000 64.910003662109 43 43 43
21.125000000000 4.625000000000 64.677001953125 76 76 76
22.062500000000 4.687500000000 65.985000610352 133 133 133
22.062500000000 4.687500000000 65.695999145508 25 25 25
23.375000000000 4.625000000000 66.652000427246 90 90 90
18.500000000000 4.750000000000 64.889999389648 58 58 58
21.125000000000 4.812500000000 64.666999816895 83 83 83
22.125000000000 4.812500000000 65.986999511719 135 135 135
22.125000000000 4.812500000000 65.683998107910 25 25 25
23.437500000000 4.812500000000 66.653999328613 104 104 104
21.125000000000 5.062500000000 64.667999267578 38 38 38
22.062500000000 5.000000000000 65.981002807617 143 143 143
22.062500000000 5.000000000000 65.688003540039 22 22 22
23.375000000000 5.062500000000 66.638999938965 65 65 65
18.500000000000 5.187500000000 63.805999755859 57 57 57
22.125000000000 5.187500000000 65.980003356934 156 156 156
22.125000000000 5.187500000000 65.684997558594 34 34 34
18.500000000000 5.312500000000 63.810001373291 196 196 196
22.000000000000 5.312500000000 65.969001770020 170 170 170
22.000000000000 5.312500000000 65.670997619629 51 51 51
18.500000000000 5.562500000000 63.824001312256 218 218 218
22.000000000000 5.562500000000 65.961997985840 169 169 169
22.062500000000 5.562500000000 65.670997619629 60 60 60
18.500000000000 5.687500000000 63.814998626709 197 197 197
22.000000000000 5.750000000000 65.958999633789 165 165 165
22.000000000000 5.750000000000 65.657997131348 46 46 46
18.500000000000 5.875000000000 63.819000244141 210 210 210
21.125000000000 5.937500000000 64.619003295898 33 33 33
22.062500000000 5.937500000000 65.973999023438 110 110 110
22.062500000000 5.937500000000 65.652999877930 22 22 22
22.437500000000 5.937500000000 66.643997192383 116 116 116
18.500000000000 6.062500000000 63.821998596191 225 225 225
21.125000000000 6.062500000000 64.602996826172 66 66 66
22.437500000000 6.062500000000 66.652999877930 109 109 109
18.500000000000 6.187500000000 63.823001861572 255 255 255
21.187500000000 6.312500000000 64.597999572754 80 80 80
22.375000000000 6.250000000000 66.611999511719 100 100 100
18.500000000000 6.437500000000 63.830001831055 255 255 255
21.062500000000 6.437500000000 64.588996887207 91 91 91
22.437500000000 6.437500000000 66.595001220703 58 58 58
23.437500000000 6.437500000000 66.545997619629 43 43 43
18.500000000000 6.625000000000 63.811000823975 254 254 254
21.125000000000 6.687500000000 64.586997985840 98 98 98
22.375000000000 6.687500000000 66.601005554199 19 19 19
23.375000000000 6.687500000000 66.549003601074 84 84 84
18.500000000000 6.812500000000 63.817001342773 199 199 199
21.062500000000 6.812500000000 64.581001281738 113 113 113
23.437500000000 6.812500000000 66.540000915527 98 98 98
18.500000000000 6.937500000000 63.830001831055 137 137 137
21.125000000000 7.000000000000 64.588996887207 126 126 126
23.375000000000 7.062500000000 66.528999328613 98 98 98
18.500000000000 7.187500000000 63.816001892090 71 71 71
18.500000000000 7.187500000000 64.838996887207 34 34 34
21.125000000000 7.187500000000 64.585998535156 123 123 123
22.062500000000 7.187500000000 65.854003906250 66 66 66
23.437500000000 7.187500000000 66.534004211426 110 110 110
18.500000000000 7.312500000000 63.826999664307 66 66 66
18.500000000000 7.312500000000 64.822998046875 47 47 47
21.125000000000 7.437500000000 64.573997497559 118 118 118
22.000000000000 7.375000000000 65.858001708984 127 127 127
23.375000000000 7.437500000000 66.536003112793 126 126 126
18.500000000000 7.562500000000 63.820999145508 53 53 53
18.500000000000 7.500000000000 64.816001892090 49 49 49
21.062500000000 7.562500000000 64.560997009277 87 87 87
22.062500000000 7.562500000000 65.865005493164 137 137 137
23.437500000000 7.562500000000 66.522003173828 109 109 109
18.562500000000 7.750000000000 63.817001342773 45 45 45
18.562500000000 7.750000000000 64.819999694824 47 47 47
21.062500000000 7.687500000000 64.576004028320 28 28 28
22.000000000000 7.812500000000 65.861999511719 152 152 152
23.375000000000 7.750000000000 66.511001586914 72 72 72
18.500000000000 7.937500000000 63.827999114990 155 155 155
18.500000000000 7.937500000000 64.803001403809 67 67 67
22.062500000000 7.937500000000 65.851005554199 169 169 169
23.375000000000 7.937500000000 66.529998779297 9 9 9
18.562500000000 8.062500000000 63.828998565674 255 255 255
18.562500000000 8.062500000000 64.806999206543 84 84 84
22.000000000000 8.062500000000 65.847999572754 180 180 180
22.000000000000 8.062500000000 65.585998535156 19 19 19
18.500000000000 8.187500000000 63.820999145508 244 244 244
18.500000000000 8.312500000000 64.796997070313 76 76 76
22.000000000000 8.312500000000 65.845001220703 160 160 160
22.062500000000 8.312500000000 65.596000671387 33 33 33
18.500000000000 8.437500000000 63.831001281738 239 239 239
21.062500000000 8.437500000000 64.527999877930 22 22 22
22.000000000000 8.437500000000 65.875999450684 83 83 83
22.000000000000 8.437500000000 65.583000183105 29 29 29
22.437500000000 8.437500000000 66.545997619629 115 115 115
18.500000000000 8.625000000000 63.825000762939 240 240 240
21.125000000000 8.625000000000 64.523002624512 32 32 32
22.437500000000 8.687500000000 66.549003601074 118 118 118
22.000000000000 8.687500000000 65.582000732422 31 31 31
18.500000000000 8.812500000000 63.833999633789 255 255 255
21.062500000000 8.812500000000 64.512001037598 77 77 77
22.437500000000 8.812500000000 66.496002197266 129 129 129
22.000000000000 8.812500000000 65.569999694824 54 54 54
18.500000000000 8.937500000000 63.831001281738 255 255 255
21.125000000000 9.062500000000 64.514999389648 84 84 84
22.312500000000 9.062500000000 66.492004394531 134 134 134
22.000000000000 9.000000000000 65.571998596191 58 58 58
18.500000000000 9.187500000000 63.827999114990 255 255 255
21.062500000000 9.187500000000 64.513999938965 89 89 89
22.375000000000 9.187500000000 66.491004943848 108 108 108
22.000000000000 9.187500000000 65.569999694824 64 64 64
23.437500000000 9.250000000000 66.431999206543 23 23 23
18.562500000000 9.375000000000 63.839000701904 155 155 155
21.062500000000 9.375000000000 64.503997802734 107 107 107
22.375000000000 9.375000000000 66.481002807617 69 69 69
22.000000000000 9.437500000000 65.565002441406 53 53 53
23.375000000000 9.437500000000 66.438003540039 73 73 73
18.500000000000 9.562500000000 63.834999084473 139 139 139
21.062500000000 9.562500000000 64.501998901367 119 119 119
22.375000000000 9.562500000000 66.488998413086 18 18 18
22.000000000000 9.562500000000 65.567001342773 32 32 32
23.375000000000 9.562500000000 66.430999755859 90 90 90
18.500000000000 9.687500000000 63.837001800537 113 113 113
21.062500000000 9.812500000000 64.499000549316 127 127 127
22.000000000000 9.687500000000 65.757003784180 51 51 51
22.000000000000 9.750000000000 65.553001403809 15 15 15
23.375000000000 9.750000000000 66.430999755859 111 111 111
18.437500000000 9.875000000000 63.828998565674 67 67 67
21.125000000000 9.937500000000 64.500999450684 124 124 124
22.062500000000 9.937500000000 65.748001098633 96 96 96
23.375000000000 9.937500000000 66.424003601074 107 107 107
18.562500000000 10.062500000000 63.835998535156 39 39 39
21.062500000000 10.062500000000 64.481002807617 117 117 117
22.000000000000 10.062500000000 65.743003845215 126 126 126
23.437500000000 10.062500000000 66.419998168945 113 113 113
18.562500000000 10.250000000000 63.837001800537 83 83 83
21.125000000000 10.312500000000 64.491004943848 110 110 110
22.000000000000 10.312500000000 65.752998352051 131 131 131
23.375000000000 10.312500000000 66.416999816895 124 124 124
18.500000000000 10.437500000000 63.845001220703 145 145 145
21.062500000000 10.500000000000 64.485000610352 90 90 90
22.000000000000 10.437500000000 65.743003845215 151 151 151
23.437500000000 10.500000000000 66.421997070313 123 123 123
18.562500000000 10.562500000000 63.845001220703 247 247 247
18.562500000000 10.687500000000 64.732002258301 44 44 44
21.062500000000 10.625000000000 64.488998413086 57 57 57
22.000000000000 10.687500000000 65.740005493164 155 155 155
23.375000000000 10.687500000000 66.417999267578 116 116 116
18.500000000000 10.812500000000 63.843002319336 218 218 218
18.562500000000 10.812500000000 64.734001159668 56 56 56
22.000000000000 10.875000000000 65.733001708984 167 167 167
23.375000000000 10.812500000000 66.403999328613 82 82 82
18.562500000000 11.000000000000 63.844001770020 208 208 208
18.562500000000 10.937500000000 64.726997375488 49 49 49
22.000000000000 11.062500000000 65.732002258301 173 173 173
23.312500000000 11.062500000000 66.400001525879 44 44 44
18.500000000000 11.187500000000 63.847999572754 252 252 252
18.500000000000 11.187500000000 64.723999023438 48 48 48
22.000000000000 11.187500000000 65.720001220703 160 160 160
23.375000000000 11.250000000000 66.410003662109 12 12 12
18.562500000000 11.312500000000 63.847999572754 221 221 221
18.562500000000 11.312500000000 64.720001220703 40 40 40
21.937500000000 11.437500000000 65.726997375488 149 149 149
18.500000000000 11.562500000000 63.845001220703 255 255 255
18.500000000000 11.562500000000 64.711997985840 67 67 67
22.000000000000 11.562500000000 65.733001708984 98 98 98
22.375000000000 11.562500000000 66.417999267578 98 98 98
18.562500000000 11.750000000000 63.845001220703 255 255 255
18.562500000000 11.687500000000 64.703002929688 74 74 74
22.375000000000 11.812500000000 66.428001403809 97 97 97
18.500000000000 11.937500000000 63.833000183105 255 255 255
18.500000000000 11.937500000000 64.705001831055 79 79 79
22.437500000000 11.937500000000 66.439002990723 96 96 96
18.500000000000 12.062500000000 63.843002319336 255 255 255
18.562500000000 12.125000000000 64.702003479004 88 88 88
22.375000000000 12.125000000000 66.403999328613 98 98 98
18.500000000000 12.187500000000 63.850002288818 223 223 223
18.562500000000 12.312500000000 64.680000305176 82 82 82
21.125000000000 12.312500000000 64.425003051758 36 36 36
22.375000000000 12.312500000000 66.373001098633 108 108 108
18.500000000000 12.437500000000 63.840999603271 165 165 165
18.500000000000 12.437500000000 64.702003479004 45 45 45
21.000000000000 12.437500000000 64.411003112793 53 53 53
22.375000000000 12.437500000000 66.372001647949 114 114 114
18.500000000000 12.625000000000 63.834999084473 131 131 131
21.062500000000 12.687500000000 64.404998779297 65 65 65
22.375000000000 12.625000000000 66.369003295898 127 127 127
22.000000000000 12.687500000000 65.482002258301 12 12 12
18.500000000000 12.812500000000 63.827999114990 79 79 79
18.500000000000 12.812500000000 63.825000762939 69 69 69
21.062500000000 12.812500000000 64.409004211426 83 83 83
22.375000000000 12.812500000000 66.369003295898 150 150 150
22.062500000000 12.812500000000 65.483001708984 34 34 34
23.437500000000 12.812500000000 66.323997497559 11 11 11
18.562500000000 12.937500000000 63.838001251221 60 60 60
18.562500000000 12.937500000000 63.831001281738 79 79 79
21.062500000000 13.062500000000 64.405998229980 85 85 85
22.375000000000 13.062500000000 66.357002258301 147 147 147
22.000000000000 13.062500000000 65.476005554199 43 43 43
23.375000000000 13.062500000000 66.305000305176 13 13 13
18.562500000000 13.187500000000 63.827999114990 121 121 121
21.125000000000 13.187500000000 64.411003112793 93 93 93
22.375000000000 13.187500000000 66.367004394531 142 142 142
22.000000000000 13.187500000000 65.476997375488 30 30 30
23.375000000000 13.187500000000 66.305999755859 62 62 62
18.562500000000 13.312500000000 63.827999114990 155 155 155
21.062500000000 13.375000000000 64.402999877930 101 101 101
22.375000000000 13.437500000000 66.359001159668 125 125 125
21.937500000000 13.312500000000 65.636001586914 24 24 24
21.937500000000 13.312500000000 65.476005554199 45 45 45
23.375000000000 13.437500000000 66.301002502441 76 76 76
18.562500000000 13.562500000000 63.839000701904 227 227 227
21.125000000000 13.562500000000 64.410003662109 117 117 117
22.312500000000 13.562500000000 66.336997985840 98 98 98
22.000000000000 13.562500000000 65.625999450684 80 80 80
22.000000000000 13.562500000000 65.490005493164 49 49 49
23.375000000000 13.562500000000 66.303001403809 100 100 100
18.562500000000 13.750000000000 63.834999084473 255 255 255
21.000000000000 13.687500000000 64.401000976563 113 113 113
22.312500000000 13.812500000000 66.344001770020 98 98 98
22.000000000000 13.750000000000 65.626998901367 83 83 83
22.000000000000 13.750000000000 65.477996826172 50 50 50
23.375000000000 13.812500000000 66.298004150391 100 100 100
18.562500000000 13.937500000000 63.830001831055 255 255 255
21.062500000000 13.937500000000 64.392997741699 114 114 114
22.312500000000 13.937500000000 66.342002868652 79 79 79
22.000000000000 13.937500000000 65.618003845215 101 101 101
22.000000000000 13.937500000000 65.462997436523 51 51 51
23.312500000000 13.937500000000 66.298004150391 104 104 104
18.500000000000 14.062500000000 63.824001312256 255 255 255
21.000000000000 14.062500000000 64.394996643066 123 123 123
22.375000000000 14.062500000000 66.338996887207 56 56 56
22.000000000000 14.187500000000 65.615005493164 116 116 116
22.000000000000 14.187500000000 65.466003417969 48 48 48
23.375000000000 14.062500000000 66.293998718262 111 111 111
18.500000000000 14.250000000000 63.819999694824 255 255 255
21.062500000000 14.312500000000 64.388999938965 123 123 123
22.312500000000 14.312500000000 66.333000183105 39 39 39
22.000000000000 14.312500000000 65.618003845215 125 125 125
21.937500000000 14.250000000000 65.461997985840 41 41 41
23.312500000000 14.312500000000 66.291000366211 110 110 110
18.500000000000 14.437500000000 63.826999664307 255 255 255
18.625000000000 14.437500000000 64.637001037598 55 55 55
21.000000000000 14.437500000000 64.387001037598 123 123 123
22.375000000000 14.500000000000 66.336997985840 14 14 14
22.000000000000 14.437500000000 65.616004943848 139 139 139
22.000000000000 14.437500000000 65.462997436523 73 73 73
23.375000000000 14.500000000000 66.286003112793 110 110 110
18.500000000000 14.687500000000 63.819999694824 255 255 255
18.562500000000 14.625000000000 64.640998840332 56 56 56
21.062500000000 14.687500000000 64.377998352051 118 118 118
21.937500000000 14.687500000000 65.607002258301 141 141 141
21.937500000000 14.687500000000 65.452003479004 71 71 71
23.375000000000 14.687500000000 66.286003112793 117 117 117
18.562500000000 14.812500000000 63.827999114990 255 255 255
18.562500000000 14.812500000000 64.638000488281 44 44 44
21.000000000000 14.812500000000 64.377998352051 115 115 115
22.000000000000 14.812500000000 65.606002807617 151 151 151
22.000000000000 14.812500000000 65.461997985840 58 58 58
23.375000000000 14.812500000000 66.278999328613 121 121 121
18.500000000000 14.937500000000 63.819999694824 255 255 255
18.500000000000 14.937500000000 64.636001586914 65 65 65
21.000000000000 15.000000000000 64.375999450684 104 104 104
21.937500000000 15.062500000000 65.602996826172 162 162 162
21.937500000000 15.062500000000 65.458000183105 54 54 54
23.250000000000 15.000000000000 66.273002624512 126 126 126
18.562500000000 15.187500000000 63.827999114990 202 202 202
18.562500000000 15.125000000000 64.633003234863 70 70 70
21.062500000000 15.187500000000 64.376998901367 93 93 93
22.000000000000 15.187500000000 65.600006103516 165 165 165
22.000000000000 15.187500000000 65.457000732422 54 54 54
23.312500000000 15.187500000000 66.279998779297 138 138 138
18.500000000000 15.312500000000 63.821998596191 175 175 175
21.000000000000 15.312500000000 64.371002197266 92 92 92
22.000000000000 15.375000000000 65.596000671387 164 164 164
22.000000000000 15.312500000000 65.443000793457 56 56 56
23.312500000000 15.437500000000 66.284004211426 127 127 127
18.500000000000 15.437500000000 63.817001342773 109 109 109
21.062500000000 15.562500000000 64.361000061035 84 84 84
21.937500000000 15.562500000000 65.594001770020 164 164 164
21.937500000000 15.562500000000 65.447998046875 45 45 45
23.312500000000 15.562500000000 66.266998291016 119 119 119
18.500000000000 15.687500000000 63.817001342773 40 40 40
18.625000000000 15.687500000000 63.879001617432 119 119 119
21.000000000000 15.750000000000 64.365005493164 77 77 77
22.000000000000 15.687500000000 65.595001220703 169 169 169
22.000000000000 15.687500000000 65.453002929688 46 46 46
23.375000000000 15.687500000000 66.273002624512 119 119 119
18.562500000000 15.937500000000 63.826000213623 148 148 148
21.000000000000 15.937500000000 64.355003356934 45 45 45
21.937500000000 15.875000000000 65.593002319336 163 163 163
21.937500000000 15.875000000000 65.444999694824 22 22 22
23.312500000000 15.937500000000 66.259002685547 83 83 83
18.562500000000 16.062500000000 63.832000732422 130 130 130
21.000000000000 16.062500000000 64.371002197266 76 76 76
22.000000000000 16.062500000000 65.585998535156 165 165 165
22.000000000000 16.062500000000 65.431999206543 53 53 53
23.375000000000 16.125000000000 66.267997741699 116 116 116
18.500000000000 16.250000000000 63.838001251221 255 255 255
21.000000000000 16.250000000000 64.359001159668 75 75 75
21.937500000000 16.312500000000 65.586997985840 165 165 165
21.937500000000 16.312500000000 65.435997009277 55 55 55
23.312500000000 16.187500000000 66.252998352051 107 107 107
18.562500000000 16.437500000000 63.826999664307 255 255 255
21.000000000000 16.437500000000 64.351997375488 67 67 67
22.000000000000 16.437500000000 65.582000732422 168 168 168
22.000000000000 16.437500000000 65.429000854492 60 60 60
23.312500000000 16.437500000000 66.260002136230 108 108 108
18.562500000000 16.562500000000 63.827999114990 255 255 255
21.000000000000 16.687500000000 64.352996826172 67 67 67
21.875000000000 16.562500000000 65.574996948242 166 166 166
21.875000000000 16.562500000000 65.431999206543 70 70 70
23.312500000000 16.625000000000 66.250999450684 103 103 103
18.562500000000 16.812500000000 63.832000732422 255 255 255
21.000000000000 16.812500000000 64.340003967285 56 56 56
21.937500000000 16.812500000000 65.567001342773 166 166 166
21.937500000000 16.812500000000 65.429000854492 45 45 45
23.312500000000 16.812500000000 66.248001098633 107 107 107
18.562500000000 16.937500000000 63.831001281738 255 255 255
21.000000000000 16.937500000000 64.352996826172 51 51 51
21.937500000000 17.000000000000 65.565002441406 158 158 158
21.937500000000 17.000000000000 65.438003540039 70 70 70
23.312500000000 17.062500000000 66.243003845215 91 91 91
18.562500000000 17.187500000000 63.833999633789 255 255 255
21.000000000000 17.125000000000 64.336997985840 30 30 30
21.937500000000 17.187500000000 65.565002441406 149 149 149
21.937500000000 17.187500000000 65.417999267578 66 66 66
23.312500000000 17.187500000000 66.244003295898 75 75 75
18.562500000000 17.312500000000 63.827999114990 255 255 255
22.000000000000 17.312500000000 65.558998107910 120 120 120
22.000000000000 17.312500000000 65.421997070313 53 53 53
23.312500000000 17.312500000000 66.241004943848 47 47 47
18.500000000000 17.437500000000 63.833000183105 255 255 255
21.000000000000 17.562500000000 64.332000732422 59 59 59
21.937500000000 17.500000000000 65.556999206543 151 151 151
21.937500000000 17.500000000000 65.411003112793 54 54 54
23.250000000000 17.562500000000 66.238998413086 79 79 79
18.562500000000 17.687500000000 63.835998535156 255 255 255
18.562500000000 17.687500000000 64.601997375488 24 24 24
21.000000000000 17.687500000000 64.337997436523 58 58 58
22.000000000000 17.687500000000 65.560997009277 164 164 164
21.937500000000 17.687500000000 65.413002014160 55 55 55
23.312500000000 17.687500000000 66.226997375488 71 71 71
18.500000000000 17.875000000000 63.823001861572 255 255 255
18.625000000000 17.812500000000 64.587997436523 50 50 50
21.000000000000 17.812500000000 64.327003479004 47 47 47
21.875000000000 17.812500000000 65.564002990723 141 141 141
21.875000000000 17.812500000000 65.428001403809 61 61 61
23.312500000000 17.812500000000 66.235000610352 60 60 60
18.562500000000 18.062500000000 63.830001831055 255 255 255
18.562500000000 18.062500000000 64.571998596191 55 55 55
21.000000000000 18.062500000000 64.331001281738 54 54 54
21.937500000000 18.062500000000 65.544998168945 147 147 147
21.937500000000 18.062500000000 65.409004211426 66 66 66
23.312500000000 18.062500000000 66.227996826172 64 64 64
18.562500000000 18.187500000000 63.839000701904 220 220 220
18.562500000000 18.187500000000 64.579002380371 53 53 53
21.000000000000 18.312500000000 64.327003479004 59 59 59
21.875000000000 18.250000000000 65.546997070313 152 152 152
21.875000000000 18.250000000000 65.409004211426 70 70 70
23.312500000000 18.250000000000 66.217002868652 62 62 62
18.562500000000 18.437500000000 63.830001831055 164 164 164
21.000000000000 18.437500000000 64.320999145508 49 49 49
21.937500000000 18.437500000000 65.537002563477 121 121 121
21.937500000000 18.437500000000 65.410003662109 67 67 67
23.312500000000 18.437500000000 66.236000061035 39 39 39
18.562500000000 18.562500000000 63.833000183105 164 164 164
20.937500000000 18.562500000000 64.327003479004 60 60 60
21.937500000000 18.687500000000 65.542999267578 147 147 147
21.937500000000 18.625000000000 65.410003662109 54 54 54
23.312500000000 18.562500000000 66.219001770020 57 57 57
18.500000000000 18.812500000000 63.833000183105 137 137 137
21.000000000000 18.812500000000 64.312004089355 66 66 66
21.937500000000 18.812500000000 65.528999328613 136 136 136
21.937500000000 18.812500000000 65.401000976563 67 67 67
23.250000000000 18.750000000000 66.212997436523 62 62 62
18.562500000000 18.937500000000 63.832000732422 88 88 88
18.562500000000 19.000000000000 63.910999298096 116 116 116
21.000000000000 18.937500000000 64.319999694824 77 77 77
21.937500000000 18.937500000000 65.524002075195 136 136 136
21.937500000000 18.937500000000 65.407997131348 70 70 70
23.312500000000 18.937500000000 66.211997985840 69 69 69
18.625000000000 19.187500000000 63.880001068115 125 125 125
21.000000000000 19.187500000000 64.321998596191 72 72 72
21.875000000000 19.125000000000 65.528999328613 155 155 155
21.875000000000 19.125000000000 65.402000427246 64 64 64
23.312500000000 19.187500000000 66.208999633789 67 67 67
18.562500000000 19.250000000000 63.843002319336 148 148 148
21.000000000000 19.312500000000 64.317001342773 77 77 77
21.937500000000 19.312500000000 65.523002624512 133 133 133
21.937500000000 19.312500000000 65.402999877930 74 74 74
23.312500000000 19.312500000000 66.202003479004 69 69 69
18.562500000000 19.437500000000 63.835998535156 161 161 161
21.000000000000 19.437500000000 64.320999145508 81 81 81
21.937500000000 19.437500000000 65.527000427246 146 146 146
21.937500000000 19.437500000000 65.397003173828 69 69 69
23.312500000000 19.562500000000 66.210998535156 53 53 53
18.625000000000 19.687500000000 63.847999572754 255 255 255
21.000000000000 19.687500000000 64.313003540039 86 86 86
21.937500000000 19.687500000000 65.522003173828 137 137 137
21.937500000000 19.687500000000 65.396003723145 65 65 65
23.250000000000 19.687500000000 66.195999145508 62 62 62
18.562500000000 19.812500000000 63.853000640869 255 255 255
20.937500000000 19.812500000000 64.307998657227 84 84 84
21.937500000000 19.812500000000 65.525001525879 135 135 135
21.937500000000 19.812500000000 65.388999938965 65 65 65
23.250000000000 19.875000000000 66.205001831055 50 50 50
18.625000000000 20.062500000000 63.841999053955 255 255 255
21.000000000000 20.062500000000 64.312004089355 76 76 76
21.937500000000 20.062500000000 65.521003723145 112 112 112
21.937500000000 20.062500000000 65.400001525879 66 66 66
23.250000000000 20.062500000000 66.198997497559 26 26 26
18.562500000000 20.187500000000 63.840003967285 255 255 255
20.937500000000 20.187500000000 64.301002502441 72 72 72
21.937500000000 20.187500000000 65.513000488281 141 141 141
21.937500000000 20.312500000000 65.393997192383 63 63 63
23.250000000000 20.187500000000 66.208000183105 29 29 29
18.625000000000 20.375000000000 63.848999023438 255 255 255
21.000000000000 20.437500000000 64.307998657227 65 65 65
21.875000000000 20.375000000000 65.521003723145 97 97 97
21.875000000000 20.375000000000 65.391998291016 59 59 59
23.250000000000 20.375000000000 66.210998535156 15 15 15
18.562500000000 20.562500000000 63.838001251221 255 255 255
20.937500000000 20.562500000000 64.307998657227 68 68 68
21.937500000000 20.562500000000 65.500999450684 124 124 124
21.937500000000 20.562500000000 65.390998840332 78 78 78
23.250000000000 20.625000000000 66.197998046875 28 28 28
18.625000000000 20.812500000000 63.837001800537 255 255 255
21.000000000000 20.812500000000 64.300003051758 63 63 63
21.875000000000 20.812500000000 65.509002685547 100 100 100
21.875000000000 20.812500000000 65.388000488281 65 65 65
23.312500000000 20.812500000000 66.196998596191 14 14 14
18.500000000000 20.937500000000 63.847003936768 255 255 255
21.000000000000 20.937500000000 64.299003601074 70 70 70
21.937500000000 20.937500000000 65.511001586914 121 121 121
21.937500000000 20.937500000000 65.390998840332 67 67 67
23.250000000000 20.937500000000 66.206001281738 23 23 23
18.562500000000 21.125000000000 63.839000701904 255 255 255
21.000000000000 21.125000000000 64.302001953125 64 64 64
21.875000000000 21.187500000000 65.504997253418 112 112 112
21.875000000000 21.187500000000 65.388000488281 73 73 73
23.250000000000 21.125000000000 66.185997009277 22 22 22
18.625000000000 21.312500000000 63.835998535156 255 255 255
21.000000000000 21.312500000000 64.302001953125 56 56 56
21.937500000000 21.312500000000 65.506004333496 99 99 99
21.937500000000 21.312500000000 65.382003784180 80 80 80
23.250000000000 21.312500000000 66.209999084473 10 10 10
18.562500000000 21.437500000000 63.834999084473 255 255 255
20.937500000000 21.437500000000 64.305000305176 52 52 52
21.937500000000 21.500000000000 65.502998352051 102 102 102
21.937500000000 21.500000000000 65.392997741699 61 61 61
18.625000000000 21.687500000000 63.834999084473 255 255 255
21.000000000000 21.687500000000 64.303001403809 50 50 50
21.875000000000 21.687500000000 65.508003234863 99 99 99
21.937500000000 21.687500000000 65.385002136230 67 67 67
18.562500000000 21.812500000000 63.838001251221 255 255 255
20.937500000000 21.812500000000 64.313003540039 25 25 25
21.875000000000 21.812500000000 65.509002685547 76 76 76
21.875000000000 21.812500000000 65.382003784180 77 77 77
18.625000000000 22.062500000000 63.827999114990 255 255 255
21.000000000000 22.062500000000 64.298004150391 19 19 19
21.875000000000 22.000000000000 65.515998840332 76 76 76
21.875000000000 22.000000000000 65.377998352051 66 66 66
18.562500000000 22.250000000000 63.830001831055 255 255 255
21.875000000000 22.187500000000 65.514999389648 78 78 78
21.875000000000 22.187500000000 65.387001037598 71 71 71
18.562500000000 22.312500000000 63.819999694824 255 255 255
21.875000000000 22.437500000000 65.513999938965 70 70 70
21.875000000000 22.437500000000 65.384002685547 62 62 62
18.500000000000 22.562500000000 63.826999664307 219 219 219
21.875000000000 22.562500000000 65.513000488281 81 81 81
21.875000000000 22.562500000000 65.377998352051 70 70 70
18.562500000000 22.750000000000 63.826999664307 212 212 212
21.875000000000 22.812500000000 65.513999938965 74 74 74
21.875000000000 22.812500000000 65.383003234863 68 68 68
18.562500000000 22.937500000000 63.820999145508 180 180 180
21.937500000000 22.937500000000 65.510002136230 76 76 76
21.937500000000 22.937500000000 65.388999938965 68 68 68
18.562500000000 23.187500000000 63.819999694824 176 176 176
21.937500000000 23.125000000000 65.513999938965 82 82 82
21.937500000000 23.125000000000 65.391998291016 68 68 68
18.562500000000 23.312500000000 63.821998596191 134 134 134
21.875000000000 23.312500000000 65.519996643066 71 71 71
21.937500000000 23.375000000000 65.386001586914 68 68 68
18.562500000000 23.437500000000 63.827999114990 132 132 132
21.875000000000 23.437500000000 65.506004333496 72 72 72
21.875000000000 23.437500000000 65.376998901367 67 67 67
18.562500000000 23.687500000000 63.807998657227 77 77 77
18.562500000000 23.625000000000 63.862003326416 113 113 113
21.875000000000 23.687500000000 65.522003173828 74 74 74
21.875000000000 23.687500000000 65.384002685547 74 74 74
18.562500000000 23.875000000000 63.823001861572 58 58 58
18.625000000000 23.812500000000 63.834999084473 124 124 124
20.937500000000 23.937500000000 64.289001464844 48 48 48
21.875000000000 23.875000000000 65.512001037598 78 78 78
21.875000000000 23.812500000000 65.386001586914 68 68 68
18.562500000000 23.937500000000 63.812999725342 43 43 43
18.625000000000 24.062500000000 63.810001373291 183 183 183
20.937500000000 24.000000000000 64.286003112793 40 40 40
21.875000000000 24.062500000000 65.509002685547 79 79 79
21.875000000000 24.062500000000 65.384002685547 84 84 84
18.500000000000 24.187500000000 63.793998718262 46 46 46
18.625000000000 24.187500000000 63.819999694824 207 207 207
20.875000000000 24.187500000000 64.279998779297 53 53 53
21.875000000000 24.187500000000 65.501998901367 84 84 84
21.875000000000 24.187500000000 65.375000000000 74 74 74
18.625000000000 24.437500000000 63.820999145508 255 255 255
21.875000000000 24.437500000000 65.549003601074 79 79 79
21.875000000000 24.437500000000 65.381004333496 65 65 65
18.625000000000 24.562500000000 63.831001281738 255 255 255
20.875000000000 24.562500000000 64.288002014160 68 68 68
21.875000000000 24.562500000000 65.499000549316 98 98 98
21.875000000000 24.562500000000 65.375999450684 78 78 78
18.625000000000 24.750000000000 63.812999725342 255 255 255
20.937500000000 24.812500000000 64.286003112793 79 79 79
21.875000000000 24.812500000000 65.499000549316 116 116 116
21.875000000000 24.812500000000 65.365005493164 69 69 69
18.562500000000 24.937500000000 63.817001342773 255 255 255
20.937500000000 24.937500000000 64.286003112793 85 85 85
21.875000000000 24.937500000000 65.496002197266 124 124 124
21.875000000000 24.937500000000 65.375000000000 58 58 58
18.625000000000 25.062500000000 63.807998657227 255 255 255
20.937500000000 25.125000000000 64.281997680664 97 97 97
21.875000000000 25.062500000000 65.495002746582 151 151 151
21.875000000000 25.062500000000 65.383003234863 71 71 71
18.562500000000 25.312500000000 63.820999145508 255 255 255
20.937500000000 25.312500000000 64.288002014160 95 95 95
21.875000000000 25.312500000000 65.492004394531 146 146 146
21.875000000000 25.312500000000 65.372001647949 66 66 66
18.625000000000 25.437500000000 63.813999176025 255 255 255
21.000000000000 25.562500000000 64.286003112793 97 97 97
21.875000000000 25.500000000000 65.497001647949 152 152 152
21.875000000000 25.500000000000 65.371002197266 59 59 59
18.562500000000 25.687500000000 63.831001281738 255 255 255
20.937500000000 25.687500000000 64.275001525879 101 101 101
21.875000000000 25.687500000000 65.492004394531 149 149 149
21.875000000000 25.687500000000 65.381004333496 54 54 54
18.625000000000 25.812500000000 63.814998626709 255 255 255
20.937500000000 25.812500000000 64.280998229980 104 104 104
21.875000000000 25.812500000000 65.495002746582 156 156 156
21.875000000000 25.812500000000 65.374000549316 46 46 46
23.187500000000 25.812500000000 66.198997497559 10 10 10
18.625000000000 26.062500000000 63.820999145508 255 255 255
20.937500000000 26.062500000000 64.279998779297 105 105 105
21.875000000000 26.062500000000 65.491004943848 160 160 160
21.937500000000 26.062500000000 65.384002685547 54 54 54
23.250000000000 26.062500000000 66.194000244141 16 16 16
18.625000000000 26.187500000000 63.823001861572 255 255 255
20.937500000000 26.187500000000 64.281997680664 108 108 108
21.875000000000 26.187500000000 65.496002197266 170 170 170
21.875000000000 26.187500000000 65.381004333496 48 48 48
23.187500000000 26.250000000000 66.176002502441 35 35 35
18.625000000000 26.375000000000 63.810001373291 255 255 255
20.937500000000 26.437500000000 64.278999328613 108 108 108
21.875000000000 26.437500000000 65.497001647949 161 161 161
21.875000000000 26.437500000000 65.372001647949 55 55 55
23.250000000000 26.437500000000 66.190002441406 17 17 17
18.562500000000 26.562500000000 63.832000732422 255 255 255
20.937500000000 26.562500000000 64.288002014160 112 112 112
21.875000000000 26.562500000000 65.491004943848 163 163 163
21.875000000000 26.562500000000 65.381004333496 44 44 44
23.187500000000 26.562500000000 66.180000305176 37 37 37
18.625000000000 26.687500000000 63.819999694824 255 255 255
20.937500000000 26.750000000000 64.292999267578 112 112 112
21.875000000000 26.750000000000 65.493003845215 172 172 172
21.875000000000 26.687500000000 65.374000549316 51 51 51
23.250000000000 26.750000000000 66.188003540039 39 39 39
18.562500000000 26.937500000000 63.814998626709 255 255 255
20.937500000000 26.937500000000 64.287002563477 110 110 110
21.875000000000 26.937500000000 65.488998413086 164 164 164
21.875000000000 26.937500000000 65.372001647949 54 54 54
23.250000000000 26.937500000000 66.180000305176 58 58 58
23.437500000000 0.437500000000 66.885002136230 32 32 32
23.375000000000 0.562500000000 66.872001647949 58 58 58
23.437500000000 0.750000000000 66.861999511719 72 72 72
23.437500000000 0.937500000000 66.866004943848 75 75 75
