17.500000000000 5.328125000000 2.472000122070 190 190 190
17.500000000000 5.328125000000 2.438995361328 192 192 192
17.500000000000 5.328125000000 2.405990600586 193 193 193
17.500000000000 5.328125000000 2.373992919922 193 193 193
17.500000000000 5.312500000000 2.343994140625 187 187 187
17.500000000000 5.328125000000 2.307998657227 167 167 167
17.500000000000 5.312500000000 2.276992797852 162 162 162
16.968750000000 5.390625000000 3.313003540039 28 28 28
17.156250000000 5.281250000000 3.324996948242 122 122 122
17.359375000000 5.171875000000 3.345993041992 132 132 132
17.421875000000 5.125000000000 3.328994750977 157 157 157
17.453125000000 5.125000000000 3.302001953125 161 161 161
17.421875000000 5.125000000000 3.270996093750 163 163 163
17.453125000000 5.109375000000 3.242996215820 162 162 162
17.453125000000 5.109375000000 3.214996337891 162 162 162
17.453125000000 5.109375000000 3.184997558594 166 166 166
17.421875000000 5.125000000000 3.152999877930 166 166 166
17.453125000000 5.109375000000 3.123992919922 166 166 166
17.453125000000 5.109375000000 3.093994140625 163 163 163
17.453125000000 5.109375000000 3.063995361328 166 166 166
17.453125000000 5.109375000000 3.035995483398 165 165 165
17.421875000000 5.109375000000 3.002990722656 165 165 165
17.421875000000 5.109375000000 2.973999023438 165 165 165
17.421875000000 5.109375000000 2.945999145508 163 163 163
17.421875000000 5.093750000000 2.916000366211 165 165 165
17.421875000000 5.109375000000 2.882995605469 166 166 166
17.421875000000 5.109375000000 2.852996826172 163 163 163
17.421875000000 5.093750000000 2.823989868164 164 164 164
17.421875000000 5.109375000000 2.791000366211 164 164 164
17.421875000000 5.093750000000 2.761001586914 164 164 164
17.421875000000 5.093750000000 2.727996826172 162 162 162
17.421875000000 5.078125000000 2.698989868164 161 161 161
17.421875000000 5.078125000000 2.668991088867 159 159 159
17.421875000000 5.093750000000 2.631988525391 166 166 166
17.203125000000 4.984375000000 3.284988403320 130 130 130
17.203125000000 4.984375000000 3.253997802734 148 148 148
17.171875000000 4.953125000000 3.222991943359 145 145 145
17.171875000000 4.953125000000 3.190994262695 148 148 148
17.171875000000 4.953125000000 3.160995483398 146 146 146
17.171875000000 4.953125000000 3.126998901367 147 147 147
17.312500000000 4.609375000000 3.302993774414 129 129 129
17.343750000000 4.578125000000 3.289001464844 142 142 142
17.375000000000 4.546875000000 3.263992309570 127 127 127
17.406250000000 4.515625000000 3.248001098633 119 119 119
17.437500000000 4.515625000000 3.220001220703 121 121 121
17.437500000000 4.515625000000 3.192001342773 132 132 132
17.437500000000 4.515625000000 3.164993286133 136 136 136
17.437500000000 4.500000000000 3.134002685547 131 131 131
17.437500000000 4.515625000000 3.102996826172 142 142 142
14.437500000000 9.890625000000 3.395996093750 171 171 171
14.406250000000 9.875000000000 3.351989746094 185 185 185
14.406250000000 9.875000000000 3.309997558594 183 183 183
14.640625000000 9.562500000000 3.405990600586 156 156 156
14.640625000000 9.562500000000 3.364990234375 200 200 200
14.640625000000 9.562500000000 3.323989868164 198 198 198
14.640625000000 9.562500000000 3.282989501953 171 171 171
14.843750000000 9.250000000000 3.376998901367 193 193 193
14.843750000000 9.250000000000 3.337997436523 205 205 205
14.843750000000 9.250000000000 3.296997070313 199 199 199
14.843750000000 9.250000000000 3.256988525391 79 79 79
15.031250000000 8.937500000000 3.382995605469 182 182 182
15.062500000000 8.953125000000 3.345001220703 202 202 202
15.062500000000 8.953125000000 3.306991577148 205 205 205
15.031250000000 8.937500000000 3.267990112305 192 192 192
15.234375000000 8.640625000000 3.386001586914 119 119 119
15.328125000000 8.640625000000 3.358001708984 203 203 203
15.328125000000 8.640625000000 3.320999145508 204 204 204
15.328125000000 8.640625000000 3.283996582031 203 203 203
15.328125000000 8.640625000000 3.246002197266 172 172 172
15.343750000000 8.343750000000 3.380996704102 76 76 76
15.531250000000 8.328125000000 3.365997314453 197 197 197
15.562500000000 8.328125000000 3.333999633789 199 199 199
15.562500000000 8.328125000000 3.297988891602 208 208 208
15.562500000000 8.328125000000 3.261001586914 206 206 206
15.562500000000 8.328125000000 3.225997924805 117 117 117
15.531250000000 8.031250000000 3.356002807617 197 197 197
15.781250000000 8.031250000000 3.350997924805 200 200 200
15.781250000000 8.031250000000 3.315994262695 204 204 204
15.781250000000 8.031250000000 3.281997680664 202 202 202
15.781250000000 8.031250000000 3.248001098633 204 204 204
15.781250000000 8.031250000000 3.213989257813 91 91 91
15.703125000000 7.718750000000 3.360992431641 145 145 145
15.734375000000 7.734375000000 3.330993652344 195 195 195
16.046875000000 7.718750000000 3.335998535156 206 206 206
16.046875000000 7.718750000000 3.304000854492 203 203 203
16.046875000000 7.718750000000 3.270996093750 205 205 205
16.046875000000 7.703125000000 3.237991333008 204 204 204
16.046875000000 7.718750000000 3.203002929688 103 103 103
15.906250000000 7.421875000000 3.333999633789 188 188 188
15.968750000000 7.406250000000 3.313995361328 212 212 212
16.281250000000 7.421875000000 3.323989868164 205 205 205
16.281250000000 7.421875000000 3.291992187500 210 210 210
16.281250000000 7.406250000000 3.261001586914 204 204 204
16.281250000000 7.406250000000 3.229995727539 206 206 206
16.312500000000 7.421875000000 3.199996948242 125 125 125
16.031250000000 7.093750000000 3.336990356445 197 197 197
16.031250000000 7.109375000000 3.304992675781 197 197 197
16.375000000000 7.109375000000 3.321990966797 224 224 224
16.500000000000 7.109375000000 3.313003540039 209 209 209
16.500000000000 7.109375000000 3.284988403320 205 205 205
16.500000000000 7.109375000000 3.252990722656 205 205 205
16.500000000000 7.109375000000 3.223999023438 203 203 203
16.500000000000 7.109375000000 3.192993164063 163 163 163
16.171875000000 6.828125000000 3.341995239258 109 109 109
16.203125000000 6.828125000000 3.311996459961 193 193 193
16.203125000000 6.828125000000 3.278991699219 214 214 214
16.203125000000 6.828125000000 3.246994018555 203 203 203
16.765625000000 6.812500000000 3.307998657227 207 207 207
16.765625000000 6.812500000000 3.279998779297 205 205 205
16.765625000000 6.812500000000 3.250000000000 205 205 205
16.765625000000 6.812500000000 3.220001220703 207 207 207
16.765625000000 6.812500000000 3.190994262695 201 201 201
16.375000000000 6.484375000000 3.323989868164 188 188 188
16.375000000000 6.500000000000 3.294998168945 185 185 185
16.375000000000 6.500000000000 3.261993408203 215 215 215
16.375000000000 6.484375000000 3.229995727539 215 215 215
17.000000000000 6.500000000000 3.306991577148 208 208 208
17.000000000000 6.500000000000 3.281997680664 208 208 208
17.000000000000 6.500000000000 3.251998901367 207 207 207
17.000000000000 6.500000000000 3.224990844727 208 208 208
17.000000000000 6.500000000000 3.195999145508 207 207 207
17.000000000000 6.500000000000 3.168991088867 176 176 176
16.531250000000 6.187500000000 3.308990478516 202 202 202
16.531250000000 6.187500000000 3.277999877930 198 198 198
16.531250000000 6.187500000000 3.248992919922 216 216 216
16.531250000000 6.187500000000 3.218002319336 215 215 215
16.531250000000 6.187500000000 3.186996459961 181 181 181
17.218750000000 6.203125000000 3.284988403320 211 211 211
17.218750000000 6.203125000000 3.259994506836 207 207 207
17.218750000000 6.203125000000 3.233001708984 211 211 211
17.218750000000 6.203125000000 3.207000732422 210 210 210
17.218750000000 6.203125000000 3.179992675781 211 211 211
17.218750000000 6.203125000000 3.153991699219 159 159 159
16.671875000000 5.875000000000 3.320999145508 43 43 43
16.734375000000 5.890625000000 3.297988891602 207 207 207
16.734375000000 5.890625000000 3.267990112305 210 210 210
16.734375000000 5.890625000000 3.237991333008 196 196 196
16.703125000000 5.890625000000 3.207000732422 215 215 215
16.671875000000 5.875000000000 3.170989990234 190 190 190
17.453125000000 5.890625000000 3.292999267578 155 155 155
17.453125000000 5.890625000000 3.267990112305 148 148 148
17.453125000000 5.890625000000 3.244995117188 149 149 149
17.453125000000 5.890625000000 3.218994140625 148 148 148
17.453125000000 5.890625000000 3.194000244141 148 148 148
17.453125000000 5.890625000000 3.170989990234 147 147 147
17.453125000000 5.890625000000 3.143997192383 134 134 134
16.906250000000 5.578125000000 3.313995361328 97 97 97
16.906250000000 5.578125000000 3.285995483398 149 149 149
17.375000000000 5.578125000000 3.347991943359 147 147 147
17.468750000000 5.578125000000 3.339996337891 160 160 160
17.500000000000 5.578125000000 3.317001342773 162 162 162
17.531250000000 5.578125000000 3.297988891602 158 158 158
17.656250000000 5.578125000000 3.296997070313 150 150 150
17.656250000000 5.578125000000 3.279998779297 154 154 154
17.656250000000 5.578125000000 3.254989624023 156 156 156
17.656250000000 5.578125000000 3.233001708984 158 158 158
17.656250000000 5.578125000000 3.207000732422 157 157 157
17.656250000000 5.578125000000 3.182998657227 157 157 157
17.656250000000 5.578125000000 3.157989501953 157 157 157
17.656250000000 5.578125000000 3.132995605469 147 147 147
17.500000000000 5.562500000000 3.067993164063 143 143 143
17.500000000000 5.562500000000 3.041000366211 142 142 142
17.500000000000 5.562500000000 3.014999389648 148 148 148
17.500000000000 5.562500000000 2.990997314453 143 143 143
17.500000000000 5.562500000000 2.964996337891 146 146 146
17.531250000000 5.578125000000 2.940994262695 145 145 145
17.500000000000 5.562500000000 2.912994384766 143 143 143
17.500000000000 5.562500000000 2.886993408203 146 146 146
17.500000000000 5.562500000000 2.862991333008 144 144 144
17.531250000000 5.546875000000 2.836990356445 143 143 143
17.531250000000 5.578125000000 2.811996459961 140 140 140
17.500000000000 5.562500000000 2.782989501953 137 137 137
17.531250000000 5.546875000000 2.756988525391 140 140 140
17.531250000000 5.546875000000 2.733001708984 111 111 111
17.531250000000 5.546875000000 2.707000732422 113 113 113
17.531250000000 5.546875000000 2.677993774414 110 110 110
17.531250000000 5.546875000000 2.649002075195 113 113 113
17.312500000000 5.281250000000 3.345001220703 127 127 127
17.437500000000 5.265625000000 3.345001220703 132 132 132
17.593750000000 5.281250000000 3.348999023438 136 136 136
17.656250000000 5.265625000000 3.335998535156 153 153 153
17.656250000000 5.265625000000 3.315002441406 162 162 162
17.656250000000 5.265625000000 3.291000366211 160 160 160
17.656250000000 5.265625000000 3.266998291016 162 162 162
17.656250000000 5.265625000000 3.241989135742 163 163 163
17.750000000000 5.281250000000 3.238998413086 159 159 159
17.968750000000 5.265625000000 3.268997192383 161 161 161
18.000000000000 5.281250000000 3.254989624023 157 157 157
18.031250000000 5.265625000000 3.235000610352 151 151 151
18.031250000000 5.281250000000 3.218002319336 150 150 150
18.062500000000 5.265625000000 3.198989868164 147 147 147
18.062500000000 5.265625000000 3.175003051758 156 156 156
18.062500000000 5.265625000000 3.153991699219 159 159 159
18.062500000000 5.265625000000 3.138000488281 156 156 156
18.031250000000 5.265625000000 3.104995727539 191 191 191
18.031250000000 5.250000000000 3.082992553711 181 181 181
17.812500000000 5.281250000000 2.987991333008 175 175 175
17.687500000000 5.281250000000 2.925003051758 164 164 164
17.687500000000 5.281250000000 2.899993896484 162 162 162
17.687500000000 5.281250000000 2.875991821289 165 165 165
17.687500000000 5.281250000000 2.850997924805 165 165 165
17.687500000000 5.281250000000 2.825988769531 164 164 164
17.687500000000 5.281250000000 2.800994873047 163 163 163
17.687500000000 5.281250000000 2.772994995117 165 165 165
17.687500000000 5.281250000000 2.748992919922 164 164 164
17.687500000000 5.250000000000 2.725997924805 156 156 156
17.687500000000 5.281250000000 2.697998046875 162 162 162
17.687500000000 5.250000000000 2.673995971680 159 159 159
17.687500000000 5.281250000000 2.644989013672 149 149 149
17.437500000000 5.265625000000 2.494003295898 88 88 88
17.375000000000 5.250000000000 2.421997070313 84 84 84
17.375000000000 5.250000000000 2.392990112305 92 92 92
17.343750000000 5.265625000000 2.347991943359 105 105 105
17.312500000000 5.250000000000 2.306991577148 197 197 197
17.343750000000 5.234375000000 2.285995483398 145 145 145
17.406250000000 5.250000000000 2.289993286133 144 144 144
17.171875000000 4.968750000000 3.280990600586 154 154 154
17.171875000000 4.968750000000 3.254989624023 164 164 164
17.203125000000 4.984375000000 3.229995727539 163 163 163
17.171875000000 4.968750000000 3.198989868164 165 165 165
17.203125000000 4.984375000000 3.175003051758 163 163 163
17.171875000000 4.968750000000 3.145996093750 161 161 161
17.171875000000 4.968750000000 3.117996215820 123 123 123
18.265625000000 4.984375000000 3.302001953125 147 147 147
18.265625000000 4.968750000000 3.285995483398 150 150 150
18.296875000000 4.984375000000 3.268997192383 141 141 141
18.296875000000 4.984375000000 3.246994018555 133 133 133
18.265625000000 4.968750000000 3.223999023438 131 131 131
18.265625000000 4.968750000000 3.203002929688 120 120 120
18.296875000000 4.984375000000 3.182998657227 112 112 112
18.265625000000 4.968750000000 3.159988403320 113 113 113
18.265625000000 4.968750000000 3.138992309570 117 117 117
18.265625000000 4.968750000000 3.116989135742 123 123 123
18.265625000000 4.984375000000 3.093994140625 133 133 133
18.171875000000 4.984375000000 3.041992187500 231 231 231
17.250000000000 4.671875000000 3.311996459961 104 104 104
17.281250000000 4.671875000000 3.289001464844 161 161 161
17.312500000000 4.671875000000 3.270996093750 138 138 138
17.343750000000 4.671875000000 3.246002197266 145 145 145
17.343750000000 4.671875000000 3.222000122070 151 151 151
17.343750000000 4.671875000000 3.194000244141 150 150 150
17.343750000000 4.671875000000 3.169998168945 150 150 150
17.343750000000 4.671875000000 3.142990112305 153 153 153
17.343750000000 4.671875000000 3.116989135742 143 143 143
17.281250000000 4.671875000000 3.078002929688 157 157 157
14.515625000000 9.718750000000 3.283996582031 196 196 196
14.515625000000 9.734375000000 3.332992553711 221 221 221
14.515625000000 9.734375000000 3.381988525391 212 212 212
14.546875000000 9.734375000000 3.431991577148 161 161 161
14.578125000000 9.734375000000 3.481002807617 152 152 152
14.578125000000 9.750000000000 3.529998779297 137 137 137
14.640625000000 9.515625000000 3.276992797852 196 196 196
14.640625000000 9.515625000000 3.323989868164 223 223 223
14.640625000000 9.515625000000 3.371994018555 208 208 208
14.812500000000 9.281250000000 3.272994995117 215 215 215
14.812500000000 9.312500000000 3.319992065430 223 223 223
14.812500000000 9.312500000000 3.366989135742 208 208 208
14.937500000000 9.062500000000 3.233993530273 11 11 11
14.968750000000 9.078125000000 3.279998779297 223 223 223
14.968750000000 9.078125000000 3.325988769531 225 225 225
14.968750000000 9.078125000000 3.371002197266 209 209 209
15.109375000000 8.843750000000 3.246002197266 182 182 182
15.109375000000 8.843750000000 3.289993286133 223 223 223
15.109375000000 8.843750000000 3.334991455078 227 227 227
15.109375000000 8.843750000000 3.377990722656 165 165 165
15.328125000000 8.656250000000 3.259994506836 226 226 226
15.328125000000 8.656250000000 3.302001953125 227 227 227
15.328125000000 8.656250000000 3.347000122070 223 223 223
15.265625000000 8.640625000000 3.381988525391 102 102 102
15.453125000000 8.453125000000 3.220993041992 126 126 126
15.453125000000 8.453125000000 3.263000488281 226 226 226
15.468750000000 8.437500000000 3.304992675781 226 226 226
15.484375000000 8.453125000000 3.347991943359 221 221 221
15.375000000000 8.390625000000 3.375000000000 97 97 97
15.625000000000 8.234375000000 3.227996826172 201 201 201
15.625000000000 8.234375000000 3.267990112305 225 225 225
15.625000000000 8.234375000000 3.308990478516 226 226 226
15.625000000000 8.234375000000 3.348999023438 223 223 223
15.500000000000 8.140625000000 3.369003295898 131 131 131
15.781250000000 8.031250000000 3.201995849609 91 91 91
15.781250000000 8.031250000000 3.242996215820 227 227 227
15.781250000000 8.031250000000 3.282989501953 227 227 227
15.781250000000 8.031250000000 3.322998046875 223 223 223
15.703125000000 7.968750000000 3.343994140625 216 216 216
15.953125000000 7.796875000000 3.223999023438 223 223 223
15.984375000000 7.812500000000 3.263992309570 221 221 221
15.984375000000 7.812500000000 3.302993774414 221 221 221
15.953125000000 7.796875000000 3.339996337891 222 222 222
15.734375000000 7.687500000000 3.343002319336 201 201 201
16.140625000000 7.609375000000 3.205001831055 203 203 203
16.140625000000 7.609375000000 3.244003295898 223 223 223
16.140625000000 7.609375000000 3.280990600586 226 226 226
16.140625000000 7.609375000000 3.319992065430 224 224 224
15.937500000000 7.468750000000 3.321990966797 216 216 216
15.843750000000 7.437500000000 3.348999023438 158 158 158
16.281250000000 7.390625000000 3.177993774414 68 68 68
16.312500000000 7.390625000000 3.220001220703 226 226 226
16.312500000000 7.390625000000 3.255996704102 224 224 224
16.312500000000 7.390625000000 3.292999267578 225 225 225
16.281250000000 7.390625000000 3.328002929688 228 228 228
16.000000000000 7.218750000000 3.311996459961 213 213 213
15.968750000000 7.203125000000 3.349990844727 114 114 114
16.468750000000 7.187500000000 3.198989868164 217 217 217
16.468750000000 7.187500000000 3.235000610352 226 226 226
16.468750000000 7.187500000000 3.269989013672 227 227 227
16.437500000000 7.171875000000 3.304992675781 226 226 226
16.250000000000 7.062500000000 3.304000854492 232 232 232
16.109375000000 6.968750000000 3.313003540039 214 214 214
16.109375000000 6.968750000000 3.349990844727 16 16 16
16.640625000000 6.953125000000 3.184997558594 204 204 204
16.609375000000 6.968750000000 3.218994140625 224 224 224
16.640625000000 6.953125000000 3.253997802734 225 225 225
16.640625000000 6.953125000000 3.287002563477 225 225 225
16.609375000000 6.953125000000 3.317001342773 230 230 230
16.234375000000 6.765625000000 3.281997680664 226 226 226
16.234375000000 6.765625000000 3.319000244141 215 215 215
16.796875000000 6.765625000000 3.177993774414 208 208 208
16.796875000000 6.765625000000 3.211990356445 224 224 224
16.796875000000 6.765625000000 3.244995117188 223 223 223
16.796875000000 6.765625000000 3.277999877930 225 225 225
16.796875000000 6.750000000000 3.308990478516 226 226 226
16.375000000000 6.515625000000 3.257995605469 230 230 230
16.375000000000 6.515625000000 3.294998168945 217 217 217
16.375000000000 6.515625000000 3.328994750977 111 111 111
16.968750000000 6.562500000000 3.172988891602 215 215 215
16.968750000000 6.562500000000 3.205001831055 224 224 224
16.968750000000 6.562500000000 3.236999511719 223 223 223
16.968750000000 6.562500000000 3.269989013672 225 225 225
16.968750000000 6.562500000000 3.302001953125 224 224 224
16.500000000000 6.296875000000 3.237991333008 228 228 228
16.500000000000 6.296875000000 3.272003173828 217 217 217
16.468750000000 6.281250000000 3.306991577148 216 216 216
17.125000000000 6.328125000000 3.167999267578 219 219 219
17.125000000000 6.328125000000 3.200988769531 224 224 224
17.125000000000 6.328125000000 3.231002807617 224 224 224
17.125000000000 6.328125000000 3.263000488281 226 226 226
17.125000000000 6.328125000000 3.293991088867 224 224 224
16.640625000000 6.046875000000 3.216995239258 210 210 210
16.609375000000 6.046875000000 3.250991821289 227 227 227
16.640625000000 6.046875000000 3.287002563477 211 211 211
16.609375000000 6.015625000000 3.315994262695 99 99 99
17.281250000000 6.140625000000 3.140991210938 99 99 99
17.281250000000 6.140625000000 3.168991088867 222 222 222
17.281250000000 6.140625000000 3.198989868164 224 224 224
17.265625000000 6.109375000000 3.228988647461 224 224 224
17.265625000000 6.109375000000 3.259994506836 223 223 223
17.265625000000 6.109375000000 3.289993286133 222 222 222
16.734375000000 5.843750000000 3.201995849609 223 223 223
16.734375000000 5.843750000000 3.233993530273 217 217 217
16.734375000000 5.843750000000 3.266998291016 213 213 213
16.734375000000 5.812500000000 3.300003051758 203 203 203
17.421875000000 5.921875000000 3.142990112305 150 150 150
17.421875000000 5.921875000000 3.171997070313 166 166 166
17.421875000000 5.921875000000 3.199996948242 161 161 161
17.421875000000 5.921875000000 3.229995727539 166 166 166
17.421875000000 5.906250000000 3.257995605469 161 161 161
17.421875000000 5.921875000000 3.289993286133 163 163 163
16.843750000000 5.593750000000 3.179992675781 157 157 157
16.906250000000 5.593750000000 3.222000122070 181 181 181
16.875000000000 5.593750000000 3.251998901367 171 171 171
16.875000000000 5.593750000000 3.284988403320 181 181 181
16.875000000000 5.578125000000 3.313995361328 27 27 27
17.468750000000 5.640625000000 2.653991699219 149 149 149
17.468750000000 5.640625000000 2.684997558594 156 156 156
17.468750000000 5.640625000000 2.716003417969 155 155 155
17.468750000000 5.640625000000 2.744995117188 156 156 156
17.468750000000 5.640625000000 2.777999877930 157 157 157
17.468750000000 5.640625000000 2.808990478516 158 158 158
17.468750000000 5.640625000000 2.841003417969 159 159 159
17.468750000000 5.640625000000 2.869995117188 161 161 161
17.468750000000 5.640625000000 2.901000976563 164 164 164
17.468750000000 5.640625000000 2.930999755859 159 159 159
17.468750000000 5.640625000000 2.963989257813 161 161 161
17.468750000000 5.640625000000 2.992996215820 158 158 158
17.468750000000 5.640625000000 3.018997192383 158 158 158
17.468750000000 5.640625000000 3.050994873047 159 159 159
17.500000000000 5.640625000000 3.095001220703 160 160 160
17.578125000000 5.703125000000 3.142990112305 173 173 173
17.578125000000 5.703125000000 3.172988891602 163 163 163
17.578125000000 5.703125000000 3.203002929688 172 172 172
17.578125000000 5.703125000000 3.231002807617 172 172 172
17.578125000000 5.703125000000 3.259002685547 168 168 168
17.578125000000 5.671875000000 3.289001464844 167 167 167
17.468750000000 5.625000000000 3.287002563477 164 164 164
17.468750000000 5.625000000000 3.315994262695 167 167 167
17.437500000000 5.609375000000 3.336990356445 153 153 153
17.343750000000 5.546875000000 3.341995239258 112 112 112
17.156250000000 5.437500000000 3.335998535156 90 90 90
17.500000000000 5.375000000000 2.278991699219 169 169 169
17.500000000000 5.375000000000 2.315002441406 191 191 191
17.500000000000 5.375000000000 2.343994140625 196 196 196
17.500000000000 5.375000000000 2.377990722656 196 196 196
17.500000000000 5.375000000000 2.409988403320 200 200 200
17.500000000000 5.375000000000 2.440002441406 202 202 202
17.500000000000 5.375000000000 2.473999023438 196 196 196
17.500000000000 5.375000000000 2.505996704102 194 194 194
17.500000000000 5.375000000000 2.535995483398 188 188 188
17.500000000000 5.359375000000 2.567993164063 174 174 174
17.593750000000 5.421875000000 2.636001586914 150 150 150
17.625000000000 5.421875000000 2.669998168945 148 148 148
17.593750000000 5.421875000000 2.696990966797 152 152 152
17.593750000000 5.421875000000 2.728988647461 150 150 150
17.625000000000 5.421875000000 2.759994506836 152 152 152
17.593750000000 5.421875000000 2.787002563477 154 154 154
17.593750000000 5.421875000000 2.817993164063 157 157 157
17.593750000000 5.406250000000 2.848999023438 154 154 154
17.593750000000 5.406250000000 2.877990722656 155 155 155
17.593750000000 5.406250000000 2.907989501953 155 155 155
17.593750000000 5.406250000000 2.935989379883 157 157 157
17.593750000000 5.406250000000 2.966995239258 155 155 155
17.593750000000 5.406250000000 2.994995117188 158 158 158
17.593750000000 5.406250000000 3.024002075195 155 155 155
17.625000000000 5.421875000000 3.055999755859 155 155 155
17.750000000000 5.500000000000 3.128997802734 162 162 162
17.781250000000 5.500000000000 3.159988403320 157 157 157
17.781250000000 5.500000000000 3.184997558594 160 160 160
17.781250000000 5.500000000000 3.212997436523 159 159 159
17.781250000000 5.500000000000 3.239990234375 160 160 160
17.781250000000 5.500000000000 3.266998291016 160 160 160
17.718750000000 5.468750000000 3.287002563477 152 152 152
17.593750000000 5.406250000000 3.283996582031 166 166 166
17.593750000000 5.406250000000 3.311996459961 180 180 180
17.593750000000 5.390625000000 3.333999633789 165 165 165
17.531250000000 5.328125000000 3.343002319336 132 132 132
17.375000000000 5.265625000000 3.341995239258 132 132 132
17.968750000000 5.312500000000 3.106002807617 143 143 143
17.937500000000 5.312500000000 3.126998901367 173 173 173
17.937500000000 5.312500000000 3.152999877930 169 169 169
17.937500000000 5.312500000000 3.179000854492 166 166 166
17.937500000000 5.312500000000 3.205001831055 160 160 160
17.937500000000 5.312500000000 3.235000610352 169 169 169
17.937500000000 5.312500000000 3.261001586914 173 173 173
17.968750000000 5.312500000000 3.291000366211 58 58 58
17.203125000000 4.859375000000 3.098999023438 74 74 74
17.203125000000 4.859375000000 3.129989624023 169 169 169
17.203125000000 4.859375000000 3.160995483398 172 172 172
17.203125000000 4.875000000000 3.194000244141 163 163 163
17.203125000000 4.859375000000 3.223999023438 171 171 171
17.203125000000 4.859375000000 3.254989624023 172 172 172
17.203125000000 4.859375000000 3.280990600586 81 81 81
18.203125000000 5.140625000000 3.069000244141 164 164 164
18.203125000000 5.156250000000 3.097000122070 177 177 177
18.203125000000 5.156250000000 3.123001098633 179 179 179
18.203125000000 5.156250000000 3.149002075195 179 179 179
18.203125000000 5.156250000000 3.172988891602 176 176 176
18.203125000000 5.156250000000 3.195999145508 173 173 173
18.203125000000 5.156250000000 3.222991943359 178 178 178
18.203125000000 5.156250000000 3.248001098633 173 173 173
18.203125000000 5.140625000000 3.269989013672 173 173 173
18.203125000000 5.156250000000 3.296997070313 167 167 167
18.109375000000 5.093750000000 3.295989990234 163 163 163
17.343750000000 4.640625000000 3.093002319336 163 163 163
17.343750000000 4.640625000000 3.125991821289 174 174 174
17.375000000000 4.640625000000 3.157989501953 168 168 168
17.343750000000 4.640625000000 3.188003540039 167 167 167
17.343750000000 4.640625000000 3.216995239258 164 164 164
17.343750000000 4.640625000000 3.246002197266 163 163 163
17.312500000000 4.640625000000 3.270996093750 169 169 169
17.312500000000 4.609375000000 3.296997070313 152 152 152
17.250000000000 4.703125000000 3.088989257813 110 110 110
17.312500000000 4.703125000000 3.123992919922 136 136 136
17.312500000000 4.703125000000 3.152999877930 149 149 149
17.312500000000 4.703125000000 3.177001953125 148 148 148
17.312500000000 4.703125000000 3.203994750977 150 150 150
17.312500000000 4.703125000000 3.231002807617 151 151 151
17.281250000000 4.703125000000 3.253997802734 150 150 150
17.281250000000 4.703125000000 3.281997680664 145 145 145
17.250000000000 4.703125000000 3.302001953125 92 92 92
17.390625000000 5.046875000000 2.655990600586 147 147 147
17.390625000000 5.046875000000 2.685989379883 152 152 152
17.390625000000 5.046875000000 2.711990356445 154 154 154
17.390625000000 5.046875000000 2.737991333008 158 158 158
17.390625000000 5.046875000000 2.763992309570 159 159 159
17.390625000000 5.046875000000 2.791000366211 160 160 160
18.203125000000 5.046875000000 3.073989868164 163 163 163
18.234375000000 5.046875000000 3.103988647461 159 159 159
18.234375000000 5.046875000000 3.125991821289 157 157 157
18.234375000000 5.046875000000 3.147003173828 159 159 159
18.234375000000 5.046875000000 3.168991088867 160 160 160
18.234375000000 5.046875000000 3.188003540039 143 143 143
18.234375000000 5.046875000000 3.207000732422 149 149 149
18.234375000000 5.046875000000 3.231002807617 155 155 155
18.234375000000 5.046875000000 3.250991821289 155 155 155
18.234375000000 5.046875000000 3.269989013672 151 151 151
18.234375000000 5.046875000000 3.291000366211 152 152 152
18.234375000000 5.046875000000 3.310989379883 148 148 148
18.171875000000 5.046875000000 3.315994262695 142 142 142
17.359375000000 5.046875000000 3.152999877930 143 143 143
17.359375000000 5.046875000000 3.177001953125 151 151 151
17.359375000000 5.046875000000 3.198989868164 160 160 160
17.328125000000 5.078125000000 3.222000122070 165 165 165
17.328125000000 5.046875000000 3.246002197266 164 164 164
17.328125000000 5.046875000000 3.270996093750 166 166 166
17.328125000000 5.062500000000 3.294998168945 167 167 167
17.296875000000 5.078125000000 3.317001342773 155 155 155
17.531250000000 5.390625000000 2.279998779297 145 145 145
17.500000000000 5.390625000000 2.297988891602 154 154 154
17.468750000000 5.390625000000 2.317001342773 152 152 152
17.468750000000 5.390625000000 2.343002319336 163 163 163
17.468750000000 5.390625000000 2.373001098633 172 172 172
17.468750000000 5.390625000000 2.399993896484 175 175 175
17.468750000000 5.390625000000 2.427993774414 167 167 167
17.468750000000 5.421875000000 2.455001831055 171 171 171
17.468750000000 5.390625000000 2.483993530273 165 165 165
17.468750000000 5.421875000000 2.509994506836 171 171 171
17.468750000000 5.421875000000 2.539001464844 176 176 176
17.468750000000 5.421875000000 2.563003540039 168 168 168
17.468750000000 5.421875000000 2.593994140625 175 175 175
17.593750000000 5.390625000000 2.660995483398 144 144 144
17.593750000000 5.390625000000 2.688003540039 140 140 140
17.593750000000 5.390625000000 2.710998535156 131 131 131
17.593750000000 5.390625000000 2.739990234375 130 130 130
17.593750000000 5.390625000000 2.763000488281 139 139 139
17.593750000000 5.390625000000 2.787994384766 138 138 138
17.593750000000 5.390625000000 2.815994262695 141 141 141
17.593750000000 5.390625000000 2.841003417969 144 144 144
17.593750000000 5.390625000000 2.865997314453 144 144 144
17.593750000000 5.390625000000 2.890991210938 143 143 143
17.562500000000 5.421875000000 2.914993286133 142 142 142
17.593750000000 5.390625000000 2.942001342773 142 142 142
17.562500000000 5.421875000000 2.966003417969 142 142 142
17.562500000000 5.421875000000 2.989990234375 142 142 142
17.562500000000 5.421875000000 3.013992309570 139 139 139
17.687500000000 5.421875000000 3.067993164063 141 141 141
17.812500000000 5.406250000000 3.127990722656 129 129 129
17.781250000000 5.406250000000 3.143997192383 141 141 141
17.781250000000 5.406250000000 3.166000366211 139 139 139
17.781250000000 5.406250000000 3.188995361328 130 130 130
17.781250000000 5.406250000000 3.210998535156 130 130 130
17.781250000000 5.406250000000 3.233993530273 131 131 131
17.781250000000 5.406250000000 3.256988525391 142 142 142
17.812500000000 5.406250000000 3.284988403320 143 143 143
17.718750000000 5.421875000000 3.289001464844 137 137 137
17.562500000000 5.421875000000 3.284988403320 158 158 158
17.562500000000 5.421875000000 3.310989379883 151 151 151
17.562500000000 5.421875000000 3.334991455078 158 158 158
17.562500000000 5.421875000000 3.353988647461 151 151 151
17.437500000000 5.421875000000 3.356994628906 135 135 135
17.312500000000 5.421875000000 3.356994628906 135 135 135
17.093750000000 5.421875000000 3.345001220703 82 82 82
17.515625000000 5.781250000000 3.138000488281 50 50 50
17.484375000000 5.765625000000 3.158996582031 145 145 145
17.484375000000 5.765625000000 3.183990478516 149 149 149
17.484375000000 5.765625000000 3.208999633789 149 149 149
17.484375000000 5.796875000000 3.231002807617 154 154 154
17.484375000000 5.796875000000 3.255996704102 150 150 150
17.484375000000 5.796875000000 3.281997680664 152 152 152
17.484375000000 5.796875000000 3.306991577148 148 148 148
16.703125000000 5.812500000000 3.177993774414 199 199 199
16.734375000000 5.812500000000 3.214996337891 197 197 197
16.765625000000 5.796875000000 3.246002197266 180 180 180
16.734375000000 5.812500000000 3.272003173828 186 186 186
16.734375000000 5.796875000000 3.300003051758 208 208 208
16.734375000000 5.812500000000 3.326995849609 115 115 115
17.218750000000 6.156250000000 3.164001464844 148 148 148
17.218750000000 6.156250000000 3.186996459961 210 210 210
17.218750000000 6.156250000000 3.213989257813 211 211 211
17.218750000000 6.156250000000 3.240997314453 211 211 211
17.218750000000 6.156250000000 3.265991210938 210 210 210
17.218750000000 6.156250000000 3.292999267578 209 209 209
17.187500000000 6.171875000000 3.311996459961 228 228 228
16.531250000000 6.156250000000 3.220001220703 215 215 215
16.531250000000 6.156250000000 3.250000000000 216 216 216
16.531250000000 6.156250000000 3.280990600586 212 212 212
16.531250000000 6.171875000000 3.311996459961 201 201 201
16.531250000000 6.171875000000 3.341003417969 86 86 86
16.968750000000 6.531250000000 3.171997070313 91 91 91
16.968750000000 6.531250000000 3.199996948242 208 208 208
16.937500000000 6.515625000000 3.225997924805 211 211 211
16.968750000000 6.531250000000 3.254989624023 210 210 210
16.968750000000 6.531250000000 3.282989501953 211 211 211
16.968750000000 6.531250000000 3.310989379883 210 210 210
16.312500000000 6.531250000000 3.229995727539 199 199 199
16.343750000000 6.531250000000 3.263000488281 214 214 214
16.343750000000 6.531250000000 3.293991088867 214 214 214
16.343750000000 6.546875000000 3.324996948242 200 200 200
16.671875000000 6.906250000000 3.185989379883 119 119 119
16.671875000000 6.890625000000 3.216003417969 212 212 212
16.671875000000 6.906250000000 3.244995117188 210 210 210
16.671875000000 6.906250000000 3.274993896484 209 209 209
16.671875000000 6.890625000000 3.304000854492 208 208 208
16.671875000000 6.906250000000 3.330993652344 212 212 212
16.140625000000 6.890625000000 3.279998779297 216 216 216
16.140625000000 6.890625000000 3.310989379883 197 197 197
16.140625000000 6.890625000000 3.343002319336 194 194 194
16.375000000000 7.265625000000 3.208999633789 182 182 182
16.375000000000 7.265625000000 3.240997314453 206 206 206
16.375000000000 7.265625000000 3.270996093750 209 209 209
16.375000000000 7.265625000000 3.302001953125 207 207 207
16.375000000000 7.265625000000 3.332992553711 209 209 209
15.968750000000 7.250000000000 3.305999755859 216 216 216
15.937500000000 7.281250000000 3.332992553711 194 194 194
15.906250000000 7.281250000000 3.364990234375 98 98 98
16.078125000000 7.609375000000 3.208999633789 112 112 112
16.078125000000 7.609375000000 3.241989135742 207 207 207
16.078125000000 7.625000000000 3.274002075195 207 207 207
16.078125000000 7.625000000000 3.306991577148 207 207 207
16.078125000000 7.625000000000 3.338989257813 206 206 206
15.828125000000 7.625000000000 3.334991455078 194 194 194
15.734375000000 7.625000000000 3.358001708984 185 185 185
15.781250000000 8.000000000000 3.246994018555 209 209 209
15.781250000000 8.000000000000 3.282989501953 208 208 208
15.781250000000 8.000000000000 3.315994262695 208 208 208
15.781250000000 8.000000000000 3.350997924805 207 207 207
15.562500000000 8.000000000000 3.354995727539 196 196 196
15.500000000000 8.000000000000 3.384994506836 24 24 24
15.500000000000 8.359375000000 3.259002685547 201 201 201
15.500000000000 8.359375000000 3.294998168945 208 208 208
15.500000000000 8.359375000000 3.330993652344 205 205 205
15.500000000000 8.359375000000 3.365997314453 203 203 203
15.375000000000 8.375000000000 3.386001586914 119 119 119
15.203125000000 8.765625000000 3.272994995117 203 203 203
15.234375000000 8.734375000000 3.313003540039 206 206 206
15.234375000000 8.750000000000 3.349990844727 205 205 205
15.203125000000 8.765625000000 3.384994506836 184 184 184
14.906250000000 9.125000000000 3.289993286133 205 205 205
14.906250000000 9.125000000000 3.328994750977 207 207 207
14.906250000000 9.125000000000 3.367996215820 196 196 196
14.906250000000 9.125000000000 3.406997680664 119 119 119
14.640625000000 9.468750000000 3.277999877930 109 109 109
14.640625000000 9.468750000000 3.317001342773 204 204 204
14.640625000000 9.468750000000 3.358001708984 204 204 204
14.640625000000 9.468750000000 3.399002075195 182 182 182
14.375000000000 9.859375000000 3.304992675781 164 164 164
14.375000000000 9.859375000000 3.347000122070 182 182 182
14.406250000000 9.843750000000 3.390991210938 182 182 182
14.375000000000 9.859375000000 3.430999755859 61 61 61
17.375000000000 4.359375000000 3.095001220703 40 40 40
17.406250000000 4.359375000000 3.125991821289 40 40 40
17.375000000000 4.359375000000 3.151992797852 49 49 49
17.406250000000 4.359375000000 3.185989379883 60 60 60
17.406250000000 4.359375000000 3.216003417969 62 62 62
17.406250000000 4.359375000000 3.244995117188 63 63 63
17.406250000000 4.359375000000 3.274002075195 72 72 72
18.140625000000 5.140625000000 3.073989868164 128 128 128
18.140625000000 5.140625000000 3.097000122070 171 171 171
18.171875000000 5.171875000000 3.125000000000 169 169 169
18.171875000000 5.171875000000 3.151000976563 175 175 175
18.140625000000 5.140625000000 3.171997070313 174 174 174
18.140625000000 5.140625000000 3.196990966797 169 169 169
18.171875000000 5.171875000000 3.223999023438 169 169 169
18.140625000000 5.140625000000 3.246002197266 170 170 170
18.171875000000 5.171875000000 3.272003173828 170 170 170
18.140625000000 5.140625000000 3.294998168945 171 171 171
18.140625000000 5.140625000000 3.313995361328 145 145 145
17.250000000000 4.671875000000 3.072998046875 127 127 127
17.312500000000 4.671875000000 3.114990234375 160 160 160
17.312500000000 4.671875000000 3.147003173828 168 168 168
17.312500000000 4.671875000000 3.175994873047 164 164 164
17.312500000000 4.671875000000 3.205993652344 165 165 165
17.312500000000 4.671875000000 3.235000610352 169 169 169
17.312500000000 4.671875000000 3.265991210938 168 168 168
17.281250000000 4.640625000000 3.287002563477 160 160 160
17.250000000000 4.640625000000 3.309997558594 143 143 143
17.687500000000 5.281250000000 2.652999877930 147 147 147
17.687500000000 5.281250000000 2.680999755859 158 158 158
17.687500000000 5.281250000000 2.711990356445 155 155 155
17.687500000000 5.281250000000 2.739990234375 155 155 155
17.687500000000 5.281250000000 2.766998291016 160 160 160
17.687500000000 5.281250000000 2.795989990234 161 161 161
17.656250000000 5.234375000000 2.820999145508 161 161 161
17.656250000000 5.234375000000 2.850997924805 160 160 160
17.656250000000 5.234375000000 2.877990722656 157 157 157
17.656250000000 5.234375000000 2.906997680664 153 153 153
17.656250000000 5.234375000000 2.934997558594 150 150 150
17.656250000000 5.234375000000 2.961990356445 145 145 145
17.656250000000 5.234375000000 2.988998413086 142 142 142
17.656250000000 5.234375000000 3.014999389648 136 136 136
17.875000000000 5.375000000000 3.121002197266 149 149 149
17.875000000000 5.375000000000 3.145996093750 162 162 162
17.875000000000 5.375000000000 3.171997070313 156 156 156
17.875000000000 5.375000000000 3.197998046875 159 159 159
17.875000000000 5.375000000000 3.222991943359 156 156 156
17.875000000000 5.359375000000 3.248001098633 164 164 164
17.875000000000 5.375000000000 3.274993896484 167 167 167
17.843750000000 5.328125000000 3.287002563477 118 118 118
17.515625000000 5.140625000000 3.218994140625 101 101 101
17.484375000000 5.140625000000 3.240997314453 103 103 103
17.453125000000 5.109375000000 3.261993408203 112 112 112
17.421875000000 5.109375000000 3.283996582031 117 117 117
17.390625000000 5.062500000000 3.300003051758 131 131 131
17.296875000000 5.046875000000 3.310989379883 137 137 137
17.171875000000 4.937500000000 3.305999755859 35 35 35
17.343750000000 5.453125000000 2.526992797852 106 106 106
17.406250000000 5.468750000000 2.580001831055 118 118 118
17.531250000000 5.531250000000 2.655990600586 119 119 119
17.500000000000 5.515625000000 2.685989379883 130 130 130
17.531250000000 5.531250000000 2.718002319336 136 136 136
17.500000000000 5.515625000000 2.746994018555 132 132 132
17.531250000000 5.531250000000 2.778991699219 138 138 138
17.500000000000 5.515625000000 2.802993774414 136 136 136
17.500000000000 5.515625000000 2.833999633789 137 137 137
17.500000000000 5.515625000000 2.862991333008 139 139 139
17.500000000000 5.515625000000 2.892990112305 141 141 141
17.500000000000 5.515625000000 2.921997070313 137 137 137
17.500000000000 5.515625000000 2.951995849609 129 129 129
17.500000000000 5.515625000000 2.981994628906 128 128 128
17.500000000000 5.515625000000 3.009994506836 129 129 129
17.500000000000 5.515625000000 3.039993286133 142 142 142
17.500000000000 5.515625000000 3.067993164063 134 134 134
17.625000000000 5.578125000000 3.134994506836 155 155 155
17.656250000000 5.578125000000 3.164001464844 174 174 174
17.656250000000 5.578125000000 3.194000244141 174 174 174
17.656250000000 5.578125000000 3.222000122070 175 175 175
17.656250000000 5.578125000000 3.246994018555 177 177 177
17.656250000000 5.578125000000 3.274993896484 177 177 177
17.625000000000 5.578125000000 3.298995971680 166 166 166
17.531250000000 5.515625000000 3.300994873047 162 162 162
17.531250000000 5.515625000000 3.328002929688 168 168 168
17.500000000000 5.500000000000 3.350997924805 159 159 159
17.406250000000 5.453125000000 3.350997924805 138 138 138
17.250000000000 5.375000000000 3.348999023438 135 135 135
17.421875000000 5.843750000000 3.152999877930 157 157 157
17.421875000000 5.843750000000 3.181991577148 164 164 164
17.453125000000 5.843750000000 3.212997436523 162 162 162
17.453125000000 5.843750000000 3.241989135742 169 169 169
17.453125000000 5.828125000000 3.267990112305 165 165 165
17.453125000000 5.843750000000 3.300003051758 167 167 167
16.843750000000 5.515625000000 3.177001953125 149 149 149
16.906250000000 5.531250000000 3.220001220703 168 168 168
16.906250000000 5.531250000000 3.250000000000 166 166 166
16.906250000000 5.531250000000 3.282989501953 169 169 169
16.906250000000 5.531250000000 3.315994262695 117 117 117
17.265625000000 6.109375000000 3.141998291016 50 50 50
17.265625000000 6.109375000000 3.172988891602 224 224 224
17.265625000000 6.109375000000 3.205001831055 225 225 225
17.265625000000 6.109375000000 3.233001708984 227 227 227
17.265625000000 6.109375000000 3.264999389648 224 224 224
17.265625000000 6.109375000000 3.294998168945 224 224 224
16.671875000000 5.765625000000 3.186996459961 219 219 219
16.734375000000 5.812500000000 3.229995727539 227 227 227
16.734375000000 5.812500000000 3.263000488281 208 208 208
16.734375000000 5.812500000000 3.295989990234 220 220 220
16.703125000000 5.796875000000 3.321990966797 36 36 36
17.062500000000 6.375000000000 3.167999267578 186 186 186
17.062500000000 6.375000000000 3.197998046875 224 224 224
17.062500000000 6.375000000000 3.231002807617 223 223 223
17.062500000000 6.375000000000 3.263000488281 223 223 223
17.062500000000 6.375000000000 3.292999267578 222 222 222
16.968750000000 6.312500000000 3.304000854492 12 12 12
16.578125000000 6.078125000000 3.242996215820 227 227 227
16.578125000000 6.078125000000 3.276000976563 221 221 221
16.578125000000 6.078125000000 3.311996459961 215 215 215
16.859375000000 6.625000000000 3.164993286133 78 78 78
16.859375000000 6.625000000000 3.197998046875 223 223 223
16.859375000000 6.625000000000 3.228988647461 223 223 223
16.859375000000 6.625000000000 3.261993408203 224 224 224
16.859375000000 6.625000000000 3.294998168945 222 222 222
16.828125000000 6.593750000000 3.317001342773 239 239 239
16.406250000000 6.359375000000 3.263000488281 225 225 225
16.406250000000 6.359375000000 3.297988891602 206 206 206
16.406250000000 6.359375000000 3.332000732422 171 171 171
16.671875000000 6.890625000000 3.200988769531 220 220 220
16.671875000000 6.890625000000 3.233993530273 223 223 223
16.671875000000 6.890625000000 3.267990112305 221 221 221
16.671875000000 6.890625000000 3.300994873047 222 222 222
16.640625000000 6.859375000000 3.330001831055 216 216 216
16.265625000000 6.656250000000 3.284988403320 186 186 186
16.265625000000 6.656250000000 3.320999145508 218 218 218
16.468750000000 7.109375000000 3.203994750977 215 215 215
16.468750000000 7.125000000000 3.239990234375 221 221 221
16.468750000000 7.109375000000 3.274002075195 222 222 222
16.468750000000 7.125000000000 3.308990478516 223 223 223
16.343750000000 7.078125000000 3.323989868164 239 239 239
16.109375000000 6.906250000000 3.309997558594 209 209 209
16.109375000000 6.906250000000 3.347000122070 171 171 171
16.281250000000 7.390625000000 3.208999633789 200 200 200
16.281250000000 7.390625000000 3.244995117188 222 222 222
16.281250000000 7.390625000000 3.280990600586 222 222 222
16.281250000000 7.390625000000 3.317001342773 224 224 224
16.156250000000 7.328125000000 3.330001831055 233 233 233
15.968750000000 7.203125000000 3.332992553711 211 211 211
16.046875000000 7.625000000000 3.213989257813 168 168 168
16.046875000000 7.625000000000 3.251998901367 222 222 222
16.046875000000 7.625000000000 3.289001464844 223 223 223
16.046875000000 7.625000000000 3.325988769531 223 223 223
15.984375000000 7.593750000000 3.350997924805 221 221 221
15.812500000000 7.484375000000 3.356002807617 199 199 199
15.859375000000 7.890625000000 3.224990844727 192 192 192
15.890625000000 7.906250000000 3.264999389648 222 222 222
15.890625000000 7.906250000000 3.302993774414 220 220 220
15.890625000000 7.906250000000 3.343002319336 221 221 221
15.671875000000 7.796875000000 3.347000122070 215 215 215
15.656250000000 8.140625000000 3.241989135742 218 218 218
15.656250000000 8.140625000000 3.281997680664 221 221 221
15.656250000000 8.140625000000 3.321990966797 223 223 223
15.656250000000 8.140625000000 3.358001708984 221 221 221
15.500000000000 8.062500000000 3.375991821289 146 146 146
15.468750000000 8.390625000000 3.218002319336 46 46 46
15.468750000000 8.406250000000 3.261001586914 225 225 225
15.468750000000 8.406250000000 3.302001953125 226 226 226
15.468750000000 8.406250000000 3.343994140625 223 223 223
15.406250000000 8.375000000000 3.375000000000 173 173 173
15.265625000000 8.671875000000 3.239990234375 175 175 175
15.265625000000 8.671875000000 3.283996582031 213 213 213
15.265625000000 8.671875000000 3.326995849609 220 220 220
15.265625000000 8.671875000000 3.369003295898 215 215 215
15.031250000000 8.906250000000 3.255996704102 182 182 182
15.031250000000 8.906250000000 3.300994873047 220 220 220
15.031250000000 8.906250000000 3.345001220703 223 223 223
15.031250000000 8.906250000000 3.388992309570 181 181 181
14.875000000000 9.156250000000 3.284988403320 220 220 220
14.875000000000 9.171875000000 3.330001831055 221 221 221
14.875000000000 9.156250000000 3.375000000000 207 207 207
14.671875000000 9.437500000000 3.274002075195 175 175 175
14.671875000000 9.453125000000 3.321990966797 219 219 219
14.671875000000 9.453125000000 3.367996215820 209 209 209
14.671875000000 9.453125000000 3.414001464844 114 114 114
14.515625000000 9.687500000000 3.265991210938 21 21 21
14.515625000000 9.703125000000 3.315002441406 222 222 222
14.515625000000 9.703125000000 3.361999511719 215 215 215
14.515625000000 9.703125000000 3.409988403320 193 193 193
14.546875000000 9.703125000000 3.459991455078 158 158 158
14.546875000000 9.703125000000 3.507995605469 153 153 153
14.546875000000 9.718750000000 3.554992675781 94 94 94
17.250000000000 4.500000000000 3.302993774414 179 179 179
17.375000000000 4.421875000000 3.306991577148 139 139 139
17.437500000000 4.390625000000 3.289001464844 155 155 155
17.437500000000 4.390625000000 3.259994506836 153 153 153
17.437500000000 4.390625000000 3.228988647461 156 156 156
17.406250000000 4.390625000000 3.197998046875 158 158 158
17.406250000000 4.390625000000 3.167999267578 160 160 160
17.406250000000 4.390625000000 3.138000488281 159 159 159
17.406250000000 4.390625000000 3.108001708984 161 161 161
17.375000000000 4.390625000000 3.067993164063 167 167 167
17.171875000000 4.875000000000 3.289001464844 142 142 142
17.140625000000 4.906250000000 3.256988525391 146 146 146
17.171875000000 4.875000000000 3.226989746094 149 149 149
17.171875000000 4.875000000000 3.196990966797 151 151 151
