26.484375000000 32.046875000000 5.158996582031 163 163 163
26.515625000000 32.031250000000 5.190002441406 165 165 165
26.515625000000 32.031250000000 5.218002319336 162 162 162
26.484375000000 32.046875000000 5.246002197266 163 163 163
26.515625000000 32.031250000000 5.277999877930 159 159 159
26.515625000000 32.031250000000 5.304992675781 163 163 163
26.484375000000 32.046875000000 5.332000732422 163 163 163
26.484375000000 32.046875000000 5.362991333008 164 164 164
26.515625000000 32.046875000000 5.394989013672 161 161 161
26.484375000000 32.046875000000 5.421997070313 165 165 165
26.515625000000 32.046875000000 5.455993652344 162 162 162
26.484375000000 32.046875000000 5.481002807617 159 159 159
26.515625000000 32.046875000000 5.513000488281 160 160 160
26.515625000000 32.046875000000 5.542999267578 157 157 157
26.515625000000 32.046875000000 5.574996948242 159 159 159
26.515625000000 32.046875000000 5.606994628906 162 162 162
26.515625000000 32.046875000000 5.634002685547 161 161 161
26.515625000000 32.046875000000 5.667999267578 160 160 160
26.515625000000 32.046875000000 5.695999145508 157 157 157
26.515625000000 32.046875000000 5.729995727539 163 163 163
26.515625000000 32.046875000000 5.757995605469 160 160 160
26.515625000000 32.046875000000 5.792999267578 159 159 159
26.515625000000 32.046875000000 5.822998046875 161 161 161
26.515625000000 32.046875000000 5.858001708984 156 156 156
26.515625000000 32.046875000000 5.884994506836 156 156 156
26.515625000000 32.046875000000 5.919998168945 156 156 156
26.515625000000 32.062500000000 5.949996948242 154 154 154
26.515625000000 32.046875000000 5.983001708984 156 156 156
26.515625000000 32.046875000000 6.016998291016 152 152 152
26.515625000000 32.046875000000 6.052001953125 157 157 157
26.515625000000 32.046875000000 6.084991455078 159 159 159
26.515625000000 32.046875000000 6.116989135742 157 157 157
26.546875000000 32.062500000000 6.156997680664 151 151 151
26.546875000000 32.062500000000 6.190002441406 155 155 155
26.546875000000 32.062500000000 6.225997924805 156 156 156
26.546875000000 32.062500000000 6.254989624023 156 156 156
26.546875000000 32.062500000000 6.289001464844 158 158 158
26.546875000000 32.062500000000 6.320999145508 157 157 157
26.546875000000 32.062500000000 6.362991333008 153 153 153
26.546875000000 32.062500000000 6.397003173828 153 153 153
26.546875000000 32.062500000000 6.429000854492 154 154 154
26.546875000000 32.062500000000 6.466995239258 155 155 155
26.546875000000 32.062500000000 6.500991821289 152 152 152
26.546875000000 32.062500000000 6.539001464844 152 152 152
26.546875000000 32.062500000000 6.576995849609 152 152 152
26.546875000000 32.078125000000 6.612991333008 148 148 148
26.546875000000 32.062500000000 6.649002075195 154 154 154
26.546875000000 32.078125000000 6.688003540039 149 149 149
26.546875000000 32.078125000000 6.724990844727 151 151 151
26.546875000000 32.078125000000 6.763000488281 148 148 148
26.546875000000 32.078125000000 6.800994873047 148 148 148
26.546875000000 32.078125000000 6.841003417969 149 149 149
26.546875000000 32.078125000000 6.878997802734 145 145 145
26.546875000000 32.078125000000 6.916992187500 146 146 146
26.546875000000 32.078125000000 6.959991455078 149 149 149
26.546875000000 32.078125000000 7.003997802734 147 147 147
26.546875000000 32.078125000000 7.041992187500 150 150 150
26.546875000000 32.078125000000 7.080001831055 151 151 151
26.546875000000 32.078125000000 7.125991821289 149 149 149
26.546875000000 32.078125000000 7.166992187500 148 148 148
26.546875000000 32.078125000000 7.203002929688 146 146 146
26.546875000000 32.078125000000 7.246994018555 148 148 148
26.546875000000 32.078125000000 7.289001464844 144 144 144
26.546875000000 32.078125000000 7.330993652344 138 138 138
26.578125000000 32.093750000000 7.382995605469 139 139 139
26.546875000000 32.078125000000 7.420989990234 136 136 136
26.578125000000 32.093750000000 7.464996337891 129 129 129
26.546875000000 32.078125000000 7.501998901367 124 124 124
26.578125000000 32.093750000000 7.554000854492 124 124 124
26.578125000000 32.093750000000 7.597991943359 120 120 120
26.578125000000 32.093750000000 7.645996093750 117 117 117
26.578125000000 32.093750000000 7.694000244141 117 117 117
26.578125000000 32.093750000000 7.742996215820 111 111 111
26.578125000000 32.093750000000 7.781997680664 103 103 103
26.562500000000 32.109375000000 7.837997436523 106 106 106
26.578125000000 32.093750000000 7.881988525391 99 99 99
26.578125000000 32.093750000000 7.927993774414 94 94 94
26.578125000000 32.093750000000 7.977996826172 88 88 88
26.578125000000 32.093750000000 8.024002075195 85 85 85
26.562500000000 32.109375000000 8.091995239258 84 84 84
26.562500000000 32.109375000000 8.126998901367 81 81 81
26.562500000000 32.109375000000 8.177993774414 70 70 70
26.562500000000 32.109375000000 8.239990234375 68 68 68
26.562500000000 32.109375000000 8.280990600586 57 57 57
26.562500000000 32.109375000000 8.332992553711 54 54 54
35.859375000000 23.343750000000 8.655990600586 21 21 21
35.078125000000 24.031250000000 6.847000122070 18 18 18
35.843750000000 23.421875000000 4.552001953125 27 27 27
35.812500000000 23.406250000000 4.457992553711 39 39 39
35.812500000000 23.406250000000 4.363998413086 47 47 47
35.812500000000 23.406250000000 4.269989013672 48 48 48
35.703125000000 23.343750000000 2.106002807617 108 108 108
35.703125000000 23.343750000000 2.009994506836 122 122 122
35.734375000000 23.312500000000 1.914001464844 134 134 134
35.703125000000 23.359375000000 2.197998046875 95 95 95
34.296875000000 24.828125000000 6.805999755859 58 58 58
36.359375000000 23.234375000000 1.959991455078 42 42 42
33.375000000000 25.671875000000 6.809997558594 52 52 52
33.609375000000 25.531250000000 6.779998779297 43 43 43
32.546875000000 26.515625000000 6.791000366211 32 32 32
32.671875000000 26.453125000000 6.748992919922 67 67 67
33.250000000000 26.078125000000 6.505996704102 4 4 4
31.468750000000 27.515625000000 6.725997924805 69 69 69
31.578125000000 27.421875000000 6.694000244141 81 81 81
31.578125000000 27.421875000000 6.626998901367 75 75 75
31.609375000000 27.421875000000 6.563003540039 142 142 142
31.703125000000 27.375000000000 6.518997192383 137 137 137
31.796875000000 27.296875000000 6.477996826172 70 70 70
31.828125000000 27.250000000000 6.417999267578 40 40 40
30.312500000000 28.578125000000 6.692993164063 101 101 101
30.437500000000 28.515625000000 6.670989990234 98 98 98
30.609375000000 28.390625000000 6.662002563477 43 43 43
30.609375000000 28.390625000000 6.595993041992 65 65 65
29.312500000000 29.546875000000 6.837997436523 52 52 52
29.343750000000 29.531250000000 6.800994873047 114 114 114
29.250000000000 29.593750000000 6.711990356445 116 116 116
29.250000000000 29.578125000000 6.659988403320 134 134 134
29.375000000000 29.515625000000 6.647003173828 108 108 108
29.468750000000 29.421875000000 6.636993408203 87 87 87
29.406250000000 29.468750000000 6.395996093750 26 26 26
29.500000000000 29.390625000000 6.382995605469 73 73 73
28.062500000000 30.656250000000 7.496994018555 39 39 39
28.125000000000 30.640625000000 7.466995239258 65 65 65
28.156250000000 30.593750000000 7.451995849609 69 69 69
28.218750000000 30.578125000000 7.427001953125 51 51 51
28.250000000000 30.546875000000 7.401992797852 24 24 24
28.218750000000 30.531250000000 6.658996582031 74 74 74
28.250000000000 30.515625000000 6.638000488281 123 123 123
28.343750000000 30.437500000000 6.627990722656 100 100 100
28.500000000000 30.359375000000 6.644989013672 74 74 74
28.531250000000 30.328125000000 6.606002807617 90 90 90
28.531250000000 30.328125000000 6.555999755859 75 75 75
28.500000000000 30.328125000000 6.502990722656 63 63 63
28.500000000000 30.328125000000 6.457000732422 45 45 45
28.500000000000 30.328125000000 6.408996582031 23 23 23
26.578125000000 31.953125000000 8.395996093750 19 19 19
26.921875000000 31.750000000000 8.166000366211 65 65 65
26.921875000000 31.718750000000 8.138992309570 79 79 79
26.984375000000 31.703125000000 8.113998413086 96 96 96
27.015625000000 31.656250000000 8.098999023438 73 73 73
27.046875000000 31.656250000000 8.084991455078 63 63 63
26.609375000000 31.828125000000 6.619003295898 50 50 50
27.093750000000 31.531250000000 6.625991821289 33 33 33
27.156250000000 31.500000000000 6.612991333008 126 126 126
27.187500000000 31.453125000000 6.600997924805 144 144 144
27.281250000000 31.421875000000 6.602996826172 121 121 121
27.375000000000 31.359375000000 6.601989746094 67 67 67
26.765625000000 32.046875000000 6.615997314453 57 57 57
26.765625000000 32.046875000000 6.582000732422 72 72 72
26.562500000000 32.140625000000 6.087997436523 41 41 41
26.562500000000 32.140625000000 6.054992675781 72 72 72
26.562500000000 32.140625000000 6.017990112305 95 95 95
26.562500000000 32.140625000000 5.981002807617 106 106 106
26.562500000000 32.140625000000 5.948989868164 123 123 123
26.562500000000 32.125000000000 5.914001464844 128 128 128
26.562500000000 32.125000000000 5.882995605469 130 130 130
26.562500000000 32.125000000000 5.847991943359 136 136 136
26.562500000000 32.125000000000 5.813995361328 142 142 142
26.562500000000 32.109375000000 5.782989501953 144 144 144
26.562500000000 32.125000000000 5.746002197266 150 150 150
26.562500000000 32.125000000000 5.712997436523 153 153 153
26.562500000000 32.109375000000 5.682998657227 153 153 153
26.562500000000 32.109375000000 5.649002075195 162 162 162
26.562500000000 32.125000000000 5.613998413086 169 169 169
26.531250000000 32.109375000000 5.582000732422 168 168 168
26.562500000000 32.109375000000 5.550994873047 174 174 174
26.531250000000 32.109375000000 5.514999389648 177 177 177
26.531250000000 32.109375000000 5.483993530273 177 177 177
26.531250000000 32.109375000000 5.449996948242 178 178 178
26.531250000000 32.109375000000 5.417999267578 189 189 189
26.562500000000 32.109375000000 5.388000488281 181 181 181
26.531250000000 32.109375000000 5.354995727539 178 178 178
26.562500000000 32.109375000000 5.323989868164 181 181 181
26.531250000000 32.109375000000 5.291000366211 181 181 181
26.531250000000 32.109375000000 5.259002685547 184 184 184
26.531250000000 32.109375000000 5.227996826172 183 183 183
26.531250000000 32.109375000000 5.195999145508 184 184 184
26.546875000000 32.093750000000 5.164993286133 181 181 181
26.531250000000 32.109375000000 5.131988525391 183 183 183
26.531250000000 32.109375000000 5.101989746094 183 183 183
26.531250000000 32.109375000000 5.069992065430 185 185 185
26.531250000000 32.109375000000 5.037994384766 181 181 181
26.531250000000 32.109375000000 5.007995605469 185 185 185
26.546875000000 32.093750000000 4.975997924805 180 180 180
26.546875000000 32.093750000000 4.944992065430 185 185 185
26.546875000000 32.078125000000 4.914993286133 185 185 185
26.546875000000 32.093750000000 4.882995605469 185 185 185
26.546875000000 32.093750000000 4.851989746094 186 186 186
26.546875000000 32.093750000000 4.820999145508 186 186 186
26.546875000000 32.093750000000 4.791992187500 185 185 185
26.546875000000 32.093750000000 4.761001586914 186 186 186
26.515625000000 32.078125000000 4.729995727539 196 196 196
26.515625000000 32.078125000000 4.699996948242 188 188 188
26.515625000000 32.078125000000 4.668991088867 187 187 187
26.515625000000 32.078125000000 4.639999389648 192 192 192
26.515625000000 32.078125000000 4.610000610352 187 187 187
26.515625000000 32.078125000000 4.578002929688 189 189 189
26.515625000000 32.078125000000 4.547988891602 189 189 189
26.515625000000 32.078125000000 4.517990112305 190 190 190
26.515625000000 32.078125000000 4.486999511719 188 188 188
26.515625000000 32.078125000000 4.457000732422 185 185 185
26.515625000000 32.078125000000 4.427001953125 187 187 187
26.515625000000 32.078125000000 4.397003173828 189 189 189
26.515625000000 32.078125000000 4.366989135742 185 185 185
26.515625000000 32.062500000000 4.337997436523 190 190 190
26.515625000000 32.062500000000 4.306991577148 186 186 186
26.515625000000 32.062500000000 4.276992797852 187 187 187
26.515625000000 32.078125000000 4.246994018555 189 189 189
26.515625000000 32.062500000000 4.216995239258 189 189 189
26.515625000000 32.078125000000 4.186996459961 186 186 186
26.515625000000 32.078125000000 4.156997680664 188 188 188
26.515625000000 32.078125000000 4.126998901367 188 188 188
26.515625000000 32.062500000000 4.097991943359 185 185 185
26.515625000000 32.046875000000 4.067993164063 185 185 185
26.515625000000 32.046875000000 4.037994384766 187 187 187
26.515625000000 32.046875000000 4.007995605469 188 188 188
26.484375000000 32.062500000000 3.977996826172 188 188 188
26.515625000000 32.046875000000 3.947998046875 185 185 185
26.515625000000 32.046875000000 3.917999267578 188 188 188
26.484375000000 32.062500000000 3.888000488281 182 182 182
26.515625000000 32.046875000000 3.858001708984 187 187 187
26.484375000000 32.046875000000 3.828002929688 192 192 192
26.484375000000 32.046875000000 3.797988891602 186 186 186
26.484375000000 32.046875000000 3.768997192383 188 188 188
26.484375000000 32.046875000000 3.737991333008 186 186 186
26.484375000000 32.046875000000 3.708999633789 189 189 189
26.484375000000 32.046875000000 3.677993774414 188 188 188
26.484375000000 32.046875000000 3.647994995117 187 187 187
26.484375000000 32.046875000000 3.619003295898 184 184 184
26.484375000000 32.046875000000 3.588989257813 186 186 186
26.484375000000 32.046875000000 3.557998657227 184 184 184
26.484375000000 32.046875000000 3.527999877930 184 184 184
26.484375000000 32.046875000000 3.498001098633 183 183 183
26.484375000000 32.046875000000 3.468002319336 178 178 178
26.484375000000 32.046875000000 3.438003540039 184 184 184
26.484375000000 32.046875000000 3.407989501953 180 180 180
26.484375000000 32.046875000000 3.376998901367 181 181 181
26.484375000000 32.046875000000 3.347000122070 176 176 176
26.484375000000 32.046875000000 3.315994262695 175 175 175
26.484375000000 32.046875000000 3.284988403320 175 175 175
26.484375000000 32.046875000000 3.254989624023 176 176 176
26.484375000000 32.046875000000 3.223999023438 173 173 173
26.484375000000 32.015625000000 3.192001342773 175 175 175
26.484375000000 32.015625000000 3.160995483398 174 174 174
26.484375000000 32.015625000000 3.128997802734 179 179 179
26.484375000000 32.015625000000 3.100997924805 171 171 171
26.484375000000 32.015625000000 3.069992065430 165 165 165
26.484375000000 32.015625000000 3.037002563477 162 162 162
26.484375000000 32.015625000000 3.007995605469 161 161 161
26.484375000000 32.000000000000 2.972000122070 168 168 168
26.515625000000 31.984375000000 2.933990478516 184 184 184
26.546875000000 31.984375000000 2.899002075195 179 179 179
26.546875000000 31.984375000000 2.866989135742 171 171 171
26.546875000000 31.953125000000 2.826995849609 168 168 168
26.578125000000 31.953125000000 2.791992187500 163 163 163
26.609375000000 31.921875000000 2.750991821289 168 168 168
26.640625000000 31.890625000000 2.708999633789 170 170 170
26.671875000000 31.875000000000 2.666992187500 172 172 172
26.703125000000 31.828125000000 2.621002197266 171 171 171
26.734375000000 31.828125000000 2.580993652344 177 177 177
26.734375000000 31.828125000000 2.546997070313 180 180 180
26.734375000000 31.828125000000 2.511993408203 176 176 176
26.734375000000 31.812500000000 2.474990844727 179 179 179
26.734375000000 31.812500000000 2.438995361328 175 175 175
26.734375000000 31.796875000000 2.403991699219 175 175 175
26.734375000000 31.796875000000 2.371994018555 170 170 170
26.734375000000 31.796875000000 2.336990356445 165 165 165
26.734375000000 31.796875000000 2.302993774414 165 165 165
26.734375000000 31.796875000000 2.265991210938 171 171 171
26.734375000000 31.796875000000 2.233001708984 171 171 171
26.703125000000 31.812500000000 2.199996948242 170 170 170
26.703125000000 31.796875000000 2.164001464844 167 167 167
26.734375000000 31.796875000000 2.123001098633 168 168 168
26.703125000000 31.796875000000 2.087997436523 163 163 163
26.703125000000 31.796875000000 2.052993774414 162 162 162
26.703125000000 31.796875000000 2.016998291016 162 162 162
26.734375000000 31.781250000000 1.977996826172 163 163 163
26.703125000000 31.796875000000 1.944000244141 174 174 174
26.671875000000 31.796875000000 1.916000366211 189 189 189
26.671875000000 31.828125000000 1.892990112305 117 117 117
26.671875000000 31.812500000000 1.851989746094 111 111 111
26.671875000000 31.812500000000 1.813003540039 117 117 117
26.734375000000 31.765625000000 1.751998901367 181 181 181
26.703125000000 31.796875000000 1.724990844727 139 139 139
36.015625000000 23.250000000000 2.002990722656 217 217 217
35.890625000000 23.171875000000 2.119995117188 128 128 128
35.953125000000 23.218750000000 2.205001831055 58 58 58
36.015625000000 23.218750000000 3.060989379883 20 20 20
35.984375000000 23.218750000000 3.158996582031 41 41 41
35.921875000000 23.156250000000 3.259002685547 89 89 89
35.953125000000 23.187500000000 3.351989746094 81 81 81
36.015625000000 23.218750000000 3.442993164063 60 60 60
36.015625000000 23.218750000000 3.537002563477 63 63 63
36.015625000000 23.203125000000 3.632995605469 68 68 68
36.015625000000 23.203125000000 3.727996826172 66 66 66
36.015625000000 23.203125000000 3.822998046875 77 77 77
36.015625000000 23.203125000000 3.917999267578 77 77 77
35.984375000000 23.187500000000 4.013000488281 83 83 83
35.984375000000 23.187500000000 4.108001708984 93 93 93
35.984375000000 23.171875000000 4.203002929688 98 98 98
35.984375000000 23.171875000000 4.296997070313 107 107 107
35.953125000000 23.156250000000 4.391998291016 113 113 113
35.953125000000 23.140625000000 4.485992431641 102 102 102
35.984375000000 23.156250000000 4.959991455078 118 118 118
35.953125000000 23.156250000000 5.432998657227 106 106 106
35.984375000000 23.125000000000 5.527999877930 113 113 113
35.953125000000 23.125000000000 5.621994018555 96 96 96
35.984375000000 23.125000000000 5.718994140625 85 85 85
35.984375000000 23.140625000000 5.815002441406 92 92 92
35.984375000000 23.125000000000 5.908996582031 80 80 80
35.984375000000 23.125000000000 6.003997802734 79 79 79
35.953125000000 23.125000000000 6.097991943359 60 60 60
35.953125000000 23.125000000000 6.194000244141 65 65 65
35.984375000000 23.125000000000 6.291992187500 59 59 59
35.984375000000 23.125000000000 6.388000488281 57 57 57
35.984375000000 23.125000000000 6.485000610352 56 56 56
35.984375000000 23.125000000000 6.580001831055 51 51 51
35.984375000000 23.125000000000 6.679000854492 42 42 42
35.984375000000 23.125000000000 6.774993896484 35 35 35
35.984375000000 23.109375000000 6.869995117188 30 30 30
36.015625000000 23.125000000000 6.970993041992 20 20 20
35.984375000000 23.109375000000 7.063003540039 17 17 17
35.984375000000 23.187500000000 4.582000732422 78 78 78
35.984375000000 23.156250000000 4.864990234375 87 87 87
35.984375000000 23.156250000000 5.054992675781 59 59 59
36.015625000000 23.156250000000 5.339996337891 77 77 77
35.828125000000 23.343750000000 6.804992675781 57 57 57
35.890625000000 23.312500000000 8.571990966797 40 40 40
35.625000000000 23.562500000000 6.815002441406 40 40 40
35.406250000000 23.765625000000 6.811996459961 37 37 37
35.140625000000 23.984375000000 6.809997558594 34 34 34
34.953125000000 24.171875000000 6.819000244141 74 74 74
34.750000000000 24.375000000000 6.836990356445 87 87 87
34.531250000000 24.546875000000 6.849990844727 78 78 78
34.328125000000 24.765625000000 6.843002319336 93 93 93
34.109375000000 24.984375000000 6.833999633789 88 88 88
33.937500000000 25.156250000000 6.833999633789 91 91 91
33.968750000000 25.187500000000 7.343994140625 11 11 11
33.734375000000 25.375000000000 6.838989257813 81 81 81
33.515625000000 25.578125000000 6.832000732422 86 86 86
33.546875000000 25.578125000000 7.076995849609 8 8 8
33.281250000000 25.781250000000 6.811996459961 115 115 115
33.312500000000 25.796875000000 6.972000122070 62 62 62
33.218750000000 26.078125000000 6.504989624023 45 45 45
33.125000000000 26.000000000000 6.789993286133 105 105 105
33.015625000000 26.281250000000 6.494003295898 50 50 50
32.890625000000 26.203125000000 6.772994995117 91 91 91
32.796875000000 26.468750000000 6.487991333008 74 74 74
32.703125000000 26.406250000000 6.763992309570 95 95 95
32.562500000000 26.640625000000 6.476989746094 69 69 69
32.484375000000 26.578125000000 6.751998901367 88 88 88
32.484375000000 26.578125000000 6.820999145508 9 9 9
32.343750000000 26.828125000000 6.457992553711 85 85 85
32.281250000000 26.796875000000 6.733993530273 46 46 46
32.281250000000 26.796875000000 6.800994873047 73 73 73
32.140625000000 27.046875000000 6.434997558594 67 67 67
32.125000000000 27.031250000000 6.500000000000 207 207 207
32.125000000000 27.031250000000 6.572998046875 207 207 207
32.125000000000 27.031250000000 6.639999389648 208 208 208
32.093750000000 27.000000000000 6.705001831055 111 111 111
32.031250000000 27.000000000000 6.764999389648 103 103 103
31.859375000000 27.250000000000 6.466995239258 201 201 201
31.859375000000 27.234375000000 6.533996582031 170 170 170
31.859375000000 27.218750000000 6.600997924805 190 190 190
31.859375000000 27.218750000000 6.667999267578 161 161 161
31.828125000000 27.203125000000 6.731002807617 114 114 114
31.640625000000 27.421875000000 6.432998657227 162 162 162
31.609375000000 27.406250000000 6.496994018555 184 184 184
31.609375000000 27.406250000000 6.565002441406 176 176 176
31.640625000000 27.421875000000 6.634002685547 171 171 171
31.609375000000 27.406250000000 6.699996948242 97 97 97
31.609375000000 27.390625000000 6.761993408203 58 58 58
31.375000000000 27.609375000000 6.407989501953 117 117 117
31.375000000000 27.609375000000 6.475997924805 200 200 200
31.406250000000 27.609375000000 6.545989990234 132 132 132
31.406250000000 27.609375000000 6.615997314453 187 187 187
31.375000000000 27.609375000000 6.675003051758 59 59 59
31.375000000000 27.609375000000 6.738998413086 95 95 95
31.156250000000 27.781250000000 6.391998291016 51 51 51
31.187500000000 27.796875000000 6.458999633789 198 198 198
31.218750000000 27.812500000000 6.529998779297 204 204 204
31.218750000000 27.812500000000 6.597991943359 204 204 204
31.218750000000 27.796875000000 6.658996582031 58 58 58
31.156250000000 27.781250000000 6.716003417969 123 123 123
30.953125000000 27.984375000000 6.433990478516 186 186 186
30.953125000000 27.984375000000 6.496994018555 163 163 163
30.984375000000 28.000000000000 6.569000244141 160 160 160
30.984375000000 28.000000000000 6.630996704102 133 133 133
30.953125000000 27.984375000000 6.688995361328 109 109 109
30.953125000000 27.984375000000 6.750000000000 43 43 43
30.734375000000 28.187500000000 6.395996093750 107 107 107
30.734375000000 28.187500000000 6.460998535156 205 205 205
30.765625000000 28.218750000000 6.531997680664 170 170 170
30.765625000000 28.218750000000 6.591995239258 193 193 193
30.796875000000 28.203125000000 6.658996582031 22 22 22
30.734375000000 28.187500000000 6.710998535156 132 132 132
30.484375000000 28.359375000000 6.412002563477 56 56 56
30.546875000000 28.390625000000 6.667999267578 67 67 67
30.515625000000 28.390625000000 6.718994140625 105 105 105
30.312500000000 28.609375000000 6.386993408203 34 34 34
30.312500000000 28.609375000000 6.446990966797 15 15 15
30.312500000000 28.609375000000 6.677993774414 122 122 122
30.281250000000 28.609375000000 6.736999511719 47 47 47
30.125000000000 28.812500000000 6.416000366211 103 103 103
30.093750000000 28.781250000000 6.696990966797 141 141 141
29.890625000000 29.015625000000 6.393997192383 72 72 72
29.890625000000 29.000000000000 6.666992187500 121 121 121
29.890625000000 29.000000000000 6.723999023438 77 77 77
29.671875000000 29.203125000000 6.412994384766 97 97 97
29.671875000000 29.171875000000 6.682998657227 145 145 145
29.468750000000 29.390625000000 6.375000000000 20 20 20
29.468750000000 29.421875000000 6.425003051758 45 45 45
29.437500000000 29.390625000000 6.681991577148 149 149 149
29.468750000000 29.375000000000 6.741989135742 105 105 105
29.437500000000 29.390625000000 6.787994384766 39 39 39
29.250000000000 29.609375000000 6.371002197266 91 91 91
29.250000000000 29.609375000000 6.425003051758 78 78 78
29.250000000000 29.625000000000 6.481002807617 91 91 91
29.250000000000 29.625000000000 6.532989501953 98 98 98
29.281250000000 29.609375000000 6.587997436523 111 111 111
29.281250000000 29.609375000000 6.641998291016 122 122 122
29.218750000000 29.578125000000 6.675994873047 136 136 136
29.250000000000 29.609375000000 6.736999511719 52 52 52
29.250000000000 29.609375000000 6.897003173828 31 31 31
29.031250000000 29.796875000000 6.373001098633 133 133 133
29.046875000000 29.812500000000 6.634994506836 45 45 45
29.000000000000 29.781250000000 6.670989990234 145 145 145
29.031250000000 29.781250000000 6.991989135742 66 66 66
28.796875000000 30.000000000000 6.375991821289 108 108 108
28.828125000000 30.000000000000 6.631988525391 10 10 10
28.796875000000 30.000000000000 6.670989990234 157 157 157
28.828125000000 30.000000000000 7.091003417969 50 50 50
28.609375000000 30.203125000000 6.336990356445 60 60 60
28.609375000000 30.187500000000 6.378997802734 54 54 54
28.578125000000 30.171875000000 6.662002563477 133 133 133
28.609375000000 30.171875000000 7.218994140625 77 77 77
28.375000000000 30.390625000000 6.649002075195 142 142 142
28.343750000000 30.390625000000 6.692001342773 65 65 65
28.406250000000 30.390625000000 7.343002319336 76 76 76
28.156250000000 30.593750000000 6.625000000000 69 69 69
28.156250000000 30.578125000000 6.664993286133 164 164 164
28.156250000000 30.562500000000 7.479995727539 69 69 69
27.921875000000 30.781250000000 6.632995605469 140 140 140
27.890625000000 30.781250000000 6.669998168945 127 127 127
27.953125000000 30.781250000000 7.584991455078 58 58 58
27.703125000000 30.984375000000 6.638000488281 168 168 168
27.671875000000 30.968750000000 6.669998168945 31 31 31
27.734375000000 30.953125000000 7.705993652344 75 75 75
27.500000000000 31.203125000000 6.610000610352 66 66 66
27.484375000000 31.171875000000 6.636993408203 171 171 171
27.515625000000 31.171875000000 7.826995849609 79 79 79
27.281250000000 31.390625000000 6.600997924805 78 78 78
27.250000000000 31.390625000000 6.634002685547 168 168 168
27.281250000000 31.359375000000 7.934997558594 80 80 80
27.062500000000 31.578125000000 6.595001220703 31 31 31
27.031250000000 31.562500000000 6.621002197266 172 172 172
27.031250000000 31.562500000000 6.660995483398 36 36 36
27.093750000000 31.562500000000 8.088989257813 67 67 67
26.703125000000 31.796875000000 1.713989257813 166 166 166
26.703125000000 31.796875000000 1.748992919922 169 169 169
26.703125000000 31.796875000000 1.787002563477 168 168 168
26.703125000000 31.796875000000 1.822998046875 167 167 167
26.703125000000 31.796875000000 1.861999511719 165 165 165
26.703125000000 31.796875000000 1.899002075195 163 163 163
26.703125000000 31.796875000000 1.936996459961 164 164 164
26.703125000000 31.796875000000 1.970993041992 165 165 165
26.703125000000 31.796875000000 2.009994506836 170 170 170
26.734375000000 31.781250000000 2.042999267578 167 167 167
26.734375000000 31.781250000000 2.078002929688 169 169 169
26.734375000000 31.781250000000 2.114990234375 169 169 169
26.734375000000 31.781250000000 2.149993896484 168 168 168
26.734375000000 31.781250000000 2.185989379883 173 173 173
26.734375000000 31.781250000000 2.218994140625 171 171 171
26.734375000000 31.781250000000 2.254989624023 165 165 165
26.734375000000 31.781250000000 2.293991088867 163 163 163
26.734375000000 31.781250000000 2.323989868164 171 171 171
26.734375000000 31.796875000000 2.358001708984 181 181 181
26.734375000000 31.781250000000 2.395996093750 151 151 151
26.734375000000 31.781250000000 2.429992675781 141 141 141
26.734375000000 31.781250000000 2.466995239258 138 138 138
26.734375000000 31.781250000000 2.498992919922 135 135 135
26.734375000000 31.781250000000 2.534988403320 131 131 131
26.703125000000 31.765625000000 2.569992065430 135 135 135
26.703125000000 31.765625000000 2.603988647461 129 129 129
26.703125000000 31.765625000000 2.638000488281 125 125 125
26.703125000000 31.765625000000 2.670989990234 115 115 115
26.703125000000 31.765625000000 2.703994750977 104 104 104
26.703125000000 31.765625000000 2.740997314453 78 78 78
26.734375000000 31.781250000000 2.769989013672 43 43 43
26.828125000000 31.781250000000 6.593994140625 166 166 166
26.796875000000 31.781250000000 6.625991821289 156 156 156
26.828125000000 31.750000000000 8.207992553711 74 74 74
26.484375000000 32.000000000000 1.725997924805 172 172 172
26.515625000000 32.015625000000 1.759002685547 175 175 175
26.484375000000 32.000000000000 1.797988891602 176 176 176
26.484375000000 32.000000000000 1.833999633789 170 170 170
26.484375000000 32.000000000000 1.869995117188 167 167 167
26.484375000000 32.000000000000 1.904998779297 168 168 168
26.484375000000 32.000000000000 1.940002441406 169 169 169
26.484375000000 32.000000000000 1.974990844727 172 172 172
26.515625000000 32.015625000000 2.009002685547 175 175 175
26.515625000000 32.015625000000 2.042999267578 175 175 175
26.484375000000 32.000000000000 2.078994750977 170 170 170
26.484375000000 32.000000000000 2.113998413086 171 171 171
26.515625000000 32.000000000000 2.145996093750 172 172 172
26.515625000000 31.984375000000 2.182998657227 168 168 168
26.515625000000 32.000000000000 2.213989257813 166 166 166
26.515625000000 32.000000000000 2.248992919922 169 169 169
26.515625000000 32.000000000000 2.280990600586 169 169 169
26.515625000000 32.000000000000 2.315994262695 167 167 167
26.515625000000 32.000000000000 2.347991943359 168 168 168
26.515625000000 32.000000000000 2.382995605469 169 169 169
26.515625000000 31.984375000000 2.417999267578 167 167 167
26.515625000000 32.000000000000 2.446990966797 168 168 168
26.515625000000 32.000000000000 2.481994628906 167 167 167
26.515625000000 31.984375000000 2.515991210938 163 163 163
26.515625000000 31.984375000000 2.547988891602 163 163 163
26.515625000000 32.000000000000 2.580993652344 165 165 165
26.515625000000 32.000000000000 2.612991333008 169 169 169
26.515625000000 32.000000000000 2.642990112305 160 160 160
26.515625000000 31.984375000000 2.677993774414 160 160 160
26.515625000000 31.984375000000 2.711990356445 161 161 161
26.515625000000 32.000000000000 2.740997314453 164 164 164
26.515625000000 32.000000000000 2.772003173828 155 155 155
26.515625000000 32.000000000000 2.804992675781 156 156 156
26.515625000000 32.000000000000 2.837997436523 156 156 156
26.515625000000 31.984375000000 2.865997314453 157 157 157
26.515625000000 31.984375000000 2.901000976563 155 155 155
26.515625000000 31.984375000000 2.933990478516 154 154 154
26.515625000000 31.984375000000 2.961990356445 166 166 166
26.515625000000 32.000000000000 2.994003295898 166 166 166
26.515625000000 31.984375000000 3.024993896484 166 166 166
26.515625000000 31.984375000000 3.056991577148 165 165 165
26.515625000000 31.984375000000 3.086990356445 162 162 162
26.546875000000 32.000000000000 3.115997314453 162 162 162
26.515625000000 31.984375000000 3.151000976563 148 148 148
26.515625000000 31.984375000000 3.180999755859 146 146 146
26.515625000000 31.984375000000 3.212997436523 145 145 145
26.515625000000 31.984375000000 3.244003295898 145 145 145
26.515625000000 31.984375000000 3.274993896484 141 141 141
26.515625000000 31.984375000000 3.302993774414 144 144 144
26.515625000000 31.984375000000 3.333999633789 146 146 146
26.515625000000 31.984375000000 3.364990234375 143 143 143
26.515625000000 31.984375000000 3.394989013672 141 141 141
26.515625000000 31.984375000000 3.427993774414 145 145 145
26.515625000000 31.984375000000 3.457992553711 143 143 143
26.515625000000 31.984375000000 3.486999511719 142 142 142
26.546875000000 32.000000000000 3.515991210938 137 137 137
26.515625000000 31.984375000000 3.547988891602 141 141 141
26.515625000000 31.984375000000 3.578994750977 140 140 140
26.515625000000 31.984375000000 3.610000610352 140 140 140
26.515625000000 31.984375000000 3.638992309570 138 138 138
26.515625000000 31.984375000000 3.668991088867 137 137 137
26.515625000000 31.984375000000 3.700988769531 140 140 140
26.515625000000 31.984375000000 3.729995727539 138 138 138
26.515625000000 31.984375000000 3.759994506836 141 141 141
26.515625000000 31.984375000000 3.789993286133 132 132 132
26.515625000000 31.984375000000 3.819992065430 133 133 133
26.515625000000 31.984375000000 3.850997924805 132 132 132
26.546875000000 31.984375000000 3.879989624023 128 128 128
26.546875000000 31.984375000000 3.909988403320 127 127 127
26.546875000000 31.984375000000 3.940002441406 125 125 125
26.515625000000 31.984375000000 3.970993041992 129 129 129
26.546875000000 31.984375000000 4.000991821289 132 132 132
26.546875000000 31.984375000000 4.029998779297 126 126 126
26.515625000000 31.953125000000 4.060989379883 120 120 120
26.546875000000 31.984375000000 4.091003417969 118 118 118
26.546875000000 31.984375000000 4.121002197266 115 115 115
26.546875000000 31.984375000000 4.151000976563 161 161 161
26.546875000000 31.984375000000 4.180999755859 167 167 167
26.546875000000 31.984375000000 4.210998535156 162 162 162
26.515625000000 31.953125000000 4.239990234375 166 166 166
26.546875000000 31.984375000000 4.270996093750 169 169 169
26.546875000000 31.984375000000 4.300994873047 149 149 149
26.546875000000 31.984375000000 4.330993652344 79 79 79
26.515625000000 31.953125000000 4.360000610352 70 70 70
26.515625000000 31.953125000000 4.389999389648 55 55 55
26.546875000000 31.984375000000 4.420989990234 42 42 42
26.515625000000 31.953125000000 4.449996948242 34 34 34
26.515625000000 31.953125000000 4.479995727539 24 24 24
26.671875000000 32.015625000000 5.375000000000 50 50 50
26.640625000000 32.015625000000 5.405990600586 161 161 161
26.546875000000 31.968750000000 5.410995483398 172 172 172
26.546875000000 31.968750000000 5.442993164063 170 170 170
26.546875000000 31.968750000000 5.472991943359 164 164 164
26.546875000000 31.984375000000 5.507995605469 168 168 168
26.546875000000 31.968750000000 5.537994384766 162 162 162
26.671875000000 32.015625000000 6.595993041992 70 70 70
26.671875000000 32.000000000000 6.740997314453 155 155 155
26.671875000000 32.000000000000 6.776000976563 153 153 153
26.546875000000 31.953125000000 6.756988525391 164 164 164
26.546875000000 31.953125000000 6.792999267578 166 166 166
26.578125000000 31.953125000000 6.834991455078 168 168 168
26.578125000000 31.953125000000 6.873992919922 162 162 162
26.671875000000 31.984375000000 6.975997924805 127 127 127
26.671875000000 31.984375000000 7.017990112305 131 131 131
26.671875000000 31.984375000000 7.054992675781 137 137 137
26.671875000000 32.000000000000 7.099990844727 143 143 143
26.671875000000 32.000000000000 7.142990112305 145 145 145
26.671875000000 31.984375000000 7.180999755859 150 150 150
26.671875000000 31.984375000000 7.220001220703 152 152 152
26.671875000000 31.984375000000 7.261001586914 155 155 155
26.671875000000 31.984375000000 7.302001953125 154 154 154
26.671875000000 31.984375000000 7.345001220703 155 155 155
26.671875000000 31.984375000000 7.388992309570 155 155 155
26.671875000000 31.984375000000 7.427001953125 154 154 154
26.671875000000 31.984375000000 7.470993041992 152 152 152
26.640625000000 31.984375000000 7.509994506836 151 151 151
26.640625000000 31.968750000000 7.537002563477 149 149 149
26.609375000000 31.968750000000 7.575988769531 153 153 153
26.609375000000 31.968750000000 7.614990234375 153 153 153
26.609375000000 31.953125000000 7.653991699219 154 154 154
26.609375000000 31.953125000000 7.692993164063 159 159 159
26.609375000000 31.953125000000 7.731994628906 158 158 158
26.609375000000 31.953125000000 7.768997192383 158 158 158
26.578125000000 31.937500000000 7.813003540039 161 161 161
26.578125000000 31.937500000000 7.848999023438 160 160 160
26.578125000000 31.937500000000 7.897994995117 160 160 160
26.578125000000 31.921875000000 7.938995361328 163 163 163
26.578125000000 31.921875000000 7.981994628906 162 162 162
26.578125000000 31.921875000000 8.026992797852 160 160 160
26.578125000000 31.921875000000 8.073989868164 163 163 163
26.578125000000 31.921875000000 8.119003295898 162 162 162
26.578125000000 31.921875000000 8.170989990234 163 163 163
26.578125000000 31.921875000000 8.218002319336 159 159 159
26.578125000000 31.921875000000 8.269989013672 156 156 156
26.578125000000 31.921875000000 8.319000244141 155 155 155
26.578125000000 31.921875000000 8.371002197266 154 154 154
26.578125000000 31.921875000000 8.412002563477 121 121 121
26.562500000000 32.171875000000 2.679992675781 36 36 36
26.531250000000 32.156250000000 2.651000976563 83 83 83
26.531250000000 32.156250000000 2.617996215820 104 104 104
26.531250000000 32.156250000000 2.583999633789 119 119 119
26.531250000000 32.156250000000 2.552993774414 126 126 126
26.531250000000 32.156250000000 2.518997192383 132 132 132
26.531250000000 32.156250000000 2.488998413086 130 130 130
26.531250000000 32.156250000000 2.453994750977 143 143 143
26.562500000000 32.140625000000 2.418991088867 144 144 144
26.562500000000 32.125000000000 2.373992919922 207 207 207
26.562500000000 32.140625000000 2.345001220703 186 186 186
26.531250000000 32.140625000000 2.317993164063 170 170 170
26.531250000000 32.140625000000 2.285995483398 173 173 173
26.531250000000 32.140625000000 2.250991821289 176 176 176
26.531250000000 32.140625000000 2.218994140625 176 176 176
26.531250000000 32.140625000000 2.185989379883 176 176 176
26.531250000000 32.140625000000 2.151000976563 170 170 170
26.531250000000 32.140625000000 2.115997314453 173 173 173
26.531250000000 32.140625000000 2.084991455078 173 173 173
26.531250000000 32.140625000000 2.050994873047 171 171 171
26.531250000000 32.140625000000 2.014999389648 174 174 174
26.531250000000 32.140625000000 1.979995727539 171 171 171
26.500000000000 32.125000000000 1.946990966797 175 175 175
26.500000000000 32.125000000000 1.909988403320 171 171 171
26.500000000000 32.125000000000 1.875000000000 177 177 177
26.531250000000 32.109375000000 1.834991455078 176 176 176
26.500000000000 32.125000000000 1.805999755859 182 182 182
26.500000000000 32.125000000000 1.768997192383 177 177 177
26.500000000000 32.109375000000 1.733993530273 186 186 186
26.593750000000 32.171875000000 7.039001464844 32 32 32
26.562500000000 32.203125000000 6.983993530273 68 68 68
26.562500000000 32.171875000000 6.949996948242 83 83 83
26.562500000000 32.171875000000 6.912994384766 101 101 101
26.562500000000 32.171875000000 6.873992919922 112 112 112
26.562500000000 32.171875000000 6.833999633789 127 127 127
26.562500000000 32.171875000000 6.797988891602 136 136 136
26.562500000000 32.171875000000 6.754989624023 131 131 131
26.562500000000 32.171875000000 6.720993041992 142 142 142
26.562500000000 32.171875000000 6.679000854492 156 156 156
26.562500000000 32.171875000000 6.641998291016 156 156 156
26.562500000000 32.171875000000 6.610000610352 162 162 162
26.531250000000 32.156250000000 6.570999145508 168 168 168
26.562500000000 32.140625000000 6.535995483398 177 177 177
26.531250000000 32.156250000000 6.496002197266 175 175 175
26.531250000000 32.156250000000 6.457992553711 177 177 177
26.531250000000 32.156250000000 6.421997070313 175 175 175
26.531250000000 32.156250000000 6.386001586914 176 176 176
26.562500000000 32.140625000000 6.351989746094 179 179 179
26.531250000000 32.140625000000 6.313995361328 179 179 179
26.531250000000 32.140625000000 6.279998779297 178 178 178
26.531250000000 32.140625000000 6.246994018555 179 179 179
26.531250000000 32.140625000000 6.205001831055 177 177 177
26.531250000000 32.140625000000 6.175003051758 177 177 177
26.531250000000 32.140625000000 6.138000488281 184 184 184
26.531250000000 32.140625000000 6.103988647461 180 180 180
26.531250000000 32.140625000000 6.065994262695 181 181 181
26.531250000000 32.140625000000 6.035995483398 183 183 183
26.531250000000 32.140625000000 5.998001098633 181 181 181
26.531250000000 32.140625000000 5.964996337891 182 182 182
26.531250000000 32.140625000000 5.931991577148 183 183 183
26.531250000000 32.140625000000 5.897003173828 184 184 184
26.531250000000 32.140625000000 5.862991333008 180 180 180
26.531250000000 32.109375000000 5.828994750977 186 186 186
26.531250000000 32.109375000000 5.797988891602 184 184 184
26.531250000000 32.109375000000 5.763000488281 181 181 181
26.531250000000 32.109375000000 5.729995727539 183 183 183
26.531250000000 32.109375000000 5.697998046875 183 183 183
26.531250000000 32.109375000000 5.662002563477 179 179 179
26.500000000000 32.109375000000 5.629989624023 185 185 185
26.500000000000 32.109375000000 5.597000122070 180 180 180
26.500000000000 32.109375000000 5.565994262695 180 180 180
26.500000000000 32.109375000000 5.532989501953 177 177 177
26.500000000000 32.109375000000 5.501998901367 182 182 182
26.500000000000 32.109375000000 5.468002319336 183 183 183
26.500000000000 32.109375000000 5.435989379883 180 180 180
26.500000000000 32.109375000000 5.405990600586 184 184 184
26.500000000000 32.109375000000 5.373001098633 182 182 182
26.500000000000 32.109375000000 5.341003417969 181 181 181
26.500000000000 32.109375000000 5.309997558594 182 182 182
26.500000000000 32.109375000000 5.277999877930 183 183 183
26.500000000000 32.109375000000 5.248001098633 184 184 184
26.500000000000 32.109375000000 5.216003417969 185 185 185
26.500000000000 32.109375000000 5.182998657227 184 184 184
26.515625000000 32.078125000000 5.151992797852 186 186 186
26.515625000000 32.078125000000 5.121994018555 184 184 184
26.515625000000 32.078125000000 5.091003417969 192 192 192
26.515625000000 32.078125000000 5.058990478516 185 185 185
26.515625000000 32.078125000000 5.029998779297 186 186 186
26.515625000000 32.078125000000 4.998001098633 186 186 186
26.515625000000 32.078125000000 4.966995239258 185 185 185
26.515625000000 32.078125000000 4.938003540039 179 179 179
26.515625000000 32.078125000000 4.906997680664 179 179 179
26.484375000000 32.078125000000 4.875991821289 178 178 178
26.484375000000 32.078125000000 4.845993041992 179 179 179
26.484375000000 32.062500000000 4.815994262695 176 176 176
26.484375000000 32.062500000000 4.787002563477 178 178 178
26.515625000000 32.046875000000 4.759002685547 186 186 186
26.515625000000 32.046875000000 4.728988647461 186 186 186
26.515625000000 32.046875000000 4.699996948242 187 187 187
26.515625000000 32.031250000000 4.670989990234 186 186 186
26.546875000000 32.015625000000 4.643997192383 185 185 185
26.546875000000 32.015625000000 4.614990234375 170 170 170
26.578125000000 31.984375000000 4.586990356445 176 176 176
26.578125000000 31.984375000000 4.558990478516 170 170 170
26.609375000000 31.968750000000 4.530990600586 172 172 172
26.640625000000 31.953125000000 4.501998901367 177 177 177
26.640625000000 31.921875000000 4.473999023438 179 179 179
26.703125000000 31.921875000000 4.444992065430 186 186 186
26.703125000000 31.906250000000 4.414993286133 184 184 184
26.703125000000 31.906250000000 4.384002685547 178 178 178
26.703125000000 31.906250000000 4.352996826172 179 179 179
26.640625000000 31.921875000000 4.317001342773 157 157 157
26.578125000000 31.953125000000 4.283996582031 121 121 121
26.578125000000 31.953125000000 4.253997802734 118 118 118
26.609375000000 31.953125000000 4.224990844727 125 125 125
26.609375000000 31.953125000000 4.194000244141 124 124 124
26.671875000000 31.890625000000 4.164993286133 164 164 164
26.671875000000 31.890625000000 4.134994506836 171 171 171
26.703125000000 31.890625000000 4.103988647461 165 165 165
26.671875000000 31.859375000000 4.071990966797 162 162 162
26.671875000000 31.859375000000 4.041000366211 156 156 156
26.671875000000 31.890625000000 4.009994506836 143 143 143
26.671875000000 31.890625000000 3.978988647461 138 138 138
26.671875000000 31.890625000000 3.947998046875 134 134 134
26.640625000000 31.890625000000 3.917999267578 130 130 130
26.640625000000 31.890625000000 3.886001586914 118 118 118
26.671875000000 31.875000000000 3.854995727539 112 112 112
26.671875000000 31.875000000000 3.823989868164 97 97 97
26.671875000000 31.875000000000 3.792999267578 89 89 89
26.671875000000 31.859375000000 3.761001586914 86 86 86
26.671875000000 31.859375000000 3.729995727539 72 72 72
26.671875000000 31.859375000000 3.698989868164 56 56 56
26.921875000000 31.750000000000 8.170989990234 48 48 48
26.953125000000 31.750000000000 8.147994995117 69 69 69
26.984375000000 31.703125000000 8.131988525391 82 82 82
27.015625000000 31.687500000000 8.110000610352 89 89 89
27.078125000000 31.656250000000 8.089996337891 74 74 74
27.078125000000 31.640625000000 8.067993164063 63 63 63
27.218750000000 31.468750000000 6.649993896484 37 37 37
27.250000000000 31.421875000000 6.628997802734 117 117 117
27.343750000000 31.390625000000 6.627990722656 128 128 128
27.406250000000 31.328125000000 6.625991821289 115 115 115
27.500000000000 31.265625000000 6.634002685547 59 59 59
28.187500000000 30.609375000000 7.463989257813 53 53 53
28.218750000000 30.593750000000 7.432998657227 63 63 63
28.281250000000 30.578125000000 7.420989990234 61 61 61
28.312500000000 30.546875000000 7.390991210938 38 38 38
28.343750000000 30.468750000000 6.675994873047 101 101 101
28.406250000000 30.421875000000 6.657989501953 121 121 121
28.500000000000 30.359375000000 6.658996582031 104 104 104
28.531250000000 30.328125000000 6.619995117188 60 60 60
28.500000000000 30.359375000000 6.561996459961 66 66 66
28.531250000000 30.328125000000 6.514999389648 87 87 87
28.500000000000 30.343750000000 6.461990356445 86 86 86
28.500000000000 30.343750000000 6.416992187500 88 88 88
28.500000000000 30.328125000000 6.371994018555 83 83 83
28.593750000000 30.265625000000 6.358993530273 14 14 14
29.343750000000 29.578125000000 6.860000610352 15 15 15
29.343750000000 29.546875000000 6.813995361328 91 91 91
29.406250000000 29.484375000000 6.784988403320 93 93 93
29.375000000000 29.531250000000 6.713989257813 135 135 135
29.375000000000 29.515625000000 6.668991088867 118 118 118
29.500000000000 29.421875000000 6.652999877930 113 113 113
29.531250000000 29.390625000000 6.401000976563 67 67 67
30.250000000000 28.671875000000 6.714996337891 11 11 11
30.375000000000 28.593750000000 6.695999145508 107 107 107
30.531250000000 28.515625000000 6.680999755859 89 89 89
30.593750000000 28.453125000000 6.642990112305 56 56 56
30.593750000000 28.437500000000 6.583999633789 84 84 84
30.593750000000 28.437500000000 6.524993896484 14 14 14
31.312500000000 27.703125000000 6.709991455078 77 77 77
31.531250000000 27.578125000000 6.703994750977 80 80 80
31.500000000000 27.609375000000 6.628997802734 104 104 104
31.500000000000 27.593750000000 6.563003540039 149 149 149
31.531250000000 27.546875000000 6.507995605469 122 122 122
31.531250000000 27.546875000000 6.444992065430 64 64 64
31.734375000000 27.437500000000 6.422988891602 22 22 22
32.375000000000 26.765625000000 6.779998779297 84 84 84
32.531250000000 26.656250000000 6.744995117188 29 29 29
33.250000000000 25.937500000000 6.977996826172 22 22 22
33.187500000000 25.953125000000 6.884002685547 34 34 34
33.218750000000 25.953125000000 6.813995361328 84 84 84
33.437500000000 25.796875000000 6.789993286133 35 35 35
34.140625000000 25.078125000000 6.825988769531 38 38 38
34.843750000000 24.343750000000 6.849990844727 28 28 28
35.812500000000 23.468750000000 3.103988647461 39 39 39
35.812500000000 23.468750000000 3.009994506836 42 42 42
35.781250000000 23.437500000000 2.253997802734 102 102 102
35.750000000000 23.468750000000 2.162002563477 124 124 124
35.750000000000 23.437500000000 2.067001342773 136 136 136
35.718750000000 23.437500000000 1.972000122070 136 136 136
35.781250000000 23.437500000000 2.442001342773 30 30 30
35.781250000000 23.437500000000 2.347991943359 62 62 62
35.906250000000 23.437500000000 7.532989501953 35 35 35
35.875000000000 23.437500000000 7.430999755859 24 24 24
35.875000000000 23.437500000000 7.332992553711 32 32 32
