13.468750000000 11.890625000000 2.389999389648 225 225 225
13.468750000000 11.890625000000 2.418998718262 218 218 218
13.468750000000 11.890625000000 2.443000793457 226 226 226
13.468750000000 11.890625000000 2.472000122070 216 216 216
13.468750000000 11.890625000000 2.499000549316 221 221 221
13.437500000000 11.890625000000 2.519001007080 217 217 217
12.921875000000 11.875000000000 2.445999145508 185 185 185
12.921875000000 11.875000000000 2.474998474121 191 191 191
12.921875000000 11.875000000000 2.505001068115 203 203 203
12.875000000000 11.890625000000 2.528999328613 40 40 40
13.250000000000 11.875000000000 2.812999725342 80 80 80
13.046875000000 11.890625000000 2.816001892090 79 79 79
13.468750000000 12.046875000000 2.376998901367 183 183 183
13.453125000000 12.046875000000 2.402999877930 223 223 223
13.453125000000 12.046875000000 2.430000305176 223 223 223
13.453125000000 12.046875000000 2.457000732422 221 221 221
13.453125000000 12.046875000000 2.481998443604 219 219 219
13.453125000000 12.046875000000 2.508998870850 224 224 224
12.953125000000 12.046875000000 2.435001373291 223 223 223
12.906250000000 12.046875000000 2.459999084473 223 223 223
12.906250000000 12.046875000000 2.487998962402 218 218 218
12.906250000000 12.046875000000 2.519001007080 176 176 176
13.250000000000 12.046875000000 2.796001434326 64 64 64
13.062500000000 12.031250000000 2.802001953125 98 98 98
13.468750000000 12.218750000000 2.389999389648 216 216 216
13.453125000000 12.203125000000 2.414001464844 225 225 225
13.453125000000 12.203125000000 2.443000793457 223 223 223
13.453125000000 12.203125000000 2.467998504639 225 225 225
13.453125000000 12.203125000000 2.494998931885 220 220 220
13.406250000000 12.218750000000 2.507999420166 244 244 244
12.921875000000 12.203125000000 2.446998596191 222 222 222
12.921875000000 12.203125000000 2.476001739502 219 219 219
12.921875000000 12.203125000000 2.506000518799 212 212 212
13.187500000000 12.203125000000 2.777000427246 40 40 40
13.093750000000 12.203125000000 2.792999267578 108 108 108
13.468750000000 12.375000000000 2.376998901367 173 173 173
13.453125000000 12.359375000000 2.400001525879 223 223 223
13.453125000000 12.359375000000 2.428001403809 224 224 224
13.453125000000 12.375000000000 2.452999114990 225 225 225
13.453125000000 12.359375000000 2.480998992920 225 225 225
13.453125000000 12.375000000000 2.506000518799 223 223 223
12.953125000000 12.375000000000 2.437000274658 224 224 224
12.937500000000 12.375000000000 2.463001251221 222 222 222
12.906250000000 12.375000000000 2.492000579834 205 205 205
12.906250000000 12.375000000000 2.520000457764 106 106 106
13.156250000000 12.359375000000 2.758998870850 28 28 28
13.109375000000 12.359375000000 2.782001495361 90 90 90
13.453125000000 12.531250000000 2.386001586914 221 221 221
13.437500000000 12.531250000000 2.411998748779 227 227 227
13.453125000000 12.531250000000 2.439998626709 222 222 222
13.437500000000 12.531250000000 2.465000152588 225 225 225
13.437500000000 12.531250000000 2.492000579834 227 227 227
13.312500000000 12.531250000000 2.494998931885 5 5 5
12.937500000000 12.515625000000 2.450000762939 223 223 223
12.937500000000 12.515625000000 2.479999542236 218 218 218
12.937500000000 12.531250000000 2.511001586914 189 189 189
13.125000000000 12.531250000000 2.742000579834 79 79 79
13.125000000000 12.531250000000 2.770999908447 46 46 46
13.437500000000 12.687500000000 2.373001098633 165 165 165
13.437500000000 12.687500000000 2.399002075195 222 222 222
13.437500000000 12.687500000000 2.425998687744 223 223 223
13.421875000000 12.703125000000 2.452999114990 222 222 222
13.437500000000 12.687500000000 2.479999542236 220 220 220
13.437500000000 12.687500000000 2.506999969482 219 219 219
12.953125000000 12.687500000000 2.443000793457 222 222 222
12.953125000000 12.687500000000 2.467998504639 225 225 225
12.953125000000 12.687500000000 2.497001647949 204 204 204
13.125000000000 12.687500000000 2.730998992920 41 41 41
13.437500000000 12.843750000000 2.384998321533 215 215 215
13.437500000000 12.843750000000 2.411998748779 220 220 220
13.437500000000 12.843750000000 2.437999725342 221 221 221
13.421875000000 12.859375000000 2.464000701904 221 221 221
13.437500000000 12.843750000000 2.491001129150 225 225 225
13.312500000000 12.843750000000 2.495998382568 253 253 253
12.953125000000 12.843750000000 2.456001281738 221 221 221
12.953125000000 12.843750000000 2.485000610352 200 200 200
12.953125000000 12.843750000000 2.515998840332 157 157 157
13.156250000000 12.859375000000 2.717998504639 57 57 57
13.421875000000 13.015625000000 2.367000579834 129 129 129
13.437500000000 13.000000000000 2.395999908447 222 222 222
13.437500000000 13.000000000000 2.423999786377 203 203 203
13.421875000000 13.015625000000 2.449001312256 221 221 221
13.421875000000 13.015625000000 2.476001739502 209 209 209
13.421875000000 13.015625000000 2.501998901367 221 221 221
13.000000000000 13.000000000000 2.449001312256 198 198 198
12.968750000000 13.000000000000 2.471000671387 199 199 199
12.968750000000 13.015625000000 2.500000000000 211 211 211
13.156250000000 13.000000000000 2.701999664307 62 62 62
13.406250000000 13.171875000000 2.381000518799 207 207 207
13.406250000000 13.171875000000 2.406002044678 224 224 224
13.406250000000 13.171875000000 2.434001922607 221 221 221
13.406250000000 13.171875000000 2.459999084473 222 222 222
13.406250000000 13.171875000000 2.487998962402 220 220 220
13.312500000000 13.171875000000 2.495998382568 233 233 233
12.968750000000 13.156250000000 2.457000732422 221 221 221
12.968750000000 13.171875000000 2.486999511719 202 202 202
12.937500000000 13.156250000000 2.508998870850 76 76 76
13.156250000000 13.171875000000 2.689998626709 84 84 84
13.406250000000 13.328125000000 2.366001129150 98 98 98
13.406250000000 13.343750000000 2.390998840332 225 225 225
13.406250000000 13.328125000000 2.418998718262 223 223 223
13.406250000000 13.328125000000 2.446998596191 221 221 221
13.406250000000 13.328125000000 2.474998474121 219 219 219
13.390625000000 13.328125000000 2.499000549316 220 220 220
13.000000000000 13.328125000000 2.445999145508 222 222 222
12.968750000000 13.343750000000 2.472000122070 218 218 218
12.968750000000 13.328125000000 2.501998901367 181 181 181
13.156250000000 13.328125000000 2.674999237061 89 89 89
13.406250000000 13.500000000000 2.379001617432 206 206 206
13.406250000000 13.500000000000 2.403999328613 225 225 225
13.406250000000 13.500000000000 2.432998657227 220 220 220
13.406250000000 13.500000000000 2.459999084473 219 219 219
13.406250000000 13.500000000000 2.486999511719 219 219 219
13.250000000000 13.500000000000 2.485000610352 231 231 231
12.984375000000 13.500000000000 2.460998535156 221 221 221
12.984375000000 13.500000000000 2.490001678467 210 210 210
13.156250000000 13.484375000000 2.661998748779 96 96 96
13.406250000000 13.656250000000 2.365001678467 95 95 95
13.375000000000 13.656250000000 2.389999389648 226 226 226
13.375000000000 13.656250000000 2.416999816895 224 224 224
13.390625000000 13.656250000000 2.444999694824 222 222 222
13.390625000000 13.656250000000 2.472000122070 224 224 224
13.390625000000 13.656250000000 2.499000549316 218 218 218
13.000000000000 13.656250000000 2.450000762939 222 222 222
12.984375000000 13.656250000000 2.478000640869 204 204 204
12.968750000000 13.656250000000 2.504001617432 128 128 128
13.156250000000 13.656250000000 2.651000976563 91 91 91
13.375000000000 13.812500000000 2.377998352051 207 207 207
13.375000000000 13.812500000000 2.402000427246 227 227 227
13.375000000000 13.812500000000 2.428001403809 225 225 225
13.375000000000 13.812500000000 2.456001281738 224 224 224
13.375000000000 13.828125000000 2.484001159668 224 224 224
13.328125000000 13.812500000000 2.500999450684 212 212 212
13.000000000000 13.812500000000 2.470001220703 217 217 217
13.000000000000 13.812500000000 2.498001098633 169 169 169
13.156250000000 13.812500000000 2.637001037598 93 93 93
13.343750000000 13.984375000000 2.354999542236 50 50 50
13.359375000000 13.968750000000 2.383998870850 225 225 225
13.375000000000 13.984375000000 2.414001464844 203 203 203
13.375000000000 13.984375000000 2.441001892090 219 219 219
13.375000000000 13.984375000000 2.470001220703 206 206 206
13.375000000000 13.984375000000 2.495998382568 217 217 217
13.156250000000 13.968750000000 2.478000640869 203 203 203
13.031250000000 13.968750000000 2.484001159668 209 209 209
13.156250000000 13.968750000000 2.620998382568 100 100 100
13.375000000000 14.140625000000 2.372001647949 187 187 187
13.375000000000 14.140625000000 2.397998809814 224 224 224
13.343750000000 14.140625000000 2.423999786377 225 225 225
13.343750000000 14.140625000000 2.451000213623 222 222 222
13.343750000000 14.140625000000 2.479000091553 227 227 227
13.343750000000 14.140625000000 2.502998352051 203 203 203
13.031250000000 14.125000000000 2.472000122070 199 199 199
13.062500000000 14.140625000000 2.505001068115 161 161 161
13.031250000000 14.125000000000 2.531002044678 184 184 184
13.031250000000 14.125000000000 2.559001922607 189 189 189
13.078125000000 14.140625000000 2.594001770020 171 171 171
13.031250000000 14.125000000000 2.617000579834 190 190 190
13.031250000000 14.125000000000 2.645000457764 189 189 189
13.062500000000 14.140625000000 2.674999237061 111 111 111
13.328125000000 14.296875000000 2.377998352051 199 199 199
13.343750000000 14.296875000000 2.407001495361 206 206 206
13.343750000000 14.296875000000 2.436000823975 204 204 204
13.328125000000 14.296875000000 2.459999084473 203 203 203
13.328125000000 14.296875000000 2.486999511719 202 202 202
13.046875000000 14.296875000000 2.460998535156 217 217 217
13.031250000000 14.296875000000 2.485000610352 210 210 210
13.171875000000 14.296875000000 2.596000671387 89 89 89
13.328125000000 14.468750000000 2.363998413086 180 180 180
13.328125000000 14.468750000000 2.389999389648 221 221 221
13.328125000000 14.468750000000 2.420001983643 205 205 205
13.328125000000 14.468750000000 2.446998596191 212 212 212
13.328125000000 14.468750000000 2.473999023438 217 217 217
13.218750000000 14.468750000000 2.478000640869 218 218 218
13.046875000000 14.468750000000 2.473999023438 218 218 218
13.156250000000 14.468750000000 2.578998565674 44 44 44
13.312500000000 14.625000000000 2.376998901367 218 218 218
13.312500000000 14.625000000000 2.406002044678 192 192 192
13.312500000000 14.625000000000 2.431999206543 173 173 173
13.312500000000 14.625000000000 2.459999084473 223 223 223
13.312500000000 14.625000000000 2.486000061035 215 215 215
13.046875000000 14.625000000000 2.463001251221 217 217 217
13.046875000000 14.625000000000 2.492000579834 154 154 154
13.312500000000 14.781250000000 2.361000061035 177 177 177
13.296875000000 14.796875000000 2.386001586914 223 223 223
13.312500000000 14.781250000000 2.416999816895 204 204 204
13.312500000000 14.781250000000 2.444999694824 209 209 209
13.312500000000 14.781250000000 2.472000122070 218 218 218
13.187500000000 14.781250000000 2.477001190186 216 216 216
13.062500000000 14.781250000000 2.478000640869 213 213 213
13.312500000000 14.937500000000 2.373001098633 214 214 214
13.312500000000 14.937500000000 2.401000976563 212 212 212
13.296875000000 14.937500000000 2.427001953125 178 178 178
13.296875000000 14.937500000000 2.453998565674 222 222 222
13.296875000000 14.937500000000 2.479999542236 217 217 217
13.062500000000 14.937500000000 2.463001251221 219 219 219
13.046875000000 14.937500000000 2.488998413086 121 121 121
13.296875000000 15.109375000000 2.354000091553 158 158 158
13.296875000000 15.109375000000 2.382999420166 221 221 221
13.296875000000 15.109375000000 2.409999847412 224 224 224
13.296875000000 15.109375000000 2.437999725342 220 220 220
13.296875000000 15.109375000000 2.465999603271 220 220 220
13.218750000000 15.109375000000 2.479000091553 206 206 206
13.078125000000 15.109375000000 2.478000640869 198 198 198
13.281250000000 15.265625000000 2.368000030518 209 209 209
13.281250000000 15.265625000000 2.397998809814 210 210 210
13.281250000000 15.265625000000 2.424999237061 196 196 196
13.281250000000 15.265625000000 2.451000213623 222 222 222
13.281250000000 15.265625000000 2.476001739502 216 216 216
13.078125000000 15.265625000000 2.465000152588 214 214 214
13.250000000000 15.421875000000 2.351001739502 155 155 155
13.281250000000 15.437500000000 2.382999420166 221 221 221
13.296875000000 15.437500000000 2.411998748779 204 204 204
13.281250000000 15.437500000000 2.437999725342 209 209 209
13.281250000000 15.437500000000 2.464000701904 220 220 220
13.125000000000 15.437500000000 2.460998535156 213 213 213
13.062500000000 15.437500000000 2.480998992920 146 146 146
13.281250000000 15.593750000000 2.367000579834 213 213 213
13.281250000000 15.593750000000 2.395000457764 212 212 212
13.265625000000 15.593750000000 2.422000885010 209 209 209
13.281250000000 15.593750000000 2.451000213623 212 212 212
13.250000000000 15.593750000000 2.472999572754 208 208 208
13.078125000000 15.593750000000 2.469001770020 202 202 202
13.265625000000 15.750000000000 2.349998474121 148 148 148
13.265625000000 15.750000000000 2.377998352051 221 221 221
13.265625000000 15.750000000000 2.408000946045 186 186 186
13.265625000000 15.750000000000 2.435001373291 195 195 195
13.265625000000 15.750000000000 2.460998535156 216 216 216
13.078125000000 15.750000000000 2.457000732422 219 219 219
13.031250000000 15.750000000000 2.473999023438 74 74 74
13.234375000000 15.906250000000 2.361000061035 215 215 215
13.218750000000 15.906250000000 2.387001037598 225 225 225
13.218750000000 15.906250000000 2.415000915527 223 223 223
13.218750000000 15.906250000000 2.443000793457 222 222 222
13.218750000000 15.921875000000 2.466999053955 216 216 216
13.093750000000 15.921875000000 2.470001220703 185 185 185
13.218750000000 16.078125000000 2.344001770020 143 143 143
13.218750000000 16.078125000000 2.370998382568 225 225 225
13.218750000000 16.078125000000 2.401000976563 221 221 221
13.218750000000 16.078125000000 2.429000854492 219 219 219
13.218750000000 16.078125000000 2.457000732422 220 220 220
13.093750000000 16.078125000000 2.458000183105 215 215 215
13.218750000000 16.250000000000 2.356998443604 214 214 214
13.218750000000 16.234375000000 2.386001586914 222 222 222
13.218750000000 16.250000000000 2.411998748779 224 224 224
13.218750000000 16.234375000000 2.441001892090 218 218 218
13.171875000000 16.250000000000 2.459999084473 218 218 218
13.078125000000 16.250000000000 2.467998504639 99 99 99
13.218750000000 16.406250000000 2.342998504639 165 165 165
13.218750000000 16.406250000000 2.370998382568 223 223 223
13.218750000000 16.406250000000 2.399002075195 223 223 223
13.218750000000 16.406250000000 2.425998687744 224 224 224
13.218750000000 16.406250000000 2.453998565674 218 218 218
13.109375000000 16.406250000000 2.462001800537 185 185 185
13.187500000000 16.562500000000 2.356998443604 222 222 222
13.187500000000 16.578125000000 2.382999420166 226 226 226
13.187500000000 16.578125000000 2.411998748779 226 226 226
13.187500000000 16.562500000000 2.441001892090 218 218 218
13.125000000000 16.562500000000 2.451999664307 211 211 211
13.218750000000 16.734375000000 2.342998504639 182 182 182
13.187500000000 16.734375000000 2.367000579834 226 226 226
13.187500000000 16.718750000000 2.395999908447 223 223 223
13.187500000000 16.734375000000 2.423000335693 225 225 225
13.187500000000 16.734375000000 2.451000213623 215 215 215
13.062500000000 16.734375000000 2.457000732422 84 84 84
13.187500000000 16.890625000000 2.353000640869 216 216 216
13.187500000000 16.890625000000 2.381000518799 220 220 220
13.187500000000 16.890625000000 2.408000946045 225 225 225
13.187500000000 16.890625000000 2.437999725342 220 220 220
13.125000000000 16.890625000000 2.451000213623 191 191 191
13.187500000000 17.046875000000 2.339000701904 175 175 175
13.187500000000 17.046875000000 2.365001678467 222 222 222
13.187500000000 17.046875000000 2.394001007080 216 216 216
13.187500000000 17.046875000000 2.422000885010 221 221 221
13.156250000000 17.062500000000 2.445999145508 213 213 213
13.171875000000 17.218750000000 2.349998474121 223 223 223
13.171875000000 17.218750000000 2.377998352051 225 225 225
13.171875000000 17.218750000000 2.406002044678 224 224 224
13.171875000000 17.218750000000 2.434001922607 221 221 221
13.125000000000 17.218750000000 2.450000762939 175 175 175
13.187500000000 17.375000000000 2.339000701904 199 199 199
13.156250000000 17.375000000000 2.362998962402 220 220 220
13.171875000000 17.375000000000 2.393001556396 223 223 223
13.187500000000 17.375000000000 2.423000335693 214 214 214
13.156250000000 17.390625000000 2.445999145508 186 186 186
13.140625000000 17.531250000000 2.314998626709 78 78 78
13.187500000000 17.546875000000 2.349998474121 211 211 211
13.187500000000 17.546875000000 2.376998901367 225 225 225
13.156250000000 17.531250000000 2.404998779297 215 215 215
13.187500000000 17.546875000000 2.435001373291 215 215 215
13.093750000000 17.546875000000 2.449001312256 91 91 91
13.156250000000 17.703125000000 2.334999084473 199 199 199
13.156250000000 17.718750000000 2.361999511719 216 216 216
13.156250000000 17.703125000000 2.390998840332 220 220 220
13.156250000000 17.703125000000 2.418998718262 209 209 209
13.156250000000 17.703125000000 2.443000793457 180 180 180
13.859375000000 9.406250000000 2.305999755859 87 87 87
13.843750000000 9.375000000000 2.332000732422 158 158 158
13.843750000000 9.375000000000 2.361000061035 148 148 148
13.843750000000 9.390625000000 2.388000488281 153 153 153
13.875000000000 9.406250000000 2.424999237061 152 152 152
13.859375000000 9.406250000000 2.451000213623 156 156 156
13.859375000000 9.406250000000 2.478000640869 167 167 167
13.859375000000 9.406250000000 2.508998870850 163 163 163
13.859375000000 9.406250000000 2.534999847412 158 158 158
13.828125000000 9.375000000000 2.552001953125 82 82 82
13.859375000000 9.562500000000 2.321998596191 159 159 159
13.875000000000 9.562500000000 2.353000640869 151 151 151
13.859375000000 9.562500000000 2.380001068115 153 153 153
13.859375000000 9.562500000000 2.407001495361 155 155 155
13.859375000000 9.562500000000 2.437000274658 153 153 153
13.859375000000 9.562500000000 2.465999603271 154 154 154
13.875000000000 9.562500000000 2.498001098633 163 163 163
13.875000000000 9.562500000000 2.524002075195 176 176 176
13.828125000000 9.546875000000 2.541999816895 119 119 119
13.718750000000 9.484375000000 2.545001983643 122 122 122
13.656250000000 9.437500000000 2.556999206543 34 34 34
13.812500000000 9.687500000000 2.324001312256 127 127 127
13.812500000000 9.687500000000 2.352001190186 140 140 140
13.812500000000 9.687500000000 2.381999969482 138 138 138
13.812500000000 9.687500000000 2.410999298096 139 139 139
13.812500000000 9.687500000000 2.439998626709 136 136 136
13.828125000000 9.703125000000 2.471000671387 140 140 140
13.812500000000 9.687500000000 2.498001098633 137 137 137
13.812500000000 9.687500000000 2.527000427246 136 136 136
13.781250000000 9.671875000000 2.543998718262 121 121 121
13.687500000000 9.625000000000 2.549999237061 110 110 110
13.625000000000 9.750000000000 2.341999053955 121 121 121
13.625000000000 9.734375000000 2.368000030518 152 152 152
13.609375000000 9.750000000000 2.395999908447 155 155 155
13.609375000000 9.750000000000 2.427001953125 156 156 156
13.625000000000 9.734375000000 2.458999633789 154 154 154
13.609375000000 9.750000000000 2.486999511719 152 152 152
13.625000000000 9.750000000000 2.524002075195 120 120 120
13.609375000000 9.906250000000 2.347000122070 150 150 150
13.609375000000 9.906250000000 2.379001617432 170 170 170
13.593750000000 9.890625000000 2.406002044678 173 173 173
13.609375000000 9.906250000000 2.437999725342 172 172 172
13.609375000000 9.906250000000 2.467998504639 170 170 170
13.609375000000 9.906250000000 2.499000549316 166 166 166
13.593750000000 9.890625000000 2.526000976563 74 74 74
12.703125000000 9.359375000000 2.331001281738 151 151 151
12.703125000000 9.359375000000 2.368999481201 159 159 159
12.703125000000 9.359375000000 2.402999877930 158 158 158
12.703125000000 9.359375000000 2.441001892090 160 160 160
12.703125000000 9.375000000000 2.476001739502 154 154 154
12.703125000000 9.375000000000 2.512001037598 148 148 148
12.656250000000 9.343750000000 2.541000366211 134 134 134
13.359375000000 9.906250000000 1.863998413086 35 35 35
13.531250000000 10.015625000000 2.342998504639 141 141 141
13.531250000000 10.015625000000 2.373001098633 173 173 173
13.531250000000 10.000000000000 2.402000427246 174 174 174
13.531250000000 10.015625000000 2.432998657227 170 170 170
13.531250000000 10.015625000000 2.464000701904 176 176 176
13.531250000000 10.015625000000 2.494998931885 172 172 172
12.640625000000 9.484375000000 2.298999786377 135 135 135
12.734375000000 9.546875000000 2.359001159668 143 143 143
12.734375000000 9.546875000000 2.395000457764 133 133 133
12.750000000000 9.546875000000 2.434001922607 132 132 132
12.734375000000 9.546875000000 2.465999603271 142 142 142
12.734375000000 9.546875000000 2.504001617432 155 155 155
12.687500000000 9.515625000000 2.529998779297 153 153 153
12.593750000000 9.468750000000 2.547000885010 123 123 123
13.375000000000 10.078125000000 1.853000640869 131 131 131
13.375000000000 10.078125000000 1.887001037598 154 154 154
13.375000000000 10.078125000000 1.918998718262 154 154 154
13.375000000000 10.078125000000 1.952999114990 153 153 153
13.375000000000 10.078125000000 1.986000061035 152 152 152
13.375000000000 10.078125000000 2.018001556396 154 154 154
13.375000000000 10.078125000000 2.050998687744 154 154 154
13.375000000000 10.078125000000 2.083000183105 152 152 152
13.375000000000 10.078125000000 2.117000579834 156 156 156
13.375000000000 10.078125000000 2.147998809814 155 155 155
13.375000000000 10.078125000000 2.180000305176 151 151 151
13.375000000000 10.078125000000 2.215000152588 154 154 154
13.375000000000 10.078125000000 2.247001647949 153 153 153
13.375000000000 10.078125000000 2.278999328613 156 156 156
13.515625000000 10.156250000000 2.352001190186 149 149 149
13.515625000000 10.171875000000 2.383998870850 158 158 158
13.515625000000 10.171875000000 2.414001464844 158 158 158
13.515625000000 10.156250000000 2.444000244141 158 158 158
13.515625000000 10.171875000000 2.476001739502 155 155 155
13.515625000000 10.156250000000 2.504001617432 155 155 155
13.390625000000 10.093750000000 2.508998870850 162 162 162
13.375000000000 10.078125000000 2.533000946045 154 154 154
13.359375000000 10.062500000000 2.560001373291 126 126 126
13.234375000000 10.000000000000 2.564998626709 127 127 127
12.734375000000 9.718750000000 2.487998962402 141 141 141
12.718750000000 9.687500000000 2.518001556396 150 150 150
12.671875000000 9.671875000000 2.546001434326 135 135 135
12.546875000000 9.593750000000 2.553001403809 95 95 95
13.281250000000 10.171875000000 1.587001800537 145 145 145
13.281250000000 10.171875000000 1.622001647949 137 137 137
13.281250000000 10.171875000000 1.656002044678 136 136 136
13.281250000000 10.171875000000 1.691001892090 139 139 139
13.296875000000 10.187500000000 1.729000091553 150 150 150
13.296875000000 10.187500000000 1.763999938965 164 164 164
13.296875000000 10.187500000000 1.798999786377 166 166 166
13.375000000000 10.250000000000 1.870998382568 150 150 150
13.375000000000 10.250000000000 1.903999328613 164 164 164
13.375000000000 10.250000000000 1.939998626709 151 151 151
13.375000000000 10.250000000000 1.969001770020 172 172 172
13.359375000000 10.234375000000 2.001998901367 174 174 174
13.375000000000 10.250000000000 2.035999298096 171 171 171
13.375000000000 10.250000000000 2.069000244141 153 153 153
13.375000000000 10.250000000000 2.102001190186 181 181 181
13.359375000000 10.234375000000 2.130001068115 184 184 184
13.375000000000 10.250000000000 2.166999816895 177 177 177
13.359375000000 10.234375000000 2.198001861572 177 177 177
13.375000000000 10.250000000000 2.230998992920 171 171 171
13.359375000000 10.234375000000 2.262001037598 162 162 162
13.421875000000 10.265625000000 2.311000823975 167 167 167
13.515625000000 10.328125000000 2.368000030518 157 157 157
13.500000000000 10.312500000000 2.396999359131 165 165 165
13.515625000000 10.328125000000 2.430000305176 152 152 152
13.515625000000 10.328125000000 2.462001800537 163 163 163
13.515625000000 10.328125000000 2.490001678467 160 160 160
13.500000000000 10.312500000000 2.520000457764 152 152 152
13.375000000000 10.250000000000 2.519001007080 150 150 150
13.359375000000 10.234375000000 2.548000335693 145 145 145
13.312500000000 10.203125000000 2.567001342773 114 114 114
13.171875000000 10.125000000000 2.569000244141 128 128 128
12.968750000000 10.015625000000 2.557998657227 123 123 123
13.343750000000 10.390625000000 1.877998352051 154 154 154
13.359375000000 10.390625000000 1.911998748779 150 150 150
13.359375000000 10.406250000000 1.945999145508 152 152 152
13.343750000000 10.390625000000 1.977001190186 153 153 153
13.343750000000 10.390625000000 2.007999420166 152 152 152
13.343750000000 10.390625000000 2.043998718262 152 152 152
13.343750000000 10.390625000000 2.074001312256 156 156 156
13.343750000000 10.390625000000 2.108001708984 152 152 152
13.343750000000 10.390625000000 2.138999938965 151 151 151
13.343750000000 10.390625000000 2.172000885010 146 146 146
13.343750000000 10.375000000000 2.202999114990 142 142 142
13.343750000000 10.375000000000 2.236000061035 144 144 144
13.343750000000 10.390625000000 2.270000457764 138 138 138
13.484375000000 10.468750000000 2.342998504639 145 145 145
13.531250000000 10.500000000000 2.384998321533 159 159 159
13.515625000000 10.484375000000 2.413002014160 157 157 157
13.515625000000 10.484375000000 2.444999694824 156 156 156
13.515625000000 10.484375000000 2.473999023438 162 162 162
13.515625000000 10.484375000000 2.505001068115 161 161 161
13.468750000000 10.453125000000 2.521999359131 138 138 138
13.390625000000 10.421875000000 2.540000915527 128 128 128
13.421875000000 10.437500000000 2.576000213623 125 125 125
13.468750000000 10.468750000000 2.619998931885 133 133 133
13.468750000000 10.468750000000 2.652000427246 131 131 131
13.468750000000 10.468750000000 2.681999206543 137 137 137
13.468750000000 10.468750000000 2.712001800537 137 137 137
13.468750000000 10.468750000000 2.742000579834 151 151 151
13.437500000000 10.453125000000 2.765998840332 179 179 179
13.421875000000 10.437500000000 2.793998718262 192 192 192
13.468750000000 10.468750000000 2.832000732422 94 94 94
13.437500000000 10.453125000000 2.948001861572 201 201 201
13.062500000000 10.375000000000 1.853000640869 177 177 177
13.093750000000 10.406250000000 1.902999877930 119 119 119
13.093750000000 10.406250000000 1.937000274658 121 121 121
13.093750000000 10.390625000000 1.966999053955 123 123 123
13.093750000000 10.390625000000 2.004001617432 123 123 123
13.093750000000 10.390625000000 2.038002014160 123 123 123
13.093750000000 10.390625000000 2.073001861572 115 115 115
13.062500000000 10.390625000000 2.104000091553 117 117 117
13.093750000000 10.390625000000 2.140998840332 117 117 117
13.062500000000 10.390625000000 2.172000885010 118 118 118
13.093750000000 10.406250000000 2.215000152588 115 115 115
13.500000000000 10.656250000000 2.363998413086 159 159 159
13.500000000000 10.640625000000 2.395000457764 163 163 163
13.500000000000 10.640625000000 2.423000335693 165 165 165
13.500000000000 10.656250000000 2.458000183105 165 165 165
13.500000000000 10.656250000000 2.487998962402 160 160 160
13.500000000000 10.656250000000 2.520999908447 154 154 154
13.437500000000 10.625000000000 2.538002014160 143 143 143
13.437500000000 10.625000000000 2.568000793457 146 146 146
13.406250000000 10.593750000000 2.590000152588 150 150 150
13.375000000000 10.562500000000 2.611999511719 166 166 166
12.890625000000 10.281250000000 2.538002014160 105 105 105
13.468750000000 10.625000000000 2.938999176025 123 123 123
13.500000000000 10.812500000000 2.380001068115 214 214 214
13.500000000000 10.812500000000 2.409999847412 215 215 215
13.468750000000 10.796875000000 2.438999176025 216 216 216
13.500000000000 10.812500000000 2.472000122070 213 213 213
13.468750000000 10.796875000000 2.501998901367 216 216 216
12.812500000000 10.406250000000 2.367000579834 135 135 135
12.875000000000 10.437500000000 2.414001464844 150 150 150
12.875000000000 10.437500000000 2.449001312256 149 149 149
12.875000000000 10.437500000000 2.484001159668 142 142 142
12.875000000000 10.437500000000 2.519001007080 151 151 151
12.875000000000 10.437500000000 2.552001953125 142 142 142
12.859375000000 10.421875000000 2.585998535156 154 154 154
12.859375000000 10.421875000000 2.619998931885 146 146 146
12.859375000000 10.421875000000 2.654998779297 134 134 134
12.890625000000 10.437500000000 2.694000244141 93 93 93
13.437500000000 10.765625000000 2.918998718262 63 63 63
12.843750000000 10.421875000000 2.927001953125 101 101 101
12.843750000000 10.437500000000 2.962001800537 117 117 117
13.500000000000 10.968750000000 2.362998962402 167 167 167
13.484375000000 10.953125000000 2.393001556396 216 216 216
13.484375000000 10.953125000000 2.423000335693 216 216 216
13.500000000000 10.968750000000 2.456001281738 215 215 215
13.500000000000 10.968750000000 2.486000061035 217 217 217
13.484375000000 10.953125000000 2.514999389648 201 201 201
12.890625000000 10.593750000000 2.400001525879 150 150 150
12.890625000000 10.593750000000 2.432998657227 142 142 142
12.890625000000 10.593750000000 2.467998504639 142 142 142
12.890625000000 10.593750000000 2.502998352051 140 140 140
12.890625000000 10.593750000000 2.536998748779 136 136 136
12.875000000000 10.593750000000 2.569000244141 153 153 153
12.890625000000 10.593750000000 2.606998443604 147 147 147
12.875000000000 10.593750000000 2.638999938965 164 164 164
12.859375000000 10.593750000000 2.668998718262 174 174 174
12.828125000000 10.562500000000 2.701000213623 183 183 183
12.843750000000 10.578125000000 2.942001342773 143 143 143
12.875000000000 10.593750000000 2.980998992920 65 65 65
13.500000000000 11.125000000000 2.375999450684 213 213 213
13.484375000000 11.109375000000 2.406002044678 219 219 219
13.500000000000 11.125000000000 2.438999176025 215 215 215
13.500000000000 11.125000000000 2.470001220703 214 214 214
13.500000000000 11.125000000000 2.500999450684 215 215 215
12.843750000000 10.734375000000 2.368999481201 207 207 207
12.875000000000 10.765625000000 2.415000915527 214 214 214
12.875000000000 10.765625000000 2.449001312256 205 205 205
12.875000000000 10.765625000000 2.484001159668 217 217 217
12.875000000000 10.765625000000 2.518001556396 190 190 190
13.390625000000 11.062500000000 2.909999847412 34 34 34
12.890625000000 10.765625000000 2.931999206543 36 36 36
13.468750000000 11.281250000000 2.361999511719 140 140 140
13.500000000000 11.296875000000 2.394001007080 216 216 216
13.468750000000 11.281250000000 2.422000885010 216 216 216
13.468750000000 11.281250000000 2.455001831055 216 216 216
13.468750000000 11.281250000000 2.485000610352 216 216 216
13.437500000000 11.250000000000 2.506000518799 237 237 237
12.890625000000 10.921875000000 2.399002075195 215 215 215
12.890625000000 10.921875000000 2.431999206543 209 209 209
12.890625000000 10.921875000000 2.469001770020 214 214 214
12.890625000000 10.921875000000 2.501998901367 215 215 215
12.843750000000 10.906250000000 2.527999877930 19 19 19
13.375000000000 11.218750000000 2.890998840332 74 74 74
12.921875000000 10.953125000000 2.918998718262 58 58 58
13.500000000000 11.437500000000 2.377998352051 210 210 210
13.500000000000 11.437500000000 2.409999847412 215 215 215
13.468750000000 11.437500000000 2.438999176025 216 216 216
13.468750000000 11.437500000000 2.470001220703 217 217 217
13.468750000000 11.437500000000 2.500000000000 215 215 215
12.875000000000 11.078125000000 2.376998901367 211 211 211
12.890625000000 11.093750000000 2.416999816895 216 216 216
12.890625000000 11.093750000000 2.451999664307 214 214 214
12.890625000000 11.093750000000 2.486999511719 194 194 194
12.875000000000 11.093750000000 2.520000457764 168 168 168
13.359375000000 11.375000000000 2.873001098633 75 75 75
12.921875000000 11.109375000000 2.902999877930 47 47 47
13.500000000000 11.609375000000 2.365001678467 149 149 149
13.500000000000 11.609375000000 2.395000457764 216 216 216
13.500000000000 11.609375000000 2.425998687744 217 217 217
13.500000000000 11.609375000000 2.456001281738 217 217 217
13.500000000000 11.609375000000 2.486999511719 217 217 217
13.421875000000 11.562500000000 2.501998901367 253 253 253
12.890625000000 11.250000000000 2.402000427246 214 214 214
12.890625000000 11.250000000000 2.437000274658 216 216 216
12.890625000000 11.250000000000 2.473999023438 213 213 213
12.890625000000 11.250000000000 2.506999969482 206 206 206
13.312500000000 11.515625000000 2.854000091553 70 70 70
12.968750000000 11.312500000000 2.895000457764 43 43 43
13.468750000000 11.765625000000 2.380001068115 206 206 206
13.468750000000 11.765625000000 2.410999298096 215 215 215
13.468750000000 11.765625000000 2.441001892090 218 218 218
13.468750000000 11.765625000000 2.472000122070 218 218 218
13.468750000000 11.765625000000 2.501998901367 218 218 218
12.875000000000 11.406250000000 2.379001617432 211 211 211
12.906250000000 11.421875000000 2.423000335693 218 218 218
12.906250000000 11.421875000000 2.457000732422 216 216 216
12.906250000000 11.421875000000 2.492000579834 199 199 199
12.890625000000 11.406250000000 2.524002075195 138 138 138
13.281250000000 11.656250000000 2.834999084473 73 73 73
13.468750000000 11.921875000000 2.361000061035 75 75 75
13.468750000000 11.921875000000 2.393001556396 218 218 218
13.468750000000 11.921875000000 2.422000885010 213 213 213
13.468750000000 11.921875000000 2.453998565674 213 213 213
13.468750000000 11.921875000000 2.486000061035 212 212 212
13.453125000000 11.906250000000 2.506999969482 233 233 233
12.906250000000 11.578125000000 2.403999328613 216 216 216
12.906250000000 11.578125000000 2.438999176025 215 215 215
12.906250000000 11.578125000000 2.473999023438 216 216 216
12.906250000000 11.578125000000 2.507999420166 191 191 191
13.265625000000 11.812500000000 2.814998626709 38 38 38
13.484375000000 12.078125000000 2.375000000000 192 192 192
13.468750000000 12.078125000000 2.406002044678 216 216 216
13.468750000000 12.078125000000 2.436000823975 217 217 217
13.468750000000 12.078125000000 2.466999053955 216 216 216
13.468750000000 12.078125000000 2.498001098633 217 217 217
13.375000000000 12.015625000000 2.500999450684 173 173 173
12.921875000000 11.750000000000 2.423999786377 203 203 203
12.921875000000 11.750000000000 2.458000183105 213 213 213
12.906250000000 11.750000000000 2.490001678467 197 197 197
12.890625000000 11.734375000000 2.521999359131 115 115 115
13.046875000000 11.828125000000 2.821998596191 51 51 51
13.468750000000 12.234375000000 2.388999938965 217 217 217
13.468750000000 12.234375000000 2.418998718262 218 218 218
13.468750000000 12.234375000000 2.451000213623 217 217 217
13.468750000000 12.234375000000 2.480998992920 217 217 217
13.437500000000 12.218750000000 2.504001617432 228 228 228
12.906250000000 11.906250000000 2.406002044678 192 192 192
12.906250000000 11.906250000000 2.441001892090 189 189 189
12.906250000000 11.906250000000 2.474998474121 203 203 203
12.906250000000 11.906250000000 2.506000518799 173 173 173
13.218750000000 12.093750000000 2.802001953125 78 78 78
13.078125000000 12.000000000000 2.811000823975 52 52 52
13.453125000000 12.406250000000 2.375000000000 194 194 194
13.453125000000 12.406250000000 2.404998779297 219 219 219
13.453125000000 12.406250000000 2.436000823975 218 218 218
13.453125000000 12.406250000000 2.465999603271 220 220 220
13.453125000000 12.406250000000 2.498001098633 216 216 216
12.890625000000 12.062500000000 2.386001586914 210 210 210
12.921875000000 12.078125000000 2.428001403809 212 212 212
12.921875000000 12.078125000000 2.462001800537 215 215 215
12.921875000000 12.078125000000 2.497001647949 194 194 194
13.203125000000 12.250000000000 2.784999847412 72 72 72
13.093750000000 12.187500000000 2.799999237061 47 47 47
13.453125000000 12.562500000000 2.388999938965 217 217 217
13.437500000000 12.546875000000 2.418998718262 220 220 220
13.453125000000 12.562500000000 2.451000213623 221 221 221
13.453125000000 12.562500000000 2.481998443604 218 218 218
13.421875000000 12.531250000000 2.505001068115 228 228 228
12.921875000000 12.250000000000 2.415000915527 215 215 215
12.921875000000 12.250000000000 2.450000762939 214 214 214
12.921875000000 12.250000000000 2.483001708984 199 199 199
12.921875000000 12.250000000000 2.517002105713 153 153 153
13.187500000000 12.390625000000 2.767002105713 79 79 79
13.453125000000 12.718750000000 2.369998931885 170 170 170
13.453125000000 12.718750000000 2.402000427246 219 219 219
13.437500000000 12.718750000000 2.431999206543 219 219 219
13.437500000000 12.718750000000 2.463001251221 217 217 217
13.437500000000 12.718750000000 2.493999481201 218 218 218
12.906250000000 12.406250000000 2.390998840332 210 210 210
12.937500000000 12.406250000000 2.432998657227 216 216 216
12.953125000000 12.421875000000 2.467998504639 216 216 216
12.937500000000 12.406250000000 2.500000000000 186 186 186
13.140625000000 12.546875000000 2.747001647949 96 96 96
13.437500000000 12.859375000000 2.381999969482 209 209 209
13.437500000000 12.859375000000 2.411998748779 201 201 201
13.453125000000 12.875000000000 2.445999145508 216 216 216
13.437500000000 12.875000000000 2.473999023438 206 206 206
13.437500000000 12.875000000000 2.502998352051 220 220 220
12.937500000000 12.578125000000 2.415000915527 215 215 215
12.937500000000 12.578125000000 2.450000762939 214 214 214
12.953125000000 12.593750000000 2.486000061035 201 201 201
12.937500000000 12.578125000000 2.514999389648 104 104 104
13.140625000000 12.703125000000 2.728000640869 23 23 23
13.421875000000 13.031250000000 2.361999511719 141 141 141
13.421875000000 13.031250000000 2.395000457764 216 216 216
13.421875000000 13.031250000000 2.425998687744 217 217 217
13.421875000000 13.031250000000 2.457000732422 217 217 217
13.421875000000 13.031250000000 2.487998962402 217 217 217
12.937500000000 12.734375000000 2.395999908447 200 200 200
12.953125000000 12.750000000000 2.432998657227 216 216 216
12.953125000000 12.750000000000 2.466999053955 211 211 211
12.968750000000 12.750000000000 2.504001617432 185 185 185
13.156250000000 12.875000000000 2.710998535156 34 34 34
13.421875000000 13.187500000000 2.380001068115 212 212 212
13.421875000000 13.187500000000 2.409000396729 219 219 219
13.421875000000 13.187500000000 2.442001342773 217 217 217
13.421875000000 13.187500000000 2.472000122070 219 219 219
13.421875000000 13.187500000000 2.504001617432 202 202 202
13.031250000000 12.937500000000 2.434001922607 102 102 102
12.968750000000 12.921875000000 2.457000732422 139 139 139
12.968750000000 12.921875000000 2.491001129150 199 199 199
13.140625000000 13.031250000000 2.696998596191 55 55 55
13.421875000000 13.343750000000 2.361999511719 109 109 109
13.421875000000 13.343750000000 2.394001007080 217 217 217
13.421875000000 13.343750000000 2.427001953125 217 217 217
13.421875000000 13.343750000000 2.456001281738 217 217 217
13.421875000000 13.343750000000 2.486999511719 217 217 217
12.968750000000 13.093750000000 2.406002044678 210 210 210
12.968750000000 13.093750000000 2.442001342773 218 218 218
12.984375000000 13.093750000000 2.478000640869 207 207 207
12.968750000000 13.093750000000 2.507999420166 132 132 132
13.171875000000 13.203125000000 2.685001373291 51 51 51
13.406250000000 13.515625000000 2.375999450684 200 200 200
13.406250000000 13.515625000000 2.406002044678 219 219 219
13.406250000000 13.515625000000 2.438999176025 216 216 216
13.406250000000 13.515625000000 2.469001770020 216 216 216
13.406250000000 13.500000000000 2.497001647949 221 221 221
12.984375000000 13.265625000000 2.427001953125 214 214 214
12.968750000000 13.250000000000 2.458999633789 216 216 216
12.968750000000 13.250000000000 2.493000030518 175 175 175
13.156250000000 13.375000000000 2.666999816895 48 48 48
13.390625000000 13.656250000000 2.354999542236 66 66 66
13.406250000000 13.656250000000 2.388999938965 219 219 219
13.390625000000 13.656250000000 2.420001983643 219 219 219
13.390625000000 13.656250000000 2.451000213623 218 218 218
13.390625000000 13.671875000000 2.484001159668 218 218 218
13.000000000000 13.421875000000 2.413002014160 210 210 210
12.984375000000 13.421875000000 2.444000244141 217 217 217
12.984375000000 13.421875000000 2.479000091553 196 196 196
12.953125000000 13.406250000000 2.505001068115 57 57 57
13.156250000000 13.531250000000 2.650001525879 53 53 53
13.375000000000 13.812500000000 2.369998931885 196 196 196
13.390625000000 13.828125000000 2.403999328613 218 218 218
13.375000000000 13.812500000000 2.432998657227 219 219 219
13.375000000000 13.812500000000 2.465999603271 219 219 219
13.375000000000 13.812500000000 2.495998382568 211 211 211
13.015625000000 13.593750000000 2.435001373291 214 214 214
12.984375000000 13.578125000000 2.460998535156 204 204 204
12.984375000000 13.593750000000 2.495998382568 167 167 167
13.171875000000 13.687500000000 2.636001586914 59 59 59
13.359375000000 13.968750000000 2.349998474121 25 25 25
13.375000000000 13.968750000000 2.384998321533 217 217 217
13.375000000000 13.968750000000 2.416999816895 210 210 210
13.375000000000 13.968750000000 2.446998596191 210 210 210
13.375000000000 13.968750000000 2.479000091553 214 214 214
13.296875000000 13.937500000000 2.491001129150 221 221 221
12.984375000000 13.750000000000 2.445999145508 216 216 216
12.984375000000 13.750000000000 2.479999542236 189 189 189
13.156250000000 13.843750000000 2.618999481201 59 59 59
13.375000000000 14.140625000000 2.368999481201 192 192 192
13.375000000000 14.140625000000 2.399002075195 218 218 218
13.375000000000 14.140625000000 2.430999755859 218 218 218
13.375000000000 14.140625000000 2.462001800537 218 218 218
13.375000000000 14.140625000000 2.494998931885 213 213 213
13.031250000000 13.937500000000 2.439998626709 214 214 214
13.015625000000 13.937500000000 2.472000122070 202 202 202
13.015625000000 13.921875000000 2.502998352051 84 84 84
13.156250000000 14.000000000000 2.604000091553 58 58 58
13.359375000000 14.281250000000 2.380001068115 186 186 186
13.359375000000 14.281250000000 2.409999847412 201 201 201
13.359375000000 14.281250000000 2.443000793457 206 206 206
13.359375000000 14.281250000000 2.474998474121 192 192 192
13.312500000000 14.250000000000 2.492000579834 177 177 177
13.046875000000 14.109375000000 2.459999084473 166 166 166
13.031250000000 14.093750000000 2.493999481201 173 173 173
13.046875000000 14.109375000000 2.527999877930 159 159 159
13.062500000000 14.125000000000 2.569000244141 147 147 147
13.046875000000 14.109375000000 2.596000671387 156 156 156
13.046875000000 14.109375000000 2.630001068115 153 153 153
13.046875000000 14.109375000000 2.665000915527 60 60 60
13.343750000000 14.437500000000 2.361999511719 169 169 169
13.343750000000 14.437500000000 2.393001556396 215 215 215
13.343750000000 14.437500000000 2.424999237061 200 200 200
13.343750000000 14.453125000000 2.458000183105 211 211 211
13.312500000000 14.437500000000 2.484001159668 215 215 215
13.031250000000 14.265625000000 2.444999694824 211 211 211
13.031250000000 14.265625000000 2.478000640869 206 206 206
13.125000000000 14.312500000000 2.562999725342 80 80 80
12.968750000000 14.234375000000 2.564998626709 33 33 33
13.000000000000 14.250000000000 2.602001190186 24 24 24
13.312500000000 14.609375000000 2.374000549316 213 213 213
13.312500000000 14.609375000000 2.406002044678 182 182 182
13.312500000000 14.609375000000 2.437000274658 195 195 195
13.312500000000 14.609375000000 2.470001220703 214 214 214
13.125000000000 14.468750000000 2.449001312256 214 214 214
13.046875000000 14.437500000000 2.464000701904 213 213 213
13.015625000000 14.406250000000 2.491001129150 75 75 75
13.156250000000 14.500000000000 2.556999206543 59 59 59
13.312500000000 14.765625000000 2.358001708984 168 168 168
13.312500000000 14.765625000000 2.389999389648 214 214 214
13.312500000000 14.765625000000 2.421001434326 181 181 181
13.312500000000 14.765625000000 2.452999114990 215 215 215
13.312500000000 14.750000000000 2.480998992920 211 211 211
13.046875000000 14.593750000000 2.449001312256 213 213 213
13.046875000000 14.593750000000 2.481998443604 184 184 184
13.171875000000 14.656250000000 2.541999816895 63 63 63
13.312500000000 14.921875000000 2.370998382568 210 210 210
13.312500000000 14.921875000000 2.403999328613 204 204 204
13.312500000000 14.921875000000 2.436000823975 189 189 189
13.312500000000 14.906250000000 2.465999603271 214 214 214
13.156250000000 14.812500000000 2.457000732422 210 210 210
13.062500000000 14.781250000000 2.466999053955 209 209 209
13.156250000000 14.843750000000 2.526000976563 60 60 60
13.312500000000 15.078125000000 2.351001739502 160 160 160
13.312500000000 15.078125000000 2.384998321533 215 215 215
13.312500000000 15.078125000000 2.417999267578 193 193 193
13.296875000000 15.078125000000 2.445999145508 216 216 216
13.281250000000 15.062500000000 2.474998474121 215 215 215
13.062500000000 14.937500000000 2.451999664307 215 215 215
13.093750000000 14.953125000000 2.491001129150 151 151 151
13.296875000000 15.250000000000 2.368000030518 208 208 208
13.296875000000 15.250000000000 2.402000427246 208 208 208
13.296875000000 15.234375000000 2.430999755859 193 193 193
13.296875000000 15.234375000000 2.463001251221 216 216 216
13.156250000000 15.156250000000 2.463001251221 159 159 159
13.078125000000 15.093750000000 2.472999572754 181 181 181
13.281250000000 15.390625000000 2.347999572754 119 119 119
13.296875000000 15.406250000000 2.383998870850 214 214 214
13.296875000000 15.406250000000 2.416999816895 198 198 198
13.281250000000 15.390625000000 2.445999145508 212 212 212
13.265625000000 15.375000000000 2.469001770020 213 213 213
13.078125000000 15.281250000000 2.458999633789 200 200 200
13.078125000000 15.281250000000 2.491001129150 30 30 30
13.281250000000 15.562500000000 2.361000061035 201 201 201
13.281250000000 15.562500000000 2.395999908447 175 175 175
13.281250000000 15.562500000000 2.427001953125 194 194 194
13.281250000000 15.562500000000 2.457000732422 213 213 213
13.125000000000 15.468750000000 2.450000762939 202 202 202
13.062500000000 15.437500000000 2.471000671387 171 171 171
13.265625000000 15.703125000000 2.337001800537 60 60 60
13.281250000000 15.718750000000 2.374000549316 202 202 202
13.281250000000 15.718750000000 2.404998779297 190 190 190
13.281250000000 15.718750000000 2.437000274658 211 211 211
13.250000000000 15.718750000000 2.465000152588 205 205 205
13.093750000000 15.609375000000 2.456001281738 213 213 213
13.265625000000 15.859375000000 2.348999023438 185 185 185
13.265625000000 15.859375000000 2.382999420166 213 213 213
13.265625000000 15.859375000000 2.414001464844 175 175 175
13.265625000000 15.859375000000 2.448001861572 210 210 210
13.156250000000 15.812500000000 2.453998565674 214 214 214
13.093750000000 15.765625000000 2.471000671387 160 160 160
13.250000000000 16.015625000000 2.327999114990 50 50 50
13.250000000000 16.031250000000 2.365001678467 218 218 218
13.250000000000 16.031250000000 2.395999908447 218 218 218
13.250000000000 16.031250000000 2.428001403809 216 216 216
13.218750000000 16.000000000000 2.456001281738 216 216 216
13.093750000000 15.937500000000 2.457000732422 201 201 201
13.218750000000 16.187500000000 2.346000671387 189 189 189
13.234375000000 16.187500000000 2.380001068115 200 200 200
13.218750000000 16.187500000000 2.410999298096 210 210 210
13.218750000000 16.187500000000 2.444000244141 213 213 213
13.125000000000 16.125000000000 2.446998596191 215 215 215
13.093750000000 16.109375000000 2.476001739502 36 36 36
13.218750000000 16.343750000000 2.359001159668 216 216 216
13.218750000000 16.343750000000 2.390998840332 216 216 216
