11.968750000000 18.718750000000 3.611003875732 30 30 30
11.968750000000 18.734375000000 3.649997711182 29 29 29
11.937500000000 18.718750000000 3.688999176025 171 171 171
11.937500000000 18.718750000000 3.728000640869 118 118 118
11.906250000000 18.703125000000 3.768001556396 20 20 20
11.906250000000 18.703125000000 3.807003021240 19 19 19
12.078125000000 18.812500000000 4.262996673584 141 141 141
12.093750000000 18.812500000000 4.300998687744 165 165 165
12.078125000000 18.812500000000 4.340000152588 160 160 160
12.093750000000 18.812500000000 4.378002166748 163 163 163
12.093750000000 18.812500000000 4.417003631592 161 161 161
12.093750000000 18.812500000000 4.453998565674 165 165 165
12.093750000000 18.812500000000 4.493999481201 98 98 98
12.093750000000 18.812500000000 4.609996795654 91 91 91
12.093750000000 18.828125000000 4.647998809814 172 172 172
12.093750000000 18.828125000000 4.687000274658 168 168 168
12.093750000000 18.812500000000 4.726001739502 175 175 175
12.093750000000 18.812500000000 4.766002655029 168 168 168
12.093750000000 18.828125000000 4.804996490479 168 168 168
12.093750000000 18.812500000000 4.843997955322 169 169 169
11.906250000000 18.859375000000 3.589000701904 19 19 19
11.906250000000 18.859375000000 3.629001617432 22 22 22
11.890625000000 18.859375000000 3.668003082275 24 24 24
12.093750000000 18.984375000000 4.162998199463 128 128 128
12.093750000000 18.984375000000 4.201000213623 166 166 166
12.093750000000 18.984375000000 4.240001678467 163 163 163
12.093750000000 18.984375000000 4.278003692627 162 162 162
12.093750000000 18.984375000000 4.316997528076 161 161 161
12.093750000000 18.984375000000 4.354999542236 160 160 160
12.093750000000 18.984375000000 4.394001007080 119 119 119
12.062500000000 18.968750000000 4.710002899170 33 33 33
12.093750000000 18.984375000000 4.743999481201 177 177 177
12.093750000000 18.984375000000 4.782001495361 167 167 167
12.093750000000 19.000000000000 4.820003509521 174 174 174
12.093750000000 18.984375000000 4.861003875732 170 170 170
12.093750000000 18.984375000000 4.899997711182 165 165 165
12.093750000000 19.000000000000 4.937999725342 175 175 175
12.093750000000 19.000000000000 4.979000091553 28 28 28
12.109375000000 19.156250000000 4.295001983643 43 43 43
12.015625000000 17.953125000000 4.943996429443 150 150 150
12.015625000000 17.953125000000 4.906002044678 193 193 193
12.000000000000 17.968750000000 4.867000579834 192 192 192
12.000000000000 17.968750000000 4.826999664307 192 192 192
12.000000000000 17.968750000000 4.787998199463 190 190 190
12.000000000000 17.968750000000 4.747997283936 193 193 193
12.000000000000 17.968750000000 4.709003448486 151 151 151
12.015625000000 17.984375000000 4.352001190186 88 88 88
12.015625000000 17.968750000000 4.312999725342 183 183 183
12.015625000000 17.968750000000 4.272998809814 185 185 185
12.015625000000 17.984375000000 4.234996795654 184 184 184
12.015625000000 17.984375000000 4.196002960205 184 184 184
12.015625000000 17.984375000000 4.157001495361 187 187 187
12.015625000000 17.984375000000 4.118000030518 172 172 172
12.031250000000 18.125000000000 4.844997406006 182 182 182
12.031250000000 18.125000000000 4.806003570557 191 191 191
12.031250000000 18.125000000000 4.766002655029 191 191 191
12.031250000000 18.125000000000 4.727001190186 197 197 197
12.031250000000 18.125000000000 4.687000274658 193 193 193
12.031250000000 18.125000000000 4.647998809814 194 194 194
12.000000000000 18.140625000000 4.609996795654 108 108 108
12.031250000000 18.125000000000 4.449001312256 79 79 79
12.031250000000 18.125000000000 4.409000396729 184 184 184
12.031250000000 18.125000000000 4.370998382568 183 183 183
12.031250000000 18.125000000000 4.330997467041 182 182 182
12.031250000000 18.125000000000 4.293003082275 181 181 181
12.031250000000 18.125000000000 4.254001617432 186 186 186
12.015625000000 18.140625000000 4.215000152588 173 173 173
11.906250000000 18.218750000000 3.789997100830 17 17 17
11.921875000000 18.203125000000 3.750003814697 18 18 18
11.906250000000 18.218750000000 3.711002349854 17 17 17
11.906250000000 18.234375000000 3.671001434326 17 17 17
11.906250000000 18.218750000000 3.631999969482 20 20 20
11.906250000000 18.218750000000 3.591999053955 18 18 18
11.906250000000 18.218750000000 3.552997589111 14 14 14
11.906250000000 18.218750000000 3.474002838135 16 16 16
12.031250000000 18.281250000000 4.783000946045 32 32 32
12.031250000000 18.281250000000 4.743999481201 193 193 193
12.031250000000 18.281250000000 4.705997467041 194 194 194
12.031250000000 18.281250000000 4.665996551514 194 194 194
12.031250000000 18.296875000000 4.627002716064 193 193 193
12.046875000000 18.296875000000 4.586002349854 192 192 192
12.031250000000 18.296875000000 4.548000335693 190 190 190
12.046875000000 18.296875000000 4.506999969482 182 182 182
12.046875000000 18.296875000000 4.467998504639 178 178 178
12.046875000000 18.281250000000 4.427997589111 183 183 183
12.046875000000 18.296875000000 4.389003753662 178 178 178
12.046875000000 18.296875000000 4.350002288818 183 183 183
12.046875000000 18.296875000000 4.311000823975 174 174 174
11.906250000000 18.375000000000 3.770000457764 17 17 17
11.937500000000 18.375000000000 3.729999542236 155 155 155
11.937500000000 18.375000000000 3.690998077393 17 17 17
11.968750000000 18.359375000000 3.651996612549 17 17 17
11.937500000000 18.359375000000 3.612003326416 17 17 17
11.937500000000 18.375000000000 3.573001861572 122 122 122
11.937500000000 18.375000000000 3.533000946045 148 148 148
11.937500000000 18.375000000000 3.493999481201 188 188 188
11.921875000000 18.390625000000 3.453998565674 33 33 33
11.921875000000 18.390625000000 3.414997100830 143 143 143
11.937500000000 18.375000000000 3.376003265381 133 133 133
11.906250000000 18.390625000000 3.335002899170 37 37 37
11.921875000000 18.390625000000 3.296001434326 101 101 101
11.906250000000 18.406250000000 3.255001068115 181 181 181
11.906250000000 18.406250000000 3.215999603271 137 137 137
11.921875000000 18.390625000000 3.177001953125 22 22 22
12.046875000000 18.421875000000 4.958003997803 88 88 88
12.078125000000 18.421875000000 4.914997100830 114 114 114
12.078125000000 18.421875000000 4.876003265381 124 124 124
12.062500000000 18.406250000000 4.837001800537 121 121 121
12.046875000000 18.437500000000 4.799999237061 122 122 122
12.046875000000 18.421875000000 4.758998870850 120 120 120
12.046875000000 18.421875000000 4.718997955322 130 130 130
12.046875000000 18.437500000000 4.681003570557 167 167 167
12.031250000000 18.437500000000 4.643001556396 166 166 166
12.062500000000 18.437500000000 4.601001739502 162 162 162
12.046875000000 18.437500000000 4.562999725342 162 162 162
12.062500000000 18.437500000000 4.522998809814 164 164 164
12.062500000000 18.437500000000 4.482997894287 164 164 164
12.062500000000 18.437500000000 4.443996429443 159 159 159
12.062500000000 18.437500000000 4.405002593994 156 156 156
12.062500000000 18.453125000000 4.367000579834 153 153 153
12.062500000000 18.453125000000 4.328998565674 152 152 152
12.062500000000 18.437500000000 4.288997650146 147 147 147
12.062500000000 18.437500000000 4.250003814697 149 149 149
12.062500000000 18.437500000000 4.211002349854 147 147 147
12.062500000000 18.437500000000 4.172000885010 147 147 147
12.062500000000 18.453125000000 4.133998870850 152 152 152
12.062500000000 18.453125000000 4.094997406006 148 148 148
12.062500000000 18.453125000000 4.056003570557 145 145 145
12.062500000000 18.437500000000 4.017002105713 149 149 149
12.046875000000 18.453125000000 3.979999542236 152 152 152
12.046875000000 18.468750000000 3.940998077393 152 152 152
12.046875000000 18.468750000000 3.901996612549 152 152 152
12.046875000000 18.453125000000 3.863002777100 147 147 147
12.046875000000 18.453125000000 3.825000762939 147 147 147
12.062500000000 18.453125000000 3.785999298096 148 148 148
12.062500000000 18.453125000000 3.747997283936 153 153 153
12.062500000000 18.468750000000 3.709003448486 150 150 150
12.062500000000 18.468750000000 3.670001983643 149 149 149
12.046875000000 18.468750000000 3.631999969482 156 156 156
12.062500000000 18.468750000000 3.592998504639 142 142 142
12.062500000000 18.468750000000 3.554996490479 143 143 143
12.062500000000 18.468750000000 3.516002655029 140 140 140
12.062500000000 18.468750000000 3.477001190186 135 135 135
12.062500000000 18.453125000000 3.438999176025 138 138 138
12.062500000000 18.468750000000 3.399997711182 133 133 133
12.062500000000 18.468750000000 3.362003326416 138 138 138
12.062500000000 18.468750000000 3.323001861572 134 134 134
12.062500000000 18.453125000000 3.284999847412 134 134 134
12.062500000000 18.468750000000 3.245998382568 143 143 143
12.062500000000 18.468750000000 3.208000183105 127 127 127
12.062500000000 18.468750000000 3.167999267578 143 143 143
12.062500000000 18.468750000000 3.129001617432 146 146 146
12.078125000000 18.468750000000 3.090999603271 138 138 138
12.062500000000 18.468750000000 3.052001953125 138 138 138
12.062500000000 18.468750000000 3.013000488281 142 142 142
12.062500000000 18.468750000000 2.973999023438 145 145 145
12.078125000000 18.468750000000 2.935001373291 142 142 142
12.078125000000 18.468750000000 2.896999359131 138 138 138
12.062500000000 18.468750000000 2.856998443604 143 143 143
12.078125000000 18.468750000000 2.819000244141 147 147 147
12.062500000000 18.484375000000 2.778999328613 145 145 145
12.078125000000 18.468750000000 2.741001129150 142 142 142
12.078125000000 18.468750000000 2.701000213623 144 144 144
12.078125000000 18.468750000000 2.661998748779 142 142 142
12.078125000000 18.468750000000 2.623001098633 145 145 145
12.062500000000 18.484375000000 2.582000732422 142 142 142
12.078125000000 18.468750000000 2.543998718262 141 141 141
12.078125000000 18.468750000000 2.502998352051 140 140 140
12.062500000000 18.484375000000 2.463001251221 139 139 139
12.078125000000 18.468750000000 2.423999786377 136 136 136
12.078125000000 18.468750000000 2.384998321533 142 142 142
12.078125000000 18.484375000000 2.346000671387 136 136 136
12.062500000000 18.484375000000 2.303001403809 143 143 143
12.062500000000 18.484375000000 2.263000488281 139 139 139
12.078125000000 18.484375000000 2.224998474121 148 148 148
12.062500000000 18.500000000000 2.181999206543 136 136 136
12.062500000000 18.500000000000 2.144001007080 137 137 137
12.078125000000 18.484375000000 2.104999542236 136 136 136
12.062500000000 18.500000000000 2.062000274658 133 133 133
12.078125000000 18.484375000000 2.025001525879 128 128 128
12.078125000000 18.484375000000 1.984001159668 125 125 125
12.062500000000 18.500000000000 1.939998626709 128 128 128
12.062500000000 18.500000000000 1.899002075195 129 129 129
12.062500000000 18.500000000000 1.855998992920 128 128 128
12.062500000000 18.500000000000 1.817001342773 124 124 124
12.062500000000 18.500000000000 1.775001525879 132 132 132
12.062500000000 18.500000000000 1.733001708984 128 128 128
12.062500000000 18.500000000000 1.689998626709 129 129 129
12.062500000000 18.500000000000 1.647998809814 119 119 119
12.062500000000 18.500000000000 1.608001708984 125 125 125
12.093750000000 18.500000000000 1.571998596191 129 129 129
12.093750000000 18.484375000000 1.533000946045 127 127 127
12.125000000000 18.484375000000 1.494998931885 135 135 135
12.125000000000 18.500000000000 1.451000213623 144 144 144
12.125000000000 18.500000000000 1.409999847412 147 147 147
12.046875000000 18.593750000000 4.740001678467 71 71 71
12.062500000000 18.593750000000 4.699001312256 180 180 180
12.062500000000 18.593750000000 4.659000396729 178 178 178
12.062500000000 18.593750000000 4.619998931885 182 182 182
12.031250000000 18.593750000000 4.583003997803 180 180 180
12.062500000000 18.593750000000 4.542003631592 183 183 183
12.062500000000 18.593750000000 4.504001617432 178 178 178
12.062500000000 18.593750000000 4.465000152588 195 195 195
12.031250000000 18.609375000000 4.426998138428 192 192 192
12.031250000000 18.593750000000 4.387996673584 195 195 195
12.046875000000 18.609375000000 4.348003387451 90 90 90
11.890625000000 18.718750000000 3.810001373291 16 16 16
11.875000000000 18.718750000000 3.770999908447 17 17 17
11.906250000000 18.703125000000 3.729999542236 150 150 150
11.906250000000 18.687500000000 3.690998077393 32 32 32
11.953125000000 18.687500000000 3.650997161865 27 27 27
12.031250000000 18.640625000000 3.612003326416 56 56 56
11.890625000000 18.718750000000 3.572002410889 139 139 139
11.906250000000 18.687500000000 3.533000946045 160 160 160
11.906250000000 18.703125000000 3.493000030518 21 21 21
11.984375000000 18.656250000000 3.455997467041 35 35 35
11.875000000000 18.718750000000 3.372997283936 16 16 16
12.046875000000 18.750000000000 4.834003448486 70 70 70
12.046875000000 18.750000000000 4.796001434326 177 177 177
12.046875000000 18.750000000000 4.756000518799 179 179 179
12.046875000000 18.750000000000 4.715999603271 178 178 178
12.046875000000 18.750000000000 4.676998138428 174 174 174
12.046875000000 18.750000000000 4.636997222900 183 183 183
12.046875000000 18.750000000000 4.598003387451 172 172 172
12.031250000000 18.765625000000 4.521999359131 90 90 90
12.046875000000 18.750000000000 4.480998992920 193 193 193
12.031250000000 18.750000000000 4.441997528076 190 190 190
12.031250000000 18.750000000000 4.403003692627 190 190 190
12.031250000000 18.750000000000 4.364002227783 191 191 191
12.031250000000 18.750000000000 4.325000762939 190 190 190
12.031250000000 18.750000000000 4.285999298096 188 188 188
12.046875000000 18.906250000000 4.933002471924 74 74 74
12.062500000000 18.906250000000 4.892002105713 176 176 176
12.046875000000 18.906250000000 4.854000091553 177 177 177
12.046875000000 18.906250000000 4.813999176025 181 181 181
12.046875000000 18.906250000000 4.773998260498 177 177 177
12.046875000000 18.906250000000 4.733997344971 181 181 181
12.046875000000 18.906250000000 4.695003509521 166 166 166
12.062500000000 18.921875000000 4.420001983643 154 154 154
12.062500000000 18.921875000000 4.381999969482 196 196 196
12.062500000000 18.921875000000 4.342998504639 191 191 191
12.062500000000 18.921875000000 4.302997589111 196 196 196
12.062500000000 18.921875000000 4.265003204346 192 192 192
12.062500000000 18.921875000000 4.226001739502 190 190 190
12.062500000000 18.921875000000 4.187999725342 163 163 163
12.078125000000 19.062500000000 4.911998748779 79 79 79
12.078125000000 19.062500000000 4.870998382568 176 176 176
12.062500000000 19.062500000000 4.833003997803 200 200 200
12.062500000000 19.062500000000 4.793003082275 164 164 164
12.062500000000 19.062500000000 4.323001861572 184 184 184
12.093750000000 19.078125000000 4.283000946045 214 214 214
12.093750000000 19.078125000000 4.244998931885 203 203 203
12.093750000000 19.078125000000 4.205997467041 168 168 168
12.093750000000 19.000000000000 4.161998748779 222 222 222
12.093750000000 19.000000000000 4.196002960205 230 230 230
12.093750000000 18.984375000000 4.229999542236 234 234 234
12.093750000000 19.000000000000 4.264003753662 230 230 230
12.093750000000 18.984375000000 4.298000335693 230 230 230
12.109375000000 19.000000000000 4.330997467041 227 227 227
12.093750000000 18.984375000000 4.366001129150 227 227 227
12.093750000000 18.984375000000 4.400997161865 110 110 110
12.093750000000 18.984375000000 4.675998687744 156 156 156
12.093750000000 18.984375000000 4.710002899170 223 223 223
12.093750000000 18.984375000000 4.746997833252 226 226 226
12.093750000000 18.984375000000 4.780002593994 222 222 222
12.093750000000 18.984375000000 4.814998626709 219 219 219
12.093750000000 18.984375000000 4.851001739502 221 221 221
12.093750000000 18.984375000000 4.886997222900 218 218 218
12.093750000000 18.984375000000 4.922000885010 160 160 160
11.906250000000 18.781250000000 3.377002716064 66 66 66
11.906250000000 18.781250000000 3.411998748779 92 92 92
11.937500000000 18.781250000000 3.446002960205 91 91 91
11.906250000000 18.781250000000 3.479999542236 97 97 97
11.937500000000 18.781250000000 3.514003753662 94 94 94
11.937500000000 18.781250000000 3.548000335693 104 104 104
11.937500000000 18.796875000000 3.581996917725 167 167 167
11.937500000000 18.781250000000 3.616001129150 141 141 141
11.937500000000 18.781250000000 3.649997711182 138 138 138
11.937500000000 18.781250000000 3.685001373291 93 93 93
11.906250000000 18.781250000000 3.719997406006 78 78 78
11.906250000000 18.781250000000 3.754001617432 77 77 77
11.906250000000 18.781250000000 3.788997650146 79 79 79
12.062500000000 18.781250000000 4.250003814697 28 28 28
12.062500000000 18.781250000000 4.282001495361 226 226 226
12.062500000000 18.781250000000 4.316997528076 231 231 231
12.062500000000 18.781250000000 4.351001739502 235 235 235
12.093750000000 18.781250000000 4.382999420166 226 226 226
12.062500000000 18.781250000000 4.418003082275 227 227 227
12.062500000000 18.781250000000 4.451999664307 226 226 226
12.078125000000 18.781250000000 4.486003875732 221 221 221
12.046875000000 18.781250000000 4.525997161865 65 65 65
12.093750000000 18.781250000000 4.553997039795 196 196 196
12.093750000000 18.781250000000 4.588001251221 225 225 225
12.093750000000 18.781250000000 4.623996734619 226 226 226
12.093750000000 18.781250000000 4.657001495361 223 223 223
12.078125000000 18.781250000000 4.693996429443 223 223 223
12.078125000000 18.781250000000 4.729000091553 221 221 221
12.093750000000 18.781250000000 4.761997222900 221 221 221
12.093750000000 18.781250000000 4.798000335693 92 92 92
12.140625000000 18.593750000000 1.372001647949 159 159 159
12.156250000000 18.593750000000 1.417999267578 120 120 120
12.156250000000 18.593750000000 1.453998565674 87 87 87
12.156250000000 18.593750000000 1.486999511719 69 69 69
12.125000000000 18.609375000000 1.515998840332 88 88 88
12.093750000000 18.593750000000 1.541000366211 146 146 146
12.093750000000 18.609375000000 1.576999664307 153 153 153
12.093750000000 18.593750000000 1.611000061035 160 160 160
12.062500000000 18.593750000000 1.638999938965 194 194 194
12.093750000000 18.593750000000 1.684001922607 139 139 139
12.000000000000 18.593750000000 1.696998596191 247 247 247
12.093750000000 18.593750000000 1.758998870850 135 135 135
12.093750000000 18.593750000000 1.791999816895 136 136 136
12.093750000000 18.593750000000 1.826000213623 143 143 143
12.000000000000 18.593750000000 1.841999053955 249 249 249
12.093750000000 18.593750000000 1.901000976563 132 132 132
11.984375000000 18.593750000000 1.910999298096 246 246 246
11.984375000000 18.593750000000 1.942001342773 5 5 5
12.093750000000 18.593750000000 2.006999969482 134 134 134
12.093750000000 18.593750000000 2.043998718262 125 125 125
12.093750000000 18.593750000000 2.077999114990 129 129 129
12.093750000000 18.593750000000 2.111999511719 124 124 124
12.093750000000 18.593750000000 2.146999359131 129 129 129
12.093750000000 18.593750000000 2.181999206543 130 130 130
12.093750000000 18.593750000000 2.217998504639 123 123 123
12.093750000000 18.593750000000 2.251998901367 124 124 124
12.093750000000 18.593750000000 2.286998748779 130 130 130
12.093750000000 18.593750000000 2.320999145508 130 130 130
12.093750000000 18.593750000000 2.353000640869 123 123 123
12.093750000000 18.593750000000 2.387001037598 132 132 132
12.093750000000 18.593750000000 2.422000885010 124 124 124
12.093750000000 18.593750000000 2.455001831055 123 123 123
12.093750000000 18.593750000000 2.490001678467 126 126 126
12.093750000000 18.593750000000 2.524002075195 128 128 128
12.093750000000 18.593750000000 2.557998657227 127 127 127
12.093750000000 18.578125000000 2.591999053955 129 129 129
12.093750000000 18.593750000000 2.626998901367 128 128 128
12.093750000000 18.593750000000 2.659000396729 129 129 129
12.093750000000 18.593750000000 2.692001342773 126 126 126
12.093750000000 18.593750000000 2.728000640869 122 122 122
12.093750000000 18.578125000000 2.761001586914 124 124 124
12.093750000000 18.593750000000 2.793998718262 129 129 129
12.093750000000 18.578125000000 2.827999114990 132 132 132
12.093750000000 18.593750000000 2.861999511719 130 130 130
12.093750000000 18.578125000000 2.895000457764 126 126 126
12.093750000000 18.578125000000 2.928001403809 127 127 127
12.093750000000 18.578125000000 2.960998535156 132 132 132
12.093750000000 18.578125000000 2.994998931885 135 135 135
12.093750000000 18.578125000000 3.027999877930 132 132 132
12.093750000000 18.578125000000 3.061000823975 132 132 132
12.093750000000 18.578125000000 3.095001220703 136 136 136
12.093750000000 18.593750000000 3.127998352051 136 136 136
12.078125000000 18.578125000000 3.160999298096 142 142 142
12.078125000000 18.578125000000 3.194000244141 141 141 141
12.078125000000 18.578125000000 3.227001190186 142 142 142
12.078125000000 18.578125000000 3.261001586914 146 146 146
12.031250000000 18.578125000000 3.292999267578 178 178 178
12.093750000000 18.578125000000 3.326999664307 146 146 146
12.078125000000 18.578125000000 3.359996795654 146 146 146
12.078125000000 18.578125000000 3.394001007080 146 146 146
12.093750000000 18.578125000000 3.426998138428 178 178 178
12.093750000000 18.578125000000 3.460002899170 173 173 173
12.078125000000 18.578125000000 3.493000030518 148 148 148
12.093750000000 18.578125000000 3.525997161865 148 148 148
12.078125000000 18.578125000000 3.560001373291 141 141 141
12.093750000000 18.578125000000 3.591999053955 175 175 175
12.093750000000 18.578125000000 3.626003265381 171 171 171
12.078125000000 18.578125000000 3.659999847412 148 148 148
12.078125000000 18.578125000000 3.692996978760 149 149 149
12.078125000000 18.578125000000 3.727001190186 164 164 164
12.078125000000 18.578125000000 3.759998321533 154 154 154
12.093750000000 18.578125000000 3.792003631592 145 145 145
12.093750000000 18.578125000000 3.825000762939 144 144 144
12.093750000000 18.578125000000 3.857997894287 146 146 146
12.093750000000 18.578125000000 3.892002105713 145 145 145
12.093750000000 18.578125000000 3.925998687744 144 144 144
12.093750000000 18.578125000000 3.959003448486 147 147 147
12.109375000000 18.562500000000 3.992000579834 144 144 144
12.093750000000 18.578125000000 4.026996612549 146 146 146
12.093750000000 18.578125000000 4.059001922607 148 148 148
12.093750000000 18.578125000000 4.092998504639 159 159 159
12.109375000000 18.562500000000 4.126003265381 150 150 150
12.093750000000 18.578125000000 4.160999298096 159 159 159
12.109375000000 18.562500000000 4.193996429443 157 157 157
12.093750000000 18.578125000000 4.228000640869 156 156 156
12.109375000000 18.562500000000 4.260997772217 162 162 162
12.109375000000 18.562500000000 4.295001983643 160 160 160
12.093750000000 18.562500000000 4.331996917725 158 158 158
12.109375000000 18.562500000000 4.363002777100 158 158 158
12.093750000000 18.578125000000 4.398998260498 164 164 164
12.109375000000 18.562500000000 4.432003021240 168 168 168
12.109375000000 18.562500000000 4.465000152588 170 170 170
12.109375000000 18.562500000000 4.500003814697 172 172 172
12.109375000000 18.562500000000 4.534000396729 169 169 169
12.109375000000 18.562500000000 4.571002960205 162 162 162
12.093750000000 18.562500000000 4.604999542236 164 164 164
12.109375000000 18.562500000000 4.636997222900 162 162 162
12.109375000000 18.562500000000 4.672000885010 165 165 165
12.109375000000 18.562500000000 4.708003997803 163 163 163
12.109375000000 18.562500000000 4.743000030518 159 159 159
12.109375000000 18.562500000000 4.778003692627 151 151 151
12.109375000000 18.562500000000 4.812000274658 159 159 159
12.109375000000 18.562500000000 4.848003387451 165 165 165
12.109375000000 18.562500000000 4.881999969482 164 164 164
12.093750000000 18.562500000000 4.921001434326 160 160 160
11.953125000000 18.375000000000 3.208999633789 67 67 67
11.953125000000 18.375000000000 3.243000030518 86 86 86
11.984375000000 18.375000000000 3.277000427246 159 159 159
12.000000000000 18.375000000000 3.312000274658 165 165 165
12.000000000000 18.375000000000 3.344997406006 184 184 184
12.000000000000 18.375000000000 3.379001617432 166 166 166
11.984375000000 18.375000000000 3.412998199463 127 127 127
11.984375000000 18.375000000000 3.446002960205 165 165 165
11.984375000000 18.375000000000 3.479999542236 167 167 167
11.984375000000 18.375000000000 3.514003753662 185 185 185
12.000000000000 18.375000000000 3.548000335693 95 95 95
12.000000000000 18.375000000000 3.580997467041 93 93 93
12.000000000000 18.375000000000 3.615001678467 95 95 95
12.000000000000 18.375000000000 3.648998260498 92 92 92
11.968750000000 18.375000000000 3.684001922607 171 171 171
11.984375000000 18.375000000000 3.717998504639 159 159 159
11.937500000000 18.375000000000 3.754001617432 81 81 81
11.937500000000 18.375000000000 3.787998199463 84 84 84
11.968750000000 18.375000000000 3.821002960205 33 33 33
12.062500000000 18.375000000000 4.287998199463 159 159 159
12.062500000000 18.359375000000 4.320003509521 250 250 250
12.062500000000 18.359375000000 4.354000091553 252 252 252
12.062500000000 18.359375000000 4.387996673584 241 241 241
12.062500000000 18.359375000000 4.423000335693 239 239 239
12.062500000000 18.359375000000 4.456996917725 237 237 237
12.062500000000 18.359375000000 4.492000579834 228 228 228
12.062500000000 18.359375000000 4.526996612549 229 229 229
12.062500000000 18.359375000000 4.562000274658 226 226 226
12.062500000000 18.359375000000 4.598003387451 225 225 225
12.062500000000 18.359375000000 4.632999420166 227 227 227
12.062500000000 18.359375000000 4.667003631592 227 227 227
12.062500000000 18.359375000000 4.701999664307 223 223 223
12.078125000000 18.359375000000 4.732997894287 156 156 156
11.968750000000 18.171875000000 3.570003509521 50 50 50
11.953125000000 18.156250000000 3.604000091553 63 63 63
11.953125000000 18.156250000000 3.637996673584 57 57 57
11.953125000000 18.156250000000 3.672000885010 41 41 41
12.062500000000 18.156250000000 4.173000335693 233 233 233
12.062500000000 18.156250000000 4.208003997803 7 7 7
12.062500000000 18.156250000000 4.241001129150 9 9 9
12.062500000000 18.156250000000 4.274997711182 6 6 6
12.062500000000 18.156250000000 4.307003021240 251 251 251
12.062500000000 18.156250000000 4.343997955322 250 250 250
12.062500000000 18.156250000000 4.378002166748 246 246 246
12.078125000000 18.156250000000 4.408000946045 196 196 196
12.062500000000 18.156250000000 4.588001251221 35 35 35
12.062500000000 18.156250000000 4.620998382568 218 218 218
12.062500000000 18.156250000000 4.656002044678 225 225 225
12.062500000000 18.156250000000 4.690998077393 227 227 227
12.062500000000 18.156250000000 4.728000640869 225 225 225
12.062500000000 18.156250000000 4.760997772217 224 224 224
12.062500000000 18.156250000000 4.795001983643 223 223 223
12.062500000000 18.156250000000 4.828998565674 206 206 206
12.062500000000 17.953125000000 4.159000396729 220 220 220
12.031250000000 17.953125000000 4.195003509521 11 11 11
12.031250000000 17.953125000000 4.229000091553 255 255 255
12.046875000000 17.937500000000 4.261997222900 254 254 254
12.015625000000 17.953125000000 4.298999786377 91 91 91
12.031250000000 17.953125000000 4.715000152588 174 174 174
12.046875000000 17.937500000000 4.750003814697 223 223 223
12.046875000000 17.937500000000 4.784999847412 227 227 227
12.046875000000 17.937500000000 4.821002960205 219 219 219
12.046875000000 17.937500000000 4.854000091553 176 176 176
12.109375000000 19.015625000000 4.158000946045 144 144 144
12.109375000000 19.015625000000 4.197002410889 167 167 167
12.093750000000 19.015625000000 4.234996795654 163 163 163
12.093750000000 19.031250000000 4.272998809814 163 163 163
12.093750000000 19.031250000000 4.312000274658 162 162 162
12.109375000000 19.015625000000 4.350002288818 164 164 164
12.093750000000 19.031250000000 4.387996673584 107 107 107
12.093750000000 19.015625000000 4.738002777100 170 170 170
12.093750000000 19.031250000000 4.776996612549 169 169 169
12.093750000000 19.031250000000 4.815998077393 169 169 169
12.093750000000 19.015625000000 4.854999542236 171 171 171
12.093750000000 19.015625000000 4.896999359131 168 168 168
12.093750000000 19.015625000000 4.934001922607 175 175 175
12.093750000000 19.015625000000 4.974002838135 58 58 58
11.906250000000 18.687500000000 3.255001068115 19 19 19
11.906250000000 18.687500000000 3.293998718262 19 19 19
11.906250000000 18.687500000000 3.333003997803 20 20 20
11.937500000000 18.718750000000 3.372997283936 18 18 18
11.937500000000 18.718750000000 3.411998748779 26 26 26
11.937500000000 18.718750000000 3.451999664307 30 30 30
11.937500000000 18.718750000000 3.491001129150 120 120 120
11.937500000000 18.718750000000 3.531002044678 216 216 216
11.968750000000 18.718750000000 3.570003509521 20 20 20
11.968750000000 18.734375000000 3.608997344971 18 18 18
11.968750000000 18.750000000000 3.647998809814 17 17 17
11.937500000000 18.718750000000 3.687000274658 55 55 55
11.937500000000 18.718750000000 3.726001739502 163 163 163
11.906250000000 18.703125000000 3.765003204346 20 20 20
11.921875000000 18.718750000000 3.803997039795 16 16 16
12.093750000000 18.812500000000 4.257999420166 67 67 67
12.093750000000 18.812500000000 4.297000885010 164 164 164
12.078125000000 18.796875000000 4.336002349854 162 162 162
12.093750000000 18.812500000000 4.373996734619 161 161 161
12.078125000000 18.796875000000 4.412998199463 159 159 159
12.093750000000 18.812500000000 4.451000213623 158 158 158
12.078125000000 18.796875000000 4.491001129150 152 152 152
12.093750000000 18.812500000000 4.605998992920 171 171 171
12.093750000000 18.812500000000 4.644001007080 169 169 169
12.093750000000 18.812500000000 4.684001922607 171 171 171
12.093750000000 18.812500000000 4.722003936768 172 172 172
12.093750000000 18.812500000000 4.761997222900 165 165 165
12.093750000000 18.812500000000 4.799999237061 176 176 176
12.093750000000 18.812500000000 4.840999603271 77 77 77
12.125000000000 18.609375000000 1.342998504639 146 146 146
12.125000000000 18.609375000000 1.386001586914 122 122 122
12.156250000000 18.609375000000 1.434001922607 67 67 67
12.093750000000 18.593750000000 1.460998535156 98 98 98
12.093750000000 18.593750000000 1.500999450684 129 129 129
12.093750000000 18.578125000000 1.541000366211 147 147 147
12.093750000000 18.578125000000 1.577999114990 157 157 157
12.093750000000 18.578125000000 1.623001098633 145 145 145
12.093750000000 18.593750000000 1.666999816895 141 141 141
12.093750000000 18.593750000000 1.708000183105 144 144 144
12.093750000000 18.593750000000 1.750000000000 144 144 144
12.093750000000 18.578125000000 1.788002014160 145 145 145
12.093750000000 18.578125000000 1.831001281738 140 140 140
12.093750000000 18.578125000000 1.870998382568 145 145 145
12.093750000000 18.578125000000 1.910999298096 144 144 144
12.093750000000 18.578125000000 1.951000213623 138 138 138
12.093750000000 18.593750000000 1.994998931885 135 135 135
12.093750000000 18.578125000000 2.033000946045 133 133 133
12.093750000000 18.578125000000 2.074001312256 128 128 128
12.093750000000 18.578125000000 2.116001129150 130 130 130
12.093750000000 18.578125000000 2.156002044678 123 123 123
12.093750000000 18.593750000000 2.194000244141 120 120 120
12.093750000000 18.578125000000 2.235000610352 120 120 120
12.093750000000 18.593750000000 2.274002075195 121 121 121
12.093750000000 18.593750000000 2.314998626709 113 113 113
12.093750000000 18.593750000000 2.356998443604 111 111 111
12.093750000000 18.593750000000 2.395000457764 113 113 113
12.093750000000 18.593750000000 2.435001373291 107 107 107
12.093750000000 18.593750000000 2.472999572754 110 110 110
12.093750000000 18.593750000000 2.513000488281 106 106 106
12.093750000000 18.593750000000 2.552001953125 103 103 103
12.093750000000 18.593750000000 2.592998504639 106 106 106
12.093750000000 18.593750000000 2.630001068115 106 106 106
12.093750000000 18.593750000000 2.668998718262 101 101 101
12.093750000000 18.593750000000 2.708000183105 99 99 99
12.093750000000 18.593750000000 2.747001647949 98 98 98
12.078125000000 18.578125000000 2.784000396729 102 102 102
12.093750000000 18.593750000000 2.825000762939 98 98 98
12.093750000000 18.593750000000 2.862998962402 102 102 102
12.093750000000 18.593750000000 2.901000976563 96 96 96
12.093750000000 18.593750000000 2.939998626709 95 95 95
12.093750000000 18.593750000000 2.978000640869 98 98 98
12.093750000000 18.593750000000 3.019001007080 92 92 92
12.093750000000 18.593750000000 3.055999755859 93 93 93
12.093750000000 18.593750000000 3.095001220703 99 99 99
12.078125000000 18.578125000000 3.131999969482 104 104 104
12.031250000000 18.562500000000 3.166000366211 147 147 147
12.078125000000 18.578125000000 3.208000183105 109 109 109
12.062500000000 18.593750000000 3.245998382568 113 113 113
12.093750000000 18.593750000000 3.284999847412 97 97 97
12.078125000000 18.578125000000 3.323001861572 104 104 104
12.093750000000 18.593750000000 3.362003326416 98 98 98
12.062500000000 18.593750000000 3.398998260498 104 104 104
12.093750000000 18.593750000000 3.438999176025 152 152 152
12.093750000000 18.593750000000 3.477001190186 157 157 157
12.093750000000 18.593750000000 3.515003204346 95 95 95
12.093750000000 18.593750000000 3.552997589111 106 106 106
12.093750000000 18.593750000000 3.590999603271 164 164 164
12.093750000000 18.593750000000 3.629001617432 147 147 147
12.062500000000 18.593750000000 3.667003631592 93 93 93
12.062500000000 18.593750000000 3.705997467041 94 94 94
12.015625000000 18.546875000000 3.744998931885 149 149 149
12.031250000000 18.562500000000 3.783000946045 105 105 105
12.062500000000 18.593750000000 3.820003509521 78 78 78
12.093750000000 18.593750000000 3.857997894287 68 68 68
12.093750000000 18.593750000000 3.895999908447 67 67 67
12.093750000000 18.593750000000 3.935001373291 60 60 60
12.093750000000 18.593750000000 3.972003936768 55 55 55
12.093750000000 18.593750000000 4.010997772217 56 56 56
12.093750000000 18.609375000000 4.048000335693 35 35 35
12.093750000000 18.593750000000 4.088001251221 26 26 26
12.093750000000 18.593750000000 4.125003814697 19 19 19
12.093750000000 18.593750000000 4.164997100830 28 28 28
12.093750000000 18.593750000000 4.202999114990 23 23 23
12.093750000000 18.593750000000 4.240001678467 18 18 18
12.093750000000 18.593750000000 4.280002593994 18 18 18
12.062500000000 18.593750000000 4.395999908447 147 147 147
12.093750000000 18.593750000000 4.434001922607 162 162 162
12.093750000000 18.593750000000 4.472003936768 168 168 168
12.093750000000 18.609375000000 4.509998321533 166 166 166
12.093750000000 18.593750000000 4.549999237061 165 165 165
12.093750000000 18.593750000000 4.588001251221 169 169 169
12.093750000000 18.593750000000 4.628002166748 160 160 160
12.093750000000 18.609375000000 4.665996551514 175 175 175
12.093750000000 18.609375000000 4.702999114990 104 104 104
12.000000000000 18.328125000000 3.451999664307 25 25 25
11.968750000000 18.312500000000 3.490001678467 31 31 31
11.968750000000 18.312500000000 3.530002593994 136 136 136
12.000000000000 18.328125000000 3.568996429443 148 148 148
12.000000000000 18.328125000000 3.606998443604 20 20 20
12.000000000000 18.328125000000 3.645999908447 19 19 19
11.968750000000 18.312500000000 3.685001373291 38 38 38
11.937500000000 18.296875000000 3.724002838135 23 23 23
11.937500000000 18.312500000000 3.762996673584 22 22 22
11.937500000000 18.296875000000 3.802997589111 19 19 19
12.062500000000 18.375000000000 4.337001800537 168 168 168
12.062500000000 18.375000000000 4.376003265381 167 167 167
12.062500000000 18.375000000000 4.413997650146 169 169 169
12.062500000000 18.375000000000 4.451999664307 172 172 172
12.062500000000 18.375000000000 4.491001129150 165 165 165
12.062500000000 18.375000000000 4.530002593994 172 172 172
12.062500000000 18.375000000000 4.571002960205 163 163 163
12.062500000000 18.375000000000 4.611003875732 163 163 163
12.062500000000 18.375000000000 4.648998260498 163 163 163
12.062500000000 18.375000000000 4.687999725342 160 160 160
12.062500000000 18.375000000000 4.728000640869 154 154 154
12.062500000000 18.156250000000 4.201999664307 169 169 169
12.062500000000 18.156250000000 4.240001678467 167 167 167
12.062500000000 18.156250000000 4.278003692627 168 168 168
12.062500000000 18.156250000000 4.316997528076 168 168 168
12.062500000000 18.156250000000 4.356998443604 165 165 165
12.062500000000 18.156250000000 4.395000457764 175 175 175
12.062500000000 18.156250000000 4.434001922607 95 95 95
12.062500000000 18.156250000000 4.629001617432 138 138 138
12.062500000000 18.156250000000 4.670001983643 165 165 165
12.062500000000 18.156250000000 4.709003448486 162 162 162
12.062500000000 18.156250000000 4.747997283936 163 163 163
12.062500000000 18.156250000000 4.785999298096 163 163 163
12.062500000000 18.156250000000 4.826000213623 165 165 165
12.062500000000 18.171875000000 4.863002777100 82 82 82
12.046875000000 17.937500000000 4.183002471924 116 116 116
12.046875000000 17.937500000000 4.222003936768 159 159 159
12.046875000000 17.937500000000 4.259998321533 174 174 174
12.062500000000 17.953125000000 4.298000335693 118 118 118
12.046875000000 17.937500000000 4.728000640869 60 60 60
12.046875000000 17.937500000000 4.768001556396 168 168 168
12.046875000000 17.937500000000 4.807003021240 166 166 166
12.062500000000 17.953125000000 4.845996856689 163 163 163
12.062500000000 17.953125000000 4.884998321533 119 119 119
12.078125000000 19.156250000000 4.809001922607 48 48 48
12.093750000000 19.156250000000 4.298999786377 144 144 144
12.093750000000 19.156250000000 4.259998321533 85 85 85
12.093750000000 18.937500000000 4.910999298096 166 166 166
12.093750000000 18.937500000000 4.871997833252 175 175 175
12.093750000000 18.937500000000 4.833003997803 180 180 180
12.093750000000 18.937500000000 4.792003631592 178 178 178
12.093750000000 18.937500000000 4.753002166748 181 181 181
12.093750000000 18.937500000000 4.712001800537 176 176 176
12.093750000000 18.937500000000 4.673999786377 63 63 63
12.093750000000 18.937500000000 4.398998260498 186 186 186
12.093750000000 18.937500000000 4.362003326416 196 196 196
12.093750000000 18.937500000000 4.322002410889 190 190 190
12.093750000000 18.937500000000 4.283000946045 192 192 192
12.093750000000 18.937500000000 4.244998931885 191 191 191
12.093750000000 18.937500000000 4.205997467041 193 193 193
12.093750000000 18.968750000000 4.167003631592 77 77 77
12.062500000000 18.734375000000 4.812000274658 43 43 43
12.062500000000 18.734375000000 4.772998809814 175 175 175
12.078125000000 18.750000000000 4.732997894287 180 180 180
12.078125000000 18.750000000000 4.693996429443 178 178 178
12.078125000000 18.750000000000 4.654003143311 176 176 176
12.078125000000 18.750000000000 4.615001678467 181 181 181
12.078125000000 18.750000000000 4.576000213623 177 177 177
12.062500000000 18.734375000000 4.537998199463 101 101 101
12.078125000000 18.750000000000 4.497997283936 195 195 195
12.062500000000 18.750000000000 4.460002899170 190 190 190
12.062500000000 18.750000000000 4.420001983643 190 190 190
12.078125000000 18.750000000000 4.381000518799 191 191 191
12.062500000000 18.750000000000 4.342998504639 194 194 194
12.062500000000 18.750000000000 4.303997039795 183 183 183
11.875000000000 18.875000000000 3.728000640869 16 16 16
11.906250000000 18.859375000000 3.687999725342 17 17 17
11.906250000000 18.859375000000 3.647998809814 19 19 19
11.890625000000 18.859375000000 3.608997344971 17 17 17
11.890625000000 18.859375000000 3.568996429443 19 19 19
12.140625000000 18.500000000000 4.937999725342 153 153 153
12.156250000000 18.484375000000 4.896999359131 149 149 149
12.156250000000 18.484375000000 4.856998443604 148 148 148
12.156250000000 18.484375000000 4.817996978760 145 145 145
12.140625000000 18.500000000000 4.780002593994 146 146 146
12.140625000000 18.500000000000 4.740001678467 146 146 146
12.140625000000 18.500000000000 4.701000213623 151 151 151
12.171875000000 18.484375000000 4.659000396729 158 158 158
12.171875000000 18.484375000000 4.619998931885 174 174 174
12.171875000000 18.484375000000 4.581996917725 145 145 145
12.156250000000 18.500000000000 4.544002532959 150 150 150
12.156250000000 18.500000000000 4.506000518799 155 155 155
12.171875000000 18.484375000000 4.465000152588 167 167 167
12.171875000000 18.484375000000 4.426998138428 174 174 174
12.156250000000 18.500000000000 4.391002655029 140 140 140
12.156250000000 18.500000000000 4.352001190186 149 149 149
12.156250000000 18.500000000000 4.313999176025 139 139 139
12.171875000000 18.484375000000 4.273998260498 140 140 140
12.171875000000 18.484375000000 4.236003875732 135 135 135
12.156250000000 18.500000000000 4.199001312256 140 140 140
12.156250000000 18.500000000000 4.160999298096 135 135 135
12.156250000000 18.500000000000 4.122997283936 137 137 137
12.156250000000 18.500000000000 4.085002899170 135 135 135
12.156250000000 18.500000000000 4.047000885010 137 137 137
12.156250000000 18.500000000000 4.007999420166 139 139 139
12.156250000000 18.500000000000 3.970996856689 136 136 136
12.156250000000 18.500000000000 3.932003021240 141 141 141
12.156250000000 18.500000000000 3.894001007080 138 138 138
12.156250000000 18.500000000000 3.855998992920 143 143 143
12.156250000000 18.500000000000 3.817996978760 145 145 145
12.156250000000 18.500000000000 3.780002593994 144 144 144
12.156250000000 18.500000000000 3.742000579834 140 140 140
12.156250000000 18.500000000000 3.703998565674 142 142 142
12.156250000000 18.500000000000 3.665996551514 137 137 137
12.156250000000 18.500000000000 3.628002166748 137 137 137
12.156250000000 18.500000000000 3.590000152588 138 138 138
12.156250000000 18.500000000000 3.551998138428 140 140 140
12.156250000000 18.500000000000 3.514003753662 143 143 143
12.156250000000 18.500000000000 3.476001739502 137 137 137
12.156250000000 18.500000000000 3.437999725342 132 132 132
12.156250000000 18.500000000000 3.399997711182 120 120 120
12.156250000000 18.515625000000 3.362003326416 131 131 131
12.156250000000 18.500000000000 3.324001312256 140 140 140
12.156250000000 18.515625000000 3.285999298096 139 139 139
12.156250000000 18.515625000000 3.248001098633 139 139 139
12.156250000000 18.500000000000 3.208999633789 143 143 143
12.156250000000 18.500000000000 3.171001434326 140 140 140
12.156250000000 18.531250000000 3.132999420166 139 139 139
12.156250000000 18.515625000000 3.095001220703 139 139 139
12.156250000000 18.531250000000 3.055999755859 139 139 139
12.156250000000 18.531250000000 3.018001556396 143 143 143
12.156250000000 18.515625000000 2.980998992920 139 139 139
12.156250000000 18.515625000000 2.942001342773 142 142 142
12.156250000000 18.515625000000 2.903999328613 145 145 145
12.156250000000 18.515625000000 2.865001678467 138 138 138
12.156250000000 18.515625000000 2.826999664307 137 137 137
12.156250000000 18.531250000000 2.786998748779 145 145 145
12.156250000000 18.531250000000 2.749000549316 145 145 145
12.156250000000 18.531250000000 2.709999084473 144 144 144
12.156250000000 18.531250000000 2.671001434326 144 144 144
12.156250000000 18.531250000000 2.631999969482 147 147 147
12.156250000000 18.531250000000 2.591999053955 150 150 150
12.156250000000 18.515625000000 2.555000305176 150 150 150
12.156250000000 18.531250000000 2.514999389648 151 151 151
12.156250000000 18.531250000000 2.476001739502 145 145 145
12.156250000000 18.531250000000 2.437000274658 148 148 148
12.156250000000 18.531250000000 2.396999359131 152 152 152
12.156250000000 18.531250000000 2.358001708984 153 153 153
12.156250000000 18.531250000000 2.317001342773 145 145 145
12.171875000000 18.531250000000 2.279998779297 147 147 147
12.156250000000 18.531250000000 2.237998962402 145 145 145
12.171875000000 18.531250000000 2.200000762939 148 148 148
12.171875000000 18.531250000000 2.159999847412 140 140 140
12.156250000000 18.531250000000 2.119998931885 146 146 146
12.156250000000 18.531250000000 2.080001831055 145 145 145
12.156250000000 18.531250000000 2.039001464844 149 149 149
12.156250000000 18.546875000000 1.997001647949 148 148 148
12.171875000000 18.531250000000 1.958999633789 143 143 143
12.156250000000 18.531250000000 1.916999816895 150 150 150
12.156250000000 18.531250000000 1.876998901367 149 149 149
12.156250000000 18.531250000000 1.835998535156 143 143 143
12.156250000000 18.546875000000 1.792999267578 139 139 139
12.156250000000 18.546875000000 1.752998352051 138 138 138
12.156250000000 18.546875000000 1.708999633789 147 147 147
12.156250000000 18.546875000000 1.668998718262 150 150 150
12.156250000000 18.546875000000 1.626998901367 134 134 134
12.156250000000 18.546875000000 1.583000183105 133 133 133
12.156250000000 18.562500000000 1.538002014160 122 122 122
12.125000000000 18.562500000000 1.491001129150 103 103 103
12.062500000000 18.593750000000 1.417999267578 165 165 165
12.015625000000 18.625000000000 1.363998413086 154 154 154
12.046875000000 18.343750000000 4.741001129150 183 183 183
12.062500000000 18.343750000000 4.701000213623 197 197 197
12.031250000000 18.343750000000 4.662998199463 191 191 191
12.062500000000 18.343750000000 4.621997833252 196 196 196
12.031250000000 18.343750000000 4.584003448486 194 194 194
12.031250000000 18.343750000000 4.545001983643 193 193 193
12.062500000000 18.343750000000 4.503002166748 183 183 183
12.062500000000 18.343750000000 4.464000701904 183 183 183
12.062500000000 18.343750000000 4.424999237061 178 178 178
12.062500000000 18.343750000000 4.385997772217 182 182 182
12.062500000000 18.343750000000 4.347003936768 185 185 185
12.062500000000 18.343750000000 4.308002471924 147 147 147
11.937500000000 18.437500000000 3.808002471924 16 16 16
11.968750000000 18.406250000000 3.728000640869 156 156 156
11.953125000000 18.406250000000 3.688999176025 136 136 136
11.968750000000 18.406250000000 3.649997711182 90 90 90
11.953125000000 18.406250000000 3.609996795654 30 30 30
11.953125000000 18.421875000000 3.571002960205 127 127 127
11.968750000000 18.406250000000 3.532001495361 124 124 124
11.968750000000 18.406250000000 3.493000030518 175 175 175
11.937500000000 18.437500000000 3.451999664307 40 40 40
11.953125000000 18.421875000000 3.413997650146 138 138 138
11.953125000000 18.421875000000 3.373996734619 127 127 127
11.953125000000 18.421875000000 3.335002899170 169 169 169
11.937500000000 18.437500000000 3.293998718262 151 151 151
11.937500000000 18.437500000000 3.255001068115 119 119 119
11.937500000000 18.437500000000 3.215000152588 138 138 138
11.937500000000 18.437500000000 3.175998687744 48 48 48
12.046875000000 18.140625000000 4.847003936768 187 187 187
12.046875000000 18.125000000000 4.804996490479 194 194 194
12.046875000000 18.140625000000 4.766002655029 193 193 193
12.046875000000 18.140625000000 4.726001739502 194 194 194
12.046875000000 18.140625000000 4.687000274658 192 192 192
12.046875000000 18.140625000000 4.647998809814 194 194 194
12.046875000000 18.140625000000 4.607997894287 69 69 69
12.031250000000 18.140625000000 4.411998748779 172 172 172
12.062500000000 18.156250000000 4.371997833252 180 180 180
12.062500000000 18.140625000000 4.330997467041 184 184 184
12.062500000000 18.156250000000 4.293003082275 181 181 181
12.062500000000 18.156250000000 4.255001068115 182 182 182
12.062500000000 18.156250000000 4.215000152588 185 185 185
12.062500000000 18.156250000000 4.176998138428 104 104 104
11.921875000000 18.218750000000 3.752002716064 17 17 17
11.937500000000 18.203125000000 3.712001800537 17 17 17
11.937500000000 18.218750000000 3.673000335693 18 18 18
11.937500000000 18.218750000000 3.632999420166 18 18 18
11.937500000000 18.218750000000 3.593997955322 18 18 18
11.968750000000 18.218750000000 3.554996490479 17 17 17
12.031250000000 17.937500000000 4.909999847412 91 91 91
12.031250000000 17.937500000000 4.868999481201 163 163 163
12.031250000000 17.937500000000 4.831996917725 194 194 194
12.031250000000 17.937500000000 4.790996551514 192 192 192
12.031250000000 17.937500000000 4.753002166748 186 186 186
12.031250000000 17.937500000000 4.315998077393 21 21 21
12.046875000000 17.937500000000 4.275997161865 179 179 179
