27.687500000000 9.312500000000 1.842998504639 81 81 81
27.687500000000 9.296875000000 1.775001525879 19 19 19
27.828125000000 9.375000000000 1.979999542236 35 35 35
27.828125000000 9.375000000000 1.914001464844 45 45 45
27.812500000000 9.406250000000 1.853000640869 54 54 54
27.765625000000 9.406250000000 1.792999267578 69 69 69
27.906250000000 9.421875000000 5.057003021240 6 6 6
27.906250000000 9.437500000000 4.989002227783 25 25 25
27.906250000000 9.421875000000 4.923000335693 35 35 35
27.906250000000 9.437500000000 4.854999542236 46 46 46
27.921875000000 9.437500000000 4.789997100830 50 50 50
27.906250000000 9.437500000000 4.720996856689 57 57 57
27.906250000000 9.437500000000 4.654003143311 62 62 62
27.906250000000 9.437500000000 4.588001251221 62 62 62
27.921875000000 9.437500000000 4.521999359131 64 64 64
27.921875000000 9.437500000000 4.455997467041 62 62 62
27.921875000000 9.437500000000 4.390003204346 72 72 72
27.921875000000 9.437500000000 4.324001312256 71 71 71
27.921875000000 9.437500000000 4.256999969482 71 71 71
27.921875000000 9.437500000000 4.190998077393 75 75 75
27.906250000000 9.453125000000 4.123996734619 80 80 80
27.906250000000 9.453125000000 4.058002471924 88 88 88
27.921875000000 9.437500000000 3.992000579834 91 91 91
27.921875000000 9.437500000000 3.925998687744 94 94 94
27.937500000000 9.437500000000 3.859996795654 107 107 107
27.937500000000 9.437500000000 3.794002532959 124 124 124
27.937500000000 9.437500000000 3.728000640869 140 140 140
27.937500000000 9.453125000000 3.661998748779 143 143 143
27.937500000000 9.437500000000 3.595996856689 115 115 115
27.937500000000 9.437500000000 3.530002593994 111 111 111
27.937500000000 9.453125000000 3.464000701904 115 115 115
27.937500000000 9.453125000000 3.396999359131 108 108 108
27.953125000000 9.437500000000 3.329998016357 104 104 104
27.953125000000 9.437500000000 3.263999938965 107 107 107
27.953125000000 9.437500000000 3.196998596191 126 126 126
27.984375000000 9.437500000000 3.130001068115 126 126 126
27.984375000000 9.437500000000 3.063999176025 117 117 117
27.984375000000 9.437500000000 2.997001647949 111 111 111
27.968750000000 9.437500000000 2.930999755859 103 103 103
27.968750000000 9.437500000000 2.863998413086 103 103 103
27.968750000000 9.437500000000 2.797000885010 105 105 105
27.984375000000 9.437500000000 2.729999542236 108 108 108
27.984375000000 9.437500000000 2.663002014160 103 103 103
28.000000000000 9.437500000000 2.595001220703 106 106 106
27.968750000000 9.437500000000 2.529998779297 80 80 80
27.921875000000 9.468750000000 2.470001220703 111 111 111
27.906250000000 9.468750000000 2.403999328613 104 104 104
28.000000000000 9.421875000000 2.325000762939 84 84 84
28.015625000000 9.421875000000 2.256000518799 80 80 80
28.031250000000 9.421875000000 2.186000823975 87 87 87
28.031250000000 9.421875000000 2.119998931885 95 95 95
28.046875000000 9.406250000000 2.048999786377 87 87 87
28.046875000000 9.406250000000 1.980998992920 90 90 90
28.046875000000 9.406250000000 1.910999298096 87 87 87
28.015625000000 9.437500000000 1.851001739502 82 82 82
27.718750000000 9.609375000000 1.839000701904 90 90 90
27.890625000000 9.515625000000 8.856998443604 4 4 4
27.875000000000 9.531250000000 8.766002655029 15 15 15
27.890625000000 9.515625000000 8.697002410889 19 19 19
27.890625000000 9.515625000000 8.618000030518 31 31 31
27.906250000000 9.515625000000 8.542003631592 35 35 35
27.890625000000 9.515625000000 8.460002899170 44 44 44
27.890625000000 9.515625000000 8.381999969482 50 50 50
27.906250000000 9.531250000000 8.307003021240 54 54 54
27.906250000000 9.531250000000 8.229000091553 64 64 64
27.906250000000 9.531250000000 8.150997161865 64 64 64
27.906250000000 9.531250000000 8.073001861572 67 67 67
27.906250000000 9.531250000000 8.000003814697 67 67 67
27.906250000000 9.531250000000 7.924999237061 77 77 77
27.906250000000 9.531250000000 7.850002288818 79 79 79
27.906250000000 9.531250000000 7.770999908447 90 90 90
27.906250000000 9.531250000000 7.700000762939 88 88 88
27.906250000000 9.531250000000 7.622997283936 91 91 91
27.906250000000 9.531250000000 7.548000335693 92 92 92
27.937500000000 9.531250000000 7.481998443604 92 92 92
27.968750000000 9.515625000000 7.414997100830 92 92 92
27.937500000000 9.515625000000 7.339000701904 93 93 93
27.937500000000 9.531250000000 7.261997222900 91 91 91
27.953125000000 9.531250000000 7.190998077393 94 94 94
27.968750000000 9.515625000000 7.123996734619 94 94 94
27.968750000000 9.500000000000 7.053997039795 93 93 93
27.968750000000 9.500000000000 6.980998992920 100 100 100
27.968750000000 9.531250000000 6.909999847412 102 102 102
27.968750000000 9.515625000000 6.840999603271 100 100 100
27.968750000000 9.531250000000 6.767002105713 94 94 94
27.968750000000 9.531250000000 6.695003509521 92 92 92
27.984375000000 9.500000000000 6.629001617432 95 95 95
27.937500000000 9.546875000000 6.537998199463 100 100 100
27.937500000000 9.546875000000 6.469997406006 98 98 98
28.015625000000 9.500000000000 6.423999786377 94 94 94
28.031250000000 9.500000000000 6.354000091553 89 89 89
28.031250000000 9.500000000000 6.284000396729 94 94 94
28.031250000000 9.500000000000 6.212001800537 95 95 95
28.015625000000 9.500000000000 6.142002105713 93 93 93
28.031250000000 9.500000000000 6.075000762939 87 87 87
28.031250000000 9.500000000000 6.006000518799 81 81 81
28.031250000000 9.500000000000 5.936000823975 73 73 73
27.921875000000 9.562500000000 5.840000152588 97 97 97
27.921875000000 9.562500000000 5.770000457764 104 104 104
27.984375000000 9.531250000000 5.716999053955 95 95 95
28.031250000000 9.500000000000 5.656002044678 51 51 51
28.015625000000 9.500000000000 5.587001800537 47 47 47
28.015625000000 9.500000000000 5.518001556396 49 49 49
28.015625000000 9.500000000000 5.450000762939 45 45 45
28.046875000000 9.515625000000 5.382999420166 42 42 42
28.046875000000 9.515625000000 5.313999176025 42 42 42
28.046875000000 9.500000000000 5.246997833252 35 35 35
28.046875000000 9.515625000000 5.177997589111 32 32 32
28.031250000000 9.531250000000 5.107997894287 26 26 26
28.031250000000 9.515625000000 5.040996551514 17 17 17
28.046875000000 9.500000000000 4.975002288818 8 8 8
27.921875000000 9.593750000000 4.690998077393 4 4 4
27.906250000000 9.593750000000 4.622997283936 101 101 101
27.906250000000 9.593750000000 4.557003021240 103 103 103
27.921875000000 9.609375000000 3.562999725342 10 10 10
27.921875000000 9.609375000000 3.496997833252 112 112 112
27.921875000000 9.609375000000 3.431003570557 106 106 106
27.921875000000 9.640625000000 2.504001617432 110 110 110
27.906250000000 9.640625000000 2.437999725342 102 102 102
27.906250000000 9.640625000000 2.370998382568 68 68 68
28.093750000000 9.546875000000 1.870998382568 21 21 21
27.812500000000 9.718750000000 1.855998992920 49 49 49
27.796875000000 9.718750000000 1.791000366211 132 132 132
27.906250000000 9.640625000000 9.908000946045 84 84 84
27.921875000000 9.625000000000 9.830997467041 83 83 83
27.953125000000 9.625000000000 9.756999969482 88 88 88
27.984375000000 9.625000000000 9.684001922607 88 88 88
27.953125000000 9.625000000000 9.585002899170 93 93 93
27.953125000000 9.625000000000 9.501003265381 88 88 88
27.937500000000 9.625000000000 9.413997650146 93 93 93
27.937500000000 9.625000000000 9.327999114990 90 90 90
27.937500000000 9.625000000000 9.247997283936 92 92 92
27.968750000000 9.640625000000 9.171001434326 87 87 87
27.937500000000 9.625000000000 9.083003997803 91 91 91
27.937500000000 9.656250000000 8.992000579834 90 90 90
27.937500000000 9.640625000000 8.917003631592 88 88 88
27.937500000000 9.640625000000 8.836002349854 83 83 83
27.953125000000 9.656250000000 8.756000518799 83 83 83
27.921875000000 9.656250000000 8.669002532959 76 76 76
27.921875000000 9.656250000000 8.589000701904 81 81 81
27.921875000000 9.656250000000 8.508998870850 72 72 72
27.921875000000 9.656250000000 8.426998138428 90 90 90
27.906250000000 9.671875000000 8.342998504639 89 89 89
27.937500000000 9.671875000000 8.275997161865 89 89 89
27.906250000000 9.671875000000 8.188999176025 72 72 72
27.906250000000 9.687500000000 8.111003875732 77 77 77
27.906250000000 9.687500000000 8.034999847412 73 73 73
27.906250000000 9.671875000000 7.960002899170 77 77 77
27.906250000000 9.687500000000 7.881000518799 75 75 75
27.906250000000 9.687500000000 7.809001922607 77 77 77
27.937500000000 9.687500000000 7.736003875732 79 79 79
27.906250000000 9.687500000000 7.656002044678 86 86 86
27.921875000000 9.703125000000 7.585002899170 88 88 88
27.937500000000 9.687500000000 7.514003753662 99 99 99
27.921875000000 9.703125000000 7.437999725342 85 85 85
27.937500000000 9.687500000000 7.367000579834 85 85 85
27.921875000000 9.703125000000 7.288997650146 81 81 81
27.921875000000 9.703125000000 7.215999603271 84 84 84
27.921875000000 9.703125000000 7.145000457764 89 89 89
27.921875000000 9.703125000000 7.072002410889 89 89 89
27.921875000000 9.703125000000 7.000003814697 96 96 96
27.921875000000 9.703125000000 6.926998138428 88 88 88
27.921875000000 9.718750000000 6.854999542236 91 91 91
27.906250000000 9.718750000000 6.780002593994 91 91 91
27.906250000000 9.718750000000 6.705997467041 97 97 97
27.906250000000 9.734375000000 6.633998870850 100 100 100
27.906250000000 9.718750000000 6.568996429443 91 91 91
27.906250000000 9.718750000000 6.498996734619 89 89 89
27.921875000000 9.718750000000 6.429996490479 91 91 91
27.906250000000 9.718750000000 6.357997894287 86 86 86
27.906250000000 9.718750000000 6.288997650146 92 92 92
27.906250000000 9.718750000000 6.219997406006 91 91 91
27.906250000000 9.734375000000 6.146999359131 86 86 86
27.906250000000 9.718750000000 6.080997467041 88 88 88
27.906250000000 9.734375000000 6.008998870850 83 83 83
27.906250000000 9.718750000000 5.940998077393 84 84 84
27.937500000000 9.718750000000 5.873996734619 90 90 90
27.906250000000 9.718750000000 5.803997039795 86 86 86
27.921875000000 9.734375000000 5.734996795654 82 82 82
27.906250000000 9.734375000000 5.663997650146 87 87 87
27.921875000000 9.734375000000 5.598003387451 89 89 89
27.921875000000 9.734375000000 5.530002593994 82 82 82
27.906250000000 9.734375000000 5.460002899170 85 85 85
27.921875000000 9.734375000000 5.394001007080 83 83 83
27.921875000000 9.734375000000 5.326000213623 80 80 80
27.921875000000 9.734375000000 5.260997772217 80 80 80
27.906250000000 9.750000000000 5.190998077393 83 83 83
27.921875000000 9.734375000000 5.125003814697 85 85 85
27.906250000000 9.750000000000 5.056003570557 88 88 88
27.921875000000 9.734375000000 4.991001129150 83 83 83
27.921875000000 9.734375000000 4.923000335693 83 83 83
27.937500000000 9.750000000000 4.855998992920 86 86 86
27.937500000000 9.750000000000 4.788997650146 84 84 84
27.937500000000 9.750000000000 4.722003936768 79 79 79
27.937500000000 9.750000000000 4.656002044678 84 84 84
27.906250000000 9.750000000000 4.587001800537 85 85 85
27.906250000000 9.750000000000 4.520999908447 85 85 85
27.937500000000 9.750000000000 4.455997467041 85 85 85
27.937500000000 9.750000000000 4.389003753662 79 79 79
27.937500000000 9.750000000000 4.323001861572 76 76 76
27.921875000000 9.750000000000 4.256000518799 77 77 77
27.937500000000 9.750000000000 4.189998626709 80 80 80
27.921875000000 9.750000000000 4.122997283936 82 82 82
27.937500000000 9.750000000000 4.057003021240 79 79 79
27.953125000000 9.750000000000 3.991001129150 86 86 86
27.921875000000 9.765625000000 3.923999786377 84 84 84
27.921875000000 9.765625000000 3.857997894287 77 77 77
27.921875000000 9.765625000000 3.792003631592 84 84 84
27.937500000000 9.765625000000 3.726001739502 81 81 81
27.937500000000 9.765625000000 3.659999847412 79 79 79
27.937500000000 9.765625000000 3.593997955322 81 81 81
27.937500000000 9.765625000000 3.528003692627 85 85 85
27.937500000000 9.781250000000 3.462001800537 86 86 86
27.937500000000 9.781250000000 3.395999908447 84 84 84
27.937500000000 9.781250000000 3.328998565674 77 77 77
27.937500000000 9.781250000000 3.263000488281 80 80 80
27.937500000000 9.781250000000 3.196998596191 80 80 80
27.937500000000 9.781250000000 3.131000518799 73 73 73
27.937500000000 9.781250000000 3.064998626709 82 82 82
27.937500000000 9.781250000000 2.998001098633 76 76 76
27.953125000000 9.781250000000 2.930999755859 79 79 79
27.953125000000 9.781250000000 2.865001678467 71 71 71
27.953125000000 9.781250000000 2.798000335693 86 86 86
27.953125000000 9.781250000000 2.731998443604 76 76 76
27.937500000000 9.796875000000 2.666000366211 76 76 76
27.937500000000 9.796875000000 2.598999023438 77 77 77
27.968750000000 9.781250000000 2.529998779297 74 74 74
27.937500000000 9.796875000000 2.465999603271 76 76 76
27.937500000000 9.796875000000 2.399002075195 81 81 81
27.937500000000 9.796875000000 2.332000732422 74 74 74
27.937500000000 9.796875000000 2.264999389648 76 76 76
27.968750000000 9.781250000000 2.194999694824 78 78 78
27.937500000000 9.796875000000 2.130001068115 68 68 68
27.937500000000 9.796875000000 2.062999725342 74 74 74
27.937500000000 9.812500000000 1.994998931885 71 71 71
27.937500000000 9.812500000000 1.930999755859 66 66 66
27.937500000000 9.812500000000 1.861999511719 80 80 80
27.937500000000 9.812500000000 1.793998718262 94 94 94
27.953125000000 9.781250000000 9.808002471924 22 22 22
27.953125000000 9.859375000000 6.618999481201 50 50 50
28.187500000000 9.843750000000 1.858001708984 78 78 78
28.187500000000 9.843750000000 1.789001464844 86 86 86
27.953125000000 10.031250000000 6.659000396729 97 97 97
27.968750000000 10.156250000000 6.632999420166 81 81 81
27.953125000000 10.343750000000 6.660999298096 98 98 98
27.968750000000 10.500000000000 6.628002166748 63 63 63
27.953125000000 10.656250000000 6.668003082275 81 81 81
27.968750000000 10.812500000000 6.643001556396 86 86 86
27.984375000000 10.984375000000 6.689998626709 43 43 43
27.984375000000 10.984375000000 6.618999481201 12 12 12
27.968750000000 11.140625000000 6.723003387451 29 29 29
27.953125000000 11.156250000000 6.646999359131 111 111 111
27.968750000000 11.140625000000 6.580997467041 22 22 22
27.968750000000 11.312500000000 6.686000823975 22 22 22
27.984375000000 11.296875000000 6.618000030518 39 39 39
27.968750000000 11.453125000000 6.656002044678 81 81 81
27.968750000000 11.625000000000 6.628002166748 90 90 90
28.031250000000 11.593750000000 6.571002960205 42 42 42
28.015625000000 11.609375000000 6.497997283936 48 48 48
28.015625000000 11.609375000000 6.426998138428 52 52 52
28.000000000000 11.625000000000 6.352001190186 68 68 68
27.968750000000 11.796875000000 6.672000885010 30 30 30
27.984375000000 11.781250000000 6.604999542236 14 14 14
28.015625000000 11.781250000000 6.331996917725 72 72 72
27.984375000000 11.953125000000 6.642002105713 85 85 85
28.031250000000 11.937500000000 6.368000030518 39 39 39
27.968750000000 12.109375000000 6.674999237061 22 22 22
28.015625000000 12.093750000000 6.613002777100 17 17 17
28.031250000000 12.093750000000 6.335002899170 80 80 80
27.984375000000 12.281250000000 6.646999359131 88 88 88
28.031250000000 12.250000000000 6.303997039795 8 8 8
28.015625000000 12.421875000000 6.626003265381 69 69 69
28.031250000000 12.421875000000 6.345996856689 58 58 58
28.000000000000 12.609375000000 6.659000396729 37 37 37
28.015625000000 12.578125000000 6.601001739502 14 14 14
28.046875000000 12.578125000000 6.318996429443 60 60 60
27.984375000000 12.750000000000 6.772998809814 66 66 66
28.000000000000 12.750000000000 6.632999420166 93 93 93
28.031250000000 12.750000000000 6.355998992920 41 41 41
28.046875000000 12.890625000000 6.683002471924 28 28 28
28.000000000000 12.906250000000 6.601001739502 68 68 68
28.031250000000 12.906250000000 6.323001861572 56 56 56
28.015625000000 13.062500000000 6.640003204346 88 88 88
28.015625000000 13.062500000000 6.570003509521 35 35 35
28.046875000000 13.062500000000 6.507999420166 28 28 28
28.046875000000 13.062500000000 6.437999725342 48 48 48
28.046875000000 13.062500000000 6.366001129150 54 54 54
28.062500000000 13.046875000000 6.298000335693 20 20 20
28.015625000000 13.234375000000 6.614002227783 79 79 79
28.078125000000 13.203125000000 6.557003021240 114 114 114
28.062500000000 13.218750000000 6.482997894287 159 159 159
28.062500000000 13.218750000000 6.409000396729 126 126 126
28.062500000000 13.218750000000 6.339000701904 161 161 161
28.031250000000 13.406250000000 6.651996612549 37 37 37
28.062500000000 13.375000000000 6.595996856689 16 16 16
28.062500000000 13.375000000000 6.523998260498 167 167 167
28.078125000000 13.375000000000 6.455997467041 167 167 167
28.046875000000 13.375000000000 6.381000518799 176 176 176
28.078125000000 13.375000000000 6.311000823975 66 66 66
28.031250000000 13.562500000000 6.625003814697 84 84 84
28.078125000000 13.531250000000 6.567996978760 30 30 30
28.078125000000 13.531250000000 6.496997833252 135 135 135
28.078125000000 13.531250000000 6.425998687744 119 119 119
28.078125000000 13.531250000000 6.352001190186 178 178 178
28.031250000000 13.703125000000 6.598003387451 59 59 59
28.078125000000 13.687500000000 6.536998748779 150 150 150
28.078125000000 13.687500000000 6.465999603271 177 177 177
28.078125000000 13.687500000000 6.395000457764 171 171 171
28.078125000000 13.703125000000 6.323001861572 142 142 142
28.031250000000 13.875000000000 6.636997222900 62 62 62
28.078125000000 13.843750000000 6.581996917725 12 12 12
28.093750000000 13.843750000000 6.511997222900 171 171 171
28.093750000000 13.843750000000 6.440998077393 169 169 169
28.078125000000 13.859375000000 6.365001678467 182 182 182
28.093750000000 13.843750000000 6.298000335693 49 49 49
28.046875000000 14.031250000000 6.613002777100 81 81 81
28.093750000000 14.015625000000 6.553997039795 92 92 92
28.093750000000 14.015625000000 6.481998443604 168 168 168
28.093750000000 14.015625000000 6.409999847412 142 142 142
28.093750000000 14.015625000000 6.339000701904 177 177 177
28.062500000000 14.203125000000 6.653003692627 8 8 8
28.062500000000 14.187500000000 6.586002349854 37 37 37
28.093750000000 14.156250000000 6.524997711182 167 167 167
28.093750000000 14.171875000000 6.450000762939 158 158 158
28.109375000000 14.171875000000 6.381999969482 165 165 165
28.093750000000 14.156250000000 6.309001922607 106 106 106
28.031250000000 14.375000000000 6.618999481201 68 68 68
28.109375000000 14.328125000000 6.566997528076 82 82 82
28.109375000000 14.328125000000 6.495998382568 167 167 167
28.109375000000 14.328125000000 6.422000885010 164 164 164
28.109375000000 14.328125000000 6.351001739502 164 164 164
28.109375000000 14.328125000000 6.282001495361 30 30 30
28.062500000000 14.515625000000 6.597003936768 80 80 80
28.125000000000 14.484375000000 6.537998199463 139 139 139
28.125000000000 14.484375000000 6.466999053955 141 141 141
28.125000000000 14.500000000000 6.394001007080 147 147 147
28.125000000000 14.500000000000 6.320003509521 159 159 159
28.062500000000 14.671875000000 6.636997222900 45 45 45
28.109375000000 14.656250000000 6.579998016357 12 12 12
28.109375000000 14.656250000000 6.508998870850 156 156 156
28.109375000000 14.656250000000 6.438999176025 152 152 152
28.109375000000 14.656250000000 6.365001678467 176 176 176
28.109375000000 14.656250000000 6.295001983643 62 62 62
28.062500000000 14.843750000000 6.604999542236 84 84 84
28.109375000000 14.812500000000 6.548999786377 87 87 87
28.125000000000 14.812500000000 6.479999542236 155 155 155
28.125000000000 14.812500000000 6.406002044678 124 124 124
28.125000000000 14.812500000000 6.334003448486 175 175 175
28.046875000000 15.000000000000 6.637996673584 14 14 14
28.093750000000 14.984375000000 6.580997467041 32 32 32
28.125000000000 14.968750000000 6.520000457764 155 155 155
28.125000000000 14.968750000000 6.445003509521 122 122 122
28.125000000000 14.968750000000 6.373996734619 174 174 174
28.140625000000 14.968750000000 6.303997039795 92 92 92
28.062500000000 15.171875000000 6.614002227783 79 79 79
28.125000000000 15.125000000000 6.558002471924 42 42 42
28.125000000000 15.125000000000 6.486003875732 166 166 166
28.125000000000 15.140625000000 6.411998748779 168 168 168
28.125000000000 15.140625000000 6.340999603271 181 181 181
28.093750000000 15.312500000000 6.589000701904 88 88 88
28.140625000000 15.281250000000 6.530002593994 20 20 20
28.109375000000 15.312500000000 6.306003570557 64 64 64
28.078125000000 15.484375000000 6.628002166748 82 82 82
28.093750000000 15.484375000000 6.558002471924 75 75 75
28.125000000000 15.468750000000 6.284000396729 37 37 37
28.093750000000 15.640625000000 6.817996978760 87 87 87
28.078125000000 15.656250000000 6.597003936768 89 89 89
28.109375000000 15.656250000000 6.315998077393 63 63 63
28.078125000000 15.812500000000 6.631999969482 25 25 25
28.125000000000 15.796875000000 6.567996978760 12 12 12
28.125000000000 15.796875000000 6.282001495361 62 62 62
28.109375000000 15.937500000000 7.118000030518 11 11 11
28.093750000000 15.968750000000 6.599002838135 82 82 82
28.109375000000 15.968750000000 6.315998077393 46 46 46
28.093750000000 16.109375000000 7.301998138428 24 24 24
28.078125000000 16.140625000000 6.635997772217 12 12 12
28.125000000000 16.125000000000 6.574001312256 30 30 30
28.125000000000 16.125000000000 6.284000396729 63 63 63
28.125000000000 16.281250000000 7.498996734619 9 9 9
28.109375000000 16.312500000000 6.611003875732 75 75 75
28.140625000000 16.296875000000 6.327999114990 3 3 3
28.125000000000 16.421875000000 7.626003265381 17 17 17
28.125000000000 16.578125000000 7.815998077393 17 17 17
28.125000000000 16.781250000000 6.579998016357 76 76 76
28.187500000000 16.750000000000 6.523998260498 13 13 13
28.140625000000 16.890625000000 8.131000518799 19 19 19
28.125000000000 16.953125000000 6.617000579834 66 66 66
28.156250000000 17.046875000000 8.336002349854 11 11 11
28.156250000000 17.093750000000 6.661998748779 41 41 41
28.140625000000 17.109375000000 6.584003448486 100 100 100
28.156250000000 17.093750000000 6.517002105713 4 4 4
28.156250000000 17.218750000000 8.462001800537 15 15 15
28.125000000000 17.281250000000 6.622997283936 33 33 33
28.156250000000 17.250000000000 6.560001373291 17 17 17
28.156250000000 17.375000000000 8.664997100830 12 12 12
28.140625000000 17.437500000000 6.590999603271 103 103 103
28.140625000000 17.593750000000 6.629001617432 22 22 22
28.156250000000 17.593750000000 6.560001373291 18 18 18
28.156250000000 17.687500000000 9.005001068115 18 18 18
28.140625000000 17.750000000000 6.595996856689 96 96 96
28.171875000000 17.906250000000 6.565998077393 41 41 41
27.828125000000 18.234375000000 1.839000701904 13 13 13
28.187500000000 18.000000000000 9.353000640869 14 14 14
28.156250000000 18.078125000000 6.600002288818 91 91 91
27.875000000000 18.375000000000 1.931999206543 31 31 31
27.843750000000 18.390625000000 1.869998931885 74 74 74
28.156250000000 18.250000000000 6.564998626709 53 53 53
28.062500000000 18.406250000000 3.161998748779 9 9 9
28.062500000000 18.406250000000 3.094001770020 30 30 30
28.062500000000 18.406250000000 3.026000976563 48 48 48
28.062500000000 18.406250000000 2.958000183105 47 47 47
28.078125000000 18.390625000000 2.820999145508 57 57 57
28.062500000000 18.406250000000 2.755001068115 56 56 56
28.062500000000 18.406250000000 2.687000274658 52 52 52
28.062500000000 18.406250000000 2.550998687744 61 61 61
28.062500000000 18.406250000000 2.481998443604 61 61 61
28.062500000000 18.421875000000 2.416000366211 73 73 73
28.062500000000 18.421875000000 2.277999877930 91 91 91
28.062500000000 18.421875000000 2.208999633789 91 91 91
28.062500000000 18.421875000000 2.139999389648 90 90 90
28.078125000000 18.437500000000 2.000999450684 86 86 86
28.093750000000 18.421875000000 1.930000305176 89 89 89
28.062500000000 18.406250000000 2.892002105713 36 36 36
28.062500000000 18.406250000000 2.619998931885 29 29 29
28.062500000000 18.421875000000 2.347999572754 60 60 60
28.062500000000 18.421875000000 2.073001861572 66 66 66
28.031250000000 18.453125000000 1.875000000000 65 65 65
27.984375000000 18.484375000000 1.813999176025 104 104 104
28.156250000000 18.343750000000 9.692996978760 74 74 74
28.062500000000 18.468750000000 6.651996612549 12 12 12
28.093750000000 18.468750000000 6.586002349854 100 100 100
28.093750000000 18.468750000000 6.514003753662 7 7 7
28.093750000000 18.468750000000 6.439998626709 20 20 20
28.093750000000 18.468750000000 6.368000030518 26 26 26
28.093750000000 18.468750000000 6.296001434326 41 41 41
28.093750000000 18.468750000000 6.227001190186 46 46 46
28.093750000000 18.468750000000 6.155002593994 51 51 51
28.093750000000 18.468750000000 6.087001800537 55 55 55
28.093750000000 18.468750000000 6.014003753662 56 56 56
28.109375000000 18.468750000000 5.946002960205 60 60 60
28.109375000000 18.468750000000 5.875003814697 64 64 64
28.093750000000 18.468750000000 5.801998138428 71 71 71
28.093750000000 18.484375000000 5.732997894287 77 77 77
28.093750000000 18.484375000000 5.662998199463 80 80 80
28.109375000000 18.468750000000 5.593997955322 88 88 88
28.109375000000 18.468750000000 5.524997711182 94 94 94
28.109375000000 18.468750000000 5.453998565674 97 97 97
28.093750000000 18.484375000000 5.383998870850 101 101 101
28.109375000000 18.468750000000 5.315998077393 93 93 93
28.125000000000 18.468750000000 5.248996734619 86 86 86
28.125000000000 18.468750000000 5.179996490479 89 89 89
28.140625000000 18.468750000000 5.112003326416 99 99 99
28.140625000000 18.468750000000 5.044002532959 99 99 99
28.156250000000 18.468750000000 4.976001739502 99 99 99
28.156250000000 18.468750000000 4.907001495361 103 103 103
28.140625000000 18.468750000000 4.837001800537 98 98 98
28.156250000000 18.468750000000 4.769001007080 101 101 101
28.109375000000 18.484375000000 4.696002960205 99 99 99
28.093750000000 18.515625000000 4.623996734619 99 99 99
28.093750000000 18.500000000000 4.558002471924 96 96 96
28.156250000000 18.468750000000 4.493999481201 94 94 94
28.171875000000 18.468750000000 4.425998687744 98 98 98
28.203125000000 18.453125000000 4.359996795654 101 101 101
28.203125000000 18.468750000000 4.289997100830 98 98 98
28.203125000000 18.453125000000 4.222003936768 110 110 110
28.203125000000 18.468750000000 4.153003692627 108 108 108
28.203125000000 18.453125000000 4.085002899170 114 114 114
28.203125000000 18.468750000000 4.016002655029 115 115 115
28.203125000000 18.468750000000 3.947002410889 99 99 99
28.203125000000 18.468750000000 3.879001617432 77 77 77
28.203125000000 18.468750000000 3.810001373291 64 64 64
28.187500000000 18.484375000000 3.741001129150 59 59 59
28.187500000000 18.484375000000 3.673000335693 67 67 67
28.187500000000 18.484375000000 3.604999542236 56 56 56
28.062500000000 18.531250000000 3.536998748779 96 96 96
28.078125000000 18.562500000000 3.469997406006 96 96 96
28.171875000000 18.500000000000 3.399997711182 57 57 57
28.218750000000 18.484375000000 3.329998016357 44 44 44
28.218750000000 18.468750000000 3.261001586914 30 30 30
28.187500000000 18.484375000000 3.193000793457 20 20 20
28.203125000000 18.500000000000 3.125000000000 10 10 10
28.062500000000 18.578125000000 2.520999908447 94 94 94
28.062500000000 18.593750000000 2.452999114990 88 88 88
28.062500000000 18.593750000000 2.384998321533 20 20 20
28.203125000000 18.531250000000 1.882999420166 69 69 69
27.843750000000 18.734375000000 1.877998352051 61 61 61
28.140625000000 18.500000000000 9.904003143311 40 40 40
28.171875000000 18.500000000000 9.833003997803 58 58 58
28.125000000000 18.515625000000 9.723003387451 18 18 18
28.125000000000 18.531250000000 9.621997833252 20 20 20
28.125000000000 18.531250000000 9.544002532959 23 23 23
28.125000000000 18.531250000000 9.453998565674 34 34 34
28.125000000000 18.531250000000 9.373996734619 39 39 39
28.140625000000 18.531250000000 9.293003082275 49 49 49
28.125000000000 18.531250000000 9.197002410889 53 53 53
28.140625000000 18.531250000000 9.119998931885 56 56 56
28.109375000000 18.546875000000 9.028003692627 55 55 55
28.109375000000 18.546875000000 8.949001312256 69 69 69
28.125000000000 18.546875000000 8.868999481201 73 73 73
28.140625000000 18.531250000000 8.792003631592 80 80 80
28.140625000000 18.531250000000 8.710002899170 85 85 85
28.140625000000 18.531250000000 8.630001068115 88 88 88
28.140625000000 18.546875000000 8.554996490479 93 93 93
28.125000000000 18.562500000000 8.463001251221 79 79 79
28.125000000000 18.562500000000 8.381999969482 83 83 83
28.140625000000 18.546875000000 8.316997528076 93 93 93
28.171875000000 18.531250000000 8.246997833252 93 93 93
28.171875000000 18.531250000000 8.169002532959 89 89 89
28.171875000000 18.531250000000 8.090999603271 86 86 86
28.171875000000 18.531250000000 8.014003753662 87 87 87
28.171875000000 18.531250000000 7.935001373291 87 87 87
28.187500000000 18.531250000000 7.863002777100 95 95 95
28.203125000000 18.531250000000 7.789997100830 88 88 88
28.203125000000 18.531250000000 7.714000701904 91 91 91
28.109375000000 18.578125000000 7.603000640869 96 96 96
28.187500000000 18.562500000000 7.547000885010 95 95 95
28.234375000000 18.515625000000 7.492000579834 93 93 93
28.218750000000 18.531250000000 7.413997650146 89 89 89
28.218750000000 18.531250000000 7.338001251221 83 83 83
28.218750000000 18.531250000000 7.261997222900 80 80 80
28.250000000000 18.515625000000 7.192996978760 60 60 60
28.218750000000 18.531250000000 7.109996795654 52 52 52
28.250000000000 18.531250000000 7.038997650146 43 43 43
28.218750000000 18.531250000000 6.960002899170 33 33 33
28.218750000000 18.546875000000 6.883998870850 40 40 40
28.234375000000 18.531250000000 6.814998626709 34 34 34
28.234375000000 18.531250000000 6.741001129150 28 28 28
28.234375000000 18.531250000000 6.668003082275 23 23 23
28.078125000000 18.625000000000 6.554996490479 93 93 93
28.140625000000 18.593750000000 6.495998382568 87 87 87
28.218750000000 18.546875000000 6.445003509521 7 7 7
28.093750000000 18.640625000000 5.842998504639 93 93 93
28.093750000000 18.640625000000 5.770999908447 94 94 94
28.218750000000 18.593750000000 5.724002838135 25 25 25
28.093750000000 18.671875000000 4.660999298096 98 98 98
28.109375000000 18.671875000000 4.593997955322 104 104 104
28.156250000000 18.625000000000 4.531002044678 22 22 22
28.078125000000 18.718750000000 3.573001861572 68 68 68
28.078125000000 18.718750000000 3.505001068115 122 122 122
28.078125000000 18.718750000000 3.437999725342 113 113 113
28.078125000000 18.718750000000 3.369998931885 39 39 39
28.078125000000 18.718750000000 3.302001953125 40 40 40
28.062500000000 18.718750000000 3.235000610352 51 51 51
28.062500000000 18.734375000000 3.166999816895 51 51 51
28.062500000000 18.718750000000 3.099998474121 51 51 51
28.062500000000 18.734375000000 3.032001495361 55 55 55
28.062500000000 18.734375000000 2.964000701904 52 52 52
28.062500000000 18.734375000000 2.896999359131 58 58 58
28.078125000000 18.750000000000 2.420001983643 91 91 91
28.062500000000 18.734375000000 2.830001831055 56 56 56
28.062500000000 18.750000000000 2.762001037598 52 52 52
28.078125000000 18.750000000000 2.693000793457 60 60 60
28.062500000000 18.750000000000 2.625999450684 51 51 51
28.078125000000 18.734375000000 2.555999755859 73 73 73
28.078125000000 18.750000000000 2.487998962402 88 88 88
28.046875000000 18.750000000000 2.354999542236 55 55 55
28.062500000000 18.765625000000 2.284999847412 65 65 65
28.062500000000 18.750000000000 2.215999603271 62 62 62
28.062500000000 18.765625000000 2.147998809814 64 64 64
28.031250000000 18.765625000000 2.082000732422 43 43 43
28.000000000000 18.796875000000 2.020000457764 27 27 27
27.984375000000 18.796875000000 1.951999664307 42 42 42
27.890625000000 18.859375000000 1.902999877930 78 78 78
27.906250000000 18.843750000000 1.828998565674 71 71 71
28.140625000000 18.671875000000 9.940998077393 71 71 71
28.140625000000 18.671875000000 9.854999542236 74 74 74
28.140625000000 18.671875000000 9.773998260498 71 71 71
28.140625000000 18.687500000000 9.685001373291 75 75 75
28.125000000000 18.687500000000 9.593997955322 75 75 75
28.125000000000 18.687500000000 9.504001617432 71 71 71
28.125000000000 18.687500000000 9.424999237061 74 74 74
28.125000000000 18.703125000000 9.331996917725 73 73 73
28.125000000000 18.687500000000 9.255001068115 71 71 71
28.125000000000 18.703125000000 9.161998748779 65 65 65
28.125000000000 18.703125000000 9.080997467041 68 68 68
28.125000000000 18.703125000000 8.997997283936 69 69 69
28.140625000000 18.703125000000 8.921001434326 70 70 70
28.125000000000 18.703125000000 8.833003997803 63 63 63
28.140625000000 18.718750000000 8.755001068115 63 63 63
28.140625000000 18.703125000000 8.675998687744 61 61 61
28.140625000000 18.703125000000 8.598003387451 66 66 66
28.125000000000 18.718750000000 8.509998321533 67 67 67
28.125000000000 18.718750000000 8.429996490479 62 62 62
28.125000000000 18.718750000000 8.353000640869 64 64 64
28.156250000000 18.718750000000 8.276996612549 66 66 66
28.140625000000 18.718750000000 8.197002410889 64 64 64
28.156250000000 18.718750000000 8.117000579834 63 63 63
28.156250000000 18.718750000000 8.040996551514 62 62 62
28.140625000000 18.734375000000 7.958003997803 67 67 67
28.140625000000 18.734375000000 7.881000518799 63 63 63
28.140625000000 18.734375000000 7.801998138428 64 64 64
28.140625000000 18.734375000000 7.724002838135 63 63 63
28.156250000000 18.718750000000 7.653003692627 60 60 60
28.140625000000 18.734375000000 7.574001312256 63 63 63
28.171875000000 18.718750000000 7.504001617432 59 59 59
28.156250000000 18.718750000000 7.425998687744 55 55 55
28.156250000000 18.734375000000 7.351001739502 52 52 52
28.140625000000 18.734375000000 7.271999359131 53 53 53
28.156250000000 18.734375000000 7.201999664307 49 49 49
28.156250000000 18.734375000000 7.125003814697 56 56 56
28.171875000000 18.718750000000 7.056003570557 49 49 49
28.171875000000 18.718750000000 6.980998992920 49 49 49
28.156250000000 18.734375000000 6.903003692627 46 46 46
28.187500000000 18.734375000000 6.834003448486 45 45 45
28.187500000000 18.734375000000 6.759998321533 48 48 48
28.171875000000 18.750000000000 6.685001373291 45 45 45
28.171875000000 18.750000000000 6.609996795654 40 40 40
28.171875000000 18.750000000000 6.538997650146 42 42 42
28.187500000000 18.734375000000 6.470996856689 44 44 44
28.187500000000 18.750000000000 6.400997161865 36 36 36
28.187500000000 18.734375000000 6.326000213623 36 36 36
28.171875000000 18.750000000000 6.251003265381 41 41 41
28.187500000000 18.750000000000 6.183002471924 36 36 36
28.187500000000 18.750000000000 6.109996795654 33 33 33
28.187500000000 18.750000000000 6.037998199463 33 33 33
28.187500000000 18.750000000000 5.966999053955 24 24 24
28.187500000000 18.750000000000 5.896999359131 28 28 28
28.171875000000 18.765625000000 5.824001312256 25 25 25
28.171875000000 18.765625000000 5.753002166748 25 25 25
28.171875000000 18.765625000000 5.683002471924 22 22 22
28.171875000000 18.765625000000 5.609996795654 21 21 21
28.156250000000 18.781250000000 5.539997100830 21 21 21
28.156250000000 18.781250000000 5.467998504639 20 20 20
28.171875000000 18.765625000000 5.400997161865 20 20 20
28.187500000000 18.765625000000 5.331996917725 21 21 21
28.187500000000 18.781250000000 5.259998321533 18 18 18
28.187500000000 18.765625000000 5.192996978760 18 18 18
28.187500000000 18.781250000000 5.120998382568 20 20 20
28.156250000000 18.781250000000 5.048999786377 16 16 16
28.187500000000 18.765625000000 4.982997894287 16 16 16
28.171875000000 18.781250000000 4.910999298096 17 17 17
28.187500000000 18.765625000000 4.844997406006 17 17 17
28.187500000000 18.781250000000 4.774997711182 16 16 16
28.187500000000 18.781250000000 4.704998016357 17 17 17
28.187500000000 18.781250000000 4.635997772217 14 14 14
28.187500000000 18.781250000000 4.566997528076 14 14 14
28.187500000000 18.781250000000 4.497997283936 16 16 16
28.187500000000 18.781250000000 4.429996490479 14 14 14
28.187500000000 18.781250000000 4.359996795654 16 16 16
28.187500000000 18.781250000000 4.292003631592 12 12 12
28.187500000000 18.781250000000 4.223003387451 13 13 13
28.218750000000 18.781250000000 4.155002593994 9 9 9
28.187500000000 18.796875000000 4.086002349854 7 7 7
28.187500000000 18.796875000000 4.017002105713 8 8 8
28.218750000000 18.781250000000 3.949001312256 10 10 10
28.187500000000 18.796875000000 3.880001068115 7 7 7
28.187500000000 18.812500000000 3.811000823975 5 5 5
28.218750000000 18.828125000000 2.015998840332 13 13 13
28.234375000000 18.843750000000 1.944999694824 16 16 16
28.187500000000 18.875000000000 1.884998321533 33 33 33
28.343750000000 18.921875000000 1.887001037598 13 13 13
28.234375000000 18.984375000000 1.834999084473 121 121 121
28.093750000000 18.593750000000 9.925998687744 93 93 93
28.125000000000 18.609375000000 9.849002838135 96 96 96
28.125000000000 18.609375000000 9.771999359131 74 74 74
28.093750000000 18.593750000000 9.682003021240 67 67 67
28.125000000000 18.609375000000 9.605998992920 62 62 62
28.093750000000 18.593750000000 9.520000457764 60 60 60
28.093750000000 18.593750000000 9.437000274658 54 54 54
28.109375000000 18.609375000000 9.362003326416 61 61 61
28.093750000000 18.593750000000 9.279003143311 62 62 62
28.093750000000 18.593750000000 9.201000213623 59 59 59
28.093750000000 18.609375000000 9.120998382568 56 56 56
28.093750000000 18.609375000000 9.043003082275 60 60 60
28.093750000000 18.593750000000 8.967998504639 52 52 52
28.093750000000 18.593750000000 8.892002105713 57 57 57
28.093750000000 18.593750000000 8.807003021240 57 57 57
28.109375000000 18.609375000000 8.745998382568 57 57 57
28.093750000000 18.593750000000 8.658000946045 53 53 53
28.093750000000 18.609375000000 8.590000152588 57 57 57
28.093750000000 18.609375000000 8.510997772217 49 49 49
28.093750000000 18.609375000000 8.437999725342 94 94 94
28.093750000000 18.593750000000 8.362003326416 110 110 110
28.156250000000 18.609375000000 8.318996429443 101 101 101
28.093750000000 18.609375000000 8.222003936768 53 53 53
28.093750000000 18.609375000000 8.153003692627 44 44 44
28.093750000000 18.609375000000 8.074001312256 43 43 43
28.093750000000 18.609375000000 8.004001617432 41 41 41
28.093750000000 18.609375000000 7.938999176025 40 40 40
28.093750000000 18.609375000000 7.865001678467 40 40 40
28.093750000000 18.609375000000 7.793003082275 36 36 36
28.093750000000 18.609375000000 7.724002838135 28 28 28
28.093750000000 18.609375000000 7.656002044678 32 32 32
28.078125000000 18.609375000000 7.576999664307 99 99 99
28.125000000000 18.609375000000 7.530002593994 111 111 111
28.109375000000 18.609375000000 7.459003448486 30 30 30
28.093750000000 18.609375000000 7.378002166748 18 18 18
28.109375000000 18.625000000000 7.316997528076 16 16 16
28.093750000000 18.609375000000 7.243000030518 13 13 13
28.078125000000 18.625000000000 7.174999237061 13 13 13
28.109375000000 18.625000000000 7.115001678467 8 8 8
28.171875000000 18.625000000000 6.477001190186 94 94 94
28.062500000000 18.625000000000 4.662998199463 116 116 116
28.078125000000 18.625000000000 4.604999542236 126 126 126
28.078125000000 18.625000000000 4.548000335693 120 120 120
28.078125000000 18.625000000000 2.541000366211 130 130 130
28.046875000000 18.625000000000 2.486000061035 125 125 125
28.062500000000 18.625000000000 2.425998687744 119 119 119
28.078125000000 18.609375000000 6.517002105713 79 79 79
28.000000000000 18.625000000000 5.866001129150 17 17 17
28.156250000000 18.390625000000 9.817996978760 53 53 53
28.156250000000 18.390625000000 9.743000030518 21 21 21
28.062500000000 18.406250000000 6.595996856689 61 61 61
28.125000000000 18.406250000000 6.550998687744 88 88 88
28.062500000000 18.406250000000 5.654003143311 44 44 44
28.062500000000 18.406250000000 5.593997955322 54 54 54
28.062500000000 18.406250000000 5.534000396729 62 62 62
28.062500000000 18.406250000000 5.472003936768 62 62 62
28.062500000000 18.406250000000 5.410999298096 62 62 62
28.062500000000 18.406250000000 4.868000030518 78 78 78
28.062500000000 18.406250000000 4.807003021240 86 86 86
28.062500000000 18.406250000000 4.746997833252 84 84 84
28.062500000000 18.406250000000 4.687000274658 84 84 84
28.062500000000 18.406250000000 4.627002716064 88 88 88
28.062500000000 18.406250000000 4.567996978760 88 88 88
28.062500000000 18.406250000000 4.507999420166 93 93 93
28.062500000000 18.406250000000 4.449001312256 94 94 94
28.062500000000 18.406250000000 4.390003204346 100 100 100
28.062500000000 18.406250000000 4.330997467041 101 101 101
28.062500000000 18.406250000000 4.270999908447 109 109 109
28.062500000000 18.406250000000 4.212001800537 110 110 110
28.062500000000 18.406250000000 4.153003692627 108 108 108
28.062500000000 18.406250000000 4.093997955322 78 78 78
28.062500000000 18.406250000000 3.917003631592 101 101 101
28.062500000000 18.406250000000 3.857997894287 158 158 158
28.062500000000 18.406250000000 3.799999237061 180 180 180
28.062500000000 18.406250000000 3.741001129150 200 200 200
28.062500000000 18.406250000000 3.682003021240 217 217 217
28.062500000000 18.406250000000 3.623996734619 237 237 237
28.062500000000 18.406250000000 3.564998626709 245 245 245
28.062500000000 18.406250000000 3.506000518799 0 0 0
28.062500000000 18.421875000000 3.448001861572 254 254 254
28.062500000000 18.406250000000 3.389003753662 31 31 31
28.062500000000 18.406250000000 3.329998016357 18 18 18
28.062500000000 18.406250000000 3.271999359131 15 15 15
28.062500000000 18.406250000000 3.213001251221 1 1 1
28.062500000000 18.421875000000 3.154998779297 240 240 240
28.062500000000 18.421875000000 3.096000671387 232 232 232
28.062500000000 18.421875000000 3.036998748779 216 216 216
28.062500000000 18.421875000000 2.979000091553 215 215 215
28.062500000000 18.406250000000 2.920001983643 189 189 189
28.062500000000 18.421875000000 2.861000061035 174 174 174
28.062500000000 18.406250000000 2.802001953125 153 153 153
28.062500000000 18.406250000000 2.743000030518 130 130 130
28.062500000000 18.421875000000 2.684001922607 120 120 120
28.062500000000 18.421875000000 2.625999450684 122 122 122
28.062500000000 18.421875000000 2.566001892090 113 113 113
28.031250000000 18.421875000000 2.508998870850 125 125 125
28.062500000000 18.421875000000 2.449001312256 130 130 130
28.062500000000 18.421875000000 2.389999389648 103 103 103
28.062500000000 18.421875000000 2.330001831055 88 88 88
28.031250000000 18.421875000000 2.272998809814 82 82 82
28.062500000000 18.421875000000 2.212001800537 84 84 84
28.062500000000 18.421875000000 2.152999877930 80 80 80
28.062500000000 18.421875000000 2.092998504639 79 79 79
28.046875000000 18.421875000000 2.034000396729 74 74 74
28.062500000000 18.406250000000 1.970001220703 98 98 98
28.062500000000 18.406250000000 1.909999847412 108 108 108
28.062500000000 18.406250000000 5.347003936768 19 19 19
28.062500000000 18.406250000000 4.925998687744 81 81 81
28.062500000000 18.406250000000 4.034999847412 66 66 66
28.062500000000 18.406250000000 3.976001739502 77 77 77
27.968750000000 18.406250000000 1.865001678467 37 37 37
28.125000000000 18.187500000000 6.574001312256 127 127 127
28.328125000000 18.203125000000 1.892002105713 76 76 76
28.234375000000 18.203125000000 1.844001770020 5 5 5
28.109375000000 17.968750000000 6.591999053955 103 103 103
28.093750000000 17.765625000000 6.617000579834 10 10 10
28.125000000000 17.765625000000 6.559001922607 103 103 103
28.125000000000 17.562500000000 6.590999603271 118 118 118
28.109375000000 17.343750000000 6.615001678467 34 34 34
28.109375000000 17.343750000000 6.553997039795 83 83 83
28.125000000000 17.125000000000 8.436000823975 12 12 12
28.093750000000 17.140625000000 6.574001312256 121 121 121
28.093750000000 16.921875000000 6.590999603271 124 124 124
28.093750000000 16.687500000000 7.968997955322 11 11 11
28.093750000000 16.703125000000 6.612003326416 70 70 70
28.109375000000 16.718750000000 6.553997039795 100 100 100
28.125000000000 16.718750000000 6.496997833252 60 60 60
28.125000000000 16.718750000000 6.432003021240 59 59 59
28.140625000000 16.703125000000 6.372997283936 59 59 59
28.109375000000 16.703125000000 6.299999237061 45 45 45
28.093750000000 16.500000000000 6.577999114990 118 118 118
28.140625000000 16.500000000000 6.269001007080 88 88 88
28.093750000000 16.296875000000 7.539997100830 13 13 13
28.078125000000 16.296875000000 6.605998992920 99 99 99
28.078125000000 16.296875000000 6.543003082275 10 10 10
28.109375000000 16.312500000000 6.294002532959 89 89 89
28.093750000000 16.093750000000 7.288997650146 10 10 10
28.062500000000 16.078125000000 6.628002166748 15 15 15
28.062500000000 16.078125000000 6.564998626709 94 94 94
28.125000000000 16.093750000000 6.322002410889 15 15 15
28.125000000000 16.093750000000 6.258998870850 20 20 20
28.109375000000 15.875000000000 7.122997283936 6 6 6
28.078125000000 15.875000000000 6.588001251221 115 115 115
28.109375000000 15.875000000000 6.276996612549 106 106 106
28.093750000000 15.656250000000 6.876003265381 28 28 28
28.046875000000 15.656250000000 6.603000640869 112 112 112
28.093750000000 15.656250000000 6.550998687744 87 87 87
28.093750000000 15.656250000000 6.492000579834 85 85 85
28.125000000000 15.656250000000 6.428997039795 89 89 89
28.093750000000 15.656250000000 6.358997344971 88 88 88
28.093750000000 15.656250000000 6.297000885010 118 118 118
28.062500000000 15.437500000000 6.696002960205 6 6 6
28.031250000000 15.453125000000 6.620998382568 102 102 102
28.062500000000 15.437500000000 6.562999725342 113 113 113
28.093750000000 15.453125000000 6.313999176025 69 69 69
28.046875000000 15.250000000000 6.586002349854 122 122 122
28.093750000000 15.250000000000 6.539997100830 84 84 84
28.093750000000 15.250000000000 6.476001739502 88 88 88
28.093750000000 15.234375000000 6.409999847412 84 84 84
28.093750000000 15.250000000000 6.342998504639 65 65 65
28.093750000000 15.234375000000 6.283000946045 99 99 99
28.031250000000 15.031250000000 6.612003326416 81 81 81
28.062500000000 15.031250000000 6.559001922607 26 26 26
28.093750000000 15.031250000000 6.502002716064 175 175 175
28.109375000000 15.031250000000 6.441997528076 147 147 147
28.093750000000 15.031250000000 6.377002716064 144 144 144
28.093750000000 15.031250000000 6.312999725342 180 180 180
28.031250000000 14.812500000000 6.634998321533 15 15 15
28.046875000000 14.812500000000 6.576000213623 94 94 94
28.078125000000 14.812500000000 6.525997161865 138 138 138
28.093750000000 14.812500000000 6.467998504639 168 168 168
28.093750000000 14.828125000000 6.399997711182 163 163 163
28.078125000000 14.812500000000 6.336002349854 195 195 195
28.093750000000 14.812500000000 6.274997711182 45 45 45
28.031250000000 14.609375000000 6.597003936768 113 113 113
28.093750000000 14.609375000000 6.548000335693 63 63 63
28.093750000000 14.609375000000 6.484996795654 147 147 147
28.093750000000 14.609375000000 6.424999237061 173 173 173
28.093750000000 14.609375000000 6.359996795654 183 183 183
28.062500000000 14.609375000000 6.292003631592 120 120 120
28.015625000000 14.390625000000 6.615001678467 95 95 95
28.031250000000 14.390625000000 6.557003021240 18 18 18
28.078125000000 14.390625000000 6.508998870850 192 192 192
28.078125000000 14.390625000000 6.445003509521 194 194 194
28.078125000000 14.406250000000 6.378002166748 143 143 143
28.078125000000 14.390625000000 6.314998626709 174 174 174
28.031250000000 14.171875000000 6.644001007080 11 11 11
28.015625000000 14.187500000000 6.577999114990 94 94 94
28.078125000000 14.171875000000 6.531002044678 143 143 143
28.078125000000 14.187500000000 6.469997406006 159 159 159
28.078125000000 14.187500000000 6.407001495361 138 138 138
28.078125000000 14.187500000000 6.341999053955 196 196 196
28.078125000000 14.187500000000 6.280002593994 65 65 65
28.015625000000 13.968750000000 6.607997894287 110 110 110
28.062500000000 13.968750000000 6.558002471924 30 30 30
28.078125000000 13.968750000000 6.501003265381 178 178 178
28.078125000000 13.968750000000 6.437999725342 167 167 167
28.062500000000 13.984375000000 6.367000579834 150 150 150
28.062500000000 13.968750000000 6.303997039795 154 154 154
28.015625000000 13.781250000000 6.636997222900 36 36 36
28.015625000000 13.765625000000 6.576000213623 75 75 75
