20.796875000000 10.812500000000 7.701999664307 169 169 169
20.812500000000 10.796875000000 7.679996490479 162 162 162
20.843750000000 10.781250000000 7.676998138428 133 133 133
18.031250000000 12.515625000000 8.622997283936 94 94 94
18.109375000000 12.500000000000 6.867000579834 195 195 195
18.125000000000 12.500000000000 6.868999481201 199 199 199
20.781250000000 10.984375000000 7.710002899170 164 164 164
20.796875000000 10.968750000000 7.677997589111 176 176 176
20.828125000000 10.968750000000 7.675998687744 142 142 142
18.015625000000 12.687500000000 8.623996734619 71 71 71
18.031250000000 12.671875000000 8.612003326416 128 128 128
18.125000000000 12.656250000000 6.862003326416 170 170 170
20.750000000000 11.156250000000 7.708003997803 130 130 130
20.781250000000 11.156250000000 7.696002960205 153 153 153
18.031250000000 12.843750000000 8.618999481201 88 88 88
18.093750000000 12.828125000000 6.858997344971 203 203 203
18.125000000000 12.812500000000 6.862003326416 172 172 172
20.765625000000 11.312500000000 7.705997467041 92 92 92
18.000000000000 13.000000000000 8.608997344971 99 99 99
18.046875000000 12.984375000000 8.604999542236 119 119 119
18.093750000000 12.984375000000 6.861003875732 157 157 157
18.125000000000 13.000000000000 6.865001678467 202 202 202
20.750000000000 11.484375000000 7.714000701904 98 98 98
18.015625000000 13.156250000000 8.602001190186 103 103 103
18.109375000000 13.156250000000 6.869998931885 184 184 184
18.125000000000 13.140625000000 6.881000518799 95 95 95
20.750000000000 11.640625000000 7.715000152588 106 106 106
18.000000000000 13.328125000000 8.601001739502 104 104 104
18.031250000000 13.312500000000 8.601001739502 95 95 95
18.093750000000 13.312500000000 6.866001129150 194 194 194
18.093750000000 13.312500000000 6.856998443604 205 205 205
20.734375000000 11.812500000000 7.717998504639 105 105 105
20.750000000000 11.796875000000 7.704998016357 74 74 74
20.765625000000 11.781250000000 7.701000213623 23 23 23
20.765625000000 11.796875000000 7.629001617432 51 51 51
20.750000000000 11.812500000000 7.545001983643 78 78 78
20.750000000000 11.812500000000 7.510997772217 58 58 58
18.031250000000 13.484375000000 8.615001678467 95 95 95
18.093750000000 13.468750000000 6.875003814697 180 180 180
18.125000000000 13.468750000000 6.879001617432 80 80 80
20.718750000000 11.984375000000 7.731998443604 86 86 86
18.000000000000 13.656250000000 8.599002838135 105 105 105
18.031250000000 13.625000000000 8.594997406006 55 55 55
18.093750000000 13.640625000000 6.870998382568 203 203 203
18.109375000000 13.625000000000 6.864002227783 203 203 203
20.687500000000 12.156250000000 7.719997406006 95 95 95
17.984375000000 13.812500000000 8.595996856689 42 42 42
18.015625000000 13.812500000000 8.600002288818 134 134 134
18.062500000000 13.796875000000 6.881999969482 121 121 121
18.093750000000 13.796875000000 6.869998931885 186 186 186
20.671875000000 12.328125000000 7.717998504639 83 83 83
18.000000000000 13.968750000000 8.578998565674 89 89 89
18.093750000000 13.968750000000 6.876003265381 185 185 185
18.093750000000 13.953125000000 6.895000457764 98 98 98
20.656250000000 12.500000000000 7.729000091553 84 84 84
18.000000000000 14.156250000000 8.577999114990 91 91 91
18.015625000000 14.125000000000 8.572002410889 131 131 131
18.078125000000 14.125000000000 6.869998931885 199 199 199
18.093750000000 14.109375000000 6.873996734619 209 209 209
20.625000000000 12.671875000000 7.726001739502 67 67 67
18.000000000000 14.312500000000 8.574001312256 94 94 94
18.062500000000 14.281250000000 6.871997833252 183 183 183
20.625000000000 12.843750000000 7.734996795654 61 61 61
20.640625000000 12.828125000000 7.714000701904 40 40 40
18.000000000000 14.468750000000 8.573001861572 92 92 92
18.000000000000 14.453125000000 8.578998565674 115 115 115
18.062500000000 14.437500000000 6.870998382568 207 207 207
18.093750000000 14.437500000000 6.864002227783 206 206 206
20.609375000000 13.015625000000 7.733997344971 52 52 52
20.625000000000 13.000000000000 7.718997955322 59 59 59
18.000000000000 14.625000000000 8.578998565674 107 107 107
18.062500000000 14.609375000000 6.871997833252 82 82 82
18.093750000000 14.609375000000 6.876003265381 183 183 183
20.593750000000 13.187500000000 7.719997406006 45 45 45
20.609375000000 13.171875000000 7.712001800537 66 66 66
17.968750000000 14.781250000000 8.563999176025 107 107 107
18.000000000000 14.781250000000 8.567996978760 85 85 85
18.062500000000 14.781250000000 6.867000579834 206 206 206
18.062500000000 14.765625000000 6.867000579834 160 160 160
20.578125000000 13.343750000000 7.729999542236 36 36 36
20.593750000000 13.343750000000 7.715000152588 75 75 75
18.000000000000 14.937500000000 8.562000274658 129 129 129
18.062500000000 14.953125000000 6.859996795654 183 183 183
18.093750000000 14.937500000000 6.870998382568 215 215 215
20.578125000000 13.515625000000 7.748996734619 26 26 26
20.578125000000 13.515625000000 7.711002349854 84 84 84
17.984375000000 15.125000000000 8.562999725342 106 106 106
18.078125000000 15.093750000000 6.875003814697 191 191 191
18.093750000000 15.093750000000 6.893001556396 89 89 89
20.562500000000 13.687500000000 7.720996856689 89 89 89
17.968750000000 15.296875000000 8.545001983643 45 45 45
17.984375000000 15.265625000000 8.554996490479 133 133 133
18.046875000000 15.281250000000 6.868999481201 201 201 201
18.062500000000 15.250000000000 6.872997283936 210 210 210
20.562500000000 13.859375000000 7.715000152588 98 98 98
17.968750000000 15.437500000000 8.543003082275 97 97 97
18.062500000000 15.421875000000 6.875003814697 180 180 180
18.078125000000 15.421875000000 6.894001007080 60 60 60
20.531250000000 14.031250000000 7.728000640869 101 101 101
17.968750000000 15.609375000000 8.552997589111 47 47 47
17.968750000000 15.593750000000 8.545001983643 130 130 130
18.046875000000 15.593750000000 6.868999481201 205 205 205
18.078125000000 15.593750000000 6.872997283936 210 210 210
20.515625000000 14.187500000000 7.731998443604 109 109 109
17.968750000000 15.765625000000 8.538997650146 94 94 94
18.062500000000 15.750000000000 6.877002716064 181 181 181
20.515625000000 14.375000000000 7.739002227783 114 114 114
17.953125000000 15.937500000000 8.539997100830 81 81 81
17.968750000000 15.906250000000 8.536998748779 131 131 131
18.046875000000 15.921875000000 6.869998931885 207 207 207
18.062500000000 15.906250000000 6.857997894287 189 189 189
20.484375000000 14.531250000000 7.727001190186 113 113 113
17.968750000000 16.093750000000 8.534000396729 87 87 87
18.031250000000 16.093750000000 6.880001068115 117 117 117
18.062500000000 16.062500000000 6.876003265381 196 196 196
20.453125000000 14.703125000000 7.741001129150 118 118 118
17.937500000000 16.250000000000 8.520999908447 78 78 78
17.968750000000 16.250000000000 8.529003143311 127 127 127
18.046875000000 16.234375000000 6.867000579834 211 211 211
18.062500000000 16.234375000000 6.866001129150 175 175 175
20.453125000000 14.875000000000 7.744998931885 102 102 102
17.968750000000 16.421875000000 8.523998260498 97 97 97
18.015625000000 16.406250000000 6.879001617432 182 182 182
18.046875000000 16.406250000000 6.871997833252 213 213 213
20.437500000000 15.046875000000 7.739002227783 105 105 105
17.953125000000 16.593750000000 8.528003692627 73 73 73
17.968750000000 16.562500000000 8.529003143311 130 130 130
18.031250000000 16.562500000000 6.871997833252 207 207 207
18.046875000000 16.562500000000 6.889003753662 152 152 152
20.421875000000 15.234375000000 7.743000030518 80 80 80
17.937500000000 16.750000000000 8.526996612549 92 92 92
18.031250000000 16.734375000000 6.864002227783 191 191 191
18.046875000000 16.718750000000 6.871997833252 218 218 218
20.406250000000 15.390625000000 7.757999420166 78 78 78
20.406250000000 15.375000000000 7.740001678467 23 23 23
17.937500000000 16.906250000000 8.518001556396 90 90 90
17.968750000000 16.906250000000 8.517002105713 124 124 124
18.015625000000 16.890625000000 6.865001678467 189 189 189
18.046875000000 16.875000000000 6.890003204346 74 74 74
20.375000000000 15.562500000000 7.754001617432 59 59 59
20.406250000000 15.546875000000 7.738002777100 52 52 52
17.953125000000 17.062500000000 8.529003143311 93 93 93
18.015625000000 17.046875000000 6.873996734619 210 210 210
18.046875000000 17.046875000000 6.875003814697 220 220 220
20.359375000000 15.718750000000 7.750003814697 38 38 38
20.375000000000 15.734375000000 7.720996856689 74 74 74
17.921875000000 17.250000000000 8.506999969482 79 79 79
17.937500000000 17.218750000000 8.516002655029 134 134 134
18.031250000000 17.218750000000 6.872997283936 195 195 195
18.046875000000 17.203125000000 6.883998870850 73 73 73
20.375000000000 15.890625000000 7.743999481201 93 93 93
17.937500000000 17.390625000000 8.529003143311 95 95 95
18.000000000000 17.390625000000 6.871997833252 209 209 209
18.015625000000 17.375000000000 6.868999481201 218 218 218
20.343750000000 16.062500000000 7.743999481201 111 111 111
17.921875000000 17.562500000000 8.506999969482 69 69 69
17.953125000000 17.562500000000 8.500003814697 132 132 132
18.015625000000 17.546875000000 6.881999969482 193 193 193
18.031250000000 17.531250000000 6.885997772217 69 69 69
20.343750000000 16.234375000000 7.751003265381 116 116 116
17.921875000000 17.718750000000 8.511997222900 96 96 96
18.000000000000 17.703125000000 6.880001068115 213 213 213
18.031250000000 17.703125000000 6.875003814697 220 220 220
20.312500000000 16.406250000000 7.752002716064 115 115 115
17.921875000000 17.890625000000 8.498996734619 69 69 69
17.953125000000 17.875000000000 8.497997283936 133 133 133
18.000000000000 17.875000000000 6.870998382568 188 188 188
18.031250000000 17.859375000000 6.887996673584 58 58 58
20.296875000000 16.562500000000 7.751003265381 117 117 117
17.921875000000 18.046875000000 8.487003326416 100 100 100
18.000000000000 18.031250000000 6.863002777100 206 206 206
18.015625000000 18.031250000000 6.868999481201 219 219 219
20.265625000000 16.750000000000 7.757999420166 117 117 117
17.906250000000 18.218750000000 8.490001678467 26 26 26
17.921875000000 18.203125000000 8.494998931885 128 128 128
18.000000000000 18.187500000000 6.876003265381 200 200 200
18.015625000000 18.187500000000 6.893001556396 81 81 81
20.250000000000 16.921875000000 7.757999420166 97 97 97
17.921875000000 18.375000000000 8.481998443604 106 106 106
17.937500000000 18.359375000000 8.494998931885 66 66 66
17.984375000000 18.359375000000 6.865001678467 205 205 205
18.000000000000 18.359375000000 6.873996734619 224 224 224
20.250000000000 17.093750000000 7.759998321533 84 84 84
17.921875000000 18.515625000000 8.493999481201 103 103 103
18.000000000000 18.531250000000 6.878002166748 208 208 208
18.015625000000 18.500000000000 6.889003753662 154 154 154
20.234375000000 17.265625000000 7.762996673584 47 47 47
20.250000000000 17.250000000000 7.743000030518 83 83 83
17.906250000000 18.703125000000 8.481998443604 110 110 110
17.937500000000 18.687500000000 8.482997894287 75 75 75
18.000000000000 18.687500000000 6.868000030518 207 207 207
18.000000000000 18.671875000000 6.875003814697 224 224 224
20.218750000000 17.437500000000 7.778003692627 48 48 48
20.218750000000 17.421875000000 7.752002716064 73 73 73
17.906250000000 18.859375000000 8.496997833252 112 112 112
17.984375000000 18.843750000000 6.882999420166 206 206 206
18.000000000000 18.843750000000 6.895000457764 128 128 128
20.218750000000 17.593750000000 7.757999420166 88 88 88
17.906250000000 19.031250000000 8.481998443604 101 101 101
17.921875000000 19.015625000000 8.479000091553 117 117 117
17.968750000000 19.015625000000 6.868999481201 180 180 180
18.000000000000 19.015625000000 6.881000518799 223 223 223
20.203125000000 17.765625000000 7.755001068115 98 98 98
17.906250000000 19.187500000000 8.469997406006 96 96 96
17.984375000000 19.171875000000 6.876003265381 221 221 221
18.000000000000 19.156250000000 6.868000030518 183 183 183
20.187500000000 17.937500000000 7.770000457764 115 115 115
17.890625000000 19.359375000000 8.479000091553 94 94 94
17.906250000000 19.343750000000 8.472003936768 134 134 134
17.968750000000 19.343750000000 6.887996673584 129 129 129
17.968750000000 19.328125000000 6.880001068115 205 205 205
20.156250000000 18.109375000000 7.765003204346 112 112 112
17.906250000000 19.515625000000 8.460002899170 93 93 93
17.968750000000 19.500000000000 6.876003265381 221 221 221
18.000000000000 19.500000000000 6.873996734619 207 207 207
20.125000000000 18.281250000000 7.774997711182 115 115 115
17.875000000000 19.687500000000 8.470996856689 72 72 72
17.890625000000 19.671875000000 8.462001800537 132 132 132
17.968750000000 19.656250000000 6.884998321533 73 73 73
17.984375000000 19.656250000000 6.883998870850 196 196 196
20.125000000000 18.437500000000 7.765003204346 101 101 101
17.875000000000 19.843750000000 8.473003387451 92 92 92
17.968750000000 19.828125000000 6.877002716064 223 223 223
17.968750000000 19.812500000000 6.881000518799 220 220 220
20.109375000000 18.625000000000 7.782001495361 95 95 95
17.906250000000 20.000000000000 8.470996856689 125 125 125
17.968750000000 19.984375000000 6.881000518799 202 202 202
18.000000000000 19.984375000000 6.897998809814 88 88 88
20.078125000000 18.781250000000 7.779003143311 57 57 57
20.125000000000 18.781250000000 7.772998809814 85 85 85
17.875000000000 20.171875000000 8.458003997803 107 107 107
17.953125000000 20.156250000000 6.881000518799 217 217 217
17.984375000000 20.156250000000 6.882999420166 221 221 221
20.062500000000 18.968750000000 7.784000396729 65 65 65
20.093750000000 18.937500000000 7.759998321533 77 77 77
17.843750000000 20.343750000000 8.459003448486 30 30 30
17.875000000000 20.312500000000 8.459003448486 128 128 128
17.953125000000 20.312500000000 6.881999969482 201 201 201
17.968750000000 20.312500000000 6.892002105713 76 76 76
20.062500000000 19.125000000000 7.794002532959 45 45 45
20.062500000000 19.125000000000 7.765003204346 92 92 92
17.875000000000 20.500000000000 8.446002960205 105 105 105
17.906250000000 20.484375000000 8.454998016357 34 34 34
17.953125000000 20.500000000000 6.881999969482 212 212 212
17.968750000000 20.468750000000 6.882999420166 227 227 227
20.062500000000 19.281250000000 7.775997161865 106 106 106
17.875000000000 20.656250000000 8.452999114990 129 129 129
17.953125000000 20.640625000000 6.884998321533 205 205 205
17.984375000000 20.640625000000 6.895999908447 89 89 89
20.031250000000 19.468750000000 7.776996612549 113 113 113
17.875000000000 20.828125000000 8.453998565674 103 103 103
17.875000000000 20.812500000000 8.446002960205 51 51 51
17.953125000000 20.812500000000 6.881000518799 214 214 214
17.953125000000 20.812500000000 6.881999969482 224 224 224
20.031250000000 19.625000000000 7.782001495361 116 116 116
17.875000000000 20.968750000000 8.455997467041 122 122 122
17.953125000000 20.968750000000 6.895000457764 207 207 207
17.968750000000 20.968750000000 6.897998809814 98 98 98
20.015625000000 19.812500000000 7.779003143311 122 122 122
17.859375000000 21.140625000000 8.448001861572 103 103 103
17.875000000000 21.140625000000 8.439998626709 75 75 75
17.937500000000 21.140625000000 6.876003265381 210 210 210
17.968750000000 21.140625000000 6.890003204346 228 228 228
20.000000000000 19.984375000000 7.784999847412 125 125 125
17.875000000000 21.312500000000 8.440998077393 117 117 117
17.937500000000 21.312500000000 6.891002655029 208 208 208
17.953125000000 21.281250000000 6.895999908447 98 98 98
19.968750000000 20.156250000000 7.783000946045 120 120 120
17.843750000000 21.484375000000 8.438999176025 108 108 108
17.890625000000 21.468750000000 8.449001312256 71 71 71
17.937500000000 21.468750000000 6.894001007080 214 214 214
17.953125000000 21.453125000000 6.887996673584 228 228 228
19.968750000000 20.312500000000 7.790996551514 121 121 121
17.843750000000 21.656250000000 8.442996978760 29 29 29
17.859375000000 21.640625000000 8.435001373291 127 127 127
17.937500000000 21.625000000000 6.887996673584 202 202 202
17.968750000000 21.625000000000 6.894001007080 56 56 56
19.953125000000 20.500000000000 7.794002532959 120 120 120
17.843750000000 21.812500000000 8.431003570557 104 104 104
17.859375000000 21.781250000000 8.437000274658 40 40 40
17.937500000000 21.796875000000 6.895999908447 213 213 213
17.937500000000 21.796875000000 6.891002655029 211 211 211
19.921875000000 20.671875000000 7.792003631592 121 121 121
17.859375000000 21.968750000000 8.437000274658 122 122 122
17.921875000000 21.968750000000 6.899997711182 73 73 73
17.937500000000 21.968750000000 6.894001007080 187 187 187
19.906250000000 20.843750000000 7.773998260498 50 50 50
17.843750000000 22.125000000000 8.436000823975 103 103 103
17.859375000000 22.125000000000 8.438999176025 40 40 40
17.921875000000 22.125000000000 6.895999908447 211 211 211
17.953125000000 22.125000000000 6.882999420166 197 197 197
19.875000000000 21.031250000000 7.822002410889 72 72 72
19.906250000000 21.015625000000 7.794002532959 145 145 145
19.937500000000 21.000000000000 7.798000335693 78 78 78
17.843750000000 22.296875000000 8.440998077393 126 126 126
17.906250000000 22.296875000000 6.909999847412 123 123 123
17.937500000000 22.296875000000 6.895000457764 198 198 198
19.843750000000 21.203125000000 7.830997467041 68 68 68
19.875000000000 21.187500000000 7.828998565674 122 122 122
19.875000000000 21.187500000000 7.770000457764 132 132 132
19.890625000000 21.171875000000 7.762996673584 156 156 156
19.921875000000 21.156250000000 7.775997161865 112 112 112
17.843750000000 22.468750000000 8.442996978760 93 93 93
17.921875000000 22.453125000000 6.893001556396 206 206 206
17.937500000000 22.437500000000 6.921001434326 145 145 145
19.859375000000 21.359375000000 7.833003997803 106 106 106
19.875000000000 21.343750000000 7.766002655029 131 131 131
17.828125000000 22.640625000000 8.439998626709 63 63 63
17.843750000000 22.625000000000 8.429996490479 135 135 135
17.906250000000 22.625000000000 6.890003204346 178 178 178
17.921875000000 22.609375000000 6.891002655029 214 214 214
19.843750000000 21.531250000000 7.841999053955 85 85 85
19.859375000000 21.531250000000 7.767002105713 121 121 121
17.843750000000 22.796875000000 8.431003570557 96 96 96
17.906250000000 22.796875000000 6.896999359131 204 204 204
17.921875000000 22.781250000000 6.909999847412 110 110 110
19.812500000000 21.718750000000 7.862003326416 34 34 34
19.843750000000 21.718750000000 7.837001800537 78 78 78
19.843750000000 21.703125000000 7.761997222900 106 106 106
19.875000000000 21.687500000000 7.742000579834 32 32 32
17.812500000000 22.968750000000 8.420001983643 50 50 50
17.843750000000 22.953125000000 8.432003021240 133 133 133
17.906250000000 22.953125000000 6.895000457764 198 198 198
17.906250000000 22.937500000000 6.895000457764 223 223 223
19.796875000000 21.875000000000 7.872997283936 55 55 55
19.828125000000 21.875000000000 7.854000091553 70 70 70
19.843750000000 21.875000000000 7.765003204346 88 88 88
19.843750000000 21.859375000000 7.743000030518 73 73 73
17.828125000000 23.125000000000 8.419002532959 98 98 98
17.906250000000 23.109375000000 6.889003753662 197 197 197
17.937500000000 23.109375000000 6.901996612549 94 94 94
19.781250000000 22.062500000000 7.871997833252 74 74 74
19.812500000000 22.046875000000 7.862003326416 41 41 41
19.812500000000 22.031250000000 7.759998321533 70 70 70
19.843750000000 22.031250000000 7.744998931885 92 92 92
17.812500000000 23.281250000000 8.418003082275 66 66 66
17.828125000000 23.281250000000 8.432003021240 133 133 133
17.890625000000 23.281250000000 6.890003204346 208 208 208
17.906250000000 23.281250000000 6.893001556396 221 221 221
19.765625000000 22.218750000000 7.882999420166 96 96 96
19.796875000000 22.218750000000 7.750003814697 54 54 54
19.812500000000 22.203125000000 7.732997894287 106 106 106
17.828125000000 23.453125000000 8.426998138428 98 98 98
17.906250000000 23.453125000000 6.893001556396 196 196 196
17.906250000000 23.437500000000 6.892002105713 56 56 56
19.750000000000 22.406250000000 7.882999420166 100 100 100
19.812500000000 22.375000000000 7.736003875732 121 121 121
17.812500000000 23.625000000000 8.432003021240 83 83 83
17.828125000000 23.625000000000 8.418003082275 131 131 131
17.906250000000 23.609375000000 6.895999908447 220 220 220
17.921875000000 23.609375000000 6.882999420166 216 216 216
19.750000000000 22.562500000000 7.890003204346 112 112 112
19.781250000000 22.562500000000 7.737003326416 123 123 123
17.812500000000 23.781250000000 8.425998687744 92 92 92
17.875000000000 23.781250000000 6.899997711182 75 75 75
17.906250000000 23.781250000000 6.894001007080 196 196 196
19.718750000000 22.750000000000 7.897998809814 110 110 110
19.765625000000 22.734375000000 7.729000091553 131 131 131
17.812500000000 23.953125000000 8.425998687744 91 91 91
17.843750000000 23.953125000000 8.417003631592 129 129 129
17.890625000000 23.953125000000 6.899997711182 220 220 220
17.906250000000 23.937500000000 6.886997222900 212 212 212
19.718750000000 22.906250000000 7.908000946045 106 106 106
19.750000000000 22.906250000000 7.731998443604 130 130 130
17.812500000000 24.125000000000 8.424999237061 93 93 93
17.875000000000 24.125000000000 6.904003143311 107 107 107
17.890625000000 24.109375000000 6.896999359131 204 204 204
19.718750000000 23.093750000000 7.917003631592 99 99 99
19.718750000000 23.078125000000 7.717998504639 129 129 129
17.796875000000 24.296875000000 8.422000885010 106 106 106
17.812500000000 24.265625000000 8.409999847412 118 118 118
17.875000000000 24.281250000000 6.889003753662 220 220 220
17.906250000000 24.265625000000 6.889003753662 185 185 185
19.687500000000 23.250000000000 7.924999237061 87 87 87
19.703125000000 23.250000000000 7.726001739502 122 122 122
17.812500000000 24.437500000000 8.415996551514 107 107 107
17.875000000000 24.453125000000 6.886997222900 173 173 173
17.875000000000 24.437500000000 6.886997222900 223 223 223
19.656250000000 23.437500000000 7.941997528076 55 55 55
19.687500000000 23.421875000000 7.929996490479 74 74 74
19.687500000000 23.421875000000 7.715999603271 114 114 114
17.796875000000 24.609375000000 8.414997100830 107 107 107
17.812500000000 24.593750000000 8.411998748779 96 96 96
17.875000000000 24.609375000000 6.891002655029 210 210 210
17.890625000000 24.593750000000 6.914997100830 140 140 140
19.640625000000 23.593750000000 7.952999114990 75 75 75
19.671875000000 23.593750000000 7.942996978760 53 53 53
19.671875000000 23.593750000000 7.719997406006 114 114 114
19.703125000000 23.593750000000 7.702999114990 35 35 35
17.796875000000 24.781250000000 8.421001434326 100 100 100
17.859375000000 24.765625000000 6.887996673584 167 167 167
17.875000000000 24.765625000000 6.889003753662 224 224 224
19.625000000000 23.781250000000 7.953998565674 68 68 68
19.656250000000 23.765625000000 7.935001373291 55 55 55
19.656250000000 23.765625000000 7.713001251221 93 93 93
19.671875000000 23.750000000000 7.698001861572 81 81 81
17.781250000000 24.953125000000 8.409999847412 107 107 107
17.812500000000 24.937500000000 8.398998260498 103 103 103
17.875000000000 24.937500000000 6.895000457764 215 215 215
17.906250000000 24.937500000000 6.903003692627 137 137 137
19.625000000000 23.937500000000 7.968997955322 97 97 97
19.640625000000 23.937500000000 7.713001251221 96 96 96
19.656250000000 23.937500000000 7.692996978760 64 64 64
17.781250000000 25.125000000000 8.406002044678 113 113 113
17.859375000000 25.093750000000 6.887996673584 190 190 190
17.875000000000 25.109375000000 6.890003204346 228 228 228
19.593750000000 24.125000000000 7.970996856689 101 101 101
19.625000000000 24.109375000000 7.724002838135 87 87 87
19.656250000000 24.109375000000 7.691997528076 85 85 85
17.781250000000 25.281250000000 8.399997711182 110 110 110
17.812500000000 25.265625000000 8.409000396729 92 92 92
17.875000000000 25.281250000000 6.894001007080 212 212 212
17.875000000000 25.250000000000 6.914997100830 133 133 133
19.593750000000 24.281250000000 7.976001739502 108 108 108
19.609375000000 24.296875000000 7.695003509521 73 73 73
19.625000000000 24.281250000000 7.691997528076 96 96 96
17.796875000000 25.437500000000 8.406002044678 123 123 123
17.859375000000 25.437500000000 6.881999969482 202 202 202
17.875000000000 25.421875000000 6.900997161865 242 242 242
19.578125000000 24.453125000000 7.986003875732 104 104 104
19.593750000000 24.468750000000 7.704998016357 66 66 66
19.609375000000 24.453125000000 7.691997528076 99 99 99
17.781250000000 25.625000000000 8.397998809814 109 109 109
17.781250000000 25.593750000000 8.401996612549 55 55 55
17.859375000000 25.609375000000 6.897998809814 210 210 210
17.875000000000 25.593750000000 6.905002593994 126 126 126
19.546875000000 24.625000000000 8.002002716064 107 107 107
19.562500000000 24.625000000000 7.706996917725 50 50 50
19.593750000000 24.625000000000 7.690998077393 104 104 104
17.781250000000 25.765625000000 8.408000946045 127 127 127
17.843750000000 25.781250000000 6.886997222900 185 185 185
17.859375000000 25.750000000000 6.891002655029 222 222 222
19.562500000000 24.812500000000 8.008998870850 96 96 96
19.593750000000 24.812500000000 7.682003021240 119 119 119
17.765625000000 25.937500000000 8.412998199463 109 109 109
17.796875000000 25.937500000000 8.403003692627 84 84 84
17.843750000000 25.937500000000 6.893001556396 226 226 226
17.875000000000 25.937500000000 6.899997711182 168 168 168
19.546875000000 24.984375000000 8.014003753662 91 91 91
19.562500000000 24.968750000000 7.683002471924 128 128 128
17.765625000000 26.109375000000 8.396999359131 112 112 112
17.843750000000 26.093750000000 6.895999908447 163 163 163
17.843750000000 26.093750000000 6.892002105713 225 225 225
19.500000000000 25.156250000000 8.036998748779 44 44 44
19.515625000000 25.156250000000 8.016002655029 83 83 83
19.546875000000 25.156250000000 7.684001922607 129 129 129
17.750000000000 26.281250000000 8.409000396729 104 104 104
17.781250000000 26.265625000000 8.406002044678 94 94 94
17.843750000000 26.265625000000 6.891002655029 227 227 227
17.859375000000 26.250000000000 6.890003204346 191 191 191
19.484375000000 25.328125000000 8.039997100830 58 58 58
19.500000000000 25.312500000000 8.034999847412 70 70 70
19.531250000000 25.328125000000 7.679996490479 137 137 137
17.781250000000 26.437500000000 8.405002593994 117 117 117
17.843750000000 26.437500000000 6.897998809814 155 155 155
17.843750000000 26.421875000000 6.895000457764 221 221 221
19.468750000000 25.500000000000 8.053997039795 69 69 69
19.500000000000 25.500000000000 8.033000946045 64 64 64
19.515625000000 25.500000000000 7.676998138428 130 130 130
17.750000000000 26.609375000000 8.403003692627 106 106 106
17.765625000000 26.593750000000 8.409999847412 113 113 113
17.843750000000 26.593750000000 6.895999908447 227 227 227
17.843750000000 26.593750000000 6.897998809814 206 206 206
19.453125000000 25.671875000000 8.054996490479 73 73 73
19.484375000000 25.656250000000 8.044002532959 39 39 39
19.500000000000 25.671875000000 7.676998138428 126 126 126
17.750000000000 26.765625000000 8.413997650146 99 99 99
17.828125000000 26.765625000000 6.903003692627 83 83 83
17.843750000000 26.750000000000 6.899997711182 204 204 204
17.859375000000 26.750000000000 6.905002593994 47 47 47
19.437500000000 25.843750000000 8.064998626709 85 85 85
19.468750000000 25.843750000000 8.054996490479 38 38 38
19.484375000000 25.843750000000 7.677997589111 107 107 107
19.484375000000 25.843750000000 7.657001495361 61 61 61
19.421875000000 26.015625000000 8.071002960205 90 90 90
19.453125000000 26.015625000000 7.671001434326 103 103 103
19.484375000000 26.000000000000 7.661998748779 75 75 75
19.406250000000 26.187500000000 8.083003997803 94 94 94
19.437500000000 26.187500000000 7.660999298096 89 89 89
19.468750000000 26.187500000000 7.661998748779 95 95 95
19.406250000000 26.375000000000 8.094997406006 98 98 98
19.421875000000 26.359375000000 7.673000335693 71 71 71
19.437500000000 26.343750000000 7.660999298096 108 108 108
19.390625000000 26.531250000000 8.111003875732 103 103 103
19.390625000000 26.531250000000 7.670001983643 51 51 51
19.421875000000 26.531250000000 7.659999847412 118 118 118
19.359375000000 26.703125000000 8.105998992920 100 100 100
19.406250000000 26.703125000000 7.647998809814 124 124 124
15.468750000000 26.656250000000 7.551998138428 110 110 110
15.515625000000 26.656250000000 7.566997528076 84 84 84
17.781250000000 26.656250000000 8.401996612549 112 112 112
17.843750000000 26.671875000000 6.891002655029 178 178 178
17.875000000000 26.687500000000 6.892002105713 230 230 230
15.500000000000 26.453125000000 7.553997039795 102 102 102
15.531250000000 26.468750000000 7.563999176025 97 97 97
17.765625000000 26.453125000000 8.398998260498 92 92 92
17.859375000000 26.468750000000 6.887996673584 182 182 182
15.562500000000 26.250000000000 7.550998687744 121 121 121
17.781250000000 26.250000000000 8.406002044678 120 120 120
17.843750000000 26.265625000000 6.886997222900 177 177 177
17.875000000000 26.265625000000 6.891002655029 231 231 231
15.562500000000 26.031250000000 7.549999237061 112 112 112
17.765625000000 26.046875000000 8.400997161865 113 113 113
17.781250000000 26.046875000000 8.413997650146 23 23 23
17.875000000000 26.062500000000 6.892002105713 163 163 163
15.593750000000 25.843750000000 7.543003082275 106 106 106
17.781250000000 25.843750000000 8.403003692627 121 121 121
17.859375000000 25.843750000000 6.894001007080 179 179 179
17.875000000000 25.843750000000 6.890003204346 223 223 223
15.625000000000 25.625000000000 7.528003692627 117 117 117
17.765625000000 25.625000000000 8.406002044678 111 111 111
17.875000000000 25.640625000000 6.890003204346 172 172 172
15.640625000000 25.406250000000 7.537998199463 114 114 114
15.656250000000 25.421875000000 7.544002532959 49 49 49
17.796875000000 25.421875000000 8.400997161865 129 129 129
17.859375000000 25.437500000000 6.887996673584 178 178 178
17.890625000000 25.437500000000 6.891002655029 227 227 227
15.656250000000 25.218750000000 7.536998748779 93 93 93
15.687500000000 25.218750000000 7.542003631592 138 138 138
17.781250000000 25.218750000000 8.409999847412 94 94 94
17.875000000000 25.234375000000 6.891002655029 168 168 168
15.687500000000 25.000000000000 7.512996673584 152 152 152
15.718750000000 25.015625000000 7.522998809814 171 171 171
17.796875000000 25.000000000000 8.406002044678 128 128 128
17.875000000000 25.015625000000 6.881000518799 176 176 176
17.890625000000 25.015625000000 6.889003753662 226 226 226
15.718750000000 24.796875000000 7.488002777100 98 98 98
15.750000000000 24.796875000000 7.512996673584 186 186 186
15.765625000000 24.796875000000 7.532001495361 61 61 61
17.796875000000 24.812500000000 8.409999847412 111 111 111
17.890625000000 24.812500000000 6.885997772217 161 161 161
15.750000000000 24.593750000000 7.498996734619 168 168 168
15.781250000000 24.593750000000 7.517002105713 123 123 123
17.812500000000 24.593750000000 8.414997100830 109 109 109
17.875000000000 24.593750000000 6.894001007080 172 172 172
17.890625000000 24.593750000000 6.893001556396 185 185 185
15.750000000000 24.375000000000 7.494998931885 32 32 32
15.765625000000 24.375000000000 7.504001617432 158 158 158
15.812500000000 24.390625000000 7.516002655029 137 137 137
17.796875000000 24.390625000000 8.408000946045 101 101 101
17.890625000000 24.406250000000 6.883998870850 163 163 163
15.781250000000 24.171875000000 7.486003875732 129 129 129
15.812500000000 24.187500000000 7.476001739502 192 192 192
15.812500000000 24.171875000000 7.520999908447 165 165 165
15.828125000000 24.171875000000 7.568996429443 146 146 146
17.828125000000 24.187500000000 8.409999847412 135 135 135
17.875000000000 24.187500000000 6.884998321533 169 169 169
17.906250000000 24.187500000000 6.889003753662 215 215 215
15.828125000000 23.984375000000 7.488002777100 64 64 64
15.859375000000 23.968750000000 7.566997528076 110 110 110
17.812500000000 23.984375000000 8.409999847412 94 94 94
17.906250000000 23.984375000000 6.884998321533 161 161 161
15.843750000000 23.765625000000 7.459003448486 68 68 68
15.843750000000 23.765625000000 7.571002960205 81 81 81
17.828125000000 23.765625000000 8.415996551514 114 114 114
17.875000000000 23.781250000000 6.883998870850 178 178 178
17.906250000000 23.765625000000 6.893001556396 194 194 194
15.875000000000 23.562500000000 7.450000762939 46 46 46
15.890625000000 23.562500000000 7.465999603271 63 63 63
15.875000000000 23.562500000000 7.579998016357 67 67 67
15.890625000000 23.562500000000 7.587001800537 87 87 87
17.812500000000 23.562500000000 8.408000946045 110 110 110
17.906250000000 23.562500000000 6.876003265381 175 175 175
15.906250000000 23.343750000000 7.470996856689 80 80 80
15.921875000000 23.343750000000 7.574001312256 97 97 97
17.828125000000 23.343750000000 8.417003631592 112 112 112
17.906250000000 23.343750000000 6.887996673584 184 184 184
17.921875000000 23.359375000000 6.889003753662 187 187 187
15.937500000000 23.140625000000 7.443996429443 89 89 89
15.937500000000 23.140625000000 7.574001312256 94 94 94
17.812500000000 23.140625000000 8.412998199463 107 107 107
17.906250000000 23.156250000000 6.885997772217 166 166 166
15.968750000000 22.937500000000 7.436000823975 70 70 70
15.937500000000 22.921875000000 7.594997406006 68 68 68
15.968750000000 22.937500000000 7.604000091553 81 81 81
17.843750000000 22.937500000000 8.415996551514 119 119 119
17.906250000000 22.937500000000 6.886997222900 180 180 180
17.921875000000 22.937500000000 6.881999969482 190 190 190
15.984375000000 22.718750000000 7.424999237061 62 62 62
15.984375000000 22.718750000000 7.613002777100 89 89 89
17.843750000000 22.718750000000 8.425998687744 110 110 110
17.937500000000 22.734375000000 6.881999969482 163 163 163
16.015625000000 22.515625000000 7.404003143311 75 75 75
16.015625000000 22.515625000000 7.609996795654 84 84 84
17.843750000000 22.531250000000 8.411998748779 109 109 109
17.921875000000 22.531250000000 6.887996673584 176 176 176
17.937500000000 22.515625000000 6.889003753662 200 200 200
16.031250000000 22.312500000000 7.398998260498 60 60 60
16.062500000000 22.312500000000 7.407001495361 47 47 47
16.031250000000 22.312500000000 7.605998992920 41 41 41
16.031250000000 22.296875000000 7.626003265381 112 112 112
17.843750000000 22.312500000000 8.428997039795 106 106 106
17.875000000000 22.312500000000 8.433002471924 25 25 25
17.937500000000 22.312500000000 6.881000518799 166 166 166
16.093750000000 22.093750000000 7.395000457764 87 87 87
16.062500000000 22.093750000000 7.629001617432 91 91 91
17.875000000000 22.093750000000 8.424999237061 86 86 86
17.921875000000 22.109375000000 6.886997222900 171 171 171
17.937500000000 22.109375000000 6.882999420166 176 176 176
16.093750000000 21.890625000000 7.381000518799 87 87 87
16.078125000000 21.906250000000 7.634998321533 72 72 72
17.859375000000 21.890625000000 8.424999237061 105 105 105
17.937500000000 21.906250000000 6.891002655029 162 162 162
16.125000000000 21.687500000000 7.367000579834 72 72 72
16.125000000000 21.687500000000 7.642002105713 118 118 118
17.828125000000 21.687500000000 8.408000946045 45 45 45
17.875000000000 21.687500000000 8.391002655029 135 135 135
17.921875000000 21.687500000000 6.890003204346 170 170 170
17.937500000000 21.687500000000 6.892002105713 218 218 218
16.125000000000 21.468750000000 7.375003814697 64 64 64
16.125000000000 21.468750000000 7.645999908447 63 63 63
17.859375000000 21.468750000000 8.441997528076 106 106 106
17.953125000000 21.500000000000 6.885997772217 173 173 173
16.156250000000 21.265625000000 7.347003936768 56 56 56
16.187500000000 21.281250000000 7.356998443604 60 60 60
16.156250000000 21.265625000000 7.654003143311 68 68 68
16.187500000000 21.265625000000 7.654003143311 109 109 109
17.875000000000 21.281250000000 8.441997528076 79 79 79
17.937500000000 21.281250000000 6.895000457764 153 153 153
17.968750000000 21.281250000000 6.893001556396 175 175 175
16.203125000000 21.062500000000 7.345996856689 98 98 98
16.187500000000 21.046875000000 7.673000335693 80 80 80
17.859375000000 21.062500000000 8.438999176025 103 103 103
17.890625000000 21.062500000000 8.434001922607 57 57 57
17.953125000000 21.062500000000 6.880001068115 178 178 178
16.234375000000 20.843750000000 7.337001800537 76 76 76
16.218750000000 20.843750000000 7.669002532959 74 74 74
17.875000000000 20.843750000000 8.451999664307 82 82 82
17.937500000000 20.859375000000 6.895000457764 138 138 138
17.968750000000 20.859375000000 6.878002166748 170 170 170
16.250000000000 20.640625000000 7.322002410889 52 52 52
16.250000000000 20.640625000000 7.673000335693 111 111 111
17.875000000000 20.640625000000 8.455997467041 104 104 104
17.890625000000 20.640625000000 8.448001861572 88 88 88
17.953125000000 20.656250000000 6.881999969482 182 182 182
16.265625000000 20.437500000000 7.310001373291 49 49 49
16.281250000000 20.437500000000 7.323001861572 38 38 38
16.265625000000 20.437500000000 7.693996429443 51 51 51
17.875000000000 20.421875000000 8.460002899170 84 84 84
17.953125000000 20.437500000000 6.896999359131 101 101 101
17.968750000000 20.437500000000 6.886997222900 166 166 166
16.281250000000 20.234375000000 7.307003021240 43 43 43
16.312500000000 20.218750000000 7.311000823975 90 90 90
16.281250000000 20.218750000000 7.695003509521 95 95 95
16.312500000000 20.234375000000 7.704998016357 111 111 111
17.875000000000 20.218750000000 8.465999603271 106 106 106
17.906250000000 20.218750000000 8.453998565674 69 69 69
17.953125000000 20.218750000000 6.877002716064 163 163 163
16.328125000000 20.031250000000 7.298999786377 54 54 54
16.312500000000 20.015625000000 7.715000152588 52 52 52
17.890625000000 20.015625000000 8.462001800537 76 76 76
17.984375000000 20.031250000000 6.879001617432 172 172 172
16.343750000000 19.812500000000 7.285999298096 53 53 53
16.343750000000 19.812500000000 7.712001800537 105 105 105
16.375000000000 19.812500000000 7.720996856689 98 98 98
17.875000000000 19.796875000000 8.459003448486 66 66 66
17.906250000000 19.812500000000 8.460002899170 128 128 128
17.968750000000 19.812500000000 6.877002716064 164 164 164
16.359375000000 19.593750000000 7.288997650146 57 57 57
16.390625000000 19.593750000000 7.284999847412 77 77 77
16.359375000000 19.593750000000 7.727001190186 91 91 91
17.890625000000 19.593750000000 8.459003448486 76 76 76
17.984375000000 19.609375000000 6.878002166748 175 175 175
16.421875000000 19.390625000000 7.272998809814 95 95 95
16.390625000000 19.390625000000 7.732997894287 52 52 52
17.906250000000 19.390625000000 8.479999542236 110 110 110
17.921875000000 19.390625000000 8.463001251221 39 39 39
17.968750000000 19.406250000000 6.881000518799 157 157 157
16.406250000000 19.187500000000 7.733997344971 86 86 86
16.437500000000 19.187500000000 7.739002227783 105 105 105
17.906250000000 19.171875000000 8.476001739502 81 81 81
17.984375000000 19.187500000000 6.867000579834 167 167 167
16.468750000000 18.984375000000 7.258998870850 66 66 66
16.468750000000 18.984375000000 7.270000457764 62 62 62
16.468750000000 18.984375000000 7.742000579834 52 52 52
17.875000000000 18.968750000000 8.469997406006 94 94 94
17.921875000000 18.968750000000 8.476001739502 105 105 105
17.968750000000 18.968750000000 6.873996734619 181 181 181
16.484375000000 18.765625000000 7.230998992920 50 50 50
16.500000000000 18.765625000000 7.247997283936 94 94 94
16.468750000000 18.765625000000 7.744998931885 92 92 92
16.484375000000 18.765625000000 7.761997222900 63 63 63
17.921875000000 18.765625000000 8.477001190186 80 80 80
17.984375000000 18.765625000000 6.871997833252 171 171 171
16.515625000000 18.562500000000 7.773998260498 77 77 77
17.906250000000 18.546875000000 8.474002838135 95 95 95
17.937500000000 18.562500000000 8.470996856689 95 95 95
18.000000000000 18.562500000000 6.880001068115 174 174 174
16.531250000000 18.343750000000 7.220996856689 54 54 54
16.531250000000 18.343750000000 7.767002105713 78 78 78
17.906250000000 18.343750000000 8.483997344971 84 84 84
18.000000000000 18.343750000000 6.869998931885 161 161 161
16.562500000000 18.140625000000 7.225002288818 66 66 66
16.562500000000 18.140625000000 7.218997955322 86 86 86
16.546875000000 18.125000000000 7.773998260498 86 86 86
16.562500000000 18.140625000000 7.784999847412 77 77 77
17.921875000000 18.140625000000 8.486003875732 109 109 109
18.000000000000 18.140625000000 6.868000030518 176 176 176
16.593750000000 17.937500000000 7.218997955322 71 71 71
16.562500000000 17.921875000000 7.789997100830 75 75 75
16.578125000000 17.937500000000 7.798000335693 88 88 88
17.937500000000 17.921875000000 8.497997283936 137 137 137
18.015625000000 17.937500000000 6.871997833252 156 156 156
16.625000000000 17.718750000000 7.201999664307 47 47 47
16.609375000000 17.718750000000 7.792003631592 82 82 82
17.921875000000 17.718750000000 8.494998931885 98 98 98
18.015625000000 17.718750000000 6.872997283936 176 176 176
16.656250000000 17.531250000000 7.185001373291 71 71 71
16.671875000000 17.515625000000 7.196002960205 87 87 87
16.609375000000 17.500000000000 7.798999786377 97 97 97
16.640625000000 17.500000000000 7.818996429443 87 87 87
17.937500000000 17.500000000000 8.507999420166 118 118 118
18.015625000000 17.500000000000 6.871997833252 161 161 161
16.671875000000 17.312500000000 7.201999664307 57 57 57
16.656250000000 17.296875000000 7.821002960205 93 93 93
17.937500000000 17.281250000000 8.508998870850 92 92 92
18.015625000000 17.312500000000 6.868000030518 175 175 175
16.703125000000 17.093750000000 7.192996978760 50 50 50
16.687500000000 17.093750000000 7.825000762939 68 68 68
17.937500000000 17.093750000000 8.506000518799 37 37 37
17.937500000000 17.093750000000 8.517002105713 129 129 129
18.031250000000 17.093750000000 6.872997283936 163 163 163
16.718750000000 16.890625000000 7.169002532959 69 69 69
16.750000000000 16.875000000000 7.178997039795 56 56 56
16.687500000000 16.875000000000 7.822002410889 100 100 100
16.718750000000 16.890625000000 7.855998992920 73 73 73
17.953125000000 16.875000000000 8.509998321533 79 79 79
18.031250000000 16.890625000000 6.875003814697 164 164 164
16.750000000000 16.671875000000 7.149997711182 66 66 66
16.765625000000 16.671875000000 7.159999847412 75 75 75
16.750000000000 16.671875000000 7.839000701904 97 97 97
17.937500000000 16.671875000000 8.522998809814 90 90 90
17.968750000000 16.656250000000 8.507999420166 101 101 101
18.031250000000 16.671875000000 6.866001129150 163 163 163
16.781250000000 16.468750000000 7.159000396729 65 65 65
16.750000000000 16.468750000000 7.851001739502 52 52 52
17.968750000000 16.453125000000 8.520000457764 72 72 72
18.046875000000 16.468750000000 6.868999481201 164 164 164
16.812500000000 16.250000000000 7.135997772217 58 58 58
16.812500000000 16.250000000000 7.154003143311 35 35 35
16.781250000000 16.250000000000 7.863002777100 107 107 107
16.812500000000 16.250000000000 7.857997894287 39 39 39
17.937500000000 16.250000000000 8.529003143311 101 101 101
17.968750000000 16.250000000000 8.530002593994 67 67 67
18.031250000000 16.250000000000 6.872997283936 164 164 164
16.812500000000 16.046875000000 7.132999420166 69 69 69
16.843750000000 16.046875000000 7.140003204346 72 72 72
16.812500000000 16.046875000000 7.859996795654 98 98 98
17.968750000000 16.046875000000 8.523998260498 92 92 92
18.046875000000 16.046875000000 6.871997833252 160 160 160
16.859375000000 15.843750000000 7.123996734619 73 73 73
16.828125000000 15.828125000000 7.872997283936 76 76 76
17.968750000000 15.843750000000 8.528003692627 110 110 110
18.062500000000 15.843750000000 6.868000030518 166 166 166
16.890625000000 15.625000000000 7.118000030518 70 70 70
16.906250000000 15.625000000000 7.127002716064 32 32 32
16.843750000000 15.625000000000 7.880001068115 88 88 88
17.984375000000 15.625000000000 8.542003631592 121 121 121
18.046875000000 15.625000000000 6.867000579834 154 154 154
16.906250000000 15.437500000000 7.102001190186 66 66 66
16.906250000000 15.421875000000 7.118999481201 77 77 77
16.875000000000 15.421875000000 7.880001068115 67 67 67
16.906250000000 15.406250000000 7.898998260498 104 104 104
17.968750000000 15.406250000000 8.548000335693 83 83 83
18.046875000000 15.406250000000 6.881999969482 73 73 73
18.062500000000 15.421875000000 6.864002227783 155 155 155
16.937500000000 15.218750000000 7.109996795654 62 62 62
16.906250000000 15.203125000000 7.912998199463 90 90 90
18.000000000000 15.203125000000 8.543003082275 134 134 134
18.062500000000 15.218750000000 6.861003875732 168 168 168
16.953125000000 15.000000000000 7.103000640869 86 86 86
16.984375000000 15.000000000000 7.089000701904 61 61 61
16.937500000000 15.000000000000 7.918003082275 79 79 79
18.000000000000 14.984375000000 8.549999237061 76 76 76
18.062500000000 15.000000000000 6.870998382568 47 47 47
18.078125000000 15.000000000000 6.862003326416 167 167 167
17.000000000000 14.781250000000 7.090000152588 65 65 65
16.937500000000 14.781250000000 7.920001983643 29 29 29
16.968750000000 14.781250000000 7.914997100830 101 101 101
18.000000000000 14.781250000000 8.559001922607 135 135 135
18.078125000000 14.781250000000 6.865001678467 166 166 166
17.015625000000 14.578125000000 7.083003997803 85 85 85
17.000000000000 14.578125000000 7.927997589111 102 102 102
18.000000000000 14.562500000000 8.562999725342 74 74 74
18.062500000000 14.578125000000 6.862003326416 58 58 58
18.093750000000 14.578125000000 6.870998382568 159 159 159
17.031250000000 14.375000000000 7.063999176025 66 66 66
17.062500000000 14.375000000000 7.073001861572 87 87 87
17.000000000000 14.359375000000 7.923000335693 64 64 64
17.984375000000 14.359375000000 8.570003509521 96 96 96
18.015625000000 14.359375000000 8.560001373291 89 89 89
18.093750000000 14.375000000000 6.862003326416 160 160 160
17.062500000000 14.156250000000 7.063999176025 84 84 84
17.031250000000 14.156250000000 7.945003509521 35 35 35
17.031250000000 14.156250000000 7.943996429443 120 120 120
18.000000000000 14.156250000000 8.562000274658 78 78 78
18.062500000000 14.156250000000 6.868999481201 64 64 64
18.093750000000 14.156250000000 6.872997283936 156 156 156
17.093750000000 13.953125000000 7.048000335693 54 54 54
17.109375000000 13.953125000000 7.063999176025 92 92 92
17.062500000000 13.953125000000 7.955997467041 66 66 66
18.031250000000 13.937500000000 8.572002410889 134 134 134
18.078125000000 13.937500000000 6.858997344971 156 156 156
17.125000000000 13.750000000000 7.049999237061 74 74 74
17.078125000000 13.734375000000 7.962001800537 89 89 89
17.093750000000 13.734375000000 7.955997467041 101 101 101
18.015625000000 13.734375000000 8.589000701904 80 80 80
18.109375000000 13.734375000000 6.856998443604 164 164 164
17.140625000000 13.531250000000 7.040996551514 76 76 76
17.156250000000 13.531250000000 7.048000335693 94 94 94
17.125000000000 13.531250000000 7.973003387451 89 89 89
18.000000000000 13.515625000000 8.593997955322 58 58 58
18.015625000000 13.515625000000 8.589000701904 117 117 117
18.093750000000 13.531250000000 6.868999481201 158 158 158
17.171875000000 13.328125000000 7.032001495361 66 66 66
17.140625000000 13.312500000000 7.990001678467 64 64 64
18.015625000000 13.312500000000 8.601001739502 74 74 74
18.109375000000 13.328125000000 6.865001678467 166 166 166
17.187500000000 13.109375000000 7.035999298096 73 73 73
17.203125000000 13.109375000000 7.028003692627 102 102 102
17.156250000000 13.109375000000 7.986003875732 55 55 55
17.171875000000 13.109375000000 7.993000030518 118 118 118
18.031250000000 13.093750000000 8.595996856689 129 129 129
18.093750000000 13.109375000000 6.856998443604 154 154 154
17.234375000000 12.906250000000 7.029003143311 56 56 56
17.187500000000 12.890625000000 8.006999969482 62 62 62
18.015625000000 12.890625000000 8.604999542236 77 77 77
18.109375000000 12.906250000000 6.859996795654 155 155 155
17.250000000000 12.687500000000 7.011997222900 108 108 108
17.203125000000 12.687500000000 8.006999969482 91 91 91
17.250000000000 12.687500000000 8.019001007080 74 74 74
18.031250000000 12.687500000000 8.607997894287 127 127 127
