19.875000000000 5.687500000000 50.334014892578 103 103 103
19.750000000000 5.562500000000 50.338012695313 119 119 119
19.687500000000 5.562500000000 50.351013183594 111 111 111
19.625000000000 5.562500000000 50.406005859375 131 131 131
19.750000000000 5.625000000000 50.773010253906 126 126 126
19.750000000000 5.625000000000 50.882019042969 130 130 130
19.437500000000 5.375000000000 50.425994873047 152 152 152
19.312500000000 5.375000000000 50.365997314453 169 169 169
19.250000000000 5.312500000000 50.391998291016 171 171 171
19.750000000000 5.687500000000 51.384002685547 81 81 81
19.687500000000 5.625000000000 51.783996582031 19 19 19
19.687500000000 5.625000000000 51.911010742188 51 51 51
19.687500000000 5.625000000000 52.078002929688 78 78 78
19.625000000000 5.562500000000 52.223999023438 89 89 89
19.625000000000 5.562500000000 52.386993408203 94 94 94
19.625000000000 5.562500000000 52.558013916016 94 94 94
19.625000000000 5.562500000000 52.733001708984 92 92 92
19.562500000000 5.562500000000 52.932006835938 91 91 91
19.562500000000 5.562500000000 53.135009765625 67 67 67
19.562500000000 5.562500000000 53.333007812500 47 47 47
19.562500000000 5.562500000000 53.579010009766 125 125 125
19.500000000000 5.500000000000 53.595001220703 158 158 158
19.375000000000 5.437500000000 53.600006103516 103 103 103
19.250000000000 5.437500000000 53.593017578125 107 107 107
20.000000000000 5.500000000000 43.921997070313 161 161 161
20.000000000000 5.500000000000 43.975006103516 164 164 164
20.000000000000 5.500000000000 44.031005859375 160 160 160
20.000000000000 5.500000000000 44.087005615234 165 165 165
20.000000000000 5.500000000000 44.138000488281 164 164 164
20.000000000000 5.500000000000 44.191009521484 150 150 150
20.000000000000 5.500000000000 44.244018554688 168 168 168
20.000000000000 5.500000000000 44.298004150391 167 167 167
20.000000000000 5.500000000000 44.350006103516 148 148 148
20.000000000000 5.500000000000 44.401000976563 169 169 169
20.000000000000 5.500000000000 44.451995849609 172 172 172
20.000000000000 5.500000000000 44.501007080078 164 164 164
20.000000000000 5.500000000000 44.550994873047 171 171 171
20.000000000000 5.500000000000 44.601013183594 166 166 166
20.000000000000 5.500000000000 44.651000976563 141 141 141
20.000000000000 5.500000000000 44.699005126953 171 171 171
19.937500000000 5.500000000000 44.749023437500 170 170 170
19.937500000000 5.500000000000 44.796997070313 149 149 149
19.937500000000 5.500000000000 44.846008300781 171 171 171
19.937500000000 5.500000000000 44.894012451172 171 171 171
19.937500000000 5.500000000000 44.941009521484 158 158 158
19.875000000000 5.437500000000 44.993011474609 185 185 185
19.875000000000 5.437500000000 45.041015625000 185 185 185
19.937500000000 5.500000000000 45.085998535156 178 178 178
19.875000000000 5.437500000000 45.135009765625 188 188 188
19.875000000000 5.437500000000 45.182006835938 186 186 186
19.875000000000 5.437500000000 45.229003906250 162 162 162
19.875000000000 5.437500000000 45.276000976563 175 175 175
19.875000000000 5.375000000000 45.324005126953 163 163 163
19.875000000000 5.437500000000 45.369018554688 142 142 142
19.812500000000 5.437500000000 45.416015625000 137 137 137
19.875000000000 5.437500000000 45.460998535156 200 200 200
19.875000000000 5.437500000000 45.507995605469 184 184 184
19.937500000000 5.500000000000 45.555023193359 158 158 158
19.875000000000 5.437500000000 45.600006103516 195 195 195
19.875000000000 5.437500000000 45.647003173828 187 187 187
19.875000000000 5.437500000000 45.694000244141 173 173 173
19.875000000000 5.437500000000 45.740020751953 211 211 211
19.875000000000 5.437500000000 45.786010742188 192 192 192
19.875000000000 5.437500000000 45.833007812500 202 202 202
19.875000000000 5.437500000000 45.878997802734 193 193 193
19.875000000000 5.437500000000 45.925018310547 187 187 187
19.875000000000 5.437500000000 45.972015380859 193 193 193
19.875000000000 5.437500000000 46.020019531250 193 193 193
19.875000000000 5.437500000000 46.066009521484 188 188 188
19.875000000000 5.437500000000 46.113006591797 195 195 195
19.875000000000 5.437500000000 46.162994384766 171 171 171
19.875000000000 5.437500000000 46.207000732422 193 193 193
19.875000000000 5.437500000000 46.253997802734 189 189 189
19.875000000000 5.437500000000 46.304016113281 177 177 177
19.875000000000 5.437500000000 46.350006103516 188 188 188
19.875000000000 5.437500000000 46.395996093750 187 187 187
19.875000000000 5.437500000000 46.447998046875 194 194 194
19.875000000000 5.437500000000 46.494018554688 185 185 185
19.875000000000 5.437500000000 46.544006347656 187 187 187
19.875000000000 5.437500000000 46.593994140625 182 182 182
19.875000000000 5.437500000000 46.643005371094 183 183 183
19.875000000000 5.437500000000 46.694000244141 186 186 186
19.875000000000 5.437500000000 46.746002197266 184 184 184
19.937500000000 5.500000000000 46.826995849609 99 99 99
19.937500000000 5.500000000000 46.880004882813 104 104 104
19.875000000000 5.500000000000 46.929016113281 100 100 100
19.875000000000 5.500000000000 46.983001708984 105 105 105
19.875000000000 5.500000000000 47.032012939453 105 105 105
19.937500000000 5.500000000000 47.098022460938 131 131 131
19.875000000000 5.500000000000 47.151000976563 140 140 140
19.875000000000 5.500000000000 47.199005126953 142 142 142
19.750000000000 5.437500000000 47.195007324219 118 118 118
19.750000000000 5.437500000000 47.255004882813 143 143 143
19.812500000000 5.500000000000 47.312011718750 176 176 176
19.812500000000 5.500000000000 47.374023437500 169 169 169
19.875000000000 5.500000000000 47.481018066406 90 90 90
19.875000000000 5.500000000000 47.542999267578 90 90 90
19.875000000000 5.500000000000 47.600006103516 88 88 88
19.875000000000 5.500000000000 47.658996582031 90 90 90
19.875000000000 5.562500000000 47.717010498047 88 88 88
19.875000000000 5.500000000000 47.781005859375 86 86 86
19.875000000000 5.562500000000 47.839996337891 88 88 88
19.875000000000 5.562500000000 47.906005859375 91 91 91
19.875000000000 5.562500000000 47.967010498047 87 87 87
19.875000000000 5.562500000000 48.033996582031 79 79 79
19.875000000000 5.562500000000 48.097015380859 88 88 88
19.875000000000 5.562500000000 48.165008544922 85 85 85
19.812500000000 5.500000000000 48.167022705078 99 99 99
19.750000000000 5.437500000000 48.184020996094 125 125 125
19.750000000000 5.437500000000 48.243011474609 139 139 139
19.750000000000 5.375000000000 48.300994873047 128 128 128
19.875000000000 5.562500000000 48.489013671875 67 67 67
19.875000000000 5.562500000000 48.572998046875 49 49 49
19.875000000000 5.562500000000 48.649993896484 47 47 47
19.875000000000 5.562500000000 48.721008300781 30 30 30
19.875000000000 5.562500000000 49.166015625000 137 137 137
19.812500000000 5.500000000000 49.175994873047 157 157 157
19.750000000000 5.500000000000 49.230010986328 173 173 173
19.750000000000 5.500000000000 49.317993164063 168 168 168
19.750000000000 5.500000000000 49.401000976563 166 166 166
19.750000000000 5.500000000000 49.494995117188 165 165 165
19.750000000000 5.500000000000 49.734008789063 23 23 23
19.812500000000 5.562500000000 50.055023193359 99 99 99
19.687500000000 5.437500000000 50.260009765625 34 34 34
19.687500000000 5.437500000000 50.354003906250 104 104 104
19.625000000000 5.437500000000 50.381011962891 123 123 123
19.500000000000 5.312500000000 50.393005371094 85 85 85
19.437500000000 5.375000000000 50.393005371094 166 166 166
19.375000000000 5.312500000000 50.425018310547 86 86 86
19.562500000000 5.437500000000 53.597015380859 141 141 141
19.500000000000 5.437500000000 53.595001220703 128 128 128
19.375000000000 5.375000000000 53.619018554688 67 67 67
20.062500000000 5.437500000000 43.891998291016 36 36 36
20.062500000000 5.437500000000 43.947021484375 131 131 131
20.062500000000 5.437500000000 43.999023437500 129 129 129
20.062500000000 5.437500000000 44.055023193359 136 136 136
20.062500000000 5.437500000000 44.110015869141 132 132 132
20.062500000000 5.437500000000 44.166015625000 126 126 126
20.062500000000 5.437500000000 44.220001220703 127 127 127
20.062500000000 5.437500000000 44.274993896484 126 126 126
20.062500000000 5.437500000000 44.326019287109 126 126 126
20.062500000000 5.437500000000 44.377014160156 136 136 136
20.062500000000 5.437500000000 44.428009033203 137 137 137
20.062500000000 5.437500000000 44.480010986328 130 130 130
20.062500000000 5.437500000000 44.531005859375 130 130 130
20.062500000000 5.437500000000 44.582000732422 130 130 130
20.062500000000 5.437500000000 44.632995605469 120 120 120
20.062500000000 5.437500000000 44.684020996094 140 140 140
20.062500000000 5.437500000000 44.734008789063 143 143 143
20.000000000000 5.437500000000 44.785003662109 126 126 126
20.000000000000 5.437500000000 44.834014892578 138 138 138
20.062500000000 5.437500000000 44.881011962891 135 135 135
20.062500000000 5.437500000000 44.930999755859 138 138 138
20.000000000000 5.437500000000 44.980010986328 146 146 146
20.000000000000 5.437500000000 45.028015136719 145 145 145
20.000000000000 5.437500000000 45.076995849609 139 139 139
20.000000000000 5.437500000000 45.125000000000 136 136 136
20.000000000000 5.437500000000 45.173004150391 144 144 144
20.000000000000 5.437500000000 45.221008300781 146 146 146
19.875000000000 5.375000000000 45.274993896484 171 171 171
19.875000000000 5.375000000000 45.322021484375 152 152 152
20.000000000000 5.437500000000 45.365997314453 106 106 106
19.937500000000 5.437500000000 45.414001464844 124 124 124
20.000000000000 5.437500000000 45.460998535156 151 151 151
20.000000000000 5.437500000000 45.507995605469 140 140 140
20.000000000000 5.437500000000 45.555999755859 111 111 111
20.000000000000 5.437500000000 45.604003906250 139 139 139
20.000000000000 5.437500000000 45.651000976563 144 144 144
20.000000000000 5.437500000000 45.699005126953 141 141 141
20.000000000000 5.437500000000 45.747009277344 153 153 153
20.000000000000 5.437500000000 45.795013427734 165 165 165
20.000000000000 5.437500000000 45.843017578125 164 164 164
20.000000000000 5.437500000000 45.889007568359 161 161 161
20.000000000000 5.437500000000 45.937011718750 167 167 167
20.000000000000 5.437500000000 45.986022949219 167 167 167
20.000000000000 5.437500000000 46.033020019531 171 171 171
20.000000000000 5.437500000000 46.082000732422 169 169 169
20.000000000000 5.437500000000 46.130004882813 170 170 170
19.937500000000 5.437500000000 46.178009033203 160 160 160
19.937500000000 5.437500000000 46.227020263672 172 172 172
19.937500000000 5.437500000000 46.274993896484 172 172 172
19.937500000000 5.437500000000 46.324005126953 165 165 165
19.937500000000 5.437500000000 46.374023437500 174 174 174
19.937500000000 5.437500000000 46.424011230469 175 175 175
19.937500000000 5.437500000000 46.473022460938 150 150 150
19.937500000000 5.437500000000 46.524017333984 172 172 172
19.937500000000 5.437500000000 46.571014404297 172 172 172
19.937500000000 5.437500000000 46.624023437500 156 156 156
19.937500000000 5.437500000000 46.671997070313 175 175 175
19.937500000000 5.437500000000 46.725006103516 173 173 173
19.937500000000 5.437500000000 46.777008056641 136 136 136
20.125000000000 5.562500000000 47.188018798828 149 149 149
20.125000000000 5.562500000000 47.233001708984 160 160 160
20.062500000000 5.500000000000 47.278015136719 152 152 152
19.875000000000 5.375000000000 47.223022460938 126 126 126
19.875000000000 5.312500000000 47.259002685547 131 131 131
19.875000000000 5.312500000000 47.322998046875 163 163 163
19.812500000000 5.312500000000 47.372009277344 139 139 139
19.812500000000 5.437500000000 48.674011230469 69 69 69
19.812500000000 5.437500000000 48.749023437500 135 135 135
19.812500000000 5.437500000000 48.830993652344 157 157 157
19.812500000000 5.437500000000 48.908020019531 161 161 161
19.812500000000 5.437500000000 48.992004394531 144 144 144
19.812500000000 5.437500000000 49.117004394531 105 105 105
19.875000000000 5.437500000000 49.231994628906 135 135 135
19.875000000000 5.437500000000 49.317016601563 136 136 136
19.812500000000 5.437500000000 49.393005371094 124 124 124
19.812500000000 5.437500000000 49.468994140625 135 135 135
19.812500000000 5.437500000000 49.535003662109 59 59 59
19.812500000000 5.437500000000 49.634002685547 123 123 123
19.812500000000 5.437500000000 49.843994140625 124 124 124
19.750000000000 5.375000000000 49.878997802734 118 118 118
19.687500000000 5.312500000000 50.316009521484 123 123 123
19.625000000000 5.312500000000 50.351013183594 130 130 130
19.625000000000 5.312500000000 50.402008056641 123 123 123
19.937500000000 5.312500000000 45.273010253906 171 171 171
19.937500000000 5.312500000000 45.320007324219 147 147 147
20.125000000000 5.437500000000 45.361022949219 104 104 104
20.125000000000 5.437500000000 45.410003662109 107 107 107
20.187500000000 5.437500000000 45.459014892578 80 80 80
20.125000000000 5.437500000000 47.180999755859 160 160 160
20.125000000000 5.437500000000 47.227020263672 150 150 150
20.062500000000 5.437500000000 47.272003173828 150 150 150
20.062500000000 5.437500000000 47.326995849609 158 158 158
19.812500000000 5.250000000000 47.257995605469 135 135 135
19.875000000000 5.250000000000 47.324005126953 162 162 162
19.812500000000 5.250000000000 48.313018798828 117 117 117
19.812500000000 5.250000000000 48.389007568359 168 168 168
19.812500000000 5.250000000000 48.459014892578 173 173 173
19.812500000000 5.250000000000 48.539001464844 163 163 163
19.875000000000 5.312500000000 48.621002197266 138 138 138
19.875000000000 5.312500000000 48.731018066406 118 118 118
19.875000000000 5.375000000000 48.837005615234 99 99 99
19.875000000000 5.312500000000 49.460021972656 121 121 121
19.875000000000 5.312500000000 49.550994873047 118 118 118
19.875000000000 5.312500000000 49.726013183594 140 140 140
19.750000000000 5.312500000000 49.755004882813 96 96 96
19.812500000000 5.312500000000 49.924011230469 71 71 71
19.937500000000 5.125000000000 45.270996093750 170 170 170
20.000000000000 5.187500000000 45.317016601563 177 177 177
20.062500000000 5.312500000000 47.269012451172 128 128 128
20.062500000000 5.312500000000 47.322021484375 167 167 167
19.875000000000 5.187500000000 47.259002685547 153 153 153
19.875000000000 5.187500000000 47.335021972656 142 142 142
19.875000000000 5.187500000000 47.869018554688 85 85 85
19.875000000000 5.187500000000 47.925994873047 135 135 135
19.875000000000 5.187500000000 47.990020751953 174 174 174
19.875000000000 5.187500000000 48.055023193359 173 173 173
19.875000000000 5.187500000000 48.126007080078 165 165 165
19.875000000000 5.187500000000 48.195007324219 150 150 150
19.875000000000 5.250000000000 48.283996582031 122 122 122
19.937500000000 5.187500000000 48.382995605469 114 114 114
20.000000000000 5.312500000000 48.475006103516 90 90 90
19.812500000000 5.187500000000 49.460998535156 82 82 82
19.812500000000 5.187500000000 49.533020019531 57 57 57
19.812500000000 5.187500000000 49.604003906250 109 109 109
19.875000000000 5.250000000000 49.766021728516 47 47 47
19.750000000000 5.187500000000 49.783020019531 65 65 65
19.812500000000 5.187500000000 49.911010742188 55 55 55
19.937500000000 5.125000000000 45.270996093750 168 168 168
20.000000000000 5.125000000000 45.315002441406 180 180 180
20.125000000000 5.187500000000 47.265014648438 128 128 128
20.062500000000 5.250000000000 47.316009521484 168 168 168
19.875000000000 5.187500000000 47.274017333984 172 172 172
19.875000000000 5.187500000000 47.328002929688 74 74 74
19.875000000000 5.187500000000 47.445007324219 66 66 66
19.875000000000 5.125000000000 47.509002685547 121 121 121
19.875000000000 5.125000000000 47.569000244141 175 175 175
19.875000000000 5.187500000000 47.624023437500 173 173 173
19.875000000000 5.187500000000 47.690002441406 173 173 173
19.875000000000 5.125000000000 47.753021240234 166 166 166
19.875000000000 5.125000000000 47.819000244141 138 138 138
19.875000000000 5.125000000000 47.897003173828 129 129 129
19.937500000000 5.125000000000 47.981994628906 124 124 124
19.937500000000 5.125000000000 48.063018798828 98 98 98
20.000000000000 5.187500000000 48.154998779297 43 43 43
19.812500000000 5.187500000000 49.615997314453 108 108 108
19.750000000000 5.125000000000 49.677001953125 99 99 99
19.750000000000 5.125000000000 49.790008544922 112 112 112
19.750000000000 5.125000000000 49.868011474609 87 87 87
19.937500000000 5.062500000000 45.272003173828 168 168 168
20.125000000000 5.062500000000 45.313018798828 180 180 180
19.875000000000 5.062500000000 47.067016601563 104 104 104
19.875000000000 5.062500000000 47.126007080078 144 144 144
19.875000000000 5.062500000000 47.180023193359 174 174 174
19.875000000000 5.062500000000 47.233001708984 161 161 161
19.875000000000 5.062500000000 47.285003662109 166 166 166
19.875000000000 5.062500000000 47.348999023438 163 163 163
19.875000000000 5.062500000000 47.407012939453 145 145 145
19.937500000000 5.062500000000 47.483001708984 132 132 132
19.937500000000 5.125000000000 47.557006835938 131 131 131
20.000000000000 5.125000000000 47.628021240234 125 125 125
20.000000000000 5.125000000000 47.705017089844 105 105 105
20.000000000000 4.937500000000 45.272003173828 169 169 169
20.125000000000 5.062500000000 45.312011718750 177 177 177
19.937500000000 4.937500000000 46.654998779297 78 78 78
19.937500000000 5.000000000000 46.710998535156 128 128 128
20.000000000000 4.937500000000 46.765014648438 169 169 169
19.937500000000 4.937500000000 46.811004638672 177 177 177
19.937500000000 4.937500000000 46.863006591797 177 177 177
19.937500000000 4.937500000000 46.915008544922 175 175 175
19.937500000000 5.000000000000 46.971008300781 170 170 170
20.000000000000 4.937500000000 47.032012939453 163 163 163
20.000000000000 4.937500000000 47.098999023438 160 160 160
20.000000000000 5.000000000000 47.165008544922 159 159 159
20.000000000000 5.000000000000 47.235015869141 148 148 148
20.000000000000 5.000000000000 47.290008544922 126 126 126
20.000000000000 5.000000000000 47.361022949219 56 56 56
20.000000000000 4.812500000000 45.227020263672 60 60 60
20.000000000000 4.812500000000 45.273010253906 170 170 170
20.187500000000 5.000000000000 45.312011718750 169 169 169
19.937500000000 4.812500000000 46.266998291016 68 68 68
19.937500000000 4.812500000000 46.313018798828 117 117 117
19.937500000000 4.812500000000 46.365997314453 159 159 159
19.937500000000 4.812500000000 46.412994384766 175 175 175
19.937500000000 4.812500000000 46.460021972656 177 177 177
19.937500000000 4.812500000000 46.510009765625 177 177 177
19.937500000000 4.812500000000 46.563018798828 175 175 175
19.937500000000 4.812500000000 46.615997314453 171 171 171
20.000000000000 4.875000000000 46.674011230469 160 160 160
20.000000000000 4.875000000000 46.734008789063 153 153 153
20.062500000000 4.937500000000 46.796997070313 160 160 160
20.062500000000 4.937500000000 46.858001708984 145 145 145
20.062500000000 4.937500000000 46.912994384766 123 123 123
20.000000000000 4.750000000000 45.229003906250 94 94 94
20.000000000000 4.750000000000 45.274017333984 169 169 169
20.187500000000 4.875000000000 45.313018798828 162 162 162
19.937500000000 4.750000000000 45.885009765625 52 52 52
20.000000000000 4.750000000000 45.934997558594 129 129 129
20.000000000000 4.750000000000 45.984008789063 167 167 167
19.937500000000 4.750000000000 46.029022216797 175 175 175
19.937500000000 4.750000000000 46.076995849609 177 177 177
19.937500000000 4.750000000000 46.126007080078 176 176 176
19.937500000000 4.750000000000 46.174011230469 171 171 171
20.000000000000 4.750000000000 46.225006103516 171 171 171
20.000000000000 4.812500000000 46.281005859375 157 157 157
20.000000000000 4.812500000000 46.334014892578 160 160 160
20.000000000000 4.812500000000 46.388000488281 158 158 158
20.062500000000 4.812500000000 46.446014404297 160 160 160
20.062500000000 4.812500000000 46.500000000000 139 139 139
20.125000000000 4.812500000000 46.555023193359 113 113 113
20.062500000000 4.687500000000 45.223999023438 210 210 210
20.000000000000 4.625000000000 45.274993896484 167 167 167
20.187500000000 4.812500000000 45.313995361328 177 177 177
20.000000000000 4.687500000000 45.558013916016 118 118 118
20.000000000000 4.625000000000 45.605010986328 168 168 168
20.000000000000 4.687500000000 45.652008056641 177 177 177
20.000000000000 4.687500000000 45.699005126953 176 176 176
20.000000000000 4.687500000000 45.746002197266 174 174 174
20.000000000000 4.687500000000 45.795013427734 174 174 174
20.000000000000 4.625000000000 45.843017578125 172 172 172
20.000000000000 4.625000000000 45.893005371094 166 166 166
20.062500000000 4.687500000000 45.944000244141 163 163 163
20.062500000000 4.687500000000 45.994995117188 162 162 162
20.062500000000 4.687500000000 46.046997070313 164 164 164
20.125000000000 4.750000000000 46.101013183594 171 171 171
20.187500000000 4.812500000000 46.160003662109 207 207 207
19.812500000000 4.625000000000 49.458007812500 78 78 78
20.000000000000 4.500000000000 45.183013916016 80 80 80
20.062500000000 4.562500000000 45.227996826172 166 166 166
20.062500000000 4.562500000000 45.276000976563 156 156 156
20.062500000000 4.562500000000 45.322998046875 178 178 178
20.062500000000 4.562500000000 45.371002197266 174 174 174
20.062500000000 4.562500000000 45.417999267578 173 173 173
20.062500000000 4.562500000000 45.464996337891 169 169 169
20.062500000000 4.562500000000 45.513000488281 159 159 159
20.062500000000 4.562500000000 45.561004638672 158 158 158
20.062500000000 4.625000000000 45.610015869141 160 160 160
20.125000000000 4.625000000000 45.658996582031 160 160 160
20.125000000000 4.625000000000 45.709014892578 149 149 149
20.125000000000 4.687500000000 45.761993408203 199 199 199
19.812500000000 4.500000000000 49.457000732422 100 100 100
19.750000000000 4.500000000000 49.916015625000 26 26 26
20.000000000000 4.437500000000 44.707000732422 89 89 89
20.000000000000 4.437500000000 44.756011962891 98 98 98
20.000000000000 4.437500000000 44.843994140625 118 118 118
20.000000000000 4.437500000000 44.891998291016 169 169 169
20.000000000000 4.437500000000 44.941009521484 180 180 180
20.000000000000 4.437500000000 44.988006591797 176 176 176
20.062500000000 4.500000000000 45.036010742188 177 177 177
20.062500000000 4.500000000000 45.083007812500 172 172 172
20.062500000000 4.500000000000 45.130004882813 165 165 165
20.062500000000 4.500000000000 45.177001953125 166 166 166
20.125000000000 4.562500000000 45.223022460938 162 162 162
20.125000000000 4.562500000000 45.270996093750 161 161 161
20.125000000000 4.500000000000 45.319000244141 154 154 154
20.125000000000 4.500000000000 45.367004394531 164 164 164
20.125000000000 4.500000000000 45.416015625000 97 97 97
19.750000000000 4.375000000000 49.454010009766 90 90 90
19.750000000000 4.375000000000 49.891998291016 68 68 68
19.937500000000 4.250000000000 43.161010742188 179 179 179
20.000000000000 4.312500000000 43.162017822266 180 180 180
20.062500000000 4.312500000000 44.497009277344 116 116 116
20.062500000000 4.312500000000 44.545013427734 172 172 172
20.062500000000 4.312500000000 44.597015380859 180 180 180
20.062500000000 4.312500000000 44.645019531250 178 178 178
20.062500000000 4.312500000000 44.695007324219 177 177 177
20.062500000000 4.312500000000 44.743011474609 175 175 175
20.125000000000 4.375000000000 44.787017822266 168 168 168
20.125000000000 4.375000000000 44.833007812500 166 166 166
20.125000000000 4.375000000000 44.878021240234 164 164 164
20.125000000000 4.437500000000 44.925994873047 160 160 160
20.187500000000 4.437500000000 44.971008300781 155 155 155
20.187500000000 4.437500000000 45.018005371094 175 175 175
20.187500000000 4.437500000000 45.070007324219 52 52 52
19.750000000000 4.312500000000 49.902008056641 100 100 100
19.875000000000 4.125000000000 43.201995849609 190 190 190
19.875000000000 4.125000000000 43.264007568359 188 188 188
19.875000000000 4.125000000000 43.322021484375 188 188 188
19.875000000000 4.125000000000 43.381011962891 182 182 182
19.875000000000 4.125000000000 43.429016113281 180 180 180
19.875000000000 4.187500000000 43.458007812500 176 176 176
20.062500000000 4.250000000000 44.136016845703 93 93 93
20.062500000000 4.250000000000 44.180999755859 159 159 159
20.062500000000 4.250000000000 44.236022949219 177 177 177
20.062500000000 4.250000000000 44.287994384766 177 177 177
20.062500000000 4.250000000000 44.339996337891 180 180 180
20.062500000000 4.250000000000 44.389007568359 175 175 175
20.125000000000 4.250000000000 44.433013916016 161 161 161
20.125000000000 4.312500000000 44.480010986328 163 163 163
20.125000000000 4.312500000000 44.523010253906 165 165 165
20.125000000000 4.312500000000 44.570007324219 159 159 159
20.187500000000 4.375000000000 44.615020751953 160 160 160
20.187500000000 4.375000000000 44.667022705078 127 127 127
19.750000000000 4.250000000000 49.515014648438 102 102 102
19.750000000000 4.250000000000 49.589996337891 113 113 113
19.750000000000 4.250000000000 49.774993896484 133 133 133
19.750000000000 4.250000000000 49.876007080078 114 114 114
19.875000000000 4.062500000000 43.197021484375 187 187 187
19.875000000000 4.062500000000 43.255004882813 190 190 190
19.875000000000 4.062500000000 43.319000244141 188 188 188
19.875000000000 4.062500000000 43.371002197266 185 185 185
19.875000000000 4.062500000000 43.427001953125 181 181 181
19.875000000000 4.000000000000 43.459014892578 177 177 177
19.937500000000 4.062500000000 43.484008789063 174 174 174
20.000000000000 4.125000000000 43.499023437500 174 174 174
20.125000000000 4.187500000000 43.494018554688 133 133 133
20.125000000000 4.250000000000 43.747009277344 37 37 37
20.125000000000 4.250000000000 43.796020507813 145 145 145
20.125000000000 4.250000000000 43.855010986328 177 177 177
20.125000000000 4.250000000000 43.912017822266 180 180 180
20.125000000000 4.250000000000 43.966003417969 180 180 180
20.125000000000 4.250000000000 44.019012451172 174 174 174
20.125000000000 4.250000000000 44.063995361328 169 169 169
20.125000000000 4.187500000000 44.106994628906 165 165 165
20.125000000000 4.187500000000 44.156005859375 162 162 162
20.187500000000 4.187500000000 44.201995849609 168 168 168
20.187500000000 4.187500000000 44.248016357422 161 161 161
20.250000000000 4.250000000000 44.298004150391 139 139 139
20.250000000000 4.250000000000 44.346008300781 79 79 79
19.750000000000 4.062500000000 49.479003906250 78 78 78
19.750000000000 4.125000000000 49.645996093750 99 99 99
19.750000000000 4.125000000000 49.861999511719 144 144 144
19.875000000000 3.875000000000 43.158996582031 188 188 188
19.875000000000 3.875000000000 43.188995361328 188 188 188
19.875000000000 3.875000000000 43.252014160156 189 189 189
19.875000000000 3.875000000000 43.309020996094 185 185 185
19.875000000000 3.875000000000 43.367004394531 184 184 184
19.875000000000 3.875000000000 43.427001953125 180 180 180
19.875000000000 3.937500000000 43.459014892578 179 179 179
20.000000000000 4.000000000000 43.486999511719 179 179 179
20.000000000000 4.062500000000 43.514007568359 179 179 179
20.125000000000 4.062500000000 43.533020019531 179 179 179
20.125000000000 4.062500000000 43.566009521484 179 179 179
20.125000000000 4.062500000000 43.625000000000 178 178 178
20.125000000000 4.125000000000 43.680023193359 176 176 176
20.125000000000 4.125000000000 43.723999023438 165 165 165
20.187500000000 4.125000000000 43.770996093750 157 157 157
20.187500000000 4.187500000000 43.815002441406 157 157 157
20.187500000000 4.187500000000 43.861999511719 159 159 159
20.250000000000 4.187500000000 43.906005859375 177 177 177
20.250000000000 4.187500000000 43.964019775391 119 119 119
19.750000000000 4.000000000000 49.479003906250 139 139 139
19.750000000000 4.000000000000 49.615020751953 71 71 71
19.750000000000 4.000000000000 49.651000976563 112 112 112
19.750000000000 3.937500000000 49.716003417969 103 103 103
19.750000000000 4.000000000000 49.838012695313 129 129 129
19.875000000000 3.812500000000 43.184997558594 193 193 193
19.875000000000 3.812500000000 43.244018554688 190 190 190
19.875000000000 3.812500000000 43.307006835938 191 191 191
19.875000000000 3.812500000000 43.365997314453 187 187 187
19.875000000000 3.812500000000 43.419006347656 184 184 184
19.937500000000 3.875000000000 43.462005615234 180 180 180
20.000000000000 3.937500000000 43.484008789063 179 179 179
20.000000000000 3.937500000000 43.503997802734 178 178 178
20.125000000000 4.000000000000 43.527008056641 175 175 175
20.187500000000 4.062500000000 43.550018310547 176 176 176
20.250000000000 4.062500000000 43.563995361328 162 162 162
20.250000000000 4.062500000000 43.626007080078 83 83 83
19.812500000000 3.937500000000 49.497009277344 25 25 25
19.750000000000 3.875000000000 49.554016113281 125 125 125
19.750000000000 3.875000000000 49.643005371094 116 116 116
19.750000000000 3.875000000000 49.691009521484 110 110 110
19.750000000000 3.875000000000 49.805023193359 27 27 27
19.937500000000 3.812500000000 43.213012695313 184 184 184
19.937500000000 3.812500000000 43.272003173828 183 183 183
20.000000000000 3.750000000000 43.322021484375 182 182 182
20.000000000000 3.750000000000 43.378021240234 179 179 179
20.000000000000 3.750000000000 43.430023193359 178 178 178
20.000000000000 3.812500000000 43.467010498047 176 176 176
20.062500000000 3.812500000000 43.494018554688 178 178 178
20.125000000000 3.937500000000 43.515014648438 177 177 177
20.187500000000 3.937500000000 43.535003662109 177 177 177
20.250000000000 4.000000000000 43.550994873047 173 173 173
19.750000000000 3.812500000000 49.636016845703 108 108 108
20.125000000000 3.812500000000 43.158996582031 177 177 177
20.125000000000 3.812500000000 43.221008300781 179 179 179
20.125000000000 3.750000000000 43.270996093750 182 182 182
20.125000000000 3.750000000000 43.330017089844 184 184 184
20.125000000000 3.750000000000 43.384002685547 175 175 175
20.125000000000 3.812500000000 43.440002441406 177 177 177
20.187500000000 3.812500000000 43.479003906250 176 176 176
20.250000000000 3.875000000000 43.507019042969 177 177 177
20.312500000000 3.937500000000 43.527008056641 173 173 173
20.437500000000 4.000000000000 43.533996582031 72 72 72
19.750000000000 3.687500000000 49.626007080078 106 106 106
20.312500000000 3.812500000000 43.162017822266 180 180 180
20.312500000000 3.812500000000 43.225006103516 180 180 180
20.312500000000 3.812500000000 43.282012939453 181 181 181
20.375000000000 3.812500000000 43.338012695313 175 175 175
20.375000000000 3.812500000000 43.399993896484 172 172 172
20.375000000000 3.812500000000 43.458007812500 175 175 175
20.375000000000 3.875000000000 43.490020751953 173 173 173
20.500000000000 3.937500000000 43.516021728516 114 114 114
19.750000000000 3.562500000000 49.628021240234 112 112 112
20.375000000000 3.750000000000 43.261016845703 175 175 175
20.562500000000 3.875000000000 43.212005615234 188 188 188
19.750000000000 3.500000000000 49.618011474609 108 108 108
19.687500000000 3.500000000000 49.678009033203 28 28 28
16.250000000000 6.812500000000 48.696014404297 51 51 51
16.375000000000 6.875000000000 50.292999267578 98 98 98
15.750000000000 6.750000000000 48.699005126953 74 74 74
16.125000000000 6.750000000000 50.266021728516 26 26 26
16.250000000000 6.750000000000 48.701019287109 151 151 151
15.750000000000 6.625000000000 48.695007324219 88 88 88
16.125000000000 6.687500000000 50.257019042969 25 25 25
16.125000000000 6.687500000000 50.216003417969 112 112 112
16.187500000000 6.625000000000 50.231018066406 168 168 168
16.250000000000 6.687500000000 50.226013183594 171 171 171
16.250000000000 6.687500000000 48.682006835938 140 140 140
16.375000000000 6.687500000000 50.194000244141 108 108 108
16.437500000000 6.687500000000 50.151000976563 23 23 23
16.250000000000 6.687500000000 50.255004882813 109 109 109
15.750000000000 6.562500000000 48.701019287109 101 101 101
16.250000000000 6.562500000000 48.766998291016 81 81 81
16.312500000000 6.625000000000 48.751007080078 152 152 152
16.375000000000 6.562500000000 48.786010742188 104 104 104
16.375000000000 6.562500000000 48.777008056641 125 125 125
15.750000000000 6.437500000000 48.690002441406 112 112 112
16.312500000000 6.437500000000 50.300018310547 29 29 29
15.750000000000 6.312500000000 48.701995849609 106 106 106
15.875000000000 6.312500000000 50.197021484375 39 39 39
16.312500000000 6.375000000000 50.285003662109 24 24 24
15.750000000000 6.250000000000 48.696014404297 133 133 133
15.875000000000 6.187500000000 50.180023193359 56 56 56
15.750000000000 6.187500000000 48.696014404297 134 134 134
15.875000000000 6.125000000000 50.194000244141 57 57 57
15.750000000000 6.062500000000 48.687011718750 114 114 114
15.875000000000 6.125000000000 50.210021972656 49 49 49
15.750000000000 6.000000000000 48.704010009766 38 38 38
15.875000000000 5.937500000000 50.208007812500 36 36 36
15.875000000000 5.875000000000 50.214019775391 36 36 36
15.875000000000 5.750000000000 50.222015380859 40 40 40
15.875000000000 5.687500000000 50.054016113281 25 25 25
15.875000000000 5.687500000000 50.220001220703 76 76 76
15.500000000000 5.562500000000 48.894012451172 94 94 94
15.500000000000 5.500000000000 48.885009765625 107 107 107
15.562500000000 5.562500000000 48.890014648438 118 118 118
15.625000000000 5.562500000000 48.895019531250 132 132 132
15.625000000000 5.562500000000 48.852996826172 129 129 129
15.750000000000 5.562500000000 48.760009765625 147 147 147
15.750000000000 5.562500000000 48.753021240234 159 159 159
15.812500000000 5.562500000000 48.779998779297 162 162 162
15.875000000000 5.562500000000 48.769012451172 182 182 182
15.875000000000 5.562500000000 48.770996093750 178 178 178
15.937500000000 5.562500000000 48.770996093750 159 159 159
16.000000000000 5.562500000000 48.785003662109 150 150 150
16.000000000000 5.625000000000 48.805023193359 152 152 152
16.062500000000 5.562500000000 48.860015869141 169 169 169
16.062500000000 5.562500000000 49.985015869141 108 108 108
16.125000000000 5.562500000000 49.966003417969 120 120 120
16.125000000000 5.625000000000 49.911010742188 132 132 132
16.187500000000 5.562500000000 49.869018554688 134 134 134
16.250000000000 5.562500000000 49.826019287109 133 133 133
16.312500000000 5.625000000000 49.874023437500 103 103 103
16.375000000000 5.562500000000 49.783020019531 127 127 127
16.437500000000 5.625000000000 49.763000488281 120 120 120
15.750000000000 5.437500000000 48.704010009766 97 97 97
15.875000000000 5.437500000000 50.218994140625 131 131 131
16.312500000000 5.437500000000 48.691009521484 68 68 68
15.875000000000 5.375000000000 50.227020263672 76 76 76
15.875000000000 6.937500000000 50.160003662109 57 57 57
15.875000000000 6.875000000000 50.164001464844 47 47 47
15.750000000000 6.625000000000 48.701995849609 74 74 74
15.750000000000 6.562500000000 48.680999755859 83 83 83
16.250000000000 6.812500000000 48.692016601563 101 101 101
15.750000000000 6.375000000000 48.680999755859 83 83 83
16.125000000000 6.750000000000 50.212005615234 172 172 172
16.125000000000 6.750000000000 50.210998535156 92 92 92
16.187500000000 6.812500000000 50.192016601563 125 125 125
16.250000000000 6.750000000000 48.696014404297 129 129 129
16.312500000000 6.812500000000 50.291015625000 27 27 27
15.750000000000 6.312500000000 48.694000244141 83 83 83
16.187500000000 6.625000000000 48.757995605469 144 144 144
16.250000000000 6.625000000000 48.772003173828 122 122 122
16.250000000000 6.750000000000 50.265014648438 144 144 144
16.250000000000 6.687500000000 48.725006103516 168 168 168
16.375000000000 6.750000000000 50.119018554688 94 94 94
15.750000000000 6.250000000000 48.684997558594 90 90 90
16.250000000000 6.562500000000 48.756011962891 36 36 36
16.312500000000 6.687500000000 50.294006347656 102 102 102
15.750000000000 6.187500000000 48.697021484375 97 97 97
16.312500000000 6.500000000000 50.291015625000 48 48 48
15.750000000000 6.062500000000 48.686004638672 95 95 95
15.750000000000 5.937500000000 48.692016601563 99 99 99
15.750000000000 5.875000000000 48.692993164063 87 87 87
16.250000000000 6.187500000000 48.694000244141 104 104 104
15.500000000000 5.562500000000 48.898010253906 101 101 101
15.500000000000 5.562500000000 48.869995117188 131 131 131
15.750000000000 5.812500000000 48.697021484375 63 63 63
16.250000000000 6.062500000000 48.683013916016 145 145 145
15.625000000000 5.562500000000 48.861999511719 42 42 42
15.687500000000 5.625000000000 48.891998291016 162 162 162
15.750000000000 5.687500000000 50.110015869141 61 61 61
16.250000000000 5.937500000000 48.677001953125 143 143 143
15.750000000000 5.500000000000 48.695007324219 72 72 72
15.812500000000 5.625000000000 48.766021728516 185 185 185
15.875000000000 5.625000000000 48.881011962891 89 89 89
15.750000000000 5.562500000000 50.138000488281 150 150 150
15.812500000000 5.625000000000 50.055999755859 156 156 156
15.875000000000 5.687500000000 50.031005859375 142 142 142
16.250000000000 5.937500000000 48.684997558594 129 129 129
15.750000000000 5.437500000000 48.690002441406 86 86 86
15.937500000000 5.562500000000 48.799011230469 90 90 90
16.000000000000 5.625000000000 48.790008544922 163 163 163
16.000000000000 5.625000000000 50.039001464844 162 162 162
16.000000000000 5.687500000000 49.967010498047 135 135 135
16.250000000000 5.812500000000 48.688995361328 120 120 120
15.875000000000 5.562500000000 50.226013183594 128 128 128
15.875000000000 5.437500000000 50.236022949219 66 66 66
16.062500000000 5.562500000000 50.190002441406 112 112 112
16.125000000000 5.625000000000 48.812011718750 162 162 162
16.125000000000 5.625000000000 49.933013916016 132 132 132
16.250000000000 5.687500000000 48.678009033203 129 129 129
16.187500000000 5.562500000000 50.162994384766 104 104 104
16.250000000000 5.562500000000 50.157012939453 150 150 150
16.250000000000 5.562500000000 48.915008544922 137 137 137
16.312500000000 5.625000000000 48.718017578125 171 171 171
16.312500000000 5.500000000000 48.692016601563 154 154 154
16.375000000000 5.562500000000 50.160003662109 120 120 120
20.500000000000 6.312500000000 43.201019287109 192 192 192
20.437500000000 6.187500000000 43.520019531250 153 153 153
20.375000000000 6.187500000000 43.468994140625 165 165 165
20.375000000000 6.187500000000 43.406005859375 167 167 167
20.375000000000 6.187500000000 43.343994140625 178 178 178
20.375000000000 6.312500000000 43.289001464844 176 176 176
20.375000000000 6.312500000000 43.235015869141 183 183 183
20.250000000000 6.312500000000 43.238006591797 181 181 181
20.125000000000 6.375000000000 43.208007812500 183 183 183
20.312500000000 6.187500000000 43.567016601563 176 176 176
20.250000000000 6.187500000000 43.537994384766 174 174 174
20.250000000000 6.187500000000 43.494018554688 170 170 170
20.187500000000 6.187500000000 43.438018798828 172 172 172
20.187500000000 6.187500000000 43.384002685547 180 180 180
20.187500000000 6.250000000000 43.330017089844 182 182 182
20.125000000000 6.250000000000 43.273010253906 180 180 180
20.187500000000 6.312500000000 43.225006103516 180 180 180
20.062500000000 6.375000000000 43.212005615234 180 180 180
19.750000000000 6.250000000000 48.233001708984 58 58 58
19.750000000000 6.250000000000 48.173004150391 46 46 46
20.250000000000 6.125000000000 44.513000488281 49 49 49
20.250000000000 6.125000000000 44.455017089844 86 86 86
20.250000000000 6.125000000000 44.404998779297 98 98 98
20.250000000000 6.125000000000 44.348999023438 111 111 111
20.250000000000 6.125000000000 44.292999267578 122 122 122
20.250000000000 6.125000000000 44.242004394531 127 127 127
20.250000000000 6.125000000000 44.183013916016 133 133 133
20.250000000000 6.125000000000 44.127014160156 145 145 145
20.250000000000 6.125000000000 44.071014404297 147 147 147
20.250000000000 6.125000000000 44.015014648438 157 157 157
20.250000000000 6.125000000000 43.957000732422 153 153 153
20.250000000000 6.125000000000 43.902008056641 154 154 154
20.250000000000 6.125000000000 43.838012695313 154 154 154
20.250000000000 6.125000000000 43.778015136719 155 155 155
20.250000000000 6.125000000000 43.717010498047 156 156 156
20.250000000000 6.125000000000 43.657012939453 157 157 157
20.250000000000 6.125000000000 43.606994628906 161 161 161
20.187500000000 6.125000000000 43.572021484375 171 171 171
20.125000000000 6.187500000000 43.553009033203 175 175 175
20.062500000000 6.187500000000 43.522003173828 170 170 170
20.000000000000 6.187500000000 43.475006103516 176 176 176
20.000000000000 6.250000000000 43.419006347656 186 186 186
20.000000000000 6.250000000000 43.363006591797 184 184 184
20.000000000000 6.250000000000 43.305999755859 187 187 187
20.000000000000 6.250000000000 43.256011962891 181 181 181
20.000000000000 6.250000000000 43.205993652344 179 179 179
19.875000000000 6.312500000000 43.195007324219 182 182 182
19.750000000000 6.125000000000 50.317016601563 21 21 21
19.500000000000 6.312500000000 48.428009033203 118 118 118
19.500000000000 6.312500000000 48.378997802734 156 156 156
19.562500000000 6.250000000000 48.348999023438 161 161 161
19.625000000000 6.250000000000 48.313995361328 157 157 157
19.625000000000 6.250000000000 48.281005859375 142 142 142
19.687500000000 6.187500000000 48.261993408203 143 143 143
19.750000000000 6.187500000000 48.213012695313 136 136 136
19.750000000000 6.187500000000 48.164001464844 138 138 138
20.125000000000 6.000000000000 46.059997558594 70 70 70
20.125000000000 6.000000000000 46.010009765625 86 86 86
20.125000000000 6.000000000000 45.958007812500 101 101 101
20.125000000000 6.000000000000 45.906005859375 108 108 108
20.125000000000 6.000000000000 45.856018066406 111 111 111
20.125000000000 6.000000000000 45.804016113281 123 123 123
20.125000000000 6.000000000000 45.753997802734 100 100 100
20.125000000000 6.000000000000 45.703002929688 121 121 121
20.125000000000 6.000000000000 45.653015136719 140 140 140
20.125000000000 6.000000000000 45.602996826172 152 152 152
20.125000000000 6.000000000000 45.552001953125 156 156 156
20.125000000000 6.000000000000 45.501007080078 151 151 151
20.125000000000 6.000000000000 45.451019287109 151 151 151
20.125000000000 6.000000000000 45.399993896484 156 156 156
20.125000000000 6.000000000000 45.350006103516 158 158 158
20.125000000000 6.000000000000 45.299011230469 151 151 151
20.125000000000 6.000000000000 45.248016357422 160 160 160
20.125000000000 6.000000000000 45.197021484375 163 163 163
20.125000000000 6.000000000000 45.145996093750 162 162 162
20.187500000000 6.000000000000 45.093994140625 164 164 164
20.187500000000 6.000000000000 45.041015625000 166 166 166
20.187500000000 6.000000000000 44.989013671875 162 162 162
20.187500000000 6.000000000000 44.937011718750 162 162 162
20.187500000000 6.000000000000 44.884002685547 164 164 164
20.187500000000 6.000000000000 44.830993652344 166 166 166
20.187500000000 6.000000000000 44.779022216797 165 165 165
20.187500000000 6.000000000000 44.726013183594 166 166 166
20.250000000000 6.000000000000 44.671997070313 167 167 167
20.187500000000 6.000000000000 44.619995117188 166 166 166
20.250000000000 6.000000000000 44.566009521484 164 164 164
20.250000000000 6.000000000000 44.511016845703 166 166 166
20.125000000000 6.000000000000 44.473999023438 156 156 156
20.062500000000 6.062500000000 44.444000244141 151 151 151
20.062500000000 6.062500000000 44.391998291016 154 154 154
20.125000000000 6.062500000000 44.326995849609 149 149 149
20.250000000000 6.000000000000 44.239013671875 151 151 151
20.125000000000 6.000000000000 44.208007812500 170 170 170
20.125000000000 6.000000000000 44.157012939453 171 171 171
20.250000000000 5.937500000000 44.065002441406 152 152 152
20.250000000000 5.937500000000 44.009002685547 154 154 154
20.250000000000 5.937500000000 43.951995849609 154 154 154
20.250000000000 6.000000000000 43.899993896484 142 142 142
20.250000000000 6.000000000000 43.842010498047 123 123 123
20.250000000000 5.937500000000 43.778015136719 148 148 148
20.250000000000 5.937500000000 43.721008300781 151 151 151
20.250000000000 5.937500000000 43.660003662109 155 155 155
20.250000000000 5.937500000000 43.595001220703 149 149 149
20.125000000000 6.062500000000 43.588012695313 172 172 172
20.062500000000 6.125000000000 43.576019287109 172 172 172
20.000000000000 6.187500000000 43.562011718750 187 187 187
19.875000000000 6.187500000000 43.539001464844 182 182 182
19.875000000000 6.187500000000 43.505004882813 174 174 174
19.875000000000 6.187500000000 43.453002929688 186 186 186
19.875000000000 6.187500000000 43.395019531250 190 190 190
19.812500000000 6.250000000000 43.346008300781 186 186 186
19.812500000000 6.250000000000 43.290008544922 181 181 181
19.812500000000 6.250000000000 43.236999511719 180 180 180
19.375000000000 6.187500000000 50.424011230469 30 30 30
19.437500000000 6.187500000000 50.397003173828 150 150 150
19.500000000000 6.125000000000 50.395019531250 120 120 120
19.625000000000 6.125000000000 50.376007080078 131 131 131
19.687500000000 6.062500000000 50.356018066406 143 143 143
19.687500000000 6.062500000000 50.287994384766 116 116 116
19.312500000000 6.312500000000 48.520019531250 137 137 137
19.375000000000 6.312500000000 48.479003906250 169 169 169
19.375000000000 6.312500000000 48.442016601563 163 163 163
19.437500000000 6.250000000000 48.411010742188 155 155 155
19.500000000000 6.250000000000 48.391021728516 144 144 144
19.500000000000 6.250000000000 48.354003906250 100 100 100
19.750000000000 6.125000000000 48.276000976563 140 140 140
19.750000000000 6.062500000000 48.230010986328 135 135 135
19.812500000000 6.125000000000 48.162017822266 130 130 130
20.062500000000 5.937500000000 47.705993652344 33 33 33
20.062500000000 5.937500000000 47.638000488281 67 67 67
20.062500000000 5.937500000000 47.582000732422 94 94 94
20.062500000000 5.937500000000 47.520996093750 105 105 105
20.062500000000 5.937500000000 47.457000732422 113 113 113
20.062500000000 5.937500000000 47.395996093750 117 117 117
20.062500000000 5.937500000000 47.339996337891 125 125 125
20.062500000000 5.937500000000 47.279998779297 138 138 138
20.062500000000 5.937500000000 47.225006103516 146 146 146
20.062500000000 5.937500000000 47.165008544922 148 148 148
20.062500000000 5.937500000000 47.104003906250 154 154 154
20.062500000000 5.937500000000 47.050994873047 154 154 154
20.062500000000 5.937500000000 46.997009277344 142 142 142
20.062500000000 5.937500000000 46.945007324219 156 156 156
20.062500000000 5.937500000000 46.890014648438 162 162 162
20.062500000000 5.937500000000 46.825012207031 149 149 149
20.000000000000 5.937500000000 46.766021728516 147 147 147
20.062500000000 6.000000000000 46.709014892578 147 147 147
20.125000000000 5.875000000000 46.677001953125 160 160 160
20.125000000000 5.875000000000 46.628021240234 161 161 161
20.125000000000 5.875000000000 46.576995849609 163 163 163
20.125000000000 5.875000000000 46.524993896484 169 169 169
20.125000000000 5.875000000000 46.472015380859 166 166 166
20.125000000000 5.875000000000 46.419006347656 168 168 168
20.125000000000 5.875000000000 46.369995117188 166 166 166
20.125000000000 5.875000000000 46.316009521484 169 169 169
20.125000000000 5.875000000000 46.264007568359 172 172 172
20.125000000000 5.875000000000 46.213012695313 170 170 170
20.125000000000 5.937500000000 46.161010742188 168 168 168
20.125000000000 5.937500000000 46.109008789063 166 166 166
20.187500000000 5.937500000000 46.061004638672 165 165 165
20.187500000000 5.937500000000 46.007995605469 164 164 164
20.187500000000 5.937500000000 45.958007812500 162 162 162
20.187500000000 5.937500000000 45.907012939453 163 163 163
20.187500000000 5.937500000000 45.856018066406 162 162 162
20.187500000000 5.937500000000 45.805999755859 163 163 163
20.187500000000 5.937500000000 45.755004882813 159 159 159
20.187500000000 5.937500000000 45.704010009766 158 158 158
20.125000000000 5.937500000000 45.649993896484 157 157 157
20.000000000000 6.000000000000 45.595001220703 156 156 156
20.000000000000 6.000000000000 45.546020507813 162 162 162
20.000000000000 6.000000000000 45.498016357422 146 146 146
