4.562500000000 7.812500000000 47.937011718750 63 63 63
4.500000000000 7.937500000000 48.542022705078 14 14 14
4.562500000000 7.937500000000 47.919006347656 63 63 63
4.500000000000 8.000000000000 48.523010253906 22 22 22
4.562500000000 8.000000000000 47.904022216797 40 40 40
4.562500000000 8.125000000000 48.511016845703 31 31 31
4.562500000000 8.125000000000 47.895019531250 27 27 27
4.562500000000 8.312500000000 47.895019531250 51 51 51
4.625000000000 8.437500000000 47.904998779297 78 78 78
4.562500000000 8.500000000000 48.384002685547 18 18 18
4.625000000000 8.500000000000 47.919006347656 73 73 73
4.625000000000 8.687500000000 47.937011718750 50 50 50
4.625000000000 8.812500000000 47.955017089844 16 16 16
4.625000000000 8.937500000000 47.964996337891 5 5 5
4.562500000000 9.000000000000 48.272003173828 12 12 12
4.625000000000 9.000000000000 47.959014892578 31 31 31
4.625000000000 9.187500000000 48.261993408203 14 14 14
4.625000000000 9.125000000000 47.949005126953 54 54 54
4.625000000000 9.250000000000 48.242004394531 12 12 12
4.625000000000 9.250000000000 47.937011718750 73 73 73
4.625000000000 9.375000000000 48.227020263672 12 12 12
4.625000000000 9.375000000000 47.919006347656 58 58 58
4.625000000000 9.437500000000 47.908996582031 43 43 43
4.625000000000 9.562500000000 47.903015136719 43 43 43
4.625000000000 9.687500000000 47.906005859375 56 56 56
4.625000000000 9.812500000000 47.917022705078 77 77 77
4.687500000000 9.937500000000 48.082000732422 15 15 15
4.687500000000 9.937500000000 47.928009033203 70 70 70
4.687500000000 10.125000000000 47.942993164063 51 51 51
4.750000000000 10.062500000000 47.627014160156 5 5 5
4.687500000000 10.250000000000 47.959014892578 52 52 52
4.750000000000 10.187500000000 47.639007568359 13 13 13
4.687500000000 10.312500000000 47.964019775391 26 26 26
4.750000000000 10.187500000000 47.640014648438 11 11 11
4.687500000000 10.437500000000 47.960021972656 50 50 50
4.750000000000 10.375000000000 47.643005371094 12 12 12
4.687500000000 10.562500000000 47.949005126953 63 63 63
4.687500000000 10.687500000000 47.937011718750 66 66 66
4.687500000000 10.812500000000 47.925994873047 32 32 32
4.750000000000 10.937500000000 47.911010742188 43 43 43
4.750000000000 10.875000000000 47.753021240234 8 8 8
4.687500000000 11.000000000000 47.908020019531 19 19 19
4.687500000000 11.062500000000 47.912994384766 21 21 21
4.750000000000 11.187500000000 47.919006347656 51 51 51
4.750000000000 11.375000000000 47.933013916016 59 59 59
4.750000000000 11.375000000000 47.778015136719 186 186 186
4.750000000000 11.500000000000 47.942993164063 54 54 54
4.750000000000 11.500000000000 47.787994384766 122 122 122
4.812500000000 11.437500000000 47.630004882813 12 12 12
4.750000000000 11.625000000000 47.951995849609 43 43 43
4.750000000000 11.625000000000 47.799011230469 117 117 117
4.812500000000 11.625000000000 47.641998291016 24 24 24
4.750000000000 11.812500000000 47.960021972656 43 43 43
4.750000000000 11.812500000000 47.808013916016 113 113 113
4.812500000000 11.750000000000 47.648010253906 28 28 28
4.750000000000 11.875000000000 47.958007812500 52 52 52
4.750000000000 11.875000000000 47.803009033203 133 133 133
4.812500000000 11.875000000000 47.648010253906 16 16 16
4.750000000000 11.937500000000 47.950012207031 56 56 56
4.750000000000 11.937500000000 47.795013427734 158 158 158
4.750000000000 12.062500000000 47.938018798828 24 24 24
4.750000000000 12.062500000000 47.785003662109 154 154 154
4.750000000000 12.187500000000 47.927001953125 26 26 26
4.750000000000 12.125000000000 47.768005371094 151 151 151
4.750000000000 12.312500000000 47.912994384766 5 5 5
4.812500000000 12.312500000000 47.753021240234 143 143 143
4.750000000000 12.375000000000 47.908996582031 8 8 8
4.812500000000 12.375000000000 47.749023437500 164 164 164
4.750000000000 12.500000000000 47.908020019531 9 9 9
4.812500000000 12.500000000000 47.750000000000 152 152 152
4.750000000000 12.625000000000 47.917022705078 8 8 8
4.812500000000 12.562500000000 47.761016845703 115 115 115
4.812500000000 12.750000000000 47.930023193359 23 23 23
4.812500000000 12.750000000000 47.774993896484 120 120 120
4.750000000000 12.875000000000 47.944000244141 44 44 44
4.812500000000 12.875000000000 47.787994384766 142 142 142
4.750000000000 13.062500000000 47.955017089844 55 55 55
4.812500000000 13.062500000000 47.800018310547 145 145 145
4.812500000000 13.187500000000 47.957000732422 44 44 44
4.812500000000 13.187500000000 47.805023193359 138 138 138
4.812500000000 13.312500000000 47.957000732422 32 32 32
4.875000000000 13.312500000000 47.800018310547 189 189 189
4.812500000000 13.437500000000 47.947021484375 23 23 23
4.875000000000 13.375000000000 47.787994384766 187 187 187
4.875000000000 13.437500000000 47.766021728516 91 91 91
4.812500000000 13.937500000000 48.046997070313 59 59 59
4.812500000000 13.937500000000 47.901000976563 51 51 51
4.875000000000 13.875000000000 47.734008789063 13 13 13
4.812500000000 14.062500000000 48.055999755859 11 11 11
4.875000000000 14.437500000000 47.941009521484 5 5 5
4.812500000000 14.562500000000 48.248016357422 13 13 13
4.875000000000 14.937500000000 48.378021240234 13 13 13
4.875000000000 14.937500000000 47.925018310547 21 21 21
5.000000000000 14.937500000000 47.760009765625 15 15 15
4.875000000000 15.750000000000 48.684997558594 15 15 15
4.875000000000 15.937500000000 48.703002929688 15 15 15
4.937500000000 16.312500000000 48.852020263672 16 16 16
5.000000000000 16.437500000000 48.046020507813 4 4 4
4.875000000000 16.500000000000 48.958007812500 59 59 59
5.000000000000 16.500000000000 48.036010742188 32 32 32
4.875000000000 16.687500000000 49.114013671875 77 77 77
4.937500000000 16.687500000000 48.954010009766 65 65 65
5.000000000000 16.625000000000 48.024017333984 52 52 52
4.937500000000 16.687500000000 49.087005615234 117 117 117
5.000000000000 16.687500000000 48.928009033203 126 126 126
5.000000000000 16.750000000000 48.776000976563 144 144 144
5.000000000000 16.812500000000 48.625000000000 138 138 138
5.000000000000 16.750000000000 48.472015380859 140 140 140
5.000000000000 16.812500000000 48.326019287109 158 158 158
5.000000000000 16.750000000000 48.173004150391 147 147 147
5.000000000000 16.750000000000 48.018005371094 89 89 89
5.000000000000 16.750000000000 47.876007080078 125 125 125
5.000000000000 16.812500000000 47.731018066406 125 125 125
5.000000000000 16.812500000000 47.585021972656 101 101 101
5.000000000000 16.812500000000 47.438995361328 80 80 80
5.000000000000 16.937500000000 48.477020263672 25 25 25
5.062500000000 16.937500000000 48.322998046875 36 36 36
5.062500000000 16.937500000000 48.173004150391 76 76 76
5.062500000000 16.937500000000 48.024017333984 60 60 60
5.062500000000 16.875000000000 47.873016357422 106 106 106
5.062500000000 16.875000000000 47.723999023438 101 101 101
5.062500000000 16.875000000000 47.578002929688 97 97 97
5.062500000000 16.875000000000 47.430999755859 99 99 99
5.125000000000 16.875000000000 47.285003662109 123 123 123
5.125000000000 16.875000000000 47.141021728516 119 119 119
5.125000000000 16.875000000000 46.997009277344 135 135 135
5.125000000000 16.875000000000 46.855010986328 122 122 122
5.125000000000 16.875000000000 46.713012695313 160 160 160
5.125000000000 16.875000000000 46.571014404297 144 144 144
5.125000000000 16.875000000000 46.429016113281 166 166 166
5.125000000000 16.875000000000 46.287017822266 148 148 148
5.062500000000 16.875000000000 46.147003173828 124 124 124
5.125000000000 16.875000000000 46.005004882813 149 149 149
5.125000000000 16.875000000000 45.864013671875 117 117 117
5.125000000000 16.875000000000 45.723999023438 134 134 134
5.062500000000 16.875000000000 45.583007812500 127 127 127
5.062500000000 16.875000000000 45.442016601563 115 115 115
5.062500000000 16.875000000000 45.300994873047 73 73 73
5.125000000000 17.000000000000 46.865997314453 42 42 42
5.125000000000 17.000000000000 46.722015380859 77 77 77
5.125000000000 17.000000000000 46.579010009766 88 88 88
5.125000000000 17.000000000000 46.437011718750 116 116 116
5.125000000000 17.000000000000 46.296020507813 120 120 120
5.125000000000 17.000000000000 46.156005859375 134 134 134
5.125000000000 17.000000000000 46.015014648438 151 151 151
5.125000000000 17.000000000000 45.874023437500 141 141 141
5.125000000000 17.000000000000 45.734008789063 145 145 145
5.125000000000 17.000000000000 45.593994140625 168 168 168
5.187500000000 17.000000000000 45.455017089844 133 133 133
5.187500000000 17.000000000000 45.315002441406 159 159 159
5.187500000000 17.000000000000 45.175018310547 146 146 146
5.187500000000 17.000000000000 45.036010742188 171 171 171
5.187500000000 17.000000000000 44.897003173828 155 155 155
5.187500000000 17.000000000000 44.757019042969 148 148 148
5.187500000000 17.000000000000 44.615997314453 150 150 150
5.187500000000 17.000000000000 44.476013183594 124 124 124
5.187500000000 17.000000000000 44.335998535156 124 124 124
5.187500000000 17.000000000000 44.196014404297 113 113 113
5.187500000000 17.000000000000 44.054016113281 128 128 128
5.187500000000 17.000000000000 43.912017822266 101 101 101
5.187500000000 17.062500000000 43.766998291016 53 53 53
5.187500000000 17.062500000000 43.628021240234 21 21 21
5.187500000000 17.062500000000 43.485015869141 92 92 92
5.187500000000 17.062500000000 43.341003417969 71 71 71
5.187500000000 17.125000000000 44.773010253906 43 43 43
5.187500000000 17.125000000000 44.632995605469 64 64 64
5.187500000000 17.125000000000 44.493011474609 25 25 25
5.250000000000 17.125000000000 44.355010986328 74 74 74
5.250000000000 17.125000000000 44.214996337891 49 49 49
5.250000000000 17.125000000000 44.075012207031 87 87 87
5.250000000000 17.062500000000 43.937011718750 64 64 64
5.250000000000 17.125000000000 43.792022705078 113 113 113
5.250000000000 17.125000000000 43.653015136719 86 86 86
5.250000000000 17.187500000000 43.510009765625 94 94 94
5.250000000000 17.187500000000 43.369018554688 65 65 65
4.687500000000 7.062500000000 44.240020751953 144 144 144
4.687500000000 7.062500000000 44.382995605469 142 142 142
4.750000000000 7.062500000000 43.212005615234 58 58 58
4.750000000000 7.000000000000 43.359008789063 103 103 103
4.750000000000 7.000000000000 43.505004882813 107 107 107
4.750000000000 7.000000000000 43.653015136719 127 127 127
4.687500000000 7.000000000000 43.799011230469 131 131 131
4.687500000000 7.000000000000 43.946014404297 143 143 143
4.687500000000 7.062500000000 44.093994140625 140 140 140
4.687500000000 7.125000000000 43.195007324219 187 187 187
4.687500000000 7.125000000000 43.343017578125 195 195 195
4.687500000000 7.125000000000 43.493011474609 193 193 193
4.687500000000 7.125000000000 43.641021728516 201 201 201
4.687500000000 7.125000000000 43.787994384766 197 197 197
4.687500000000 7.125000000000 43.936004638672 207 207 207
4.687500000000 7.125000000000 44.083007812500 214 214 214
4.687500000000 7.125000000000 44.231018066406 210 210 210
4.687500000000 7.125000000000 44.375000000000 224 224 224
4.625000000000 7.125000000000 46.122009277344 198 198 198
4.625000000000 7.125000000000 46.708007812500 131 131 131
4.562500000000 7.125000000000 46.858001708984 114 114 114
4.562500000000 7.125000000000 47.007019042969 75 75 75
4.625000000000 7.125000000000 47.154022216797 3 3 3
4.687500000000 7.125000000000 45.394012451172 44 44 44
4.625000000000 7.125000000000 45.684997558594 227 227 227
4.625000000000 7.125000000000 46.268005371094 66 66 66
4.625000000000 7.125000000000 46.562011718750 70 70 70
4.625000000000 7.187500000000 43.316009521484 105 105 105
4.625000000000 7.125000000000 43.468994140625 121 121 121
4.625000000000 7.125000000000 43.619995117188 124 124 124
4.625000000000 7.125000000000 43.770019531250 140 140 140
4.625000000000 7.125000000000 43.917999267578 148 148 148
4.625000000000 7.125000000000 44.066009521484 176 176 176
4.625000000000 7.125000000000 44.214019775391 172 172 172
4.625000000000 7.125000000000 44.361999511719 186 186 186
4.625000000000 7.125000000000 44.509002685547 177 177 177
4.625000000000 7.187500000000 46.117004394531 223 223 223
4.625000000000 7.187500000000 46.264007568359 228 228 228
4.625000000000 7.187500000000 46.705017089844 228 228 228
4.625000000000 7.187500000000 46.851013183594 206 206 206
4.625000000000 7.250000000000 47.001007080078 221 221 221
4.625000000000 7.250000000000 47.149017333984 223 223 223
4.625000000000 7.250000000000 47.299011230469 219 219 219
4.625000000000 7.250000000000 47.447998046875 204 204 204
4.625000000000 7.250000000000 47.598999023438 196 196 196
4.562500000000 7.250000000000 47.751007080078 186 186 186
4.562500000000 7.250000000000 47.902008056641 124 124 124
4.562500000000 7.250000000000 48.055999755859 161 161 161
4.562500000000 7.250000000000 48.207000732422 153 153 153
4.562500000000 7.250000000000 48.364013671875 134 134 134
4.562500000000 7.250000000000 48.518005371094 107 107 107
4.562500000000 7.250000000000 48.673004150391 53 53 53
4.562500000000 7.250000000000 48.835021972656 87 87 87
4.562500000000 7.187500000000 43.165008544922 59 59 59
4.625000000000 7.187500000000 44.654998779297 141 141 141
4.625000000000 7.187500000000 45.533020019531 58 58 58
4.625000000000 7.187500000000 45.679016113281 218 218 218
4.625000000000 7.187500000000 45.971008300781 83 83 83
4.500000000000 7.250000000000 46.270996093750 47 47 47
4.562500000000 7.312500000000 46.861022949219 122 122 122
4.562500000000 7.312500000000 47.010009765625 141 141 141
4.562500000000 7.312500000000 47.158996582031 137 137 137
4.562500000000 7.312500000000 47.309020996094 136 136 136
4.562500000000 7.312500000000 47.460021972656 143 143 143
4.562500000000 7.312500000000 47.611999511719 158 158 158
4.562500000000 7.312500000000 47.763000488281 162 162 162
4.625000000000 7.375000000000 47.904998779297 85 85 85
4.500000000000 7.312500000000 48.067993164063 184 184 184
4.562500000000 7.312500000000 48.218994140625 177 177 177
4.562500000000 7.312500000000 48.372009277344 182 182 182
4.500000000000 7.312500000000 48.529998779297 171 171 171
4.562500000000 7.312500000000 48.682006835938 140 140 140
4.500000000000 7.312500000000 48.841003417969 167 167 167
4.500000000000 7.250000000000 46.417999267578 56 56 56
4.500000000000 7.250000000000 46.714996337891 50 50 50
4.500000000000 7.437500000000 47.915008544922 34 34 34
4.500000000000 7.625000000000 47.923004150391 27 27 27
4.500000000000 8.375000000000 48.420013427734 15 15 15
4.625000000000 8.500000000000 47.938018798828 18 18 18
4.562500000000 8.500000000000 48.404998779297 19 19 19
4.500000000000 8.562500000000 47.934020996094 41 41 41
4.562500000000 8.750000000000 47.929016113281 50 50 50
4.625000000000 8.812500000000 47.923004150391 51 51 51
4.625000000000 8.937500000000 47.925994873047 45 45 45
4.625000000000 9.062500000000 47.930023193359 45 45 45
4.625000000000 9.125000000000 48.242004394531 15 15 15
4.625000000000 9.625000000000 48.118011474609 20 20 20
4.625000000000 9.687500000000 48.115020751953 13 13 13
4.750000000000 9.937500000000 47.631011962891 24 24 24
4.625000000000 9.812500000000 47.950012207031 20 20 20
4.750000000000 10.000000000000 47.622009277344 19 19 19
4.625000000000 9.937500000000 47.942016601563 32 32 32
4.750000000000 10.187500000000 47.615997314453 19 19 19
4.625000000000 10.125000000000 47.933013916016 53 53 53
4.625000000000 10.187500000000 47.925994873047 63 63 63
4.687500000000 10.250000000000 47.925018310547 75 75 75
4.625000000000 10.437500000000 47.925994873047 62 62 62
4.750000000000 10.625000000000 47.615020751953 17 17 17
4.687500000000 10.562500000000 47.930999755859 54 54 54
4.750000000000 10.750000000000 47.624023437500 12 12 12
4.687500000000 10.687500000000 47.941009521484 31 31 31
4.750000000000 10.875000000000 47.632019042969 23 23 23
4.687500000000 10.875000000000 47.796020507813 4 4 4
4.687500000000 10.875000000000 47.949005126953 26 26 26
4.812500000000 11.062500000000 47.632019042969 15 15 15
4.687500000000 11.000000000000 47.951995849609 19 19 19
4.750000000000 11.125000000000 47.635009765625 27 27 27
4.687500000000 11.062500000000 47.951995849609 17 17 17
4.750000000000 11.250000000000 47.634002685547 60 60 60
4.687500000000 11.250000000000 47.951995849609 28 28 28
4.750000000000 11.437500000000 47.626007080078 47 47 47
4.750000000000 11.375000000000 47.790008544922 192 192 192
4.750000000000 11.375000000000 47.938018798828 58 58 58
4.750000000000 11.500000000000 47.623016357422 25 25 25
4.687500000000 11.437500000000 47.781005859375 122 122 122
4.687500000000 11.437500000000 47.936004638672 55 55 55
4.750000000000 11.562500000000 47.772003173828 102 102 102
4.750000000000 11.562500000000 47.925994873047 55 55 55
4.750000000000 11.687500000000 47.765014648438 118 118 118
4.750000000000 11.687500000000 47.919006347656 54 54 54
4.750000000000 11.875000000000 47.757995605469 132 132 132
4.687500000000 11.812500000000 47.915008544922 52 52 52
4.750000000000 11.937500000000 47.759002685547 156 156 156
4.750000000000 11.875000000000 47.915008544922 51 51 51
4.750000000000 12.062500000000 47.769012451172 188 188 188
4.750000000000 12.062500000000 47.923004150391 48 48 48
4.750000000000 12.250000000000 47.776000976563 174 174 174
4.750000000000 12.250000000000 47.928009033203 59 59 59
4.812500000000 12.375000000000 47.628021240234 39 39 39
4.750000000000 12.375000000000 47.787017822266 142 142 142
4.750000000000 12.375000000000 47.937011718750 50 50 50
4.812500000000 12.500000000000 47.634002685547 32 32 32
4.750000000000 12.500000000000 47.795013427734 185 185 185
4.750000000000 12.437500000000 47.947021484375 47 47 47
4.812500000000 12.562500000000 47.635009765625 31 31 31
4.750000000000 12.625000000000 47.796020507813 156 156 156
4.750000000000 12.625000000000 47.949005126953 51 51 51
4.875000000000 12.750000000000 47.632019042969 19 19 19
4.750000000000 12.687500000000 47.794006347656 185 185 185
4.750000000000 12.687500000000 47.944000244141 54 54 54
4.750000000000 12.812500000000 47.783996582031 154 154 154
4.750000000000 12.812500000000 47.936004638672 48 48 48
4.750000000000 12.937500000000 47.773010253906 129 129 129
4.750000000000 12.937500000000 47.928009033203 34 34 34
4.812500000000 13.062500000000 47.757995605469 169 169 169
4.812500000000 13.062500000000 47.916015625000 7 7 7
4.812500000000 13.187500000000 47.753021240234 168 168 168
4.750000000000 13.125000000000 47.914001464844 8 8 8
4.875000000000 13.312500000000 47.747009277344 138 138 138
4.750000000000 13.312500000000 47.914001464844 16 16 16
4.875000000000 13.437500000000 47.760009765625 153 153 153
4.750000000000 13.437500000000 47.916015625000 24 24 24
4.750000000000 13.500000000000 47.923004150391 27 27 27
4.812500000000 13.687500000000 47.934020996094 43 43 43
4.875000000000 13.875000000000 47.944000244141 46 46 46
4.812500000000 14.000000000000 47.947021484375 80 80 80
4.875000000000 14.125000000000 47.950012207031 38 38 38
4.812500000000 14.187500000000 47.954010009766 51 51 51
4.812500000000 14.187500000000 48.104003906250 20 20 20
4.812500000000 14.312500000000 47.946014404297 31 31 31
4.812500000000 14.375000000000 47.937011718750 17 17 17
4.812500000000 14.625000000000 48.234008789063 8 8 8
4.875000000000 14.812500000000 47.923004150391 13 13 13
4.875000000000 14.937500000000 47.773010253906 15 15 15
4.875000000000 14.937500000000 47.929016113281 42 42 42
4.875000000000 15.062500000000 47.940002441406 40 40 40
4.875000000000 15.062500000000 48.395019531250 16 16 16
4.875000000000 15.187500000000 47.947021484375 40 40 40
4.875000000000 15.312500000000 47.954010009766 55 55 55
4.875000000000 15.437500000000 47.960998535156 55 55 55
4.937500000000 15.625000000000 47.957000732422 63 63 63
4.875000000000 15.562500000000 48.580017089844 39 39 39
4.875000000000 15.687500000000 47.955993652344 39 39 39
4.875000000000 15.750000000000 47.947021484375 12 12 12
4.875000000000 15.875000000000 48.707000732422 32 32 32
4.875000000000 16.375000000000 48.865997314453 20 20 20
4.937500000000 16.500000000000 47.947998046875 13 13 13
5.000000000000 16.687500000000 47.950012207031 13 13 13
5.000000000000 16.687500000000 48.861022949219 36 36 36
5.000000000000 16.687500000000 49.007995605469 70 70 70
5.125000000000 16.937500000000 45.915008544922 18 18 18
5.125000000000 16.937500000000 46.055999755859 58 58 58
5.125000000000 16.937500000000 46.197021484375 70 70 70
5.125000000000 16.937500000000 46.339019775391 99 99 99
5.125000000000 16.937500000000 46.480010986328 74 74 74
5.125000000000 16.875000000000 46.624023437500 83 83 83
5.125000000000 16.875000000000 46.768005371094 90 90 90
5.125000000000 16.875000000000 46.912994384766 95 95 95
5.125000000000 16.875000000000 47.057006835938 114 114 114
5.062500000000 16.875000000000 47.205017089844 105 105 105
5.062500000000 16.875000000000 47.348999023438 109 109 109
5.062500000000 16.875000000000 47.499023437500 94 94 94
5.000000000000 16.812500000000 47.647003173828 102 102 102
5.062500000000 16.875000000000 47.794006347656 116 116 116
5.062500000000 16.875000000000 47.941009521484 116 116 116
5.000000000000 16.812500000000 48.093994140625 123 123 123
5.000000000000 16.812500000000 48.247009277344 115 115 115
5.000000000000 16.812500000000 48.402008056641 138 138 138
5.000000000000 16.812500000000 48.554016113281 133 133 133
5.000000000000 16.875000000000 48.714996337891 124 124 124
4.937500000000 16.812500000000 48.872009277344 125 125 125
4.937500000000 16.812500000000 49.031005859375 113 113 113
5.250000000000 17.062500000000 43.393005371094 11 11 11
5.250000000000 17.062500000000 43.537017822266 28 28 28
5.250000000000 17.062500000000 43.679016113281 66 66 66
5.250000000000 17.062500000000 43.817993164063 99 99 99
5.250000000000 17.125000000000 43.959014892578 91 91 91
5.250000000000 17.125000000000 44.098999023438 100 100 100
5.250000000000 17.125000000000 44.240997314453 117 117 117
5.250000000000 17.125000000000 44.381011962891 134 134 134
5.187500000000 17.062500000000 44.519012451172 108 108 108
5.187500000000 17.062500000000 44.658996582031 133 133 133
5.187500000000 17.062500000000 44.799011230469 145 145 145
5.187500000000 17.062500000000 44.938995361328 175 175 175
5.187500000000 17.062500000000 45.078002929688 183 183 183
5.187500000000 17.062500000000 45.218017578125 183 183 183
5.187500000000 17.062500000000 45.358001708984 193 193 193
5.125000000000 17.062500000000 45.498016357422 167 167 167
5.125000000000 17.062500000000 45.639007568359 171 171 171
5.125000000000 17.062500000000 45.779022216797 175 175 175
5.125000000000 17.000000000000 45.921020507813 162 162 162
5.125000000000 17.000000000000 46.062011718750 171 171 171
5.125000000000 17.000000000000 46.205017089844 191 191 191
5.125000000000 17.000000000000 46.346008300781 162 162 162
5.125000000000 17.000000000000 46.490997314453 202 202 202
5.062500000000 17.062500000000 46.634002685547 181 181 181
5.062500000000 16.937500000000 46.779998779297 162 162 162
5.062500000000 16.937500000000 46.925018310547 167 167 167
5.062500000000 17.000000000000 47.072021484375 163 163 163
5.062500000000 17.000000000000 47.218017578125 154 154 154
5.000000000000 17.000000000000 47.365020751953 140 140 140
5.000000000000 17.000000000000 47.511993408203 125 125 125
5.000000000000 16.937500000000 47.666015625000 105 105 105
5.000000000000 16.937500000000 47.815002441406 107 107 107
4.937500000000 16.937500000000 47.966003417969 79 79 79
4.937500000000 16.937500000000 48.122009277344 100 100 100
4.937500000000 16.937500000000 48.274993896484 83 83 83
4.875000000000 16.875000000000 48.438018798828 62 62 62
4.875000000000 16.937500000000 48.593017578125 5 5 5
5.250000000000 17.187500000000 43.390014648438 108 108 108
5.250000000000 17.187500000000 43.533020019531 142 142 142
5.250000000000 17.187500000000 43.674011230469 127 127 127
5.250000000000 17.187500000000 43.816009521484 123 123 123
5.250000000000 17.187500000000 43.955017089844 104 104 104
5.250000000000 17.187500000000 44.096008300781 124 124 124
5.187500000000 17.187500000000 44.236022949219 133 133 133
5.187500000000 17.187500000000 44.376007080078 144 144 144
5.125000000000 17.125000000000 44.516021728516 165 165 165
5.125000000000 17.125000000000 44.656005859375 169 169 169
5.125000000000 17.187500000000 44.796020507813 145 145 145
5.125000000000 17.187500000000 44.936004638672 129 129 129
5.125000000000 17.187500000000 45.076995849609 125 125 125
5.125000000000 17.187500000000 45.218017578125 103 103 103
5.125000000000 17.187500000000 45.359008789063 108 108 108
5.062500000000 17.125000000000 45.500000000000 112 112 112
5.062500000000 17.125000000000 45.641998291016 102 102 102
5.062500000000 17.125000000000 45.783996582031 98 98 98
5.062500000000 17.125000000000 45.925994873047 69 69 69
5.000000000000 17.125000000000 46.070007324219 53 53 53
5.187500000000 17.187500000000 43.369995117188 65 65 65
5.187500000000 17.187500000000 43.511993408203 46 46 46
5.125000000000 17.250000000000 43.652008056641 25 25 25
5.125000000000 17.250000000000 43.794006347656 19 19 19
4.687500000000 6.875000000000 42.869018554688 169 169 169
4.687500000000 6.875000000000 42.997009277344 170 170 170
4.687500000000 6.875000000000 43.128021240234 140 140 140
4.687500000000 6.875000000000 43.256011962891 123 123 123
4.687500000000 6.875000000000 43.382995605469 131 131 131
4.687500000000 6.875000000000 43.510009765625 124 124 124
4.687500000000 6.875000000000 43.638000488281 110 110 110
4.625000000000 6.875000000000 43.764007568359 87 87 87
4.625000000000 6.937500000000 43.888000488281 72 72 72
4.625000000000 6.937500000000 44.014007568359 22 22 22
4.750000000000 7.000000000000 42.864013671875 147 147 147
4.750000000000 7.000000000000 42.994995117188 169 169 169
4.750000000000 7.000000000000 43.123016357422 183 183 183
4.750000000000 7.000000000000 43.251007080078 190 190 190
4.750000000000 7.000000000000 43.380004882813 190 190 190
4.750000000000 7.000000000000 43.507019042969 191 191 191
4.750000000000 7.000000000000 43.635009765625 199 199 199
4.750000000000 7.000000000000 43.760009765625 204 204 204
4.750000000000 7.000000000000 43.889007568359 204 204 204
4.750000000000 7.000000000000 44.014007568359 207 207 207
4.750000000000 7.000000000000 44.139007568359 210 210 210
4.750000000000 7.000000000000 44.265014648438 217 217 217
4.687500000000 7.000000000000 44.390014648438 212 212 212
4.687500000000 7.000000000000 44.515014648438 215 215 215
4.687500000000 7.062500000000 44.640014648438 212 212 212
4.687500000000 7.062500000000 44.766021728516 219 219 219
4.625000000000 7.000000000000 44.891021728516 217 217 217
4.625000000000 7.000000000000 45.016021728516 193 193 193
4.625000000000 7.000000000000 45.141998291016 190 190 190
4.625000000000 7.000000000000 45.268005371094 173 173 173
4.625000000000 7.000000000000 45.394012451172 156 156 156
4.625000000000 7.000000000000 45.520019531250 135 135 135
4.625000000000 7.000000000000 45.647003173828 127 127 127
4.625000000000 7.000000000000 45.774017333984 117 117 117
4.562500000000 7.000000000000 45.902008056641 72 72 72
4.625000000000 7.125000000000 43.095001220703 17 17 17
4.625000000000 7.125000000000 43.226013183594 116 116 116
4.625000000000 7.125000000000 43.355010986328 140 140 140
4.625000000000 7.125000000000 43.484008789063 156 156 156
4.625000000000 7.125000000000 43.613006591797 165 165 165
4.687500000000 7.125000000000 43.742004394531 172 172 172
4.687500000000 7.125000000000 43.869018554688 181 181 181
4.687500000000 7.125000000000 43.997009277344 195 195 195
4.687500000000 7.125000000000 44.124023437500 199 199 199
4.687500000000 7.125000000000 44.250000000000 206 206 206
4.687500000000 7.125000000000 44.376007080078 210 210 210
4.687500000000 7.125000000000 44.502014160156 209 209 209
4.687500000000 7.125000000000 44.628021240234 214 214 214
4.687500000000 7.125000000000 44.753021240234 216 216 216
4.687500000000 7.125000000000 44.878997802734 216 216 216
4.687500000000 7.125000000000 45.003997802734 216 216 216
4.687500000000 7.125000000000 45.128997802734 220 220 220
4.687500000000 7.125000000000 45.255004882813 217 217 217
4.625000000000 7.125000000000 45.380004882813 217 217 217
4.625000000000 7.125000000000 45.506011962891 215 215 215
4.625000000000 7.125000000000 45.632019042969 218 218 218
4.625000000000 7.125000000000 45.757019042969 214 214 214
4.625000000000 7.125000000000 45.884002685547 210 210 210
4.625000000000 7.125000000000 46.011016845703 209 209 209
4.625000000000 7.125000000000 46.138000488281 210 210 210
4.625000000000 7.125000000000 46.265014648438 210 210 210
4.625000000000 7.125000000000 46.393005371094 199 199 199
4.625000000000 7.125000000000 46.523010253906 204 204 204
4.625000000000 7.125000000000 46.652008056641 203 203 203
4.625000000000 7.125000000000 46.782012939453 193 193 193
4.562500000000 7.125000000000 46.912994384766 195 195 195
4.562500000000 7.125000000000 47.044006347656 167 167 167
4.562500000000 7.125000000000 47.174011230469 158 158 158
4.562500000000 7.125000000000 47.305023193359 124 124 124
4.562500000000 7.062500000000 47.444000244141 111 111 111
4.562500000000 7.062500000000 47.576995849609 86 86 86
4.562500000000 7.062500000000 47.712005615234 81 81 81
4.500000000000 7.125000000000 47.848999023438 29 29 29
4.562500000000 7.187500000000 45.496002197266 28 28 28
4.625000000000 7.187500000000 45.622009277344 111 111 111
4.625000000000 7.187500000000 45.749023437500 137 137 137
4.625000000000 7.187500000000 45.875000000000 153 153 153
4.625000000000 7.125000000000 46.001007080078 158 158 158
4.625000000000 7.125000000000 46.128997802734 171 171 171
4.625000000000 7.187500000000 46.256011962891 172 172 172
4.625000000000 7.187500000000 46.384002685547 181 181 181
4.625000000000 7.187500000000 46.511016845703 183 183 183
4.625000000000 7.187500000000 46.640014648438 184 184 184
4.625000000000 7.187500000000 46.768005371094 194 194 194
4.625000000000 7.187500000000 46.897003173828 183 183 183
4.625000000000 7.187500000000 47.028015136719 187 187 187
4.625000000000 7.187500000000 47.158996582031 185 185 185
4.625000000000 7.187500000000 47.287994384766 191 191 191
4.562500000000 7.187500000000 47.423004150391 191 191 191
4.625000000000 7.187500000000 47.553009033203 189 189 189
4.562500000000 7.187500000000 47.687011718750 176 176 176
4.562500000000 7.187500000000 47.824005126953 173 173 173
4.562500000000 7.187500000000 47.960998535156 174 174 174
4.562500000000 7.187500000000 48.097015380859 177 177 177
4.562500000000 7.187500000000 48.231018066406 171 171 171
4.562500000000 7.187500000000 48.373016357422 174 174 174
4.562500000000 7.187500000000 48.514007568359 160 160 160
4.500000000000 7.187500000000 48.654998779297 119 119 119
4.500000000000 7.187500000000 48.798004150391 147 147 147
4.500000000000 7.312500000000 47.839996337891 3 3 3
4.500000000000 7.250000000000 47.962005615234 41 41 41
4.500000000000 7.250000000000 48.102020263672 94 94 94
4.500000000000 7.250000000000 48.235015869141 107 107 107
4.500000000000 7.250000000000 48.373016357422 124 124 124
4.562500000000 7.250000000000 48.507995605469 122 122 122
4.562500000000 7.250000000000 48.645996093750 133 133 133
4.500000000000 7.250000000000 48.792022705078 141 141 141
4.500000000000 7.437500000000 48.657012939453 39 39 39
4.562500000000 7.875000000000 47.859008789063 37 37 37
4.500000000000 7.875000000000 48.550018310547 30 30 30
4.562500000000 7.937500000000 47.869018554688 103 103 103
4.562500000000 8.062500000000 47.874023437500 110 110 110
4.562500000000 8.187500000000 47.872009277344 99 99 99
4.500000000000 8.250000000000 48.430999755859 68 68 68
4.625000000000 8.375000000000 47.869018554688 74 74 74
4.500000000000 8.312500000000 48.425018310547 52 52 52
4.562500000000 8.437500000000 47.863006591797 8 8 8
4.562500000000 8.437500000000 48.412017822266 22 22 22
4.500000000000 8.937500000000 48.249023437500 48 48 48
4.625000000000 9.312500000000 47.861022949219 72 72 72
4.625000000000 9.437500000000 47.868011474609 105 105 105
4.625000000000 9.437500000000 48.149017333984 50 50 50
4.625000000000 9.562500000000 47.877014160156 90 90 90
4.625000000000 9.687500000000 47.880004882813 93 93 93
4.687500000000 9.812500000000 47.727020263672 18 18 18
4.625000000000 9.750000000000 47.876007080078 78 78 78
4.625000000000 10.125000000000 47.976013183594 10 10 10
4.625000000000 10.187500000000 47.835021972656 27 27 27
4.687500000000 10.250000000000 47.963012695313 96 96 96
4.625000000000 10.750000000000 47.869995117188 33 33 33
4.687500000000 10.875000000000 47.874023437500 60 60 60
4.687500000000 11.000000000000 47.882995605469 93 93 93
4.687500000000 11.062500000000 47.886993408203 73 73 73
4.750000000000 11.187500000000 47.736999511719 153 153 153
4.687500000000 11.250000000000 47.885009765625 97 97 97
4.750000000000 11.375000000000 47.727020263672 154 154 154
4.687500000000 11.312500000000 47.878997802734 8 8 8
4.750000000000 11.500000000000 47.714019775391 180 180 180
4.687500000000 11.437500000000 47.859008789063 106 106 106
4.750000000000 11.562500000000 47.704010009766 173 173 173
4.687500000000 11.562500000000 47.852020263672 116 116 116
4.812500000000 11.687500000000 47.697998046875 187 187 187
4.750000000000 11.687500000000 47.847015380859 134 134 134
4.812500000000 11.812500000000 47.697998046875 175 175 175
4.687500000000 11.812500000000 47.847015380859 123 123 123
4.812500000000 11.937500000000 47.705017089844 141 141 141
4.750000000000 11.875000000000 47.854003906250 97 97 97
4.750000000000 12.062500000000 47.720001220703 157 157 157
4.750000000000 12.062500000000 47.867004394531 77 77 77
4.750000000000 12.187500000000 47.735015869141 187 187 187
4.750000000000 12.187500000000 47.878021240234 14 14 14
4.750000000000 12.312500000000 47.746002197266 152 152 152
4.750000000000 12.312500000000 47.891021728516 32 32 32
4.750000000000 12.437500000000 47.753997802734 170 170 170
4.750000000000 12.437500000000 47.895996093750 28 28 28
4.750000000000 12.562500000000 47.751007080078 175 175 175
4.750000000000 12.625000000000 47.895019531250 14 14 14
4.812500000000 12.687500000000 47.748016357422 150 150 150
4.750000000000 12.625000000000 47.893005371094 6 6 6
4.812500000000 12.812500000000 47.736999511719 192 192 192
4.750000000000 12.750000000000 47.889007568359 26 26 26
4.812500000000 12.875000000000 47.726013183594 160 160 160
4.750000000000 12.937500000000 47.874023437500 93 93 93
4.875000000000 13.000000000000 47.716003417969 192 192 192
4.812500000000 13.062500000000 47.863006591797 110 110 110
4.875000000000 13.187500000000 47.713012695313 190 190 190
4.812500000000 13.125000000000 47.861999511719 142 142 142
4.812500000000 13.250000000000 47.716003417969 169 169 169
4.750000000000 13.250000000000 47.864013671875 115 115 115
4.875000000000 13.375000000000 47.726013183594 103 103 103
4.750000000000 13.437500000000 47.876007080078 78 78 78
4.812500000000 13.812500000000 47.904998779297 17 17 17
4.812500000000 13.937500000000 47.903015136719 106 106 106
4.812500000000 13.937500000000 48.037994384766 17 17 17
4.812500000000 14.062500000000 48.035003662109 17 17 17
4.812500000000 14.250000000000 48.154998779297 20 20 20
4.875000000000 14.375000000000 48.003021240234 4 4 4
4.812500000000 14.437500000000 48.003021240234 6 6 6
4.812500000000 14.562500000000 47.996002197266 37 37 37
4.812500000000 14.625000000000 48.270996093750 46 46 46
4.875000000000 14.750000000000 47.992004394531 9 9 9
4.812500000000 14.750000000000 48.283996582031 10 10 10
4.937500000000 14.875000000000 47.726013183594 56 56 56
4.875000000000 14.875000000000 47.875000000000 66 66 66
4.875000000000 15.125000000000 48.440002441406 51 51 51
4.875000000000 15.500000000000 48.584014892578 67 67 67
4.937500000000 15.812500000000 48.003021240234 57 57 57
4.875000000000 15.812500000000 48.700012207031 60 60 60
4.937500000000 15.937500000000 47.994995117188 92 92 92
4.875000000000 16.062500000000 47.994995117188 96 96 96
4.937500000000 16.187500000000 47.994995117188 85 85 85
4.875000000000 16.187500000000 48.830993652344 54 54 54
5.000000000000 16.312500000000 48.003997802734 61 61 61
4.937500000000 16.500000000000 48.010009765625 10 10 10
5.000000000000 16.562500000000 48.967010498047 56 56 56
5.000000000000 16.687500000000 47.365020751953 9 9 9
5.000000000000 16.687500000000 47.496002197266 19 19 19
5.000000000000 16.687500000000 47.619018554688 62 62 62
5.000000000000 16.687500000000 47.759002685547 91 91 91
5.000000000000 16.687500000000 47.886016845703 107 107 107
5.000000000000 16.687500000000 48.003997802734 112 112 112
5.000000000000 16.687500000000 48.153015136719 123 123 123
5.000000000000 16.687500000000 48.283996582031 140 140 140
5.000000000000 16.687500000000 48.421997070313 117 117 117
5.000000000000 16.687500000000 48.555999755859 132 132 132
5.000000000000 16.687500000000 48.696014404297 118 118 118
5.000000000000 16.687500000000 48.833007812500 112 112 112
5.000000000000 16.687500000000 48.973022460938 108 108 108
4.937500000000 16.687500000000 49.125000000000 135 135 135
5.125000000000 16.812500000000 45.486022949219 31 31 31
5.125000000000 16.812500000000 45.608001708984 60 60 60
5.125000000000 16.875000000000 45.730010986328 61 61 61
5.125000000000 16.812500000000 45.852020263672 90 90 90
5.125000000000 16.875000000000 45.973999023438 95 95 95
5.125000000000 16.875000000000 46.098022460938 89 89 89
5.125000000000 16.812500000000 46.592010498047 153 153 153
5.062500000000 16.812500000000 46.718994140625 151 151 151
5.125000000000 16.875000000000 46.841003417969 137 137 137
5.062500000000 16.812500000000 47.485015869141 136 136 136
5.062500000000 16.812500000000 47.611022949219 111 111 111
5.000000000000 16.812500000000 47.748016357422 125 125 125
5.000000000000 16.812500000000 47.882019042969 136 136 136
5.000000000000 16.812500000000 48.013000488281 104 104 104
5.000000000000 16.812500000000 48.154022216797 120 120 120
5.000000000000 16.812500000000 48.289001464844 97 97 97
5.000000000000 16.875000000000 48.433013916016 70 70 70
5.062500000000 16.812500000000 46.968994140625 106 106 106
5.062500000000 16.812500000000 47.354003906250 131 131 131
5.187500000000 16.937500000000 43.782012939453 5 5 5
5.187500000000 16.937500000000 43.904022216797 38 38 38
5.250000000000 16.937500000000 44.027008056641 52 52 52
5.187500000000 16.937500000000 44.148010253906 77 77 77
5.187500000000 17.000000000000 44.268005371094 97 97 97
5.187500000000 17.000000000000 44.390014648438 131 131 131
5.187500000000 17.000000000000 44.511993408203 126 126 126
5.187500000000 16.937500000000 44.634002685547 144 144 144
5.187500000000 16.937500000000 44.755004882813 151 151 151
5.187500000000 16.937500000000 44.876007080078 150 150 150
5.187500000000 16.937500000000 44.996002197266 142 142 142
5.187500000000 17.000000000000 45.602020263672 196 196 196
5.187500000000 17.000000000000 45.723022460938 185 185 185
5.125000000000 17.000000000000 45.846008300781 183 183 183
5.125000000000 16.937500000000 46.718994140625 131 131 131
5.187500000000 17.000000000000 45.117004394531 127 127 127
5.187500000000 17.000000000000 45.480010986328 132 132 132
5.125000000000 16.937500000000 46.593994140625 122 122 122
5.125000000000 16.937500000000 46.843017578125 120 120 120
5.250000000000 17.062500000000 43.414001464844 114 114 114
5.250000000000 17.062500000000 43.537017822266 113 113 113
5.250000000000 17.062500000000 43.658996582031 105 105 105
5.250000000000 17.062500000000 43.781005859375 121 121 121
5.250000000000 17.062500000000 43.904022216797 110 110 110
5.250000000000 17.125000000000 44.023010253906 119 119 119
5.250000000000 17.125000000000 44.145019531250 119 119 119
5.250000000000 17.125000000000 44.265014648438 126 126 126
5.250000000000 17.125000000000 44.385009765625 122 122 122
5.187500000000 17.062500000000 44.506011962891 140 140 140
5.187500000000 17.062500000000 44.626007080078 145 145 145
5.187500000000 17.062500000000 44.748016357422 131 131 131
5.125000000000 17.062500000000 44.867004394531 102 102 102
5.250000000000 17.187500000000 43.395019531250 85 85 85
5.187500000000 17.187500000000 43.513000488281 21 21 21
5.250000000000 17.187500000000 43.634002685547 48 48 48
5.250000000000 17.187500000000 43.486022949219 51 51 51
5.125000000000 17.062500000000 45.076019287109 58 58 58
5.125000000000 17.062500000000 44.933013916016 94 94 94
5.187500000000 17.062500000000 44.790008544922 81 81 81
5.187500000000 17.062500000000 44.645996093750 65 65 65
5.187500000000 17.062500000000 44.503021240234 84 84 84
5.187500000000 17.062500000000 44.360015869141 136 136 136
5.250000000000 17.125000000000 44.216003417969 112 112 112
5.250000000000 17.125000000000 44.072998046875 125 125 125
5.250000000000 17.125000000000 43.928009033203 122 122 122
5.250000000000 17.125000000000 43.783996582031 121 121 121
5.250000000000 17.125000000000 43.636993408203 60 60 60
5.250000000000 17.062500000000 43.493011474609 89 89 89
5.125000000000 17.000000000000 46.666015625000 5 5 5
5.125000000000 17.000000000000 46.519012451172 76 76 76
5.125000000000 17.000000000000 46.373016357422 80 80 80
5.125000000000 17.000000000000 46.227020263672 101 101 101
5.125000000000 17.000000000000 46.082000732422 106 106 106
5.125000000000 17.000000000000 45.937011718750 112 112 112
5.125000000000 17.000000000000 45.792022705078 156 156 156
5.125000000000 17.000000000000 45.649017333984 158 158 158
5.125000000000 17.000000000000 45.505004882813 133 133 133
5.125000000000 17.000000000000 45.361022949219 150 150 150
5.125000000000 17.000000000000 45.217010498047 144 144 144
5.125000000000 17.000000000000 45.074005126953 134 134 134
5.125000000000 17.000000000000 44.930023193359 132 132 132
5.125000000000 17.000000000000 44.786010742188 140 140 140
5.125000000000 17.000000000000 44.641998291016 133 133 133
5.125000000000 17.000000000000 44.498016357422 118 118 118
5.125000000000 17.000000000000 44.352996826172 109 109 109
5.125000000000 17.000000000000 44.208007812500 103 103 103
5.125000000000 17.000000000000 44.062011718750 113 113 113
5.125000000000 17.000000000000 43.917022705078 83 83 83
5.125000000000 17.000000000000 43.770019531250 71 71 71
5.125000000000 17.000000000000 43.623016357422 33 33 33
5.125000000000 17.000000000000 43.477020263672 48 48 48
5.000000000000 16.937500000000 47.709014892578 39 39 39
5.062500000000 16.875000000000 47.554016113281 50 50 50
5.062500000000 16.875000000000 47.404998779297 87 87 87
5.062500000000 16.875000000000 47.253997802734 111 111 111
5.062500000000 16.875000000000 47.105010986328 127 127 127
5.062500000000 16.875000000000 46.957000732422 107 107 107
5.125000000000 16.875000000000 46.808013916016 119 119 119
5.125000000000 16.875000000000 46.662017822266 136 136 136
5.125000000000 16.875000000000 46.515014648438 133 133 133
5.125000000000 16.875000000000 46.369995117188 140 140 140
5.125000000000 16.875000000000 46.225006103516 132 132 132
5.125000000000 16.875000000000 46.080017089844 132 132 132
5.125000000000 16.875000000000 45.934997558594 127 127 127
5.125000000000 16.875000000000 45.790008544922 135 135 135
5.125000000000 16.875000000000 45.645996093750 165 165 165
5.062500000000 16.875000000000 45.501007080078 161 161 161
5.125000000000 16.937500000000 45.356994628906 120 120 120
5.125000000000 16.937500000000 45.212005615234 104 104 104
5.125000000000 16.937500000000 45.067016601563 101 101 101
5.125000000000 16.937500000000 44.923004150391 116 116 116
5.125000000000 16.937500000000 44.777008056641 104 104 104
5.125000000000 16.937500000000 44.632019042969 85 85 85
5.125000000000 16.937500000000 44.485015869141 36 36 36
4.937500000000 16.812500000000 48.944000244141 27 27 27
4.937500000000 16.812500000000 48.786010742188 47 47 47
5.000000000000 16.812500000000 48.626007080078 83 83 83
5.000000000000 16.812500000000 48.468017578125 96 96 96
5.000000000000 16.812500000000 48.313018798828 101 101 101
5.000000000000 16.812500000000 48.160003662109 100 100 100
5.000000000000 16.812500000000 48.002014160156 96 96 96
5.000000000000 16.812500000000 47.852020263672 112 112 112
5.000000000000 16.812500000000 47.701995849609 113 113 113
5.000000000000 16.812500000000 47.552001953125 103 103 103
5.000000000000 16.812500000000 47.403015136719 146 146 146
5.000000000000 16.812500000000 47.253997802734 148 148 148
5.000000000000 16.812500000000 47.106018066406 142 142 142
5.000000000000 16.812500000000 46.958007812500 143 143 143
5.000000000000 16.812500000000 46.809997558594 112 112 112
5.000000000000 16.812500000000 46.664001464844 118 118 118
5.000000000000 16.812500000000 46.516998291016 110 110 110
5.000000000000 16.812500000000 46.371002197266 110 110 110
5.000000000000 16.812500000000 46.223999023438 80 80 80
5.000000000000 16.812500000000 46.079010009766 8 8 8
4.937500000000 16.687500000000 49.101013183594 135 135 135
4.937500000000 16.687500000000 48.941009521484 132 132 132
4.937500000000 16.687500000000 48.783996582031 141 141 141
4.937500000000 16.687500000000 48.627014160156 142 142 142
4.937500000000 16.687500000000 48.473022460938 152 152 152
4.937500000000 16.687500000000 48.317993164063 149 149 149
4.937500000000 16.687500000000 48.162017822266 113 113 113
5.000000000000 16.687500000000 48.003997802734 74 74 74
4.937500000000 16.687500000000 47.860015869141 113 113 113
4.937500000000 16.687500000000 47.709014892578 94 94 94
4.937500000000 16.750000000000 47.559997558594 15 15 15
4.875000000000 16.625000000000 49.118011474609 97 97 97
4.875000000000 16.625000000000 48.960998535156 75 75 75
4.875000000000 16.625000000000 48.805999755859 11 11 11
4.937500000000 16.562500000000 48.007995605469 69 69 69
4.875000000000 16.500000000000 48.953002929688 68 68 68
4.937500000000 16.500000000000 48.007995605469 65 65 65
4.937500000000 16.500000000000 48.014007568359 55 55 55
4.937500000000 16.375000000000 48.020019531250 47 47 47
4.875000000000 16.187500000000 48.830993652344 16 16 16
4.875000000000 15.812500000000 48.684020996094 14 14 14
4.875000000000 15.687500000000 48.673004150391 8 8 8
4.875000000000 15.250000000000 48.511993408203 11 11 11
4.812500000000 15.000000000000 48.389007568359 11 11 11
4.937500000000 14.937500000000 47.744018554688 16 16 16
4.812500000000 14.875000000000 47.925994873047 19 19 19
4.812500000000 14.562500000000 48.223999023438 8 8 8
4.812500000000 14.062500000000 48.067993164063 11 11 11
4.812500000000 13.937500000000 47.915008544922 56 56 56
4.812500000000 13.875000000000 47.930999755859 72 72 72
4.875000000000 13.875000000000 47.766021728516 12 12 12
4.812500000000 13.812500000000 47.932006835938 8 8 8
4.750000000000 13.687500000000 47.936004638672 10 10 10
4.750000000000 13.562500000000 47.934997558594 12 12 12
4.812500000000 13.437500000000 47.933013916016 12 12 12
4.875000000000 13.437500000000 47.766021728516 16 16 16
4.750000000000 13.437500000000 47.936004638672 19 19 19
4.812500000000 13.437500000000 47.766998291016 184 184 184
4.750000000000 13.312500000000 47.925994873047 11 11 11
4.812500000000 13.250000000000 47.763000488281 170 170 170
4.750000000000 13.187500000000 47.924011230469 7 7 7
4.812500000000 13.187500000000 47.757995605469 177 177 177
4.750000000000 13.062500000000 47.925994873047 14 14 14
4.812500000000 13.062500000000 47.757995605469 151 151 151
4.750000000000 13.000000000000 47.923004150391 11 11 11
4.812500000000 12.937500000000 47.759002685547 125 125 125
4.750000000000 12.937500000000 47.928009033203 18 18 18
4.812500000000 12.875000000000 47.761993408203 157 157 157
4.750000000000 12.750000000000 47.930999755859 23 23 23
4.812500000000 12.750000000000 47.769012451172 149 149 149
4.750000000000 12.687500000000 47.934997558594 30 30 30
4.812500000000 12.687500000000 47.770996093750 154 154 154
4.750000000000 12.625000000000 47.932006835938 36 36 36
4.750000000000 12.625000000000 47.773010253906 124 124 124
4.687500000000 12.562500000000 47.938018798828 30 30 30
4.750000000000 12.562500000000 47.773010253906 134 134 134
4.750000000000 12.437500000000 47.934020996094 46 46 46
4.750000000000 12.437500000000 47.773010253906 153 153 153
4.750000000000 12.312500000000 47.930023193359 23 23 23
