11.578125000000 12.062500000000 42.314998626709 190 190 190
11.734375000000 12.054687500000 42.312000274658 215 215 215
11.812500000000 12.054687500000 42.295001983643 224 224 224
11.812500000000 12.054687500000 42.265003204346 227 227 227
11.812500000000 12.054687500000 42.232997894287 222 222 222
11.812500000000 12.054687500000 42.201999664307 223 223 223
11.828125000000 12.046875000000 42.173999786377 137 137 137
11.593750000000 12.375000000000 42.329998016357 22 22 22
11.640625000000 12.375000000000 42.308002471924 203 203 203
11.812500000000 12.375000000000 42.309001922607 229 229 229
11.812500000000 12.375000000000 42.278003692627 230 230 230
11.812500000000 12.375000000000 42.247997283936 225 225 225
11.796875000000 12.375000000000 42.214000701904 231 231 231
11.812500000000 12.375000000000 42.186000823975 201 201 201
11.703125000000 12.710937500000 42.330997467041 115 115 115
11.796875000000 12.703125000000 42.321002960205 211 211 211
11.828125000000 12.710937500000 42.295001983643 230 230 230
11.828125000000 12.703125000000 42.266002655029 229 229 229
11.812500000000 12.703125000000 42.232997894287 228 228 228
11.828125000000 12.703125000000 42.203998565674 222 222 222
11.828125000000 12.703125000000 42.173000335693 60 60 60
11.781250000000 13.031250000000 42.334003448486 115 115 115
11.859375000000 13.031250000000 42.315998077393 219 219 219
11.859375000000 13.023437500000 42.285999298096 213 213 213
11.843750000000 13.031250000000 42.253002166748 228 228 228
11.859375000000 13.031250000000 42.224002838135 213 213 213
11.859375000000 13.023437500000 42.194004058838 203 203 203
10.843750000000 8.851562500000 42.308002471924 21 21 21
10.890625000000 8.835937500000 42.274997711182 147 147 147
10.890625000000 8.828125000000 42.235004425049 135 135 135
10.890625000000 8.828125000000 42.194004058838 127 127 127
10.875000000000 8.828125000000 42.148998260498 121 121 121
11.796875000000 8.281250000000 42.327999114990 142 142 142
11.796875000000 8.281250000000 42.293003082275 141 141 141
11.796875000000 8.281250000000 42.256999969482 140 140 140
11.796875000000 8.281250000000 42.219997406006 140 140 140
11.812500000000 8.281250000000 42.187000274658 140 140 140
11.796875000000 8.281250000000 42.149997711182 138 138 138
11.671875000000 8.375000000000 42.073001861572 21 21 21
11.218750000000 8.960937500000 42.360004425049 86 86 86
11.281250000000 8.929687500000 42.335002899170 134 134 134
11.296875000000 8.921875000000 42.298999786377 129 129 129
11.296875000000 8.921875000000 42.260997772217 127 127 127
11.765625000000 8.640625000000 42.334003448486 155 155 155
11.843750000000 8.585937500000 42.316997528076 150 150 150
11.859375000000 8.578125000000 42.283000946045 154 154 154
11.843750000000 8.585937500000 42.246997833252 146 146 146
11.890625000000 8.562500000000 42.219997406006 147 147 147
11.843750000000 8.578125000000 42.175998687744 148 148 148
11.843750000000 8.585937500000 42.140003204346 145 145 145
11.812500000000 8.601562500000 42.094997406006 154 154 154
11.296875000000 8.906250000000 41.906002044678 130 130 130
11.296875000000 8.906250000000 41.867000579834 133 133 133
11.296875000000 8.906250000000 41.828998565674 132 132 132
11.296875000000 8.890625000000 41.791004180908 131 131 131
11.296875000000 8.890625000000 41.750003814697 127 127 127
11.296875000000 8.890625000000 41.709999084473 129 129 129
11.312500000000 8.898437500000 41.671001434326 133 133 133
11.312500000000 9.234375000000 42.356998443604 113 113 113
11.531250000000 9.117187500000 42.362003326416 120 120 120
11.562500000000 9.078125000000 42.336002349854 165 165 165
11.562500000000 9.078125000000 42.301998138428 161 161 161
11.687500000000 9.023437500000 42.289997100830 130 130 130
11.671875000000 9.031250000000 42.251003265381 127 127 127
11.687500000000 9.023437500000 42.216999053955 124 124 124
11.671875000000 9.015625000000 42.178997039795 123 123 123
11.687500000000 9.015625000000 42.145000457764 118 118 118
11.562500000000 9.078125000000 42.074001312256 166 166 166
11.562500000000 9.078125000000 42.036998748779 164 164 164
11.562500000000 9.078125000000 41.999004364014 165 165 165
11.562500000000 9.078125000000 41.963001251221 164 164 164
11.562500000000 9.078125000000 41.923999786377 166 166 166
11.578125000000 9.062500000000 41.888004302979 168 168 168
11.562500000000 9.078125000000 41.848003387451 168 168 168
11.562500000000 9.070312500000 41.809001922607 169 169 169
11.562500000000 9.070312500000 41.770000457764 167 167 167
11.578125000000 9.062500000000 41.733997344971 159 159 159
11.578125000000 9.062500000000 41.694999694824 162 162 162
11.578125000000 9.062500000000 41.657001495361 161 161 161
11.625000000000 9.039062500000 41.636001586914 166 166 166
11.468750000000 9.140625000000 41.534000396729 148 148 148
11.468750000000 9.140625000000 41.415000915527 136 136 136
11.125000000000 9.679687500000 42.293003082275 150 150 150
11.125000000000 9.687500000000 42.250003814697 151 151 151
11.140625000000 9.671875000000 42.214000701904 165 165 165
11.718750000000 9.335937500000 42.311000823975 148 148 148
11.718750000000 9.328125000000 42.275997161865 150 150 150
11.718750000000 9.328125000000 42.240001678467 152 152 152
11.718750000000 9.328125000000 42.202999114990 151 151 151
11.718750000000 9.328125000000 42.164997100830 156 156 156
11.140625000000 10.000000000000 42.314998626709 62 62 62
11.171875000000 9.984375000000 42.282001495361 212 212 212
11.171875000000 9.984375000000 42.241001129150 219 219 219
11.156250000000 9.992187500000 42.196002960205 206 206 206
11.734375000000 9.656250000000 42.296001434326 147 147 147
11.734375000000 9.656250000000 42.260997772217 145 145 145
11.734375000000 9.656250000000 42.225002288818 150 150 150
11.750000000000 9.648437500000 42.189998626709 144 144 144
11.718750000000 9.656250000000 42.148998260498 182 182 182
11.203125000000 10.289062500000 42.308002471924 174 174 174
11.218750000000 10.281250000000 42.272998809814 205 205 205
11.218750000000 10.281250000000 42.232997894287 225 225 225
11.671875000000 10.015625000000 42.299999237061 5 5 5
11.750000000000 9.960937500000 42.284000396729 224 224 224
11.750000000000 9.960937500000 42.247997283936 224 224 224
11.750000000000 9.960937500000 42.212001800537 224 224 224
11.750000000000 9.960937500000 42.175998687744 221 221 221
11.265625000000 10.570312500000 42.300998687744 184 184 184
11.265625000000 10.562500000000 42.263004302979 226 226 226
11.296875000000 10.562500000000 42.227001190186 223 223 223
11.765625000000 10.289062500000 42.300998687744 224 224 224
11.765625000000 10.281250000000 42.266002655029 223 223 223
11.781250000000 10.281250000000 42.231998443604 223 223 223
11.781250000000 10.281250000000 42.197002410889 224 224 224
11.765625000000 10.281250000000 42.158000946045 148 148 148
11.296875000000 10.882812500000 42.322002410889 87 87 87
11.328125000000 10.867187500000 42.288997650146 191 191 191
11.343750000000 10.859375000000 42.252002716064 157 157 157
11.765625000000 10.609375000000 42.315998077393 192 192 192
11.781250000000 10.601562500000 42.283000946045 225 225 225
11.781250000000 10.601562500000 42.246997833252 224 224 224
11.781250000000 10.593750000000 42.212001800537 221 221 221
11.781250000000 10.593750000000 42.176998138428 206 206 206
11.375000000000 11.171875000000 42.315998077393 166 166 166
11.390625000000 11.164062500000 42.279003143311 217 217 217
11.421875000000 11.140625000000 42.250003814697 227 227 227
11.796875000000 10.921875000000 42.300998687744 223 223 223
11.796875000000 10.921875000000 42.264003753662 222 222 222
11.796875000000 10.921875000000 42.228000640869 220 220 220
11.796875000000 10.921875000000 42.190998077393 224 224 224
11.781250000000 10.929687500000 42.150997161865 91 91 91
11.437500000000 11.453125000000 42.308002471924 182 182 182
11.453125000000 11.453125000000 42.270999908447 225 225 225
11.765625000000 11.265625000000 42.310001373291 225 225 225
11.796875000000 11.250000000000 42.282001495361 222 222 222
11.796875000000 11.250000000000 42.246997833252 214 214 214
11.796875000000 11.250000000000 42.210002899170 220 220 220
11.796875000000 11.250000000000 42.174999237061 193 193 193
11.515625000000 11.750000000000 42.302997589111 195 195 195
11.578125000000 11.703125000000 42.282001495361 226 226 226
11.812500000000 11.562500000000 42.299999237061 217 217 217
11.812500000000 11.562500000000 42.265003204346 218 218 218
11.812500000000 11.562500000000 42.228000640869 216 216 216
11.812500000000 11.562500000000 42.191997528076 216 216 216
11.546875000000 12.054687500000 42.329998016357 91 91 91
11.562500000000 12.046875000000 42.297000885010 194 194 194
11.796875000000 11.921875000000 42.310001373291 222 222 222
11.812500000000 11.890625000000 42.281002044678 218 218 218
11.812500000000 11.890625000000 42.244998931885 210 210 210
11.812500000000 11.890625000000 42.209003448486 215 215 215
11.812500000000 11.898437500000 42.172000885010 160 160 160
11.625000000000 12.335937500000 42.322002410889 146 146 146
11.703125000000 12.296875000000 42.303997039795 208 208 208
11.828125000000 12.218750000000 42.298000335693 223 223 223
11.828125000000 12.218750000000 42.263004302979 223 223 223
11.828125000000 12.203125000000 42.227001190186 223 223 223
11.828125000000 12.203125000000 42.190998077393 212 212 212
11.687500000000 12.625000000000 42.319004058838 176 176 176
11.812500000000 12.546875000000 42.315998077393 212 212 212
11.828125000000 12.531250000000 42.283000946045 223 223 223
11.812500000000 12.546875000000 42.243999481201 223 223 223
11.812500000000 12.539062500000 42.209003448486 222 222 222
11.812500000000 12.539062500000 42.173999786377 115 115 115
11.796875000000 12.890625000000 42.326000213623 162 162 162
11.843750000000 12.859375000000 42.301998138428 220 220 220
11.843750000000 12.859375000000 42.265003204346 220 220 220
11.843750000000 12.843750000000 42.230998992920 220 220 220
11.843750000000 12.859375000000 42.194004058838 208 208 208
11.781250000000 13.234375000000 42.338001251221 89 89 89
11.859375000000 13.171875000000 42.322002410889 203 203 203
11.859375000000 13.171875000000 42.286998748779 210 210 210
11.859375000000 13.171875000000 42.251003265381 221 221 221
11.859375000000 13.171875000000 42.215000152588 204 204 204
11.859375000000 13.171875000000 42.177997589111 103 103 103
11.843750000000 8.281250000000 42.136997222900 89 89 89
11.828125000000 8.273437500000 42.171001434326 85 85 85
11.828125000000 8.273437500000 42.203998565674 87 87 87
11.828125000000 8.273437500000 42.239002227783 90 90 90
11.828125000000 8.273437500000 42.274997711182 96 96 96
11.828125000000 8.273437500000 42.311000823975 85 85 85
11.859375000000 8.609375000000 42.120998382568 133 133 133
11.859375000000 8.609375000000 42.157001495361 143 143 143
11.859375000000 8.609375000000 42.192996978760 146 146 146
11.843750000000 8.609375000000 42.225002288818 144 144 144
11.843750000000 8.609375000000 42.259998321533 151 151 151
11.843750000000 8.609375000000 42.294002532959 147 147 147
11.843750000000 8.609375000000 42.329998016357 143 143 143
11.750000000000 8.875000000000 42.143001556396 150 150 150
11.750000000000 8.875000000000 42.177997589111 166 166 166
11.734375000000 8.867187500000 42.213001251221 170 170 170
11.750000000000 8.875000000000 42.250003814697 169 169 169
11.750000000000 8.875000000000 42.285999298096 163 163 163
11.765625000000 8.882812500000 42.325000762939 35 35 35
11.437500000000 9.031250000000 41.573001861572 213 213 213
11.578125000000 9.117187500000 41.659000396729 141 141 141
11.578125000000 9.117187500000 41.698001861572 147 147 147
11.578125000000 9.117187500000 41.737003326416 136 136 136
11.562500000000 9.109375000000 41.771999359131 158 158 158
11.562500000000 9.109375000000 41.811000823975 159 159 159
11.562500000000 9.109375000000 41.849002838135 158 158 158
11.578125000000 9.117187500000 41.889003753662 164 164 164
11.578125000000 9.117187500000 41.925998687744 168 168 168
11.562500000000 9.109375000000 41.961002349854 152 152 152
11.546875000000 9.101562500000 41.996997833252 154 154 154
11.578125000000 9.117187500000 42.041004180908 152 152 152
11.578125000000 9.117187500000 42.077999114990 145 145 145
11.703125000000 9.187500000000 42.148998260498 145 145 145
11.703125000000 9.187500000000 42.186000823975 156 156 156
11.703125000000 9.187500000000 42.221004486084 159 159 159
11.703125000000 9.187500000000 42.256999969482 155 155 155
11.703125000000 9.187500000000 42.293003082275 148 148 148
11.625000000000 9.156250000000 42.313999176025 149 149 149
11.562500000000 9.109375000000 42.333003997803 162 162 162
11.515625000000 9.078125000000 42.358997344971 113 113 113
11.234375000000 8.929687500000 42.340999603271 132 132 132
10.828125000000 8.703125000000 42.298000335693 125 125 125
10.828125000000 8.703125000000 42.338001251221 15 15 15
11.406250000000 9.343750000000 41.619998931885 225 225 225
11.453125000000 9.375000000000 41.679000854492 153 153 153
11.453125000000 9.375000000000 41.757999420166 154 154 154
11.453125000000 9.367187500000 41.791004180908 153 153 153
11.453125000000 9.367187500000 41.830997467041 150 150 150
11.437500000000 9.359375000000 41.867000579834 156 156 156
11.437500000000 9.359375000000 41.906002044678 150 150 150
11.437500000000 9.359375000000 41.944004058838 153 153 153
11.437500000000 9.359375000000 41.982997894287 152 152 152
11.437500000000 9.359375000000 42.018001556396 153 153 153
11.656250000000 9.484375000000 42.116001129150 148 148 148
11.734375000000 9.515625000000 42.173000335693 148 148 148
11.734375000000 9.515625000000 42.210002899170 144 144 144
11.734375000000 9.515625000000 42.243999481201 152 152 152
11.750000000000 9.523437500000 42.283000946045 151 151 151
11.703125000000 9.500000000000 42.311000823975 143 143 143
11.421875000000 9.351562500000 42.283000946045 151 151 151
11.406250000000 9.343750000000 42.319004058838 153 153 153
11.375000000000 9.328125000000 42.349002838135 134 134 134
11.234375000000 9.250000000000 42.360004425049 71 71 71
11.750000000000 9.859375000000 42.161998748779 198 198 198
11.734375000000 9.859375000000 42.196002960205 226 226 226
11.734375000000 9.859375000000 42.231998443604 226 226 226
11.734375000000 9.851562500000 42.267002105713 227 227 227
11.734375000000 9.851562500000 42.302997589111 220 220 220
11.109375000000 9.500000000000 42.194004058838 161 161 161
11.093750000000 9.500000000000 42.230998992920 139 139 139
11.078125000000 9.484375000000 42.269001007080 134 134 134
11.078125000000 9.484375000000 42.308002471924 90 90 90
11.734375000000 10.171875000000 42.141002655029 21 21 21
11.750000000000 10.187500000000 42.180004119873 222 222 222
11.750000000000 10.187500000000 42.216999053955 226 226 226
11.750000000000 10.187500000000 42.254001617432 226 226 226
11.750000000000 10.187500000000 42.287998199463 226 226 226
11.687500000000 10.156250000000 42.309001922607 128 128 128
11.187500000000 9.867187500000 42.229000091553 168 168 168
11.156250000000 9.851562500000 42.263004302979 157 157 157
11.125000000000 9.843750000000 42.298000335693 165 165 165
11.109375000000 9.828125000000 42.176998138428 164 164 164
11.781250000000 10.515625000000 42.163997650146 194 194 194
11.781250000000 10.523437500000 42.201000213623 223 223 223
11.765625000000 10.515625000000 42.233997344971 224 224 224
11.765625000000 10.515625000000 42.270000457764 227 227 227
11.765625000000 10.515625000000 42.306003570557 223 223 223
11.203125000000 10.203125000000 42.213001251221 220 220 220
11.203125000000 10.203125000000 42.253002166748 223 223 223
11.203125000000 10.203125000000 42.291004180908 205 205 205
11.796875000000 10.859375000000 42.184001922607 225 225 225
11.781250000000 10.859375000000 42.217998504639 208 208 208
11.781250000000 10.859375000000 42.254001617432 220 220 220
11.781250000000 10.859375000000 42.288997650146 226 226 226
11.265625000000 10.562500000000 42.204998016357 209 209 209
11.265625000000 10.570312500000 42.243999481201 220 220 220
11.250000000000 10.562500000000 42.282001495361 191 191 191
11.234375000000 10.554687500000 42.315998077393 60 60 60
11.781250000000 11.187500000000 42.166004180908 186 186 186
11.781250000000 11.187500000000 42.201999664307 224 224 224
11.781250000000 11.187500000000 42.238002777100 221 221 221
11.781250000000 11.187500000000 42.271999359131 224 224 224
11.781250000000 11.187500000000 42.307003021240 227 227 227
11.343750000000 10.937500000000 42.240001678467 221 221 221
11.328125000000 10.937500000000 42.278003692627 205 205 205
11.343750000000 10.937500000000 42.316997528076 146 146 146
11.796875000000 11.515625000000 42.185001373291 221 221 221
11.812500000000 11.523437500000 42.222003936768 219 219 219
11.796875000000 11.515625000000 42.256999969482 223 223 223
11.796875000000 11.515625000000 42.291004180908 223 223 223
11.484375000000 11.343750000000 42.255001068115 223 223 223
11.390625000000 11.296875000000 42.273998260498 209 209 209
11.406250000000 11.296875000000 42.312999725342 169 169 169
11.734375000000 11.812500000000 42.152004241943 211 211 211
11.796875000000 11.835937500000 42.201999664307 219 219 219
11.812500000000 11.843750000000 42.240001678467 216 216 216
11.796875000000 11.835937500000 42.273998260498 210 210 210
11.796875000000 11.835937500000 42.306003570557 224 224 224
11.500000000000 11.656250000000 42.272998809814 218 218 218
11.500000000000 11.656250000000 42.308002471924 184 184 184
11.796875000000 12.171875000000 42.184001922607 216 216 216
11.812500000000 12.171875000000 42.221004486084 225 225 225
11.812500000000 12.171875000000 42.256000518799 226 226 226
11.812500000000 12.171875000000 42.292003631592 226 226 226
11.656250000000 12.093750000000 42.292003631592 223 223 223
11.562500000000 12.046875000000 42.309001922607 191 191 191
11.796875000000 12.500000000000 42.163997650146 48 48 48
11.828125000000 12.507812500000 42.204998016357 225 225 225
11.828125000000 12.507812500000 42.240001678467 226 226 226
11.828125000000 12.507812500000 42.274997711182 226 226 226
11.812500000000 12.500000000000 42.309001922607 222 222 222
11.640625000000 12.398437500000 42.302997589111 186 186 186
11.843750000000 12.843750000000 42.188999176025 201 201 201
11.828125000000 12.835937500000 42.222003936768 223 223 223
11.843750000000 12.843750000000 42.258998870850 226 226 226
11.843750000000 12.843750000000 42.295001983643 222 222 222
11.812500000000 12.828125000000 42.323001861572 179 179 179
11.687500000000 12.750000000000 42.330997467041 17 17 17
11.859375000000 13.171875000000 42.209003448486 205 205 205
11.859375000000 13.171875000000 42.243999481201 222 222 222
11.859375000000 13.171875000000 42.278003692627 214 214 214
11.859375000000 13.171875000000 42.313999176025 216 216 216
11.781250000000 13.140625000000 42.327999114990 136 136 136
11.671875000000 13.078125000000 42.343997955322 149 149 149
11.671875000000 13.078125000000 42.379001617432 161 161 161
11.671875000000 13.078125000000 42.416004180908 162 162 162
11.671875000000 13.078125000000 42.451999664307 147 147 147
11.687500000000 13.085937500000 42.491001129150 31 31 31
11.812500000000 13.382812500000 42.227001190186 55 55 55
11.812500000000 13.375000000000 42.261997222900 66 66 66
11.812500000000 13.375000000000 42.297000885010 76 76 76
11.812500000000 13.375000000000 42.331996917725 91 91 91
11.593750000000 13.273437500000 42.358997344971 70 70 70
11.593750000000 13.273437500000 42.395999908447 94 94 94
11.609375000000 13.281250000000 42.434001922607 74 74 74
11.593750000000 13.265625000000 42.466999053955 59 59 59
11.843750000000 13.179687500000 42.222003936768 205 205 205
11.843750000000 13.179687500000 42.257999420166 222 222 222
11.859375000000 13.187500000000 42.294002532959 223 223 223
11.843750000000 13.179687500000 42.328998565674 220 220 220
11.812500000000 13.164062500000 42.354999542236 168 168 168
11.812500000000 12.953125000000 42.196002960205 121 121 121
11.828125000000 12.953125000000 42.235004425049 220 220 220
11.828125000000 12.953125000000 42.270999908447 224 224 224
11.843750000000 12.960937500000 42.307003021240 211 211 211
11.828125000000 12.953125000000 42.341999053955 210 210 210
11.750000000000 12.921875000000 42.358997344971 116 116 116
11.812500000000 12.734375000000 42.212001800537 210 210 210
11.812500000000 12.734375000000 42.246997833252 226 226 226
11.812500000000 12.734375000000 42.284000396729 226 226 226
11.828125000000 12.734375000000 42.321002960205 226 226 226
11.718750000000 12.679687500000 42.334003448486 201 201 201
11.687500000000 12.648437500000 42.355998992920 91 91 91
11.812500000000 12.515625000000 42.194004058838 116 116 116
11.812500000000 12.515625000000 42.229000091553 225 225 225
11.796875000000 12.500000000000 42.264003753662 227 227 227
11.812500000000 12.515625000000 42.301998138428 227 227 227
11.796875000000 12.500000000000 42.334003448486 225 225 225
11.625000000000 12.390625000000 42.327999114990 203 203 203
11.812500000000 12.281250000000 42.216999053955 224 224 224
11.812500000000 12.281250000000 42.251003265381 225 225 225
11.812500000000 12.281250000000 42.286998748779 226 226 226
11.812500000000 12.265625000000 42.322002410889 227 227 227
11.593750000000 12.156250000000 42.308002471924 210 210 210
11.546875000000 12.125000000000 42.336002349854 167 167 167
11.812500000000 12.039062500000 42.201999664307 204 204 204
11.812500000000 12.039062500000 42.239002227783 219 219 219
11.812500000000 12.039062500000 42.274997711182 225 225 225
11.812500000000 12.039062500000 42.309001922607 224 224 224
11.734375000000 12.000000000000 42.327999114990 227 227 227
11.515625000000 11.875000000000 42.313999176025 196 196 196
11.515625000000 11.875000000000 42.349002838135 89 89 89
11.781250000000 11.804687500000 42.178997039795 108 108 108
11.796875000000 11.820312500000 42.222003936768 222 222 222
11.796875000000 11.820312500000 42.256000518799 216 216 216
11.796875000000 11.820312500000 42.293003082275 221 221 221
11.796875000000 11.820312500000 42.327999114990 226 226 226
11.468750000000 11.625000000000 42.286998748779 225 225 225
11.468750000000 11.625000000000 42.322002410889 190 190 190
11.796875000000 11.593750000000 42.201999664307 203 203 203
11.796875000000 11.593750000000 42.238002777100 223 223 223
11.781250000000 11.593750000000 42.271999359131 223 223 223
11.781250000000 11.593750000000 42.307003021240 226 226 226
11.750000000000 11.562500000000 42.330997467041 232 232 232
11.406250000000 11.382812500000 42.291004180908 220 220 220
11.406250000000 11.382812500000 42.328998565674 191 191 191
11.656250000000 11.296875000000 42.142002105713 246 246 246
11.781250000000 11.375000000000 42.216999053955 225 225 225
11.781250000000 11.375000000000 42.252002716064 223 223 223
11.781250000000 11.375000000000 42.286998748779 223 223 223
11.781250000000 11.375000000000 42.323001861572 225 225 225
11.375000000000 11.140625000000 42.264003753662 225 225 225
11.343750000000 11.140625000000 42.296001434326 218 218 218
11.343750000000 11.125000000000 42.331996917725 175 175 175
11.781250000000 11.140625000000 42.201000213623 220 220 220
11.781250000000 11.140625000000 42.235004425049 225 225 225
11.781250000000 11.140625000000 42.271999359131 225 225 225
11.781250000000 11.140625000000 42.307003021240 227 227 227
11.765625000000 11.132812500000 42.339000701904 206 206 206
11.328125000000 10.890625000000 42.272998809814 137 137 137
11.312500000000 10.875000000000 42.307003021240 189 189 189
11.750000000000 10.898437500000 42.174999237061 205 205 205
11.781250000000 10.914062500000 42.221004486084 224 224 224
11.781250000000 10.914062500000 42.256999969482 223 223 223
11.781250000000 10.906250000000 42.289997100830 226 226 226
11.781250000000 10.906250000000 42.325000762939 226 226 226
11.265625000000 10.625000000000 42.244998931885 223 223 223
11.250000000000 10.625000000000 42.282001495361 222 222 222
11.250000000000 10.625000000000 42.321002960205 191 191 191
11.781250000000 10.687500000000 42.205997467041 220 220 220
11.781250000000 10.687500000000 42.242000579834 225 225 225
11.765625000000 10.679687500000 42.274997711182 228 228 228
11.765625000000 10.679687500000 42.311000823975 228 228 228
11.187500000000 10.351562500000 42.213001251221 208 208 208
11.203125000000 10.367187500000 42.256999969482 224 224 224
11.203125000000 10.367187500000 42.297000885010 207 207 207
11.203125000000 10.367187500000 42.334003448486 136 136 136
11.765625000000 10.460937500000 42.187000274658 177 177 177
11.765625000000 10.460937500000 42.222003936768 224 224 224
11.765625000000 10.460937500000 42.256999969482 227 227 227
11.765625000000 10.460937500000 42.293003082275 226 226 226
11.765625000000 10.453125000000 42.326999664307 226 226 226
11.187500000000 10.132812500000 42.231998443604 201 201 201
11.171875000000 10.125000000000 42.269001007080 218 218 218
11.187500000000 10.125000000000 42.307003021240 215 215 215
11.750000000000 10.234375000000 42.200000762939 222 222 222
11.750000000000 10.234375000000 42.236003875732 227 227 227
11.765625000000 10.234375000000 42.271999359131 225 225 225
11.750000000000 10.226562500000 42.306003570557 227 227 227
11.718750000000 10.210937500000 42.333003997803 231 231 231
11.171875000000 9.914062500000 42.245998382568 172 172 172
11.156250000000 9.906250000000 42.282001495361 159 159 159
11.125000000000 9.890625000000 42.315998077393 194 194 194
11.734375000000 10.007812500000 42.174999237061 169 169 169
11.734375000000 10.007812500000 42.213001251221 227 227 227
11.734375000000 10.007812500000 42.247997283936 226 226 226
11.734375000000 10.007812500000 42.284000396729 228 228 228
11.734375000000 10.007812500000 42.319004058838 227 227 227
11.109375000000 9.656250000000 42.209003448486 135 135 135
11.093750000000 9.648437500000 42.246997833252 138 138 138
11.093750000000 9.648437500000 42.286998748779 130 130 130
11.078125000000 9.640625000000 42.324001312256 120 120 120
11.734375000000 9.773437500000 42.192996978760 222 222 222
11.734375000000 9.773437500000 42.229999542236 226 226 226
11.734375000000 9.773437500000 42.264003753662 228 228 228
11.734375000000 9.773437500000 42.299999237061 227 227 227
11.687500000000 9.750000000000 42.326999664307 238 238 238
11.046875000000 9.398437500000 42.219997406006 137 137 137
11.062500000000 9.406250000000 42.261997222900 126 126 126
11.062500000000 9.406250000000 42.301998138428 134 134 134
11.031250000000 9.382812500000 42.335002899170 23 23 23
11.437500000000 9.390625000000 41.681999206543 147 147 147
11.421875000000 9.375000000000 41.707000732422 140 140 140
11.437500000000 9.382812500000 41.754001617432 139 139 139
11.453125000000 9.398437500000 41.803997039795 144 144 144
11.468750000000 9.406250000000 41.847003936768 149 149 149
11.468750000000 9.406250000000 41.883998870850 154 154 154
11.453125000000 9.398437500000 41.921001434326 155 155 155
11.468750000000 9.406250000000 41.960002899170 153 153 153
11.468750000000 9.406250000000 41.997997283936 158 158 158
11.468750000000 9.406250000000 42.035999298096 150 150 150
11.453125000000 9.398437500000 42.074001312256 153 153 153
11.718750000000 9.531250000000 42.174999237061 141 141 141
11.718750000000 9.531250000000 42.213001251221 145 145 145
11.718750000000 9.531250000000 42.247997283936 147 147 147
11.718750000000 9.531250000000 42.284999847412 151 151 151
11.718750000000 9.531250000000 42.321002960205 148 148 148
11.500000000000 9.414062500000 42.308002471924 146 146 146
11.453125000000 9.390625000000 42.331996917725 156 156 156
11.437500000000 9.375000000000 42.365001678467 150 150 150
11.296875000000 9.296875000000 42.376003265381 107 107 107
11.687500000000 9.296875000000 41.744998931885 163 163 163
11.593750000000 9.242187500000 41.749004364014 125 125 125
11.578125000000 9.234375000000 41.785999298096 151 151 151
11.640625000000 9.273437500000 41.881000518799 156 156 156
11.578125000000 9.234375000000 41.936000823975 179 179 179
11.562500000000 9.226562500000 41.969997406006 164 164 164
11.562500000000 9.226562500000 42.008998870850 162 162 162
11.562500000000 9.226562500000 42.046001434326 150 150 150
11.562500000000 9.226562500000 42.083003997803 121 121 121
11.625000000000 9.265625000000 42.140003204346 155 155 155
11.703125000000 9.296875000000 42.192996978760 153 153 153
11.703125000000 9.296875000000 42.228000640869 155 155 155
11.703125000000 9.296875000000 42.266002655029 150 150 150
11.703125000000 9.296875000000 42.301998138428 149 149 149
11.671875000000 9.281250000000 42.333003997803 137 137 137
11.562500000000 9.226562500000 42.341999053955 163 163 163
11.531250000000 9.203125000000 42.374004364014 152 152 152
11.406250000000 9.132812500000 42.381000518799 98 98 98
11.156250000000 9.000000000000 42.369998931885 115 115 115
10.781250000000 8.796875000000 42.334003448486 39 39 39
11.515625000000 8.984375000000 41.780002593994 154 154 154
11.562500000000 9.000000000000 41.869998931885 165 165 165
11.562500000000 9.000000000000 41.908000946045 166 166 166
11.562500000000 9.000000000000 41.944004058838 166 166 166
11.546875000000 9.000000000000 41.981998443604 165 165 165
11.562500000000 9.000000000000 42.020000457764 163 163 163
11.546875000000 9.000000000000 42.056003570557 170 170 170
11.546875000000 9.000000000000 42.093997955322 168 168 168
11.671875000000 9.062500000000 42.166004180908 147 147 147
11.656250000000 9.046875000000 42.201000213623 171 171 171
11.656250000000 9.046875000000 42.237003326416 175 175 175
11.656250000000 9.046875000000 42.271999359131 172 172 172
11.671875000000 9.062500000000 42.312999725342 162 162 162
11.546875000000 8.984375000000 42.316997528076 162 162 162
11.531250000000 8.984375000000 42.351001739502 161 161 161
10.796875000000 8.578125000000 42.229000091553 125 125 125
10.859375000000 8.609375000000 42.283000946045 129 129 129
10.828125000000 8.593750000000 42.317996978760 121 121 121
10.796875000000 8.578125000000 42.354999542236 40 40 40
11.500000000000 8.976562500000 41.656002044678 196 196 196
11.531250000000 8.992187500000 41.706001281738 147 147 147
11.515625000000 8.984375000000 41.815998077393 147 147 147
11.750000000000 8.890625000000 42.168003082275 142 142 142
11.750000000000 8.875000000000 42.200000762939 170 170 170
11.750000000000 8.875000000000 42.237003326416 176 176 176
11.750000000000 8.875000000000 42.271999359131 172 172 172
11.750000000000 8.875000000000 42.308002471924 172 172 172
11.750000000000 8.890625000000 42.347003936768 94 94 94
11.781250000000 8.679687500000 42.157001495361 117 117 117
11.750000000000 8.671875000000 42.185001373291 150 150 150
11.750000000000 8.671875000000 42.221004486084 146 146 146
11.765625000000 8.671875000000 42.259998321533 145 145 145
11.765625000000 8.671875000000 42.294002532959 148 148 148
11.765625000000 8.671875000000 42.329998016357 139 139 139
11.828125000000 8.484375000000 42.117000579834 63 63 63
11.828125000000 8.484375000000 42.152004241943 135 135 135
11.828125000000 8.484375000000 42.186000823975 145 145 145
11.828125000000 8.484375000000 42.221004486084 142 142 142
11.828125000000 8.484375000000 42.258998870850 140 140 140
11.828125000000 8.484375000000 42.293003082275 143 143 143
11.812500000000 8.476562500000 42.326000213623 149 149 149
11.796875000000 8.468750000000 42.357997894287 126 126 126
11.687500000000 13.265625000000 42.491001129150 59 59 59
11.687500000000 13.265625000000 42.461002349854 140 140 140
11.687500000000 13.265625000000 42.430004119873 143 143 143
11.703125000000 13.265625000000 42.398998260498 146 146 146
11.718750000000 13.265625000000 42.370998382568 100 100 100
11.812500000000 13.265625000000 42.355998992920 172 172 172
11.859375000000 13.257812500000 42.335002899170 211 211 211
11.859375000000 13.257812500000 42.303997039795 216 216 216
11.859375000000 13.257812500000 42.272998809814 222 222 222
11.859375000000 13.257812500000 42.243000030518 215 215 215
11.875000000000 13.265625000000 42.215000152588 137 137 137
11.734375000000 13.039062500000 42.360004425049 24 24 24
11.843750000000 13.031250000000 42.349002838135 207 207 207
11.843750000000 13.031250000000 42.320003509521 223 223 223
11.843750000000 13.031250000000 42.288997650146 228 228 228
11.828125000000 13.031250000000 42.255001068115 227 227 227
11.843750000000 13.031250000000 42.227001190186 220 220 220
11.843750000000 13.031250000000 42.194004058838 27 27 27
11.750000000000 12.812500000000 42.353000640869 177 177 177
11.828125000000 12.796875000000 42.336002349854 221 221 221
11.828125000000 12.796875000000 42.305004119873 228 228 228
11.828125000000 12.796875000000 42.272998809814 225 225 225
11.828125000000 12.796875000000 42.243999481201 227 227 227
11.843750000000 12.804687500000 42.215000152588 204 204 204
11.656250000000 12.585937500000 42.353000640869 130 130 130
11.765625000000 12.578125000000 42.343997955322 199 199 199
11.796875000000 12.578125000000 42.320003509521 233 233 233
11.812500000000 12.578125000000 42.291004180908 227 227 227
11.796875000000 12.578125000000 42.257999420166 230 230 230
11.796875000000 12.578125000000 42.228000640869 228 228 228
11.812500000000 12.578125000000 42.200000762939 116 116 116
11.593750000000 12.359375000000 42.357997894287 56 56 56
11.625000000000 12.359375000000 42.330997467041 212 212 212
11.796875000000 12.343750000000 42.334003448486 226 226 226
11.796875000000 12.343750000000 42.302997589111 230 230 230
11.796875000000 12.343750000000 42.271999359131 226 226 226
11.796875000000 12.359375000000 42.240001678467 229 229 229
11.796875000000 12.343750000000 42.212001800537 200 200 200
11.515625000000 12.148437500000 42.354999542236 25 25 25
11.578125000000 12.140625000000 42.335002899170 190 190 190
11.765625000000 12.125000000000 42.336002349854 229 229 229
11.796875000000 12.132812500000 42.312000274658 231 231 231
11.812500000000 12.140625000000 42.284000396729 222 222 222
11.796875000000 12.132812500000 42.250003814697 223 223 223
11.796875000000 12.132812500000 42.218997955322 223 223 223
11.812500000000 12.140625000000 42.189998626709 35 35 35
11.515625000000 11.921875000000 42.339000701904 192 192 192
11.578125000000 11.921875000000 42.316997528076 228 228 228
11.796875000000 11.921875000000 42.324001312256 232 232 232
11.796875000000 11.921875000000 42.294002532959 226 226 226
11.812500000000 11.914062500000 42.266002655029 215 215 215
11.796875000000 11.921875000000 42.231998443604 223 223 223
11.812500000000 11.914062500000 42.204998016357 191 191 191
11.484375000000 11.687500000000 42.346004486084 154 154 154
11.484375000000 11.687500000000 42.314998626709 206 206 206
11.750000000000 11.687500000000 42.334003448486 225 225 225
11.796875000000 11.687500000000 42.310001373291 225 225 225
11.796875000000 11.687500000000 42.282001495361 221 221 221
11.796875000000 11.687500000000 42.250003814697 219 219 219
11.796875000000 11.687500000000 42.217998504639 222 222 222
11.812500000000 11.687500000000 42.189998626709 115 115 115
11.437500000000 11.453125000000 42.328998565674 191 191 191
11.437500000000 11.468750000000 42.295001983643 226 226 226
11.781250000000 11.460937500000 42.330997467041 222 222 222
11.781250000000 11.460937500000 42.299999237061 227 227 227
11.796875000000 11.453125000000 42.270000457764 222 222 222
11.796875000000 11.453125000000 42.239002227783 219 219 219
11.781250000000 11.460937500000 42.208003997803 218 218 218
11.359375000000 11.234375000000 42.337001800537 187 187 187
11.375000000000 11.242187500000 42.305004119873 223 223 223
11.687500000000 11.234375000000 42.327999114990 246 246 246
11.781250000000 11.234375000000 42.317996978760 227 227 227
11.781250000000 11.234375000000 42.284999847412 227 227 227
11.781250000000 11.234375000000 42.256000518799 222 222 222
11.781250000000 11.234375000000 42.223003387451 227 227 227
11.796875000000 11.226562500000 42.197002410889 180 180 180
11.343750000000 11.015625000000 42.344997406006 171 171 171
11.343750000000 11.015625000000 42.312000274658 212 212 212
11.375000000000 11.015625000000 42.287998199463 231 231 231
11.765625000000 11.000000000000 42.326999664307 235 235 235
11.781250000000 11.007812500000 42.298000335693 230 230 230
11.781250000000 11.007812500000 42.267002105713 231 231 231
11.781250000000 11.007812500000 42.236003875732 228 228 228
11.781250000000 11.000000000000 42.206996917725 219 219 219
11.265625000000 10.796875000000 42.347003936768 118 118 118
11.312500000000 10.796875000000 42.315998077393 201 201 201
11.312500000000 10.796875000000 42.284000396729 217 217 217
11.750000000000 10.781250000000 42.334003448486 225 225 225
11.765625000000 10.781250000000 42.308002471924 221 221 221
11.765625000000 10.781250000000 42.275997161865 232 232 232
11.781250000000 10.789062500000 42.246997833252 218 218 218
11.781250000000 10.789062500000 42.215000152588 220 220 220
11.609375000000 10.789062500000 42.147998809814 14 14 14
11.250000000000 10.578125000000 42.324001312256 190 190 190
11.250000000000 10.578125000000 42.288997650146 230 230 230
11.265625000000 10.570312500000 42.257999420166 220 220 220
11.750000000000 10.562500000000 42.317996978760 238 238 238
11.765625000000 10.562500000000 42.291004180908 226 226 226
11.765625000000 10.562500000000 42.258998870850 226 226 226
11.765625000000 10.562500000000 42.228000640869 226 226 226
11.781250000000 10.562500000000 42.198001861572 214 214 214
11.203125000000 10.343750000000 42.337001800537 167 167 167
11.218750000000 10.343750000000 42.305004119873 209 209 209
11.203125000000 10.343750000000 42.269001007080 230 230 230
11.687500000000 10.328125000000 42.326000213623 4 4 4
11.765625000000 10.328125000000 42.307003021240 229 229 229
11.765625000000 10.328125000000 42.277004241943 227 227 227
11.750000000000 10.328125000000 42.242000579834 237 237 237
11.765625000000 10.328125000000 42.215000152588 225 225 225
11.765625000000 10.328125000000 42.185001373291 154 154 154
11.187500000000 10.125000000000 42.322002410889 214 214 214
11.187500000000 10.125000000000 42.285999298096 226 226 226
11.203125000000 10.117187500000 42.256000518799 215 215 215
11.750000000000 10.101562500000 42.326999664307 228 228 228
11.750000000000 10.101562500000 42.295001983643 227 227 227
11.750000000000 10.101562500000 42.264003753662 231 231 231
11.734375000000 10.093750000000 42.231998443604 231 231 231
11.750000000000 10.101562500000 42.203998565674 223 223 223
11.140625000000 9.898437500000 42.333003997803 175 175 175
11.140625000000 9.890625000000 42.300998687744 182 182 182
11.187500000000 9.890625000000 42.271999359131 174 174 174
11.703125000000 9.875000000000 42.337001800537 217 217 217
11.718750000000 9.875000000000 42.311000823975 227 227 227
11.718750000000 9.875000000000 42.279003143311 235 235 235
11.718750000000 9.875000000000 42.249004364014 224 224 224
11.718750000000 9.875000000000 42.215999603271 228 228 228
11.750000000000 9.875000000000 42.188999176025 190 190 190
11.078125000000 9.671875000000 42.339000701904 155 155 155
11.109375000000 9.671875000000 42.309001922607 172 172 172
11.109375000000 9.671875000000 42.274997711182 170 170 170
11.718750000000 9.656250000000 42.351001739502 158 158 158
11.734375000000 9.664062500000 42.323001861572 177 177 177
11.734375000000 9.656250000000 42.293003082275 170 170 170
11.734375000000 9.656250000000 42.261997222900 181 181 181
11.734375000000 9.656250000000 42.230998992920 183 183 183
11.734375000000 9.656250000000 42.199001312256 175 175 175
11.062500000000 9.453125000000 42.348003387451 31 31 31
11.062500000000 9.453125000000 42.316997528076 172 172 172
11.062500000000 9.453125000000 42.281002044678 170 170 170
11.093750000000 9.453125000000 42.249004364014 165 165 165
11.718750000000 9.437500000000 42.333003997803 175 175 175
11.718750000000 9.437500000000 42.301998138428 174 174 174
11.718750000000 9.429687500000 42.271999359131 183 183 183
11.718750000000 9.437500000000 42.239002227783 175 175 175
11.718750000000 9.429687500000 42.209003448486 185 185 185
11.718750000000 9.429687500000 42.176998138428 153 153 153
11.937500000000 9.429687500000 42.105998992920 188 188 188
11.218750000000 9.437500000000 41.755001068115 153 153 153
11.296875000000 9.437500000000 41.736003875732 179 179 179
11.218750000000 9.226562500000 42.394001007080 49 49 49
11.375000000000 9.218750000000 42.383998870850 105 105 105
11.546875000000 9.218750000000 42.382999420166 150 150 150
11.562500000000 9.218750000000 42.354000091553 174 174 174
11.687500000000 9.218750000000 42.342998504639 181 181 181
11.703125000000 9.218750000000 42.315998077393 182 182 182
11.718750000000 9.210937500000 42.285999298096 180 180 180
11.703125000000 9.218750000000 42.253002166748 183 183 183
11.703125000000 9.218750000000 42.222003936768 184 184 184
11.703125000000 9.203125000000 42.190998077393 175 175 175
11.609375000000 9.218750000000 42.138004302979 175 175 175
11.593750000000 9.218750000000 42.102001190186 173 173 173
11.578125000000 9.218750000000 42.065998077393 177 177 177
11.562500000000 9.210937500000 42.031002044678 180 180 180
11.562500000000 9.218750000000 41.996997833252 182 182 182
11.562500000000 9.210937500000 41.965999603271 189 189 189
11.578125000000 9.218750000000 41.935001373291 205 205 205
11.562500000000 9.210937500000 41.899997711182 188 188 188
11.562500000000 9.210937500000 41.867000579834 186 186 186
11.562500000000 9.210937500000 41.834003448486 182 182 182
11.531250000000 9.203125000000 41.792003631592 166 166 166
11.562500000000 9.210937500000 41.732997894287 144 144 144
11.500000000000 9.203125000000 41.639999389648 147 147 147
11.500000000000 9.203125000000 41.604999542236 160 160 160
11.500000000000 9.203125000000 41.569999694824 151 151 151
11.531250000000 9.203125000000 41.756000518799 145 145 145
11.437500000000 9.203125000000 41.520000457764 142 142 142
11.468750000000 9.203125000000 41.491001129150 135 135 135
11.093750000000 9.000000000000 42.360004425049 86 86 86
11.437500000000 8.984375000000 42.384998321533 100 100 100
11.546875000000 8.984375000000 42.368999481201 168 168 168
11.546875000000 8.984375000000 42.337001800537 171 171 171
11.687500000000 8.984375000000 42.331996917725 157 157 157
11.718750000000 8.984375000000 42.307003021240 147 147 147
11.718750000000 8.984375000000 42.275997161865 152 152 152
11.703125000000 8.976562500000 42.243000030518 163 163 163
11.718750000000 8.984375000000 42.214000701904 151 151 151
11.703125000000 8.976562500000 42.180004119873 149 149 149
11.609375000000 8.984375000000 42.129001617432 171 171 171
11.562500000000 8.984375000000 42.079998016357 175 175 175
11.546875000000 8.984375000000 42.046001434326 174 174 174
11.562500000000 8.984375000000 42.014003753662 171 171 171
11.562500000000 8.984375000000 41.980998992920 172 172 172
11.546875000000 8.984375000000 41.948001861572 169 169 169
11.562500000000 8.984375000000 41.916004180908 177 177 177
11.546875000000 8.984375000000 41.881000518799 175 175 175
11.562500000000 8.984375000000 41.850002288818 173 173 173
11.562500000000 8.984375000000 41.816997528076 175 175 175
11.562500000000 8.984375000000 41.783000946045 172 172 172
11.562500000000 8.976562500000 41.749004364014 173 173 173
11.562500000000 8.984375000000 41.715000152588 172 172 172
11.562500000000 8.984375000000 41.687000274658 173 173 173
11.515625000000 8.984375000000 41.632999420166 16 16 16
10.828125000000 8.773437500000 42.340000152588 122 122 122
10.859375000000 8.773437500000 42.311000823975 167 167 167
10.875000000000 8.773437500000 42.275997161865 168 168 168
10.875000000000 8.773437500000 42.240001678467 171 171 171
10.859375000000 8.765625000000 42.202999114990 166 166 166
11.750000000000 8.750000000000 42.334003448486 164 164 164
11.750000000000 8.750000000000 42.305004119873 183 183 183
11.765625000000 8.750000000000 42.274997711182 182 182 182
11.750000000000 8.750000000000 42.242000579834 182 182 182
11.750000000000 8.750000000000 42.212001800537 181 181 181
11.750000000000 8.750000000000 42.181003570557 177 177 177
11.718750000000 8.750000000000 42.142002105713 178 178 178
10.812500000000 8.546875000000 42.355998992920 94 94 94
10.828125000000 8.546875000000 42.322002410889 145 145 145
10.843750000000 8.546875000000 42.289997100830 166 166 166
10.859375000000 8.546875000000 42.255001068115 166 166 166
10.859375000000 8.546875000000 42.218997955322 166 166 166
11.812500000000 8.515625000000 42.364002227783 152 152 152
11.828125000000 8.515625000000 42.338001251221 170 170 170
11.828125000000 8.523437500000 42.306003570557 170 170 170
11.828125000000 8.515625000000 42.277004241943 169 169 169
11.828125000000 8.515625000000 42.246997833252 170 170 170
11.843750000000 8.515625000000 42.216999053955 167 167 167
11.843750000000 8.515625000000 42.187000274658 165 165 165
11.828125000000 8.515625000000 42.155002593994 167 167 167
11.843750000000 8.515625000000 42.125003814697 63 63 63
11.812500000000 13.343750000000 42.353000640869 164 164 164
11.843750000000 13.328125000000 42.320003509521 172 172 172
11.843750000000 13.335937500000 42.284000396729 200 200 200
11.812500000000 13.328125000000 42.245998382568 204 204 204
11.812500000000 13.328125000000 42.211002349854 130 130 130
11.687500000000 13.203125000000 42.515003204346 153 153 153
11.687500000000 13.195312500000 42.479999542236 170 170 170
11.687500000000 13.203125000000 42.441997528076 167 167 167
11.687500000000 13.187500000000 42.409000396729 168 168 168
11.687500000000 13.179687500000 42.374004364014 154 154 154
11.781250000000 13.140625000000 42.355998992920 152 152 152
11.859375000000 13.093750000000 42.338001251221 216 216 216
11.859375000000 13.093750000000 42.301998138428 205 205 205
11.859375000000 13.093750000000 42.265003204346 210 210 210
11.859375000000 13.093750000000 42.230998992920 214 214 214
11.812500000000 12.890625000000 42.347003936768 173 173 173
11.843750000000 12.875000000000 42.317996978760 219 219 219
11.828125000000 12.875000000000 42.280002593994 224 224 224
11.843750000000 12.875000000000 42.245998382568 222 222 222
11.843750000000 12.875000000000 42.212001800537 185 185 185
11.687500000000 12.734375000000 42.341999053955 171 171 171
11.812500000000 12.648437500000 42.338001251221 212 212 212
11.812500000000 12.656250000000 42.301998138428 223 223 223
11.828125000000 12.640625000000 42.269001007080 223 223 223
11.812500000000 12.648437500000 42.231998443604 216 216 216
11.796875000000 12.656250000000 42.189998626709 98 98 98
11.640625000000 12.531250000000 42.354000091553 90 90 90
11.703125000000 12.500000000000 42.333003997803 197 197 197
11.812500000000 12.421875000000 42.326000213623 224 224 224
11.796875000000 12.429687500000 42.286998748779 222 222 222
11.812500000000 12.421875000000 42.253002166748 223 223 223
11.812500000000 12.421875000000 42.216999053955 215 215 215
11.625000000000 12.320312500000 42.330997467041 202 202 202
11.812500000000 12.210937500000 42.338001251221 219 219 219
11.828125000000 12.203125000000 42.305004119873 224 224 224
11.812500000000 12.203125000000 42.267002105713 222 222 222
11.812500000000 12.203125000000 42.231998443604 223 223 223
11.812500000000 12.203125000000 42.197002410889 125 125 125
11.578125000000 12.125000000000 42.336002349854 185 185 185
11.687500000000 12.062500000000 42.324001312256 224 224 224
11.812500000000 11.984375000000 42.316997528076 213 213 213
11.812500000000 11.984375000000 42.281002044678 210 210 210
11.812500000000 11.984375000000 42.245998382568 206 206 206
11.812500000000 11.984375000000 42.210002899170 204 204 204
11.531250000000 11.929687500000 42.340999603271 176 176 176
11.531250000000 11.921875000000 42.306003570557 224 224 224
11.796875000000 11.765625000000 42.330997467041 220 220 220
11.796875000000 11.765625000000 42.296001434326 214 214 214
11.796875000000 11.765625000000 42.259998321533 211 211 211
11.796875000000 11.765625000000 42.222003936768 208 208 208
11.796875000000 11.765625000000 42.187000274658 88 88 88
11.484375000000 11.742187500000 42.350002288818 107 107 107
11.500000000000 11.718750000000 42.316997528076 198 198 198
11.656250000000 11.625000000000 42.319004058838 227 227 227
