26.312500000000 7.000000000000 4.455017089844 177 177 177
26.312500000000 7.000000000000 4.333007812500 184 184 184
26.312500000000 7.000000000000 4.212005615234 194 194 194
26.312500000000 7.000000000000 4.090026855469 194 194 194
26.312500000000 7.000000000000 3.968017578125 190 190 190
26.437500000000 7.000000000000 8.667022705078 56 56 56
26.375000000000 7.000000000000 7.714019775391 43 43 43
26.437500000000 7.000000000000 7.607025146484 37 37 37
26.562500000000 7.125000000000 7.493011474609 70 70 70
26.250000000000 7.000000000000 6.280029296875 168 168 168
26.187500000000 7.000000000000 6.156005859375 186 186 186
26.187500000000 7.000000000000 6.032012939453 191 191 191
26.187500000000 7.000000000000 5.910003662109 190 190 190
26.187500000000 7.000000000000 5.789001464844 180 180 180
26.375000000000 7.125000000000 5.679016113281 19 19 19
26.375000000000 7.125000000000 5.555999755859 16 16 16
26.312500000000 7.125000000000 5.427001953125 27 27 27
26.437500000000 7.250000000000 8.672027587891 9 9 9
26.437500000000 7.250000000000 7.718017578125 27 27 27
26.250000000000 7.250000000000 6.280029296875 156 156 156
26.187500000000 7.250000000000 6.156005859375 139 139 139
26.250000000000 7.250000000000 6.035003662109 189 189 189
26.250000000000 7.250000000000 5.912017822266 191 191 191
26.250000000000 7.250000000000 5.790008544922 194 194 194
26.312500000000 7.250000000000 5.672027587891 213 213 213
26.312500000000 7.250000000000 5.551025390625 85 85 85
26.437500000000 7.250000000000 7.720001220703 29 29 29
26.437500000000 7.375000000000 7.610015869141 85 85 85
26.437500000000 7.500000000000 8.535003662109 10 10 10
26.437500000000 7.500000000000 7.719024658203 29 29 29
26.562500000000 7.500000000000 7.610015869141 88 88 88
26.187500000000 7.500000000000 6.157012939453 4 4 4
26.437500000000 7.625000000000 8.532012939453 15 15 15
26.437500000000 7.625000000000 7.719024658203 18 18 18
26.375000000000 7.750000000000 7.714019775391 10 10 10
26.437500000000 7.875000000000 8.402008056641 26 26 26
26.437500000000 7.875000000000 7.479003906250 20 20 20
26.437500000000 8.000000000000 7.727020263672 3 3 3
26.437500000000 8.125000000000 7.722015380859 6 6 6
26.437500000000 8.250000000000 8.264007568359 51 51 51
26.437500000000 8.250000000000 7.341003417969 6 6 6
26.437500000000 8.375000000000 7.723022460938 5 5 5
26.437500000000 8.375000000000 7.338012695313 132 132 132
26.437500000000 8.500000000000 7.587005615234 6 6 6
26.437500000000 8.500000000000 7.457000732422 25 25 25
26.437500000000 8.500000000000 7.336029052734 23 23 23
26.437500000000 8.625000000000 8.133026123047 52 52 52
26.437500000000 8.625000000000 7.204010009766 51 51 51
26.437500000000 8.750000000000 7.600006103516 118 118 118
26.437500000000 8.750000000000 7.468017578125 105 105 105
26.437500000000 8.750000000000 7.333007812500 44 44 44
26.437500000000 8.875000000000 7.202026367188 111 111 111
26.437500000000 8.875000000000 7.071014404297 33 33 33
26.312500000000 8.875000000000 7.722015380859 75 75 75
26.437500000000 9.000000000000 7.334014892578 10 10 10
26.437500000000 9.125000000000 7.999023437500 47 47 47
26.437500000000 9.125000000000 7.335021972656 6 6 6
26.437500000000 9.375000000000 7.603027343750 113 113 113
26.437500000000 9.375000000000 7.482025146484 13 13 13
26.437500000000 9.375000000000 7.345001220703 165 165 165
26.437500000000 9.375000000000 7.219024658203 11 11 11
26.437500000000 9.500000000000 7.871002197266 41 41 41
26.437500000000 9.500000000000 7.475006103516 22 22 22
26.437500000000 9.500000000000 7.343017578125 122 122 122
26.437500000000 9.625000000000 7.611999511719 95 95 95
26.437500000000 9.625000000000 7.344024658203 80 80 80
26.437500000000 9.750000000000 7.739013671875 154 154 154
26.437500000000 9.750000000000 7.609008789063 86 86 86
26.437500000000 9.750000000000 7.346008300781 128 128 128
26.437500000000 9.875000000000 7.731018066406 51 51 51
26.437500000000 9.875000000000 7.606018066406 99 99 99
26.437500000000 9.875000000000 7.473022460938 129 129 129
26.437500000000 9.875000000000 7.343017578125 122 122 122
26.437500000000 9.875000000000 7.226013183594 27 27 27
26.437500000000 10.000000000000 7.617004394531 141 141 141
26.437500000000 10.000000000000 7.486999511719 173 173 173
26.437500000000 10.000000000000 7.347015380859 86 86 86
26.500000000000 10.000000000000 7.228027343750 10 10 10
26.437500000000 10.125000000000 7.618011474609 158 158 158
26.437500000000 10.125000000000 7.486999511719 164 164 164
26.437500000000 10.125000000000 7.351013183594 99 99 99
26.437500000000 10.250000000000 7.619018554688 146 146 146
26.437500000000 10.250000000000 7.486999511719 151 151 151
26.437500000000 10.250000000000 7.354003906250 19 19 19
26.437500000000 10.375000000000 7.621002197266 128 128 128
26.500000000000 10.375000000000 7.493011474609 170 170 170
26.437500000000 10.375000000000 7.356018066406 1 1 1
26.437500000000 10.500000000000 7.621002197266 131 131 131
26.437500000000 10.500000000000 7.489013671875 133 133 133
26.437500000000 10.625000000000 7.620025634766 99 99 99
26.500000000000 10.625000000000 7.491027832031 113 113 113
26.437500000000 10.625000000000 7.358001708984 55 55 55
26.437500000000 10.875000000000 7.624023437500 104 104 104
26.500000000000 10.875000000000 7.495025634766 125 125 125
26.500000000000 10.875000000000 7.361999511719 57 57 57
26.500000000000 10.875000000000 7.625000000000 97 97 97
26.500000000000 10.875000000000 7.498016357422 182 182 182
26.500000000000 10.875000000000 7.363006591797 95 95 95
26.500000000000 10.875000000000 7.240020751953 6 6 6
26.437500000000 11.000000000000 7.628021240234 93 93 93
26.500000000000 11.125000000000 7.503021240234 152 152 152
26.437500000000 11.125000000000 7.370025634766 121 121 121
26.437500000000 11.250000000000 7.626007080078 122 122 122
26.500000000000 11.250000000000 7.504028320313 165 165 165
26.437500000000 11.250000000000 7.371002197266 114 114 114
26.437500000000 11.375000000000 7.629028320313 109 109 109
26.500000000000 11.250000000000 7.509002685547 188 188 188
26.437500000000 11.375000000000 7.375000000000 143 143 143
26.437500000000 11.500000000000 7.633026123047 102 102 102
26.500000000000 11.500000000000 7.510009765625 185 185 185
26.500000000000 11.500000000000 7.381011962891 159 159 159
26.375000000000 11.625000000000 7.633026123047 105 105 105
26.437500000000 11.625000000000 7.511016845703 138 138 138
26.437500000000 11.625000000000 7.380004882813 157 157 157
26.375000000000 11.750000000000 7.637023925781 104 104 104
26.500000000000 11.750000000000 7.520019531250 146 146 146
26.500000000000 11.750000000000 7.386016845703 163 163 163
26.437500000000 11.875000000000 7.639007568359 117 117 117
26.500000000000 11.875000000000 7.518005371094 97 97 97
26.500000000000 11.875000000000 7.388000488281 175 175 175
26.437500000000 12.000000000000 7.639007568359 118 118 118
26.500000000000 12.000000000000 7.521026611328 122 122 122
26.500000000000 12.000000000000 7.389007568359 166 166 166
26.437500000000 12.250000000000 7.646026611328 154 154 154
26.500000000000 12.125000000000 7.530029296875 156 156 156
26.500000000000 12.125000000000 7.393005371094 132 132 132
26.500000000000 12.125000000000 7.263000488281 38 38 38
26.375000000000 12.250000000000 7.647003173828 159 159 159
26.500000000000 12.250000000000 7.530029296875 135 135 135
26.500000000000 12.250000000000 7.403015136719 126 126 126
26.375000000000 12.375000000000 7.655029296875 152 152 152
26.500000000000 12.500000000000 7.540008544922 142 142 142
26.437500000000 12.375000000000 7.402008056641 122 122 122
26.500000000000 12.500000000000 7.274017333984 66 66 66
26.500000000000 12.500000000000 7.800018310547 18 18 18
26.437500000000 12.625000000000 7.659027099609 116 116 116
26.500000000000 12.500000000000 7.541015625000 131 131 131
26.500000000000 12.625000000000 7.283020019531 15 15 15
26.500000000000 12.625000000000 7.811004638672 45 45 45
26.437500000000 12.625000000000 7.662017822266 113 113 113
26.500000000000 12.625000000000 7.555023193359 88 88 88
26.375000000000 12.750000000000 7.665008544922 105 105 105
26.437500000000 12.875000000000 7.676025390625 159 159 159
26.500000000000 13.125000000000 7.959014892578 63 63 63
26.437500000000 13.125000000000 7.682006835938 130 130 130
26.500000000000 13.125000000000 7.427001953125 25 25 25
26.687500000000 13.125000000000 5.284027099609 6 6 6
26.500000000000 13.250000000000 7.682006835938 109 109 109
26.500000000000 13.375000000000 7.678009033203 89 89 89
26.500000000000 13.375000000000 7.558013916016 117 117 117
26.562500000000 13.500000000000 8.101013183594 73 73 73
26.437500000000 13.500000000000 7.680999755859 39 39 39
26.500000000000 13.500000000000 7.301025390625 13 13 13
26.437500000000 13.625000000000 7.684020996094 14 14 14
26.500000000000 13.625000000000 7.564025878906 66 66 66
26.500000000000 13.625000000000 7.435028076172 62 62 62
26.437500000000 13.750000000000 7.688018798828 6 6 6
26.562500000000 13.750000000000 7.439025878906 113 113 113
26.437500000000 13.875000000000 8.246002197266 58 58 58
26.437500000000 13.875000000000 7.693023681641 23 23 23
26.437500000000 13.875000000000 7.567016601563 128 128 128
26.437500000000 13.875000000000 7.443023681641 11 11 11
26.562500000000 14.250000000000 8.394012451172 23 23 23
26.562500000000 14.375000000000 8.407012939453 12 12 12
26.562500000000 14.500000000000 5.426025390625 5 5 5
26.562500000000 14.500000000000 5.302001953125 10 10 10
26.500000000000 14.625000000000 4.805999755859 8 8 8
26.562500000000 14.625000000000 8.540008544922 30 30 30
26.562500000000 14.875000000000 8.551025390625 6 6 6
26.500000000000 15.000000000000 8.679016113281 40 40 40
26.500000000000 15.250000000000 10.007019042969 31 31 31
26.500000000000 15.250000000000 9.851013183594 69 69 69
26.500000000000 15.250000000000 9.694000244141 76 76 76
26.500000000000 15.250000000000 9.539001464844 86 86 86
26.500000000000 15.250000000000 9.390014648438 88 88 88
26.437500000000 15.250000000000 9.243011474609 92 92 92
26.437500000000 15.250000000000 9.097015380859 85 85 85
26.437500000000 15.250000000000 8.954010009766 82 82 82
26.437500000000 15.250000000000 8.805999755859 81 81 81
26.437500000000 15.250000000000 8.663024902344 96 96 96
26.437500000000 15.250000000000 8.523010253906 74 74 74
26.437500000000 15.125000000000 8.379028320313 73 73 73
26.437500000000 15.125000000000 8.242004394531 78 78 78
26.437500000000 15.250000000000 8.113006591797 84 84 84
26.437500000000 15.250000000000 7.971008300781 85 85 85
26.437500000000 15.250000000000 7.836029052734 93 93 93
26.437500000000 15.250000000000 7.696014404297 114 114 114
26.437500000000 15.250000000000 7.573028564453 110 110 110
26.437500000000 15.250000000000 7.434020996094 91 91 91
26.375000000000 15.250000000000 7.302001953125 99 99 99
26.375000000000 15.250000000000 6.783020019531 96 96 96
26.375000000000 15.250000000000 6.658020019531 97 97 97
26.375000000000 15.250000000000 6.531005859375 96 96 96
26.375000000000 15.250000000000 6.407012939453 122 122 122
26.375000000000 15.250000000000 6.280029296875 89 89 89
26.375000000000 15.250000000000 6.157012939453 95 95 95
26.375000000000 15.250000000000 5.785003662109 107 107 107
26.312500000000 15.250000000000 5.661010742188 108 108 108
26.312500000000 15.250000000000 5.538024902344 114 114 114
26.312500000000 15.250000000000 5.416015625000 118 118 118
26.312500000000 15.250000000000 5.294006347656 121 121 121
26.312500000000 15.250000000000 5.172027587891 130 130 130
26.312500000000 15.250000000000 5.050018310547 130 130 130
26.312500000000 15.250000000000 4.928009033203 132 132 132
26.312500000000 15.250000000000 4.807006835938 137 137 137
26.312500000000 15.250000000000 4.685028076172 142 142 142
26.312500000000 15.250000000000 4.564025878906 144 144 144
26.312500000000 15.250000000000 4.442016601563 145 145 145
26.312500000000 15.250000000000 4.321014404297 150 150 150
26.312500000000 15.250000000000 4.200012207031 154 154 154
26.312500000000 15.250000000000 4.078002929688 152 152 152
26.312500000000 15.250000000000 3.956024169922 156 156 156
26.312500000000 15.250000000000 3.834014892578 158 158 158
26.312500000000 15.250000000000 3.711029052734 166 166 166
26.312500000000 15.250000000000 3.589019775391 166 166 166
26.312500000000 15.250000000000 3.467010498047 178 178 178
26.312500000000 15.250000000000 3.344024658203 188 188 188
26.312500000000 15.250000000000 3.220001220703 194 194 194
26.312500000000 15.250000000000 3.097015380859 198 198 198
26.250000000000 15.250000000000 2.973999023438 199 199 199
26.250000000000 15.250000000000 2.852020263672 196 196 196
26.250000000000 15.250000000000 2.727020263672 202 202 202
26.250000000000 15.250000000000 2.601013183594 197 197 197
26.250000000000 15.250000000000 2.477020263672 190 190 190
26.250000000000 15.375000000000 2.350006103516 191 191 191
26.375000000000 15.250000000000 7.171020507813 30 30 30
26.375000000000 15.250000000000 5.910003662109 73 73 73
26.437500000000 15.375000000000 9.979003906250 131 131 131
26.437500000000 15.375000000000 9.824005126953 138 138 138
26.437500000000 15.375000000000 9.674011230469 157 157 157
26.437500000000 15.375000000000 9.521026611328 157 157 157
26.437500000000 15.375000000000 9.371002197266 157 157 157
26.437500000000 15.375000000000 9.227020263672 159 159 159
26.437500000000 15.375000000000 9.077026367188 155 155 155
26.437500000000 15.375000000000 8.932006835938 158 158 158
26.437500000000 15.375000000000 8.795013427734 158 158 158
26.437500000000 15.375000000000 8.652008056641 153 153 153
26.437500000000 15.375000000000 8.509002685547 161 161 161
26.437500000000 15.375000000000 8.369018554688 164 164 164
26.437500000000 15.375000000000 8.230010986328 167 167 167
26.375000000000 15.375000000000 8.090026855469 164 164 164
26.375000000000 15.375000000000 7.956024169922 164 164 164
26.375000000000 15.375000000000 7.822021484375 169 169 169
26.375000000000 15.375000000000 7.690002441406 167 167 167
26.375000000000 15.375000000000 7.555023193359 152 152 152
26.375000000000 15.375000000000 7.421020507813 163 163 163
26.375000000000 15.375000000000 7.294006347656 165 165 165
26.312500000000 15.375000000000 7.160003662109 179 179 179
26.312500000000 15.375000000000 7.032012939453 178 178 178
26.375000000000 15.375000000000 6.907012939453 171 171 171
26.312500000000 15.375000000000 6.778015136719 181 181 181
26.312500000000 15.375000000000 6.651000976563 177 177 177
26.250000000000 15.375000000000 6.524017333984 178 178 178
26.312500000000 15.375000000000 6.400024414063 179 179 179
26.250000000000 15.375000000000 6.275024414063 184 184 184
26.250000000000 15.375000000000 6.151000976563 182 182 182
26.312500000000 15.375000000000 6.029022216797 185 185 185
26.250000000000 15.375000000000 5.903015136719 180 180 180
26.250000000000 15.375000000000 5.781005859375 186 186 186
26.250000000000 15.375000000000 5.659027099609 187 187 187
26.187500000000 15.375000000000 5.537017822266 190 190 190
26.312500000000 15.500000000000 5.416015625000 189 189 189
26.187500000000 15.375000000000 5.294006347656 195 195 195
26.187500000000 15.375000000000 5.173004150391 195 195 195
26.187500000000 15.375000000000 5.051025390625 197 197 197
26.187500000000 15.375000000000 4.930023193359 196 196 196
26.187500000000 15.375000000000 4.810028076172 192 192 192
26.187500000000 15.375000000000 4.689025878906 197 197 197
26.187500000000 15.375000000000 4.568023681641 200 200 200
26.187500000000 15.375000000000 4.448028564453 199 199 199
26.187500000000 15.375000000000 4.327026367188 203 203 203
26.187500000000 15.375000000000 4.207000732422 203 203 203
26.187500000000 15.375000000000 4.086029052734 198 198 198
26.250000000000 15.500000000000 3.964019775391 198 198 198
26.187500000000 15.375000000000 3.844024658203 198 198 198
26.187500000000 15.375000000000 3.722015380859 194 194 194
26.250000000000 15.500000000000 3.600006103516 200 200 200
26.250000000000 15.500000000000 3.478027343750 197 197 197
26.250000000000 15.500000000000 3.357025146484 196 196 196
26.250000000000 15.500000000000 3.232025146484 194 194 194
26.250000000000 15.500000000000 3.109008789063 189 189 189
26.250000000000 15.500000000000 2.986022949219 197 197 197
26.250000000000 15.500000000000 2.861022949219 191 191 191
26.250000000000 15.500000000000 2.736022949219 192 192 192
26.250000000000 15.500000000000 2.611022949219 186 186 186
26.187500000000 15.500000000000 2.486999511719 188 188 188
26.187500000000 15.500000000000 2.360015869141 180 180 180
26.187500000000 15.500000000000 2.232025146484 179 179 179
26.375000000000 15.500000000000 6.542999267578 6 6 6
26.375000000000 15.500000000000 6.417022705078 16 16 16
26.375000000000 15.500000000000 6.292999267578 35 35 35
26.375000000000 15.500000000000 6.167022705078 43 43 43
26.375000000000 15.500000000000 6.042999267578 56 56 56
26.375000000000 15.500000000000 5.917022705078 69 69 69
26.312500000000 15.500000000000 5.794006347656 79 79 79
26.312500000000 15.500000000000 5.670013427734 89 89 89
26.312500000000 15.500000000000 5.547027587891 89 89 89
26.312500000000 15.500000000000 5.425018310547 99 99 99
26.312500000000 15.500000000000 5.302001953125 100 100 100
26.312500000000 15.500000000000 5.180023193359 94 94 94
26.312500000000 15.500000000000 5.059020996094 104 104 104
26.312500000000 15.500000000000 4.937011718750 85 85 85
26.312500000000 15.500000000000 4.815002441406 96 96 96
26.312500000000 15.500000000000 4.693023681641 95 95 95
26.312500000000 15.500000000000 4.572021484375 83 83 83
26.312500000000 15.500000000000 4.450012207031 81 81 81
26.312500000000 15.500000000000 4.328002929688 79 79 79
26.312500000000 15.500000000000 4.207000732422 81 81 81
26.312500000000 15.500000000000 4.085021972656 88 88 88
26.312500000000 15.500000000000 3.963012695313 86 86 86
26.312500000000 15.500000000000 3.840026855469 95 95 95
26.312500000000 15.500000000000 3.718017578125 86 86 86
26.312500000000 15.500000000000 3.595001220703 100 100 100
26.312500000000 15.500000000000 3.473022460938 91 91 91
26.312500000000 15.500000000000 3.348022460938 78 78 78
26.312500000000 15.500000000000 3.223999023438 35 35 35
26.562500000000 6.625000000000 6.360015869141 1 1 1
26.437500000000 6.500000000000 6.771026611328 13 13 13
26.437500000000 6.500000000000 6.921020507813 31 31 31
26.437500000000 6.500000000000 7.061004638672 28 28 28
26.437500000000 6.500000000000 7.207000732422 43 43 43
26.375000000000 6.500000000000 7.353027343750 49 49 49
26.437500000000 6.500000000000 7.505004882813 67 67 67
26.437500000000 6.500000000000 7.649017333984 65 65 65
26.375000000000 6.500000000000 7.796020507813 64 64 64
26.437500000000 6.500000000000 7.948028564453 20 20 20
26.500000000000 6.750000000000 5.484008789063 104 104 104
26.500000000000 6.750000000000 5.628021240234 29 29 29
26.500000000000 6.750000000000 5.770019531250 24 24 24
26.437500000000 6.750000000000 5.911010742188 5 5 5
26.437500000000 6.750000000000 6.057006835938 1 1 1
26.500000000000 6.750000000000 6.203002929688 29 29 29
26.437500000000 6.750000000000 6.344024658203 17 17 17
26.312500000000 6.625000000000 6.759002685547 78 78 78
26.312500000000 6.625000000000 6.904022216797 66 66 66
26.312500000000 6.625000000000 7.050018310547 70 70 70
26.312500000000 6.625000000000 7.194000244141 62 62 62
26.312500000000 6.625000000000 7.340026855469 60 60 60
26.312500000000 6.625000000000 7.485015869141 63 63 63
26.312500000000 6.625000000000 7.635009765625 83 83 83
26.312500000000 6.625000000000 7.781005859375 65 65 65
26.312500000000 6.625000000000 7.936004638672 139 139 139
26.375000000000 6.875000000000 4.055999755859 124 124 124
26.375000000000 6.875000000000 4.198028564453 136 136 136
26.375000000000 6.875000000000 4.341003417969 142 142 142
26.375000000000 6.875000000000 4.483001708984 142 142 142
26.375000000000 6.875000000000 4.625000000000 149 149 149
26.437500000000 6.875000000000 4.767028808594 134 134 134
26.437500000000 6.875000000000 4.909027099609 123 123 123
26.437500000000 6.875000000000 5.051025390625 128 128 128
26.437500000000 6.875000000000 5.193023681641 132 132 132
26.437500000000 6.875000000000 5.336029052734 140 140 140
26.375000000000 6.875000000000 5.476013183594 50 50 50
26.312500000000 6.750000000000 5.758026123047 46 46 46
26.312500000000 6.750000000000 5.901000976563 53 53 53
26.312500000000 6.750000000000 6.042999267578 5 5 5
26.312500000000 6.750000000000 6.186004638672 26 26 26
26.312500000000 6.750000000000 6.328002929688 19 19 19
26.437500000000 6.875000000000 6.478027343750 141 141 141
26.437500000000 6.875000000000 6.622009277344 123 123 123
26.312500000000 6.750000000000 6.747009277344 48 48 48
26.312500000000 6.750000000000 6.890014648438 42 42 42
26.312500000000 6.750000000000 7.035003662109 46 46 46
26.312500000000 6.750000000000 7.180023193359 37 37 37
26.312500000000 6.750000000000 7.325012207031 40 40 40
26.187500000000 6.625000000000 7.470001220703 37 37 37
26.312500000000 6.750000000000 7.621002197266 44 44 44
26.250000000000 6.625000000000 7.767028808594 40 40 40
26.187500000000 6.625000000000 7.914001464844 89 89 89
26.312500000000 6.750000000000 8.097015380859 104 104 104
26.312500000000 6.750000000000 8.248016357422 121 121 121
26.312500000000 6.750000000000 8.396026611328 119 119 119
26.312500000000 6.750000000000 8.550018310547 117 117 117
26.312500000000 6.750000000000 8.704010009766 101 101 101
26.312500000000 6.750000000000 8.859008789063 125 125 125
26.312500000000 6.750000000000 9.014007568359 134 134 134
26.312500000000 6.750000000000 9.170013427734 123 123 123
26.312500000000 6.750000000000 9.329010009766 133 133 133
26.312500000000 6.750000000000 9.493011474609 128 128 128
26.312500000000 6.750000000000 9.651000976563 122 122 122
26.312500000000 6.750000000000 9.818023681641 125 125 125
26.312500000000 6.750000000000 9.975006103516 117 117 117
26.375000000000 6.875000000000 4.060028076172 197 197 197
26.375000000000 6.875000000000 4.201019287109 202 202 202
26.375000000000 6.875000000000 4.342010498047 195 195 195
26.375000000000 6.875000000000 4.484008789063 181 181 181
26.375000000000 6.875000000000 4.625000000000 199 199 199
26.312500000000 6.875000000000 4.766021728516 189 189 189
26.312500000000 6.875000000000 4.907012939453 183 183 183
26.375000000000 6.875000000000 5.048004150391 204 204 204
26.375000000000 6.875000000000 5.189025878906 195 195 195
26.312500000000 6.875000000000 5.330017089844 160 160 160
26.312500000000 6.875000000000 5.470001220703 125 125 125
26.187500000000 6.875000000000 5.607025146484 12 12 12
26.187500000000 6.875000000000 5.749023437500 16 16 16
26.187500000000 6.875000000000 5.890014648438 36 36 36
26.187500000000 6.875000000000 6.029022216797 16 16 16
26.187500000000 6.875000000000 6.167999267578 11 11 11
26.187500000000 6.875000000000 6.312011718750 55 55 55
26.187500000000 6.875000000000 6.458007812500 168 168 168
26.312500000000 6.875000000000 6.605010986328 136 136 136
26.187500000000 6.750000000000 6.734008789063 100 100 100
26.187500000000 6.750000000000 6.875000000000 84 84 84
26.187500000000 6.750000000000 7.020019531250 77 77 77
26.187500000000 6.750000000000 7.164001464844 79 79 79
26.187500000000 6.750000000000 7.305023193359 64 64 64
26.187500000000 6.750000000000 7.453002929688 60 60 60
26.187500000000 6.750000000000 7.600006103516 60 60 60
26.187500000000 6.750000000000 7.747009277344 49 49 49
26.187500000000 6.750000000000 7.891021728516 69 69 69
26.250000000000 6.875000000000 8.065002441406 133 133 133
26.250000000000 6.875000000000 8.215026855469 160 160 160
26.250000000000 6.875000000000 8.371002197266 159 159 159
26.250000000000 6.875000000000 8.520019531250 149 149 149
26.250000000000 6.875000000000 8.674011230469 148 148 148
26.250000000000 6.875000000000 8.823028564453 153 153 153
26.250000000000 6.875000000000 8.980010986328 156 156 156
26.250000000000 6.875000000000 9.140014648438 147 147 147
26.250000000000 6.875000000000 9.295013427734 144 144 144
26.250000000000 6.875000000000 9.450012207031 130 130 130
26.250000000000 6.875000000000 9.618011474609 145 145 145
26.250000000000 6.875000000000 9.777008056641 142 142 142
26.250000000000 6.875000000000 9.943023681641 131 131 131
26.250000000000 6.875000000000 10.108001708984 70 70 70
26.312500000000 7.000000000000 4.064025878906 144 144 144
26.312500000000 7.000000000000 4.204010009766 141 141 141
26.312500000000 7.000000000000 4.345001220703 148 148 148
26.312500000000 7.000000000000 4.486022949219 137 137 137
26.312500000000 7.000000000000 4.626007080078 148 148 148
26.312500000000 7.000000000000 4.767028808594 165 165 165
26.312500000000 7.000000000000 4.908020019531 149 149 149
26.312500000000 7.000000000000 5.049011230469 173 173 173
26.312500000000 7.000000000000 5.190002441406 166 166 166
26.312500000000 7.000000000000 5.330017089844 119 119 119
26.250000000000 7.000000000000 5.467010498047 128 128 128
26.187500000000 7.000000000000 5.603027343750 137 137 137
26.187500000000 7.000000000000 5.746002197266 166 166 166
26.187500000000 7.000000000000 5.885009765625 159 159 159
26.187500000000 7.000000000000 6.027008056641 159 159 159
26.312500000000 7.000000000000 6.175018310547 137 137 137
26.312500000000 7.000000000000 6.313018798828 92 92 92
26.312500000000 7.000000000000 6.459014892578 103 103 103
26.312500000000 7.000000000000 6.606018066406 98 98 98
26.125000000000 6.875000000000 6.723022460938 136 136 136
26.125000000000 6.875000000000 6.865020751953 105 105 105
26.125000000000 6.875000000000 7.008026123047 99 99 99
26.125000000000 6.875000000000 7.149017333984 73 73 73
26.125000000000 6.875000000000 7.292999267578 66 66 66
26.125000000000 6.875000000000 7.437011718750 55 55 55
26.125000000000 6.875000000000 7.584014892578 58 58 58
26.125000000000 6.875000000000 7.727020263672 49 49 49
26.125000000000 6.875000000000 7.875000000000 52 52 52
26.312500000000 6.875000000000 8.066009521484 59 59 59
26.312500000000 6.875000000000 8.216003417969 72 72 72
26.312500000000 6.875000000000 8.369018554688 66 66 66
26.312500000000 6.875000000000 8.523010253906 52 52 52
26.312500000000 6.875000000000 8.680999755859 72 72 72
26.312500000000 6.875000000000 8.832000732422 23 23 23
26.312500000000 6.875000000000 8.980010986328 5 5 5
26.187500000000 7.000000000000 5.601013183594 7 7 7
26.500000000000 7.250000000000 5.771026611328 39 39 39
26.187500000000 7.000000000000 5.886016845703 171 171 171
26.187500000000 7.000000000000 6.027008056641 176 176 176
26.187500000000 7.000000000000 6.167999267578 176 176 176
26.187500000000 7.000000000000 6.308013916016 117 117 117
26.062500000000 7.000000000000 6.713012695313 175 175 175
26.062500000000 7.000000000000 6.853027343750 151 151 151
26.062500000000 7.000000000000 6.994018554688 155 155 155
26.062500000000 7.000000000000 7.133026123047 145 145 145
26.062500000000 7.000000000000 7.275024414063 140 140 140
26.062500000000 7.000000000000 7.417999267578 134 134 134
26.062500000000 7.000000000000 7.567016601563 139 139 139
26.062500000000 7.000000000000 7.710021972656 111 111 111
26.062500000000 7.000000000000 7.852020263672 100 100 100
26.312500000000 7.125000000000 8.700012207031 36 36 36
26.312500000000 7.250000000000 5.610015869141 91 91 91
26.312500000000 7.250000000000 5.750000000000 201 201 201
26.187500000000 7.250000000000 5.888000488281 182 182 182
26.187500000000 7.250000000000 6.029022216797 179 179 179
26.187500000000 7.250000000000 6.169006347656 99 99 99
26.187500000000 7.250000000000 6.311004638672 116 116 116
26.437500000000 7.250000000000 7.664001464844 111 111 111
26.437500000000 7.625000000000 8.555999755859 30 30 30
26.375000000000 8.000000000000 8.415008544922 24 24 24
26.375000000000 8.125000000000 7.664001464844 7 7 7
26.437500000000 8.250000000000 7.374023437500 20 20 20
26.437500000000 8.250000000000 7.673004150391 12 12 12
26.437500000000 8.375000000000 7.375000000000 88 88 88
26.437500000000 8.375000000000 7.667999267578 19 19 19
26.437500000000 8.375000000000 8.267028808594 31 31 31
26.312500000000 8.500000000000 7.514007568359 33 33 33
26.312500000000 8.500000000000 7.661010742188 52 52 52
26.375000000000 8.625000000000 7.220001220703 33 33 33
26.375000000000 8.625000000000 7.666015625000 29 29 29
26.375000000000 8.750000000000 7.075012207031 141 141 141
26.375000000000 8.750000000000 7.223022460938 108 108 108
26.375000000000 8.750000000000 7.376007080078 20 20 20
26.375000000000 8.750000000000 7.523010253906 153 153 153
26.375000000000 8.750000000000 7.671020507813 110 110 110
26.375000000000 8.750000000000 8.123016357422 25 25 25
26.375000000000 8.875000000000 7.671020507813 87 87 87
26.437500000000 9.125000000000 7.382019042969 20 20 20
26.437500000000 9.125000000000 7.675018310547 63 63 63
26.437500000000 9.125000000000 7.388000488281 16 16 16
26.375000000000 9.125000000000 7.676025390625 77 77 77
26.437500000000 9.125000000000 7.983001708984 27 27 27
26.437500000000 9.375000000000 7.245025634766 131 131 131
26.437500000000 9.375000000000 7.394012451172 136 136 136
26.437500000000 9.375000000000 7.544006347656 68 68 68
26.375000000000 9.250000000000 7.680999755859 121 121 121
26.375000000000 9.500000000000 7.393005371094 136 136 136
26.375000000000 9.500000000000 7.680999755859 79 79 79
26.437500000000 9.625000000000 7.403015136719 85 85 85
26.437500000000 9.625000000000 7.553009033203 116 116 116
26.375000000000 9.500000000000 7.689025878906 84 84 84
26.375000000000 9.500000000000 7.843017578125 27 27 27
26.437500000000 9.750000000000 7.403015136719 85 85 85
26.437500000000 9.750000000000 7.565002441406 123 123 123
26.437500000000 9.750000000000 7.691009521484 115 115 115
26.437500000000 9.875000000000 7.258026123047 32 32 32
26.437500000000 9.875000000000 7.400024414063 123 123 123
26.375000000000 9.875000000000 7.545013427734 143 143 143
26.375000000000 9.875000000000 7.691009521484 119 119 119
26.437500000000 10.000000000000 7.405029296875 124 124 124
26.437500000000 10.000000000000 7.560028076172 142 142 142
26.375000000000 10.000000000000 7.699005126953 124 124 124
26.437500000000 10.125000000000 7.267028808594 28 28 28
26.375000000000 10.125000000000 7.409027099609 132 132 132
26.437500000000 10.125000000000 7.568023681641 166 166 166
26.375000000000 10.125000000000 7.700012207031 72 72 72
26.437500000000 10.375000000000 7.419006347656 159 159 159
26.437500000000 10.250000000000 7.571014404297 130 130 130
26.375000000000 10.250000000000 7.709014892578 53 53 53
26.437500000000 10.375000000000 7.419006347656 137 137 137
26.437500000000 10.375000000000 7.572021484375 126 126 126
26.437500000000 10.375000000000 7.709014892578 40 40 40
26.437500000000 10.500000000000 7.425018310547 139 139 139
26.437500000000 10.500000000000 7.580017089844 120 120 120
26.375000000000 10.500000000000 7.712005615234 33 33 33
26.437500000000 10.750000000000 7.429016113281 140 140 140
26.437500000000 10.625000000000 7.584014892578 116 116 116
26.375000000000 10.625000000000 7.715026855469 23 23 23
26.437500000000 10.875000000000 7.433013916016 144 144 144
26.437500000000 10.875000000000 7.588012695313 111 111 111
26.375000000000 10.750000000000 7.717010498047 9 9 9
26.437500000000 11.000000000000 7.435028076172 142 142 142
26.437500000000 11.000000000000 7.592010498047 155 155 155
26.437500000000 11.125000000000 7.442016601563 134 134 134
26.437500000000 11.125000000000 7.593017578125 127 127 127
26.437500000000 11.250000000000 7.447021484375 139 139 139
26.437500000000 11.250000000000 7.595001220703 130 130 130
26.375000000000 11.125000000000 7.729003906250 21 21 21
26.437500000000 11.375000000000 7.448028564453 123 123 123
26.437500000000 11.375000000000 7.598999023438 142 142 142
26.437500000000 11.500000000000 7.452026367188 120 120 120
26.437500000000 11.500000000000 7.605010986328 124 124 124
26.437500000000 11.625000000000 7.456024169922 150 150 150
26.437500000000 11.625000000000 7.610015869141 104 104 104
26.375000000000 11.750000000000 7.461029052734 116 116 116
26.375000000000 11.750000000000 7.610015869141 95 95 95
26.437500000000 11.875000000000 7.463012695313 124 124 124
26.437500000000 11.875000000000 7.617004394531 98 98 98
26.437500000000 12.000000000000 7.469024658203 124 124 124
26.437500000000 12.000000000000 7.615020751953 124 124 124
26.500000000000 12.125000000000 7.325012207031 5 5 5
26.437500000000 12.250000000000 7.470001220703 88 88 88
26.437500000000 12.250000000000 7.616027832031 130 130 130
26.437500000000 12.250000000000 7.331024169922 70 70 70
26.437500000000 12.250000000000 7.472015380859 136 136 136
26.375000000000 12.250000000000 7.614013671875 138 138 138
26.375000000000 12.375000000000 7.326019287109 31 31 31
26.375000000000 12.375000000000 7.471008300781 64 64 64
26.375000000000 12.375000000000 7.619018554688 119 119 119
26.375000000000 12.375000000000 7.766021728516 90 90 90
26.437500000000 12.625000000000 7.623016357422 120 120 120
26.437500000000 12.625000000000 7.332000732422 7 7 7
26.437500000000 12.625000000000 7.629028320313 95 95 95
26.437500000000 12.875000000000 7.336029052734 17 17 17
26.437500000000 12.875000000000 7.634002685547 71 71 71
26.437500000000 13.000000000000 7.342010498047 36 36 36
26.437500000000 13.000000000000 7.630004882813 100 100 100
26.437500000000 13.000000000000 7.936004638672 31 31 31
26.437500000000 13.125000000000 7.342010498047 28 28 28
26.375000000000 13.125000000000 7.632019042969 8 8 8
26.437500000000 13.250000000000 7.341003417969 36 36 36
26.437500000000 13.250000000000 7.635009765625 16 16 16
26.500000000000 13.375000000000 7.346008300781 41 41 41
26.437500000000 13.375000000000 7.634002685547 94 94 94
26.500000000000 13.375000000000 8.094024658203 38 38 38
26.500000000000 13.500000000000 7.344024658203 60 60 60
26.500000000000 13.500000000000 7.635009765625 24 24 24
26.500000000000 13.625000000000 7.491027832031 28 28 28
26.437500000000 13.625000000000 7.631011962891 71 71 71
26.500000000000 13.750000000000 7.496002197266 95 95 95
26.437500000000 13.750000000000 7.634002685547 29 29 29
26.437500000000 13.750000000000 8.244018554688 13 13 13
26.437500000000 13.875000000000 7.633026123047 124 124 124
26.437500000000 13.875000000000 8.248016357422 1 1 1
26.437500000000 14.000000000000 7.630004882813 29 29 29
26.437500000000 14.125000000000 7.634002685547 43 43 43
26.500000000000 14.375000000000 5.461029052734 21 21 21
26.437500000000 14.250000000000 7.636016845703 39 39 39
26.500000000000 14.375000000000 8.412017822266 12 12 12
26.437500000000 14.500000000000 7.638000488281 47 47 47
26.437500000000 14.500000000000 7.638000488281 56 56 56
26.437500000000 14.625000000000 7.645019531250 60 60 60
26.500000000000 14.750000000000 8.578002929688 26 26 26
26.437500000000 14.875000000000 7.648010253906 68 68 68
26.437500000000 14.875000000000 7.645019531250 61 61 61
26.437500000000 15.125000000000 7.645019531250 69 69 69
26.375000000000 15.250000000000 2.305023193359 71 71 71
26.375000000000 15.250000000000 2.449005126953 45 45 45
26.375000000000 15.250000000000 2.595001220703 24 24 24
26.437500000000 15.250000000000 5.752014160156 25 25 25
26.437500000000 15.250000000000 5.895019531250 49 49 49
26.437500000000 15.250000000000 6.039001464844 57 57 57
26.437500000000 15.250000000000 6.183013916016 78 78 78
26.437500000000 15.250000000000 6.325012207031 74 74 74
26.437500000000 15.250000000000 6.469024658203 84 84 84
26.437500000000 15.250000000000 6.616027832031 81 81 81
26.437500000000 15.250000000000 6.762023925781 96 96 96
26.437500000000 15.250000000000 6.905029296875 102 102 102
26.437500000000 15.250000000000 7.049011230469 109 109 109
26.437500000000 15.250000000000 7.200012207031 124 124 124
26.437500000000 15.250000000000 7.346008300781 113 113 113
26.437500000000 15.250000000000 7.492004394531 116 116 116
26.437500000000 15.250000000000 7.642028808594 112 112 112
26.437500000000 15.250000000000 7.794006347656 142 142 142
26.437500000000 15.250000000000 7.947021484375 143 143 143
26.437500000000 15.250000000000 8.098999023438 152 152 152
26.437500000000 15.250000000000 8.251007080078 141 141 141
26.437500000000 15.250000000000 8.400024414063 137 137 137
26.437500000000 15.250000000000 8.559020996094 135 135 135
26.437500000000 15.125000000000 8.710021972656 105 105 105
26.437500000000 15.250000000000 8.871002197266 138 138 138
26.437500000000 15.250000000000 9.028015136719 150 150 150
26.437500000000 15.250000000000 9.188018798828 150 150 150
26.437500000000 15.250000000000 9.351013183594 149 149 149
26.437500000000 15.250000000000 9.512023925781 154 154 154
26.437500000000 15.250000000000 9.677001953125 140 140 140
26.437500000000 15.250000000000 9.845001220703 143 143 143
26.437500000000 15.250000000000 10.007019042969 118 118 118
26.250000000000 15.250000000000 2.329010009766 182 182 182
26.250000000000 15.250000000000 2.477020263672 180 180 180
26.250000000000 15.250000000000 2.622009277344 195 195 195
26.250000000000 15.250000000000 2.766021728516 199 199 199
26.250000000000 15.250000000000 2.910003662109 204 204 204
26.250000000000 15.250000000000 3.053009033203 200 200 200
26.250000000000 15.250000000000 3.196014404297 201 201 201
26.250000000000 15.250000000000 3.339019775391 204 204 204
26.250000000000 15.250000000000 3.481018066406 205 205 205
26.312500000000 15.375000000000 3.623016357422 205 205 205
26.312500000000 15.250000000000 3.766021728516 199 199 199
26.312500000000 15.375000000000 3.907012939453 198 198 198
26.312500000000 15.250000000000 4.049011230469 195 195 195
26.312500000000 15.250000000000 4.190002441406 202 202 202
26.312500000000 15.250000000000 4.331024169922 207 207 207
26.312500000000 15.250000000000 4.472015380859 204 204 204
26.312500000000 15.250000000000 4.613006591797 196 196 196
26.312500000000 15.375000000000 4.754028320313 198 198 198
26.312500000000 15.250000000000 4.894012451172 192 192 192
26.312500000000 15.250000000000 5.035003662109 199 199 199
26.312500000000 15.375000000000 5.176025390625 195 195 195
26.312500000000 15.250000000000 5.316009521484 181 181 181
26.312500000000 15.250000000000 5.458007812500 181 181 181
26.312500000000 15.375000000000 5.598999023438 183 183 183
26.312500000000 15.375000000000 5.741027832031 183 183 183
26.312500000000 15.375000000000 5.883026123047 187 187 187
26.312500000000 15.250000000000 6.023010253906 178 178 178
26.312500000000 15.375000000000 6.166015625000 176 176 176
26.312500000000 15.250000000000 6.308013916016 174 174 174
26.312500000000 15.375000000000 6.451019287109 175 175 175
26.312500000000 15.375000000000 6.595001220703 175 175 175
26.312500000000 15.375000000000 6.740020751953 175 175 175
26.312500000000 15.375000000000 6.884002685547 174 174 174
26.312500000000 15.375000000000 7.028015136719 168 168 168
26.312500000000 15.375000000000 7.174011230469 167 167 167
26.312500000000 15.375000000000 7.325012207031 172 172 172
26.312500000000 15.375000000000 7.471008300781 177 177 177
26.312500000000 15.375000000000 7.620025634766 163 163 163
26.312500000000 15.375000000000 7.770019531250 185 185 185
26.312500000000 15.375000000000 7.919006347656 170 170 170
26.312500000000 15.375000000000 8.072021484375 170 170 170
26.312500000000 15.250000000000 8.223999023438 177 177 177
26.312500000000 15.250000000000 8.379028320313 181 181 181
26.312500000000 15.250000000000 8.530029296875 167 167 167
26.375000000000 15.250000000000 8.690002441406 163 163 163
26.437500000000 15.375000000000 8.854003906250 179 179 179
26.437500000000 15.375000000000 9.006011962891 176 176 176
26.437500000000 15.375000000000 9.165008544922 174 174 174
26.437500000000 15.375000000000 9.330017089844 168 168 168
26.437500000000 15.375000000000 9.492004394531 172 172 172
26.437500000000 15.375000000000 9.656005859375 167 167 167
26.437500000000 15.375000000000 9.821014404297 143 143 143
26.437500000000 15.375000000000 9.988006591797 135 135 135
26.187500000000 15.375000000000 2.347015380859 166 166 166
26.187500000000 15.375000000000 2.490020751953 173 173 173
26.187500000000 15.375000000000 2.634002685547 181 181 181
26.187500000000 15.375000000000 2.777008056641 181 181 181
26.187500000000 15.375000000000 2.922027587891 186 186 186
26.187500000000 15.375000000000 3.064025878906 186 186 186
26.187500000000 15.375000000000 3.208007812500 185 185 185
26.187500000000 15.375000000000 3.348022460938 187 187 187
26.187500000000 15.375000000000 3.492004394531 187 187 187
26.187500000000 15.375000000000 3.633026123047 183 183 183
26.187500000000 15.375000000000 3.774017333984 187 187 187
26.187500000000 15.375000000000 3.915008544922 180 180 180
26.187500000000 15.375000000000 4.055999755859 189 189 189
26.187500000000 15.375000000000 4.195007324219 195 195 195
26.187500000000 15.375000000000 4.336029052734 195 195 195
26.187500000000 15.375000000000 4.476013183594 199 199 199
26.187500000000 15.375000000000 4.616027832031 196 196 196
26.187500000000 15.375000000000 4.756011962891 197 197 197
26.187500000000 15.375000000000 4.896026611328 205 205 205
26.187500000000 15.375000000000 5.035003662109 208 208 208
26.187500000000 15.375000000000 5.176025390625 197 197 197
26.187500000000 15.375000000000 5.316009521484 205 205 205
26.312500000000 15.500000000000 5.457000732422 205 205 205
26.312500000000 15.500000000000 5.597015380859 200 200 200
26.312500000000 15.500000000000 5.738006591797 204 204 204
26.312500000000 15.500000000000 5.880004882813 208 208 208
26.312500000000 15.500000000000 6.021026611328 204 204 204
26.312500000000 15.500000000000 6.163024902344 207 207 207
26.312500000000 15.500000000000 6.305999755859 214 214 214
26.312500000000 15.500000000000 6.449005126953 193 193 193
26.312500000000 15.500000000000 6.593017578125 212 212 212
26.312500000000 15.500000000000 6.736022949219 196 196 196
26.312500000000 15.500000000000 6.881011962891 183 183 183
26.312500000000 15.500000000000 7.025024414063 171 171 171
26.312500000000 15.500000000000 7.171020507813 161 161 161
26.312500000000 15.375000000000 7.317016601563 141 141 141
26.312500000000 15.375000000000 7.467010498047 142 142 142
26.375000000000 15.375000000000 7.618011474609 119 119 119
26.375000000000 15.375000000000 7.768005371094 93 93 93
26.375000000000 15.375000000000 7.917022705078 112 112 112
26.437500000000 15.375000000000 8.073028564453 92 92 92
26.437500000000 15.375000000000 8.223999023438 40 40 40
26.250000000000 15.500000000000 3.205017089844 1 1 1
26.250000000000 15.500000000000 3.348999023438 17 17 17
26.250000000000 15.500000000000 3.491027832031 20 20 20
26.250000000000 15.500000000000 3.632019042969 14 14 14
26.250000000000 15.500000000000 2.324005126953 42 42 42
26.250000000000 15.500000000000 2.472015380859 69 69 69
26.250000000000 15.500000000000 2.616027832031 85 85 85
26.187500000000 15.500000000000 2.763000488281 79 79 79
26.187500000000 15.500000000000 2.907012939453 86 86 86
26.250000000000 15.500000000000 3.047027587891 98 98 98
26.187500000000 15.500000000000 3.192016601563 100 100 100
26.187500000000 15.500000000000 3.334014892578 113 113 113
26.250000000000 15.500000000000 3.475006103516 108 108 108
26.187500000000 15.500000000000 3.617004394531 113 113 113
26.250000000000 15.500000000000 3.757019042969 111 111 111
26.187500000000 15.500000000000 3.900024414063 97 97 97
26.187500000000 15.500000000000 4.040008544922 113 113 113
26.187500000000 15.500000000000 4.180023193359 101 101 101
26.250000000000 15.500000000000 4.319000244141 104 104 104
26.250000000000 15.500000000000 4.459014892578 99 99 99
26.250000000000 15.500000000000 4.598999023438 101 101 101
26.250000000000 15.500000000000 4.739013671875 97 97 97
26.250000000000 15.500000000000 4.879028320313 99 99 99
26.250000000000 15.500000000000 5.019012451172 93 93 93
26.250000000000 15.500000000000 5.159027099609 86 86 86
26.312500000000 15.500000000000 5.299011230469 49 49 49
26.250000000000 15.500000000000 5.439025878906 18 18 18
26.187500000000 15.375000000000 2.325012207031 172 172 172
26.187500000000 15.375000000000 2.470001220703 175 175 175
26.187500000000 15.375000000000 2.614013671875 193 193 193
26.187500000000 15.375000000000 2.758026123047 188 188 188
26.187500000000 15.375000000000 2.900024414063 189 189 189
26.187500000000 15.375000000000 3.044006347656 189 189 189
26.187500000000 15.375000000000 3.187011718750 191 191 191
26.187500000000 15.375000000000 3.329010009766 197 197 197
26.187500000000 15.375000000000 3.470001220703 195 195 195
26.187500000000 15.375000000000 3.611999511719 199 199 199
26.187500000000 15.375000000000 3.753021240234 204 204 204
26.187500000000 15.375000000000 3.895019531250 192 192 192
26.187500000000 15.375000000000 4.035003662109 203 203 203
26.187500000000 15.375000000000 4.175018310547 204 204 204
26.187500000000 15.375000000000 4.316009521484 210 210 210
26.187500000000 15.375000000000 4.456024169922 201 201 201
26.187500000000 15.375000000000 4.596008300781 205 205 205
26.187500000000 15.375000000000 4.736022949219 205 205 205
26.187500000000 15.375000000000 4.876007080078 214 214 214
26.187500000000 15.375000000000 5.016021728516 213 213 213
26.187500000000 15.375000000000 5.156005859375 204 204 204
26.187500000000 15.375000000000 5.296020507813 204 204 204
26.187500000000 15.375000000000 5.436004638672 201 201 201
26.187500000000 15.375000000000 5.577026367188 203 203 203
26.187500000000 15.375000000000 5.717010498047 208 208 208
26.187500000000 15.375000000000 5.859008789063 200 200 200
26.187500000000 15.375000000000 6.000000000000 199 199 199
26.250000000000 15.375000000000 6.142028808594 203 203 203
26.250000000000 15.375000000000 6.285003662109 199 199 199
26.250000000000 15.375000000000 6.426025390625 199 199 199
26.250000000000 15.375000000000 6.570007324219 207 207 207
26.250000000000 15.375000000000 6.713012695313 201 201 201
26.250000000000 15.375000000000 6.858001708984 192 192 192
26.250000000000 15.375000000000 7.004028320313 191 191 191
26.250000000000 15.375000000000 7.150024414063 207 207 207
26.250000000000 15.375000000000 7.296020507813 193 193 193
26.312500000000 15.375000000000 7.446014404297 203 203 203
26.312500000000 15.375000000000 7.595001220703 178 178 178
26.312500000000 15.375000000000 7.741027832031 156 156 156
26.312500000000 15.375000000000 7.895019531250 183 183 183
26.375000000000 15.375000000000 8.051025390625 189 189 189
26.375000000000 15.375000000000 8.200012207031 178 178 178
26.375000000000 15.375000000000 8.351013183594 168 168 168
26.375000000000 15.375000000000 8.507019042969 149 149 149
26.375000000000 15.375000000000 8.664001464844 126 126 126
26.375000000000 15.375000000000 8.819000244141 129 129 129
26.375000000000 15.375000000000 8.977020263672 121 121 121
26.437500000000 15.375000000000 9.142028808594 112 112 112
26.375000000000 15.375000000000 9.298004150391 74 74 74
26.437500000000 15.375000000000 9.462005615234 49 49 49
26.437500000000 15.375000000000 9.627014160156 14 14 14
26.312500000000 15.250000000000 2.446014404297 202 202 202
26.312500000000 15.250000000000 2.593017578125 195 195 195
26.312500000000 15.250000000000 2.738006591797 206 206 206
26.312500000000 15.250000000000 2.881011962891 204 204 204
26.312500000000 15.250000000000 3.025024414063 200 200 200
26.312500000000 15.250000000000 3.169006347656 199 199 199
26.312500000000 15.375000000000 3.310028076172 193 193 193
26.312500000000 15.375000000000 3.454010009766 189 189 189
26.312500000000 15.375000000000 3.597015380859 188 188 188
26.312500000000 15.375000000000 3.739013671875 189 189 189
26.312500000000 15.375000000000 3.882019042969 181 181 181
26.312500000000 15.250000000000 4.024017333984 181 181 181
26.312500000000 15.250000000000 4.166015625000 180 180 180
26.312500000000 15.250000000000 4.308013916016 181 181 181
26.312500000000 15.250000000000 4.449005126953 180 180 180
26.312500000000 15.250000000000 4.591003417969 182 182 182
26.312500000000 15.250000000000 4.732025146484 185 185 185
26.312500000000 15.250000000000 4.873016357422 177 177 177
26.312500000000 15.250000000000 5.014007568359 177 177 177
26.312500000000 15.250000000000 5.155029296875 185 185 185
26.312500000000 15.250000000000 5.297027587891 181 181 181
