35.781250000000 29.304687500000 54.786003112793 160 160 160
35.781250000000 29.312500000000 54.750007629395 157 157 157
35.781250000000 29.312500000000 54.715003967285 160 160 160
35.781250000000 29.312500000000 54.680000305176 159 159 159
35.781250000000 29.312500000000 54.644996643066 157 157 157
35.781250000000 29.312500000000 54.609001159668 161 161 161
35.781250000000 29.312500000000 54.573997497559 156 156 156
35.796875000000 29.304687500000 54.538002014160 159 159 159
35.796875000000 29.304687500000 54.502006530762 155 155 155
35.796875000000 29.304687500000 54.465995788574 161 161 161
35.812500000000 29.296875000000 54.430000305176 153 153 153
35.796875000000 29.304687500000 54.394004821777 149 149 149
35.796875000000 29.304687500000 54.359001159668 155 155 155
35.796875000000 29.304687500000 54.323005676270 159 159 159
35.796875000000 29.304687500000 54.287010192871 161 161 161
35.812500000000 29.296875000000 54.250999450684 162 162 162
35.812500000000 29.296875000000 54.215003967285 160 160 160
35.812500000000 29.296875000000 54.178001403809 163 163 163
35.812500000000 29.296875000000 54.142997741699 170 170 170
35.812500000000 29.296875000000 54.107002258301 163 163 163
35.812500000000 29.296875000000 54.071006774902 167 167 167
35.812500000000 29.296875000000 54.034996032715 163 163 163
35.812500000000 29.296875000000 53.998008728027 158 158 158
35.812500000000 29.296875000000 53.961997985840 161 161 161
35.812500000000 29.296875000000 53.925010681152 166 166 166
35.812500000000 29.296875000000 53.888999938965 163 163 163
35.812500000000 29.296875000000 53.851997375488 160 160 160
35.812500000000 29.296875000000 53.814002990723 162 162 162
35.812500000000 29.296875000000 53.778007507324 160 160 160
35.812500000000 29.296875000000 53.741996765137 158 158 158
35.812500000000 29.296875000000 53.705009460449 159 159 159
35.812500000000 29.296875000000 53.666999816895 158 158 158
35.812500000000 29.304687500000 53.629997253418 167 167 167
35.812500000000 29.304687500000 53.594001770020 159 159 159
35.843750000000 29.296875000000 53.554008483887 162 162 162
35.812500000000 29.304687500000 53.517997741699 158 158 158
35.812500000000 29.304687500000 53.480003356934 160 160 160
35.812500000000 29.304687500000 53.443000793457 155 155 155
35.812500000000 29.304687500000 53.403999328613 155 155 155
35.812500000000 29.304687500000 53.366996765137 156 156 156
35.812500000000 29.304687500000 53.330009460449 156 156 156
35.812500000000 29.304687500000 53.291007995605 155 155 155
35.843750000000 29.296875000000 53.250999450684 152 152 152
35.812500000000 29.304687500000 53.215003967285 156 156 156
35.812500000000 29.304687500000 53.177009582520 156 156 156
35.812500000000 29.304687500000 53.138008117676 150 150 150
35.812500000000 29.304687500000 53.099006652832 149 149 149
35.812500000000 29.304687500000 53.060005187988 156 156 156
35.812500000000 29.304687500000 53.022010803223 155 155 155
35.843750000000 29.296875000000 52.976005554199 160 160 160
35.843750000000 29.289062500000 52.935005187988 168 168 168
35.843750000000 29.289062500000 52.896003723145 178 178 178
35.843750000000 29.289062500000 52.855003356934 176 176 176
35.843750000000 29.289062500000 52.812995910645 182 182 182
35.843750000000 29.289062500000 52.773002624512 170 170 170
35.906250000000 29.523437500000 56.254997253418 58 58 58
35.750000000000 29.609375000000 55.927009582520 120 120 120
35.750000000000 29.609375000000 55.892997741699 141 141 141
35.750000000000 29.609375000000 55.856010437012 128 128 128
35.750000000000 29.609375000000 55.819999694824 143 143 143
35.750000000000 29.609375000000 55.784996032715 125 125 125
35.750000000000 29.609375000000 55.749000549316 134 134 134
35.750000000000 29.609375000000 55.713996887207 121 121 121
35.750000000000 29.609375000000 55.607002258301 25 25 25
35.750000000000 29.625000000000 55.569999694824 119 119 119
35.750000000000 29.625000000000 55.534996032715 115 115 115
35.750000000000 29.625000000000 55.500007629395 112 112 112
35.718750000000 29.632812500000 55.463996887207 121 121 121
35.750000000000 29.625000000000 55.429008483887 108 108 108
35.750000000000 29.625000000000 55.394004821777 123 123 123
35.718750000000 29.632812500000 55.358009338379 105 105 105
35.921875000000 29.523437500000 55.011009216309 177 177 177
35.937500000000 29.515625000000 54.974998474121 163 163 163
35.937500000000 29.515625000000 54.939002990723 160 160 160
35.921875000000 29.523437500000 54.903007507324 152 152 152
35.875000000000 29.554687500000 54.866996765137 119 119 119
35.859375000000 29.562500000000 54.832008361816 96 96 96
35.875000000000 29.546875000000 54.795005798340 117 117 117
35.890625000000 29.539062500000 54.759010314941 172 172 172
35.921875000000 29.523437500000 54.722007751465 183 183 183
35.921875000000 29.523437500000 54.685005187988 175 175 175
35.875000000000 29.554687500000 54.653007507324 184 184 184
35.875000000000 29.554687500000 54.616004943848 182 182 182
35.875000000000 29.554687500000 54.581001281738 181 181 181
35.875000000000 29.546875000000 54.543006896973 166 166 166
35.921875000000 29.523437500000 54.504005432129 166 166 166
35.921875000000 29.531250000000 54.468009948730 143 143 143
35.921875000000 29.531250000000 54.431007385254 75 75 75
35.984375000000 28.937500000000 55.319999694824 162 162 162
35.968750000000 28.937500000000 55.349006652832 193 193 193
35.984375000000 28.937500000000 55.383003234863 196 196 196
35.984375000000 28.937500000000 55.416007995605 191 191 191
35.968750000000 28.945312500000 55.446006774902 199 199 199
35.984375000000 28.937500000000 55.478996276855 193 193 193
35.984375000000 28.937500000000 55.511009216309 206 206 206
35.968750000000 28.937500000000 55.541999816895 166 166 166
35.968750000000 28.937500000000 55.800010681152 170 170 170
35.968750000000 28.945312500000 55.831001281738 202 202 202
35.968750000000 28.937500000000 55.864997863770 197 197 197
35.968750000000 28.945312500000 55.897010803223 182 182 182
35.968750000000 28.937500000000 55.931007385254 167 167 167
35.968750000000 28.945312500000 55.965995788574 168 168 168
35.968750000000 28.937500000000 55.998008728027 170 170 170
35.968750000000 28.945312500000 56.028999328613 85 85 85
35.781250000000 29.226562500000 53.181999206543 130 130 130
35.796875000000 29.234375000000 53.211006164551 138 138 138
35.843750000000 29.226562500000 53.456001281738 120 120 120
35.796875000000 29.234375000000 53.502006530762 153 153 153
35.796875000000 29.234375000000 53.534004211426 150 150 150
35.796875000000 29.234375000000 53.566001892090 150 150 150
35.796875000000 29.234375000000 53.599006652832 148 148 148
35.796875000000 29.234375000000 53.629997253418 152 152 152
35.796875000000 29.234375000000 53.663002014160 146 146 146
35.796875000000 29.234375000000 53.694007873535 148 148 148
35.781250000000 29.234375000000 53.726997375488 144 144 144
35.796875000000 29.234375000000 53.756004333496 140 140 140
35.796875000000 29.234375000000 53.788002014160 139 139 139
35.781250000000 29.234375000000 53.821006774902 135 135 135
35.796875000000 29.234375000000 53.851005554199 139 139 139
35.781250000000 29.242187500000 53.881996154785 143 143 143
35.781250000000 29.234375000000 53.914009094238 142 142 142
35.781250000000 29.234375000000 53.944999694824 144 144 144
35.781250000000 29.242187500000 53.974998474121 142 142 142
35.781250000000 29.234375000000 54.008003234863 142 142 142
35.781250000000 29.234375000000 54.037010192871 144 144 144
35.781250000000 29.242187500000 54.067008972168 134 134 134
35.796875000000 29.234375000000 54.097007751465 140 140 140
35.796875000000 29.234375000000 54.127006530762 134 134 134
35.796875000000 29.234375000000 54.157997131348 133 133 133
35.796875000000 29.226562500000 54.187995910645 132 132 132
35.796875000000 29.234375000000 54.217002868652 141 141 141
35.812500000000 29.226562500000 54.247001647949 131 131 131
35.812500000000 29.226562500000 54.278007507324 132 132 132
35.828125000000 29.234375000000 54.308006286621 140 140 140
35.843750000000 29.226562500000 54.338005065918 137 137 137
35.843750000000 29.226562500000 54.368003845215 140 140 140
35.906250000000 29.226562500000 54.396003723145 181 181 181
35.906250000000 29.226562500000 54.426002502441 189 189 189
35.906250000000 29.226562500000 54.457008361816 192 192 192
35.906250000000 29.226562500000 54.487998962402 185 185 185
35.906250000000 29.234375000000 54.519004821777 185 185 185
35.906250000000 29.226562500000 54.550010681152 177 177 177
35.906250000000 29.234375000000 54.581001281738 186 186 186
35.937500000000 29.226562500000 54.612007141113 187 187 187
35.843750000000 29.226562500000 54.644996643066 170 170 170
35.843750000000 29.226562500000 54.675010681152 181 181 181
35.843750000000 29.234375000000 54.706001281738 168 168 168
35.875000000000 29.234375000000 54.736000061035 155 155 155
35.875000000000 29.234375000000 54.767005920410 167 167 167
35.843750000000 29.234375000000 54.797996520996 174 174 174
35.843750000000 29.226562500000 54.828010559082 169 169 169
35.906250000000 29.234375000000 54.861000061035 147 147 147
35.968750000000 29.234375000000 54.894004821777 174 174 174
35.968750000000 29.234375000000 54.925010681152 176 176 176
35.968750000000 29.234375000000 54.957008361816 173 173 173
36.000000000000 29.234375000000 54.989006042480 180 180 180
36.000000000000 29.234375000000 55.021003723145 173 173 173
35.890625000000 29.234375000000 55.483009338379 135 135 135
35.890625000000 29.234375000000 55.513999938965 191 191 191
35.890625000000 29.234375000000 55.545997619629 191 191 191
35.890625000000 29.234375000000 55.575996398926 190 190 190
35.875000000000 29.242187500000 55.607002258301 177 177 177
35.875000000000 29.234375000000 55.637001037598 177 177 177
35.875000000000 29.234375000000 55.668006896973 172 172 172
35.781250000000 29.242187500000 55.685005187988 187 187 187
35.781250000000 29.242187500000 55.713996887207 193 193 193
35.781250000000 29.242187500000 55.748008728027 192 192 192
35.781250000000 29.242187500000 55.778007507324 198 198 198
35.781250000000 29.242187500000 55.808006286621 188 188 188
35.781250000000 29.242187500000 55.840003967285 170 170 170
35.781250000000 29.242187500000 55.875007629395 153 153 153
35.781250000000 29.242187500000 55.905998229980 140 140 140
35.796875000000 29.234375000000 55.940010070801 137 137 137
35.781250000000 29.242187500000 55.971000671387 140 140 140
35.781250000000 29.242187500000 55.999000549316 166 166 166
35.750000000000 29.242187500000 56.028999328613 161 161 161
35.781250000000 29.242187500000 56.065010070801 151 151 151
35.734375000000 29.242187500000 56.090003967285 128 128 128
35.671875000000 29.234375000000 56.106010437012 141 141 141
35.671875000000 29.234375000000 56.138008117676 136 136 136
35.671875000000 29.234375000000 56.170005798340 120 120 120
35.750000000000 29.242187500000 56.222999572754 125 125 125
35.781250000000 29.242187500000 56.262001037598 123 123 123
35.609375000000 29.242187500000 56.245002746582 141 141 141
35.656250000000 29.234375000000 56.284996032715 156 156 156
35.703125000000 29.242187500000 56.338005065918 102 102 102
35.921875000000 29.531250000000 54.470008850098 140 140 140
35.921875000000 29.523437500000 54.502006530762 177 177 177
35.875000000000 29.531250000000 54.534004211426 171 171 171
35.859375000000 29.531250000000 54.566001892090 187 187 187
35.859375000000 29.531250000000 54.596000671387 184 184 184
35.859375000000 29.531250000000 54.627006530762 189 189 189
35.859375000000 29.531250000000 54.657997131348 178 178 178
35.921875000000 29.531250000000 54.689002990723 190 190 190
35.921875000000 29.523437500000 54.720008850098 187 187 187
35.875000000000 29.531250000000 54.750007629395 172 172 172
35.859375000000 29.531250000000 54.780998229980 102 102 102
35.859375000000 29.531250000000 54.812004089355 93 93 93
35.843750000000 29.523437500000 54.843009948730 96 96 96
35.859375000000 29.531250000000 54.873008728027 154 154 154
35.921875000000 29.523437500000 54.905998229980 170 170 170
35.906250000000 29.531250000000 54.937004089355 174 174 174
35.906250000000 29.531250000000 54.968009948730 177 177 177
35.906250000000 29.531250000000 54.999000549316 182 182 182
35.906250000000 29.531250000000 55.030006408691 104 104 104
35.765625000000 29.531250000000 55.388008117676 84 84 84
35.765625000000 29.531250000000 55.418998718262 181 181 181
35.765625000000 29.531250000000 55.450004577637 182 182 182
35.765625000000 29.531250000000 55.480003356934 182 182 182
35.750000000000 29.531250000000 55.510002136230 182 182 182
35.765625000000 29.531250000000 55.541999816895 181 181 181
35.750000000000 29.531250000000 55.571998596191 179 179 179
35.750000000000 29.531250000000 55.603004455566 178 178 178
35.765625000000 29.531250000000 55.635002136230 133 133 133
35.765625000000 29.531250000000 55.668006896973 189 189 189
35.750000000000 29.539062500000 55.696998596191 200 200 200
35.765625000000 29.531250000000 55.730003356934 191 191 191
35.765625000000 29.531250000000 55.761009216309 197 197 197
35.750000000000 29.539062500000 55.791999816895 196 196 196
35.765625000000 29.531250000000 55.825004577637 192 192 192
35.765625000000 29.531250000000 55.857002258301 198 198 198
35.765625000000 29.531250000000 55.887001037598 166 166 166
35.828125000000 29.531250000000 56.226997375488 88 88 88
35.750000000000 29.531250000000 56.239006042480 40 40 40
35.671875000000 29.828125000000 55.239006042480 159 159 159
35.671875000000 29.828125000000 55.267997741699 183 183 183
35.671875000000 29.828125000000 55.299003601074 182 182 182
35.671875000000 29.828125000000 55.329002380371 183 183 183
35.671875000000 29.828125000000 55.359001159668 184 184 184
35.671875000000 29.828125000000 55.388008117676 182 182 182
35.671875000000 29.828125000000 55.418006896973 186 186 186
35.656250000000 29.835937500000 55.448005676270 45 45 45
35.671875000000 29.835937500000 55.819007873535 109 109 109
35.671875000000 29.828125000000 55.851005554199 204 204 204
35.671875000000 29.835937500000 55.881004333496 208 208 208
35.671875000000 29.835937500000 55.912010192871 198 198 198
35.671875000000 29.828125000000 55.942008972168 201 201 201
35.671875000000 29.835937500000 55.974006652832 197 197 197
35.671875000000 29.835937500000 56.006996154785 198 198 198
35.671875000000 29.835937500000 56.037010192871 195 195 195
35.671875000000 29.835937500000 56.069007873535 92 92 92
35.687500000000 29.851562500000 56.032997131348 110 110 110
35.687500000000 29.843750000000 56.000007629395 148 148 148
35.687500000000 29.851562500000 55.963005065918 123 123 123
35.687500000000 29.843750000000 55.928001403809 151 151 151
35.687500000000 29.851562500000 55.890998840332 210 210 210
35.687500000000 29.843750000000 55.857002258301 195 195 195
35.687500000000 29.851562500000 55.821006774902 137 137 137
35.687500000000 29.843750000000 55.435005187988 116 116 116
35.687500000000 29.843750000000 55.400001525879 118 118 118
35.671875000000 29.851562500000 55.364997863770 114 114 114
35.671875000000 29.851562500000 55.330009460449 128 128 128
35.687500000000 29.843750000000 55.297004699707 111 111 111
35.687500000000 29.843750000000 55.262001037598 123 123 123
35.687500000000 29.843750000000 55.226997375488 128 128 128
35.890625000000 29.710937500000 54.916007995605 123 123 123
35.875000000000 29.726562500000 54.879997253418 155 155 155
35.875000000000 29.726562500000 54.845008850098 168 168 168
35.875000000000 29.718750000000 54.808998107910 166 166 166
35.875000000000 29.718750000000 54.773002624512 164 164 164
35.875000000000 29.718750000000 54.737007141113 142 142 142
35.875000000000 29.718750000000 54.700996398926 114 114 114
36.218750000000 29.531250000000 54.610008239746 25 25 25
36.187500000000 29.539062500000 54.573997497559 28 28 28
35.781250000000 29.460937500000 56.366996765137 22 22 22
35.718750000000 29.492187500000 56.318000793457 161 161 161
35.671875000000 29.523437500000 56.265007019043 173 173 173
35.687500000000 29.515625000000 56.236000061035 140 140 140
35.781250000000 29.460937500000 56.222007751465 112 112 112
35.750000000000 29.484375000000 56.175010681152 116 116 116
35.718750000000 29.492187500000 56.131004333496 124 124 124
35.750000000000 29.484375000000 56.103004455566 123 123 123
35.812500000000 29.453125000000 56.079002380371 110 110 110
35.812500000000 29.445312500000 56.043998718262 88 88 88
35.812500000000 29.445312500000 56.008003234863 111 111 111
35.812500000000 29.437500000000 55.972007751465 102 102 102
35.812500000000 29.445312500000 55.935997009277 114 114 114
35.812500000000 29.437500000000 55.901008605957 108 108 108
35.812500000000 29.445312500000 55.862007141113 111 111 111
35.812500000000 29.429687500000 55.828010559082 108 108 108
35.812500000000 29.429687500000 55.791007995605 142 142 142
35.812500000000 29.429687500000 55.754997253418 156 156 156
35.796875000000 29.437500000000 55.718009948730 144 144 144
35.812500000000 29.429687500000 55.683998107910 148 148 148
35.812500000000 29.429687500000 55.648002624512 147 147 147
35.812500000000 29.429687500000 55.612007141113 138 138 138
35.796875000000 29.437500000000 55.575004577637 137 137 137
35.812500000000 29.429687500000 55.540000915527 148 148 148
35.796875000000 29.437500000000 55.504005432129 139 139 139
35.812500000000 29.429687500000 55.469001770020 83 83 83
35.812500000000 29.429687500000 55.433006286621 80 80 80
35.796875000000 29.437500000000 55.397010803223 80 80 80
35.796875000000 29.437500000000 55.361000061035 75 75 75
35.812500000000 29.429687500000 55.325996398926 80 80 80
35.812500000000 29.429687500000 55.290000915527 71 71 71
35.812500000000 29.429687500000 55.256004333496 59 59 59
35.812500000000 29.429687500000 55.219001770020 43 43 43
35.828125000000 29.421875000000 55.185005187988 20 20 20
35.984375000000 29.320312500000 55.009010314941 150 150 150
35.984375000000 29.320312500000 54.972999572754 153 153 153
35.984375000000 29.320312500000 54.935997009277 155 155 155
35.984375000000 29.320312500000 54.900001525879 159 159 159
35.984375000000 29.320312500000 54.862998962402 163 163 163
35.859375000000 29.398437500000 54.829002380371 173 173 173
35.796875000000 29.429687500000 54.795005798340 177 177 177
35.843750000000 29.406250000000 54.758003234863 169 169 169
35.843750000000 29.406250000000 54.722999572754 170 170 170
35.812500000000 29.421875000000 54.687995910645 164 164 164
35.812500000000 29.421875000000 54.653007507324 170 170 170
35.843750000000 29.406250000000 54.614997863770 189 189 189
35.937500000000 29.343750000000 54.573997497559 166 166 166
35.937500000000 29.343750000000 54.537010192871 155 155 155
35.921875000000 29.351562500000 54.502006530762 152 152 152
35.921875000000 29.351562500000 54.465995788574 156 156 156
35.968750000000 29.328125000000 54.425010681152 143 143 143
35.968750000000 29.320312500000 54.388008117676 149 149 149
35.984375000000 29.312500000000 54.349006652832 153 153 153
35.687500000000 29.179687500000 56.247001647949 102 102 102
35.984375000000 29.000000000000 56.019004821777 103 103 103
35.984375000000 29.000000000000 55.983009338379 112 112 112
35.968750000000 29.007812500000 55.943000793457 111 111 111
35.984375000000 29.000000000000 55.907997131348 137 137 137
35.984375000000 29.000000000000 55.870002746582 187 187 187
35.984375000000 29.000000000000 55.832008361816 185 185 185
35.984375000000 29.000000000000 55.795005798340 102 102 102
36.000000000000 28.984375000000 55.538002014160 126 126 126
36.000000000000 28.984375000000 55.502006530762 193 193 193
36.000000000000 28.984375000000 55.465003967285 178 178 178
36.000000000000 28.984375000000 55.428001403809 159 159 159
36.000000000000 28.984375000000 55.390998840332 159 159 159
36.000000000000 28.984375000000 55.353996276855 136 136 136
36.000000000000 28.968750000000 55.319007873535 80 80 80
35.671875000000 29.789062500000 55.226005554199 97 97 97
35.671875000000 29.789062500000 55.256004333496 185 185 185
35.687500000000 29.781250000000 55.287010192871 180 180 180
35.671875000000 29.789062500000 55.316001892090 179 179 179
35.671875000000 29.781250000000 55.346000671387 181 181 181
35.671875000000 29.781250000000 55.375999450684 177 177 177
35.671875000000 29.781250000000 55.407005310059 178 178 178
35.687500000000 29.781250000000 55.437995910645 182 182 182
35.671875000000 29.781250000000 55.467002868652 161 161 161
35.734375000000 29.781250000000 55.752998352051 80 80 80
35.687500000000 29.781250000000 55.777000427246 197 197 197
35.687500000000 29.773437500000 55.808998107910 212 212 212
35.687500000000 29.773437500000 55.840003967285 217 217 217
35.687500000000 29.781250000000 55.872001647949 204 204 204
35.687500000000 29.781250000000 55.903007507324 193 193 193
35.687500000000 29.781250000000 55.935005187988 198 198 198
35.687500000000 29.773437500000 55.965003967285 198 198 198
35.687500000000 29.773437500000 55.995002746582 110 110 110
35.937500000000 29.460937500000 54.330009460449 58 58 58
35.937500000000 29.460937500000 54.361000061035 189 189 189
35.921875000000 29.460937500000 54.394004821777 168 168 168
35.937500000000 29.460937500000 54.424003601074 192 192 192
35.937500000000 29.460937500000 54.455009460449 193 193 193
35.937500000000 29.468750000000 54.486000061035 197 197 197
35.937500000000 29.460937500000 54.517997741699 195 195 195
35.937500000000 29.468750000000 54.549003601074 192 192 192
35.937500000000 29.460937500000 54.580009460449 191 191 191
35.937500000000 29.460937500000 54.611000061035 188 188 188
35.921875000000 29.460937500000 54.642997741699 190 190 190
35.921875000000 29.460937500000 54.674003601074 172 172 172
35.937500000000 29.453125000000 54.705009460449 174 174 174
35.937500000000 29.460937500000 54.736000061035 178 178 178
35.937500000000 29.453125000000 54.767997741699 183 183 183
35.859375000000 29.460937500000 54.797996520996 184 184 184
35.937500000000 29.460937500000 54.830009460449 177 177 177
35.937500000000 29.460937500000 54.861000061035 176 176 176
35.937500000000 29.460937500000 54.892997741699 181 181 181
35.937500000000 29.460937500000 54.924003601074 180 180 180
35.937500000000 29.453125000000 54.956001281738 182 182 182
35.937500000000 29.460937500000 54.987007141113 184 184 184
35.937500000000 29.453125000000 55.017997741699 66 66 66
35.796875000000 29.445312500000 55.471000671387 175 175 175
35.812500000000 29.453125000000 55.504005432129 182 182 182
35.812500000000 29.445312500000 55.536003112793 178 178 178
35.796875000000 29.445312500000 55.566001892090 178 178 178
35.812500000000 29.445312500000 55.599006652832 179 179 179
35.796875000000 29.445312500000 55.629005432129 175 175 175
35.796875000000 29.445312500000 55.659996032715 177 177 177
35.796875000000 29.445312500000 55.692008972168 181 181 181
35.812500000000 29.445312500000 55.724998474121 190 190 190
35.812500000000 29.445312500000 55.756996154785 194 194 194
35.812500000000 29.445312500000 55.789009094238 177 177 177
35.781250000000 29.429687500000 56.066001892090 112 112 112
35.687500000000 29.437500000000 56.082008361816 120 120 120
35.687500000000 29.429687500000 56.107002258301 119 119 119
35.687500000000 29.429687500000 56.138008117676 121 121 121
35.750000000000 29.437500000000 56.194999694824 117 117 117
35.796875000000 29.429687500000 56.241004943848 128 128 128
35.640625000000 29.429687500000 56.226005554199 139 139 139
35.625000000000 29.437500000000 56.250007629395 158 158 158
35.687500000000 29.429687500000 56.305000305176 128 128 128
36.062500000000 29.117187500000 54.565010070801 82 82 82
36.062500000000 29.117187500000 54.597007751465 156 156 156
36.062500000000 29.117187500000 54.629005432129 179 179 179
36.062500000000 29.117187500000 54.661003112793 180 180 180
36.062500000000 29.117187500000 54.693000793457 174 174 174
36.062500000000 29.117187500000 54.724006652832 184 184 184
36.062500000000 29.117187500000 54.756004333496 181 181 181
36.046875000000 29.109375000000 54.788002014160 183 183 183
36.046875000000 29.109375000000 54.819999694824 182 182 182
36.031250000000 29.117187500000 54.851997375488 177 177 177
36.046875000000 29.109375000000 54.884010314941 179 179 179
36.046875000000 29.109375000000 54.916007995605 181 181 181
36.046875000000 29.109375000000 54.948005676270 185 185 185
36.046875000000 29.109375000000 54.978996276855 166 166 166
35.937500000000 29.109375000000 55.383003234863 176 176 176
35.937500000000 29.101562500000 55.414009094238 197 197 197
35.937500000000 29.101562500000 55.444999694824 201 201 201
35.937500000000 29.101562500000 55.478004455566 203 203 203
35.937500000000 29.101562500000 55.510002136230 208 208 208
35.937500000000 29.101562500000 55.541999816895 205 205 205
35.937500000000 29.101562500000 55.573997497559 193 193 193
35.953125000000 29.101562500000 55.608009338379 132 132 132
35.937500000000 29.101562500000 55.702003479004 165 165 165
35.937500000000 29.093750000000 55.733009338379 203 203 203
35.937500000000 29.093750000000 55.765998840332 207 207 207
35.906250000000 29.101562500000 55.797004699707 195 195 195
35.937500000000 29.093750000000 55.831001281738 169 169 169
35.953125000000 29.093750000000 55.866996765137 171 171 171
35.937500000000 29.093750000000 55.896003723145 172 172 172
35.937500000000 29.093750000000 55.930000305176 146 146 146
36.046875000000 28.765625000000 55.379997253418 160 160 160
36.046875000000 28.765625000000 55.413002014160 158 158 158
35.703125000000 29.765625000000 55.243003845215 36 36 36
35.671875000000 29.765625000000 55.277000427246 220 220 220
35.687500000000 29.773437500000 55.310997009277 221 221 221
35.671875000000 29.765625000000 55.345008850098 225 225 225
35.671875000000 29.765625000000 55.379997253418 222 222 222
35.687500000000 29.757812500000 55.415000915527 226 226 226
35.687500000000 29.765625000000 55.448997497559 226 226 226
35.671875000000 29.765625000000 55.483009338379 228 228 228
35.703125000000 29.765625000000 55.519004821777 83 83 83
35.687500000000 29.765625000000 55.763008117676 167 167 167
35.687500000000 29.757812500000 55.797004699707 216 216 216
35.687500000000 29.765625000000 55.832008361816 218 218 218
35.687500000000 29.757812500000 55.866996765137 220 220 220
35.687500000000 29.765625000000 55.903007507324 214 214 214
35.687500000000 29.757812500000 55.937995910645 213 213 213
35.687500000000 29.765625000000 55.974006652832 211 211 211
35.687500000000 29.750000000000 56.006996154785 87 87 87
35.906250000000 29.562500000000 54.448997497559 135 135 135
35.906250000000 29.562500000000 54.485008239746 174 174 174
35.875000000000 29.539062500000 54.523002624512 175 175 175
35.859375000000 29.539062500000 54.558006286621 191 191 191
35.859375000000 29.539062500000 54.594001770020 173 173 173
35.890625000000 29.554687500000 54.627998352051 181 181 181
35.890625000000 29.554687500000 54.663002014160 196 196 196
35.890625000000 29.554687500000 54.698997497559 194 194 194
35.890625000000 29.539062500000 54.735008239746 181 181 181
35.859375000000 29.539062500000 54.771003723145 101 101 101
35.859375000000 29.539062500000 54.806999206543 135 135 135
35.859375000000 29.539062500000 54.842002868652 93 93 93
35.890625000000 29.539062500000 54.877998352051 125 125 125
35.906250000000 29.554687500000 54.913002014160 171 171 171
35.906250000000 29.554687500000 54.948997497559 175 175 175
35.890625000000 29.554687500000 54.984001159668 181 181 181
35.890625000000 29.546875000000 55.019996643066 133 133 133
35.796875000000 29.476562500000 55.437995910645 57 57 57
35.796875000000 29.468750000000 55.472999572754 224 224 224
35.796875000000 29.468750000000 55.508003234863 224 224 224
35.796875000000 29.468750000000 55.543006896973 229 229 229
35.796875000000 29.468750000000 55.578010559082 228 228 228
35.796875000000 29.468750000000 55.614006042480 226 226 226
35.796875000000 29.476562500000 55.650001525879 228 228 228
35.796875000000 29.468750000000 55.685005187988 229 229 229
35.796875000000 29.476562500000 55.721000671387 214 214 214
35.796875000000 29.476562500000 55.756996154785 211 211 211
35.796875000000 29.468750000000 55.791999816895 213 213 213
35.796875000000 29.468750000000 55.828010559082 194 194 194
35.703125000000 29.414062500000 56.094001770020 102 102 102
35.656250000000 29.390625000000 56.118995666504 116 116 116
35.656250000000 29.382812500000 56.151008605957 122 122 122
35.734375000000 29.445312500000 56.211006164551 125 125 125
35.828125000000 29.484375000000 56.267005920410 122 122 122
35.593750000000 29.351562500000 56.245002746582 143 143 143
35.609375000000 29.351562500000 56.282997131348 159 159 159
35.656250000000 29.390625000000 56.333000183105 104 104 104
36.000000000000 29.281250000000 54.342002868652 82 82 82
36.000000000000 29.273437500000 54.379005432129 190 190 190
36.000000000000 29.273437500000 54.415000915527 198 198 198
36.000000000000 29.273437500000 54.452003479004 193 193 193
36.000000000000 29.273437500000 54.487998962402 194 194 194
36.000000000000 29.273437500000 54.524009704590 191 191 191
36.000000000000 29.281250000000 54.560997009277 191 191 191
36.000000000000 29.281250000000 54.597007751465 197 197 197
36.000000000000 29.273437500000 54.634010314941 203 203 203
36.000000000000 29.273437500000 54.670005798340 186 186 186
36.000000000000 29.273437500000 54.706001281738 183 183 183
36.000000000000 29.273437500000 54.743003845215 180 180 180
35.968750000000 29.257812500000 54.778999328613 168 168 168
35.937500000000 29.250000000000 54.816001892090 148 148 148
35.968750000000 29.242187500000 54.851997375488 143 143 143
36.000000000000 29.265625000000 54.888008117676 177 177 177
36.000000000000 29.273437500000 54.924003601074 178 178 178
36.000000000000 29.273437500000 54.959999084473 176 176 176
36.000000000000 29.265625000000 54.996009826660 182 182 182
36.000000000000 29.273437500000 55.032997131348 81 81 81
35.890625000000 29.203125000000 55.459007263184 217 217 217
35.890625000000 29.203125000000 55.495002746582 207 207 207
35.890625000000 29.195312500000 55.530006408691 199 199 199
35.890625000000 29.195312500000 55.566001892090 219 219 219
35.890625000000 29.203125000000 55.603004455566 213 213 213
35.890625000000 29.195312500000 55.638008117676 227 227 227
35.875000000000 29.187500000000 55.672996520996 227 227 227
35.875000000000 29.187500000000 55.709999084473 229 229 229
35.890625000000 29.195312500000 55.746009826660 234 234 234
35.890625000000 29.195312500000 55.782997131348 229 229 229
35.890625000000 29.195312500000 55.819007873535 229 229 229
35.890625000000 29.195312500000 55.856010437012 233 233 233
35.875000000000 29.187500000000 55.890998840332 146 146 146
35.953125000000 29.242187500000 56.241004943848 90 90 90
35.875000000000 29.179687500000 56.254005432129 91 91 91
35.984375000000 28.929687500000 55.300010681152 216 216 216
36.000000000000 28.921875000000 55.336997985840 223 223 223
35.984375000000 28.921875000000 55.373008728027 223 223 223
35.984375000000 28.921875000000 55.409004211426 218 218 218
35.984375000000 28.921875000000 55.446006774902 212 212 212
35.984375000000 28.921875000000 55.482002258301 219 219 219
35.984375000000 28.921875000000 55.519004821777 179 179 179
36.000000000000 28.914062500000 55.812995910645 92 92 92
35.968750000000 28.921875000000 55.849006652832 229 229 229
35.968750000000 28.921875000000 55.887001037598 226 226 226
35.968750000000 28.921875000000 55.922996520996 230 230 230
35.968750000000 28.921875000000 55.961006164551 230 230 230
36.000000000000 28.914062500000 55.999000549316 227 227 227
36.000000000000 28.914062500000 56.036003112793 235 235 235
35.968750000000 28.921875000000 56.071998596191 175 175 175
35.953125000000 28.921875000000 55.286003112793 202 202 202
35.968750000000 28.929687500000 55.321998596191 224 224 224
35.968750000000 28.929687500000 55.359001159668 226 226 226
35.968750000000 28.929687500000 55.394996643066 224 224 224
35.968750000000 28.929687500000 55.431999206543 226 226 226
35.953125000000 28.921875000000 55.468009948730 221 221 221
35.953125000000 28.921875000000 55.504005432129 210 210 210
35.953125000000 28.914062500000 55.795997619629 223 223 223
35.953125000000 28.914062500000 55.833000183105 228 228 228
35.953125000000 28.921875000000 55.871009826660 232 232 232
35.953125000000 28.921875000000 55.907005310059 237 237 237
35.953125000000 28.921875000000 55.944999694824 230 230 230
35.953125000000 28.921875000000 55.982002258301 234 234 234
35.953125000000 28.921875000000 56.017997741699 227 227 227
35.812500000000 29.210937500000 52.780006408691 155 155 155
35.812500000000 29.210937500000 52.819999694824 161 161 161
35.812500000000 29.218750000000 52.855003356934 159 159 159
35.875000000000 29.242187500000 52.875999450684 155 155 155
35.812500000000 29.210937500000 53.431007385254 115 115 115
35.828125000000 29.203125000000 53.467002868652 112 112 112
35.828125000000 29.210937500000 53.502998352051 105 105 105
35.812500000000 29.210937500000 53.543006896973 97 97 97
35.843750000000 29.218750000000 53.575996398926 93 93 93
35.828125000000 29.203125000000 53.614997863770 80 80 80
35.828125000000 29.203125000000 53.652000427246 82 82 82
35.812500000000 29.210937500000 53.690010070801 54 54 54
35.828125000000 29.203125000000 53.724998474121 28 28 28
35.937500000000 29.289062500000 54.323005676270 168 168 168
35.937500000000 29.289062500000 54.359001159668 196 196 196
35.968750000000 29.281250000000 54.394996643066 200 200 200
35.968750000000 29.281250000000 54.431999206543 181 181 181
35.937500000000 29.281250000000 54.469001770020 147 147 147
35.937500000000 29.281250000000 54.504997253418 165 165 165
35.968750000000 29.289062500000 54.540000915527 180 180 180
35.968750000000 29.289062500000 54.575996398926 195 195 195
35.828125000000 29.203125000000 54.620002746582 183 183 183
35.859375000000 29.226562500000 54.653007507324 192 192 192
35.859375000000 29.218750000000 54.689002990723 175 175 175
35.859375000000 29.226562500000 54.724006652832 186 186 186
35.890625000000 29.234375000000 54.759010314941 195 195 195
35.828125000000 29.203125000000 54.795997619629 180 180 180
35.968750000000 29.296875000000 54.830009460449 178 178 178
35.968750000000 29.281250000000 54.866004943848 181 181 181
35.968750000000 29.289062500000 54.902000427246 178 178 178
35.968750000000 29.289062500000 54.937995910645 187 187 187
35.953125000000 29.273437500000 54.974006652832 187 187 187
35.968750000000 29.281250000000 55.010002136230 86 86 86
35.859375000000 29.218750000000 55.470008850098 224 224 224
35.875000000000 29.218750000000 55.506004333496 226 226 226
35.859375000000 29.218750000000 55.541007995605 224 224 224
35.859375000000 29.226562500000 55.577003479004 225 225 225
35.859375000000 29.218750000000 55.612007141113 233 233 233
35.859375000000 29.218750000000 55.648002624512 231 231 231
35.859375000000 29.218750000000 55.683998107910 233 233 233
35.859375000000 29.218750000000 55.720008850098 233 233 233
35.859375000000 29.218750000000 55.756004333496 231 231 231
35.859375000000 29.218750000000 55.791999816895 235 235 235
35.843750000000 29.210937500000 55.828010559082 186 186 186
35.796875000000 29.179687500000 56.107002258301 65 65 65
35.968750000000 29.281250000000 56.222007751465 114 114 114
35.921875000000 29.250000000000 56.247001647949 97 97 97
35.718750000000 29.132812500000 56.228004455566 128 128 128
35.765625000000 29.171875000000 56.280998229980 23 23 23
35.843750000000 29.578125000000 54.566001892090 158 158 158
35.843750000000 29.562500000000 54.601997375488 188 188 188
35.875000000000 29.601562500000 54.635002136230 190 190 190
35.875000000000 29.601562500000 54.670997619629 181 181 181
35.875000000000 29.601562500000 54.706001281738 185 185 185
35.875000000000 29.593750000000 54.741996765137 186 186 186
35.875000000000 29.601562500000 54.777000427246 175 175 175
35.875000000000 29.601562500000 54.812995910645 171 171 171
35.875000000000 29.601562500000 54.847999572754 184 184 184
35.875000000000 29.601562500000 54.884010314941 183 183 183
35.875000000000 29.585937500000 54.918998718262 182 182 182
35.875000000000 29.601562500000 54.955009460449 184 184 184
35.843750000000 29.585937500000 54.989997863770 24 24 24
35.750000000000 29.523437500000 55.370002746582 148 148 148
35.734375000000 29.507812500000 55.403999328613 226 226 226
35.750000000000 29.523437500000 55.441001892090 229 229 229
35.750000000000 29.515625000000 55.474998474121 229 229 229
35.750000000000 29.515625000000 55.510002136230 229 229 229
35.750000000000 29.523437500000 55.545997619629 228 228 228
35.750000000000 29.515625000000 55.580009460449 230 230 230
35.734375000000 29.507812500000 55.614006042480 218 218 218
35.750000000000 29.523437500000 55.651008605957 217 217 217
35.750000000000 29.531250000000 55.687004089355 218 218 218
35.750000000000 29.523437500000 55.722007751465 219 219 219
35.750000000000 29.531250000000 55.758003234863 218 218 218
35.750000000000 29.523437500000 55.793006896973 216 216 216
35.750000000000 29.523437500000 55.828010559082 216 216 216
35.750000000000 29.515625000000 55.862998962402 92 92 92
35.796875000000 29.539062500000 56.196006774902 81 81 81
35.750000000000 29.523437500000 56.224006652832 114 114 114
35.593750000000 29.429687500000 56.217002868652 123 123 123
35.656250000000 29.828125000000 55.209999084473 189 189 189
35.625000000000 29.828125000000 55.243995666504 228 228 228
35.656250000000 29.828125000000 55.278007507324 228 228 228
35.656250000000 29.828125000000 55.312995910645 227 227 227
35.625000000000 29.828125000000 55.347007751465 228 228 228
35.625000000000 29.828125000000 55.379997253418 227 227 227
35.625000000000 29.828125000000 55.415000915527 172 172 172
35.656250000000 29.835937500000 55.797004699707 168 168 168
35.656250000000 29.820312500000 55.829002380371 222 222 222
35.656250000000 29.835937500000 55.866004943848 225 225 225
35.656250000000 29.835937500000 55.901008605957 223 223 223
35.656250000000 29.835937500000 55.935997009277 222 222 222
35.656250000000 29.828125000000 55.970008850098 221 221 221
35.656250000000 29.835937500000 56.006996154785 219 219 219
35.656250000000 29.835937500000 56.041007995605 76 76 76
35.656250000000 29.117187500000 56.215995788574 32 32 32
35.968750000000 28.929687500000 56.026008605957 41 41 41
35.968750000000 28.937500000000 55.987007141113 108 108 108
35.968750000000 28.937500000000 55.948997497559 99 99 99
35.953125000000 28.953125000000 55.909996032715 111 111 111
35.968750000000 28.945312500000 55.873008728027 166 166 166
35.953125000000 28.953125000000 55.834999084473 169 169 169
35.953125000000 28.953125000000 55.797996520996 147 147 147
35.953125000000 28.953125000000 55.760002136230 32 32 32
35.953125000000 28.953125000000 55.539009094238 21 21 21
35.968750000000 28.953125000000 55.502998352051 150 150 150
35.968750000000 28.953125000000 55.465995788574 181 181 181
35.968750000000 28.953125000000 55.430000305176 161 161 161
35.968750000000 28.953125000000 55.392005920410 167 167 167
35.953125000000 28.960937500000 55.355003356934 140 140 140
35.968750000000 28.953125000000 55.319007873535 121 121 121
35.734375000000 29.437500000000 56.328010559082 109 109 109
35.687500000000 29.460937500000 56.278007507324 155 155 155
35.625000000000 29.492187500000 56.228996276855 157 157 157
35.812500000000 29.390625000000 56.237007141113 113 113 113
35.750000000000 29.429687500000 56.183998107910 104 104 104
35.703125000000 29.453125000000 56.138008117676 119 119 119
35.718750000000 29.445312500000 56.103996276855 118 118 118
35.750000000000 29.429687500000 56.075996398926 114 114 114
35.812500000000 29.398437500000 56.053001403809 27 27 27
35.781250000000 29.406250000000 56.010002136230 81 81 81
35.796875000000 29.406250000000 55.974998474121 79 79 79
35.796875000000 29.406250000000 55.940010070801 84 84 84
35.781250000000 29.414062500000 55.901008605957 66 66 66
35.781250000000 29.421875000000 55.862998962402 64 64 64
35.781250000000 29.414062500000 55.829002380371 33 33 33
35.781250000000 29.414062500000 55.791999816895 59 59 59
35.781250000000 29.414062500000 55.756996154785 137 137 137
35.796875000000 29.406250000000 55.722007751465 131 131 131
35.781250000000 29.414062500000 55.685005187988 122 122 122
35.796875000000 29.406250000000 55.649009704590 114 114 114
35.796875000000 29.406250000000 55.612998962402 114 114 114
35.781250000000 29.414062500000 55.575996398926 121 121 121
35.812500000000 29.406250000000 55.541007995605 112 112 112
35.781250000000 29.414062500000 55.504005432129 123 123 123
35.781250000000 29.421875000000 55.467002868652 97 97 97
35.953125000000 29.335937500000 55.009010314941 98 98 98
35.968750000000 29.328125000000 54.972999572754 143 143 143
35.968750000000 29.328125000000 54.935997009277 150 150 150
35.968750000000 29.328125000000 54.899009704590 143 143 143
35.968750000000 29.328125000000 54.862998962402 142 142 142
35.968750000000 29.328125000000 54.825996398926 143 143 143
35.875000000000 29.390625000000 54.791999816895 146 146 146
35.875000000000 29.390625000000 54.756004333496 146 146 146
35.828125000000 29.414062500000 54.721000671387 151 151 151
35.843750000000 29.406250000000 54.685005187988 152 152 152
35.875000000000 29.390625000000 54.648002624512 152 152 152
35.953125000000 29.335937500000 54.607002258301 160 160 160
35.937500000000 29.343750000000 54.571006774902 136 136 136
35.890625000000 29.375000000000 54.538002014160 156 156 156
35.890625000000 29.375000000000 54.500999450684 146 146 146
35.906250000000 29.367187500000 54.465003967285 153 153 153
35.906250000000 29.367187500000 54.427009582520 143 143 143
35.937500000000 29.351562500000 54.388008117676 150 150 150
35.921875000000 29.359375000000 54.353004455566 155 155 155
35.953125000000 29.343750000000 54.314002990723 139 139 139
35.640625000000 29.851562500000 56.037010192871 90 90 90
35.656250000000 29.843750000000 56.002006530762 138 138 138
35.656250000000 29.843750000000 55.967002868652 115 115 115
35.640625000000 29.851562500000 55.929008483887 140 140 140
35.656250000000 29.843750000000 55.897010803223 125 125 125
35.656250000000 29.843750000000 55.860008239746 165 165 165
35.656250000000 29.843750000000 55.825004577637 133 133 133
35.656250000000 29.859375000000 55.403007507324 60 60 60
35.625000000000 29.867187500000 55.366004943848 124 124 124
35.625000000000 29.867187500000 55.333000183105 111 111 111
35.625000000000 29.882812500000 55.297004699707 125 125 125
35.625000000000 29.867187500000 55.263008117676 88 88 88
36.046875000000 29.640625000000 54.881996154785 42 42 42
36.015625000000 29.656250000000 54.845008850098 34 34 34
36.000000000000 29.664062500000 54.808998107910 27 27 27
35.968750000000 28.875000000000 56.071998596191 75 75 75
35.984375000000 28.867187500000 56.041007995605 164 164 164
35.968750000000 28.875000000000 56.006004333496 168 168 168
35.968750000000 28.875000000000 55.972007751465 163 163 163
35.984375000000 28.867187500000 55.941001892090 164 164 164
35.984375000000 28.867187500000 55.907005310059 166 166 166
35.968750000000 28.875000000000 55.873008728027 170 170 170
35.968750000000 28.875000000000 55.840003967285 165 165 165
35.968750000000 28.875000000000 55.804008483887 41 41 41
35.968750000000 28.882812500000 55.480003356934 174 174 174
35.968750000000 28.882812500000 55.448005676270 195 195 195
35.968750000000 28.882812500000 55.415000915527 218 218 218
35.968750000000 28.875000000000 55.381004333496 200 200 200
35.968750000000 28.882812500000 55.349998474121 195 195 195
35.968750000000 28.882812500000 55.318000793457 189 189 189
35.968750000000 28.882812500000 55.286003112793 189 189 189
35.968750000000 28.882812500000 55.252998352051 129 129 129
35.671875000000 29.234375000000 56.302009582520 65 65 65
35.609375000000 29.234375000000 56.252006530762 149 149 149
35.671875000000 29.242187500000 56.241004943848 121 121 121
35.843750000000 29.234375000000 56.261009216309 115 115 115
35.781250000000 29.242187500000 56.205009460449 115 115 115
35.656250000000 29.242187500000 56.135002136230 109 109 109
35.671875000000 29.242187500000 56.107002258301 135 135 135
35.671875000000 29.242187500000 56.078010559082 128 128 128
35.718750000000 29.242187500000 56.060005187988 103 103 103
35.718750000000 29.250000000000 56.028999328613 149 149 149
35.718750000000 29.250000000000 55.997001647949 162 162 162
35.734375000000 29.242187500000 55.967002868652 156 156 156
35.765625000000 29.250000000000 55.941001892090 130 130 130
35.765625000000 29.250000000000 55.907997131348 158 158 158
35.750000000000 29.250000000000 55.873008728027 150 150 150
35.750000000000 29.250000000000 55.838996887207 171 171 171
35.718750000000 29.250000000000 55.806007385254 169 169 169
35.750000000000 29.257812500000 55.778999328613 187 187 187
35.750000000000 29.250000000000 55.745002746582 192 192 192
35.750000000000 29.257812500000 55.713996887207 189 189 189
35.750000000000 29.250000000000 55.681007385254 196 196 196
35.765625000000 29.250000000000 55.653999328613 188 188 188
35.843750000000 29.250000000000 55.636009216309 172 172 172
35.812500000000 29.257812500000 55.601005554199 170 170 170
35.843750000000 29.250000000000 55.573005676270 182 182 182
35.843750000000 29.257812500000 55.543006896973 189 189 189
35.843750000000 29.250000000000 55.509010314941 186 186 186
35.843750000000 29.257812500000 55.478004455566 183 183 183
35.843750000000 29.250000000000 55.446006774902 24 24 24
35.812500000000 29.257812500000 55.411003112793 58 58 58
35.812500000000 29.265625000000 55.379005432129 82 82 82
35.812500000000 29.265625000000 55.347999572754 102 102 102
35.812500000000 29.265625000000 55.316001892090 109 109 109
35.812500000000 29.265625000000 55.284996032715 121 121 121
35.812500000000 29.265625000000 55.254005432129 126 126 126
35.812500000000 29.265625000000 55.222999572754 127 127 127
35.796875000000 29.265625000000 55.191001892090 119 119 119
35.781250000000 29.257812500000 55.157997131348 123 123 123
35.750000000000 29.257812500000 55.125007629395 124 124 124
35.750000000000 29.257812500000 55.094001770020 126 126 126
35.750000000000 29.257812500000 55.062995910645 135 135 135
35.750000000000 29.257812500000 55.032997131348 138 138 138
35.781250000000 29.265625000000 55.004005432129 141 141 141
35.796875000000 29.265625000000 54.974998474121 168 168 168
35.781250000000 29.265625000000 54.942008972168 172 172 172
35.734375000000 29.265625000000 54.911003112793 187 187 187
35.734375000000 29.265625000000 54.879997253418 183 183 183
35.734375000000 29.265625000000 54.849006652832 181 181 181
35.734375000000 29.265625000000 54.819007873535 190 190 190
35.718750000000 29.273437500000 54.788002014160 190 190 190
35.718750000000 29.273437500000 54.758003234863 188 188 188
35.718750000000 29.273437500000 54.728004455566 189 189 189
35.718750000000 29.273437500000 54.698005676270 182 182 182
35.718750000000 29.273437500000 54.668006896973 174 174 174
35.734375000000 29.265625000000 54.637001037598 148 148 148
35.718750000000 29.273437500000 54.607002258301 143 143 143
35.703125000000 29.281250000000 54.577003479004 152 152 152
35.718750000000 29.273437500000 54.547004699707 146 146 146
35.703125000000 29.281250000000 54.517005920410 144 144 144
35.718750000000 29.273437500000 54.487007141113 136 136 136
35.718750000000 29.273437500000 54.456001281738 133 133 133
35.703125000000 29.281250000000 54.426002502441 128 128 128
35.718750000000 29.273437500000 54.396003723145 133 133 133
35.718750000000 29.281250000000 54.364997863770 127 127 127
35.718750000000 29.273437500000 54.334999084473 114 114 114
35.718750000000 29.281250000000 54.304008483887 120 120 120
35.703125000000 29.281250000000 54.275001525879 111 111 111
35.718750000000 29.281250000000 54.243003845215 108 108 108
35.718750000000 29.281250000000 54.213005065918 107 107 107
35.718750000000 29.289062500000 54.181999206543 116 116 116
35.718750000000 29.281250000000 54.152000427246 123 123 123
35.703125000000 29.281250000000 54.123008728027 130 130 130
35.718750000000 29.281250000000 54.090995788574 127 127 127
