30.406250000000 13.734375000000 58.138008117676 99 99 99
30.406250000000 13.726562500000 58.131004333496 180 180 180
30.437500000000 14.007812500000 59.327003479004 103 103 103
30.390625000000 14.023437500000 59.377006530762 108 108 108
30.406250000000 14.007812500000 58.140007019043 210 210 210
30.390625000000 14.023437500000 58.131996154785 89 89 89
30.421875000000 14.304687500000 59.321998596191 71 71 71
30.421875000000 14.312500000000 58.133003234863 158 158 158
30.406250000000 14.312500000000 58.137001037598 255 255 255
30.437500000000 14.601562500000 59.278007507324 103 103 103
30.437500000000 14.601562500000 58.153007507324 101 101 101
30.406250000000 14.601562500000 58.135002136230 204 204 204
30.390625000000 14.601562500000 58.142005920410 57 57 57
30.406250000000 14.593750000000 59.334007263184 134 134 134
30.437500000000 14.890625000000 58.142005920410 112 112 112
30.421875000000 14.890625000000 58.140998840332 255 255 255
30.406250000000 14.890625000000 58.138008117676 180 180 180
30.406250000000 14.882812500000 59.370002746582 105 105 105
30.421875000000 15.171875000000 59.321006774902 75 75 75
30.421875000000 15.179687500000 58.146003723145 255 255 255
30.406250000000 15.179687500000 58.138999938965 255 255 255
30.437500000000 15.460937500000 59.293006896973 114 114 114
30.421875000000 15.468750000000 58.148002624512 159 159 159
30.406250000000 15.476562500000 58.148002624512 252 252 252
30.390625000000 15.476562500000 58.133003234863 42 42 42
30.421875000000 15.757812500000 59.353996276855 95 95 95
30.421875000000 15.757812500000 58.153007507324 255 255 255
30.406250000000 15.757812500000 58.140007019043 169 169 169
30.421875000000 16.046875000000 59.284004211426 119 119 119
30.421875000000 16.046875000000 58.149009704590 173 173 173
30.406250000000 16.054687500000 58.142997741699 255 255 255
30.437500000000 16.343750000000 58.179008483887 164 164 164
30.406250000000 16.335937500000 58.152000427246 251 251 251
30.390625000000 16.335937500000 58.133003234863 102 102 102
30.437500000000 16.640625000000 58.233009338379 146 146 146
30.421875000000 16.640625000000 58.161003112793 255 255 255
30.406250000000 16.632812500000 58.155006408691 149 149 149
30.437500000000 16.921875000000 59.295997619629 102 102 102
30.437500000000 16.921875000000 58.166007995605 255 255 255
30.390625000000 16.929687500000 58.149009704590 255 255 255
30.437500000000 17.203125000000 59.265007019043 60 60 60
30.421875000000 17.210937500000 58.163002014160 140 140 140
30.406250000000 17.210937500000 58.152000427246 255 255 255
30.406250000000 17.210937500000 59.315010070801 131 131 131
30.437500000000 17.500000000000 58.208000183105 150 150 150
30.421875000000 17.500000000000 58.159004211426 247 247 247
30.390625000000 17.507812500000 58.155998229980 133 133 133
30.437500000000 17.789062500000 59.269004821777 100 100 100
30.437500000000 17.796875000000 58.190010070801 255 255 255
30.406250000000 17.796875000000 58.168998718262 236 236 236
30.437500000000 18.085937500000 58.219001770020 168 168 168
30.406250000000 18.093750000000 58.166007995605 217 217 217
30.437500000000 18.382812500000 58.233009338379 153 153 153
30.421875000000 18.375000000000 58.166999816895 225 225 225
30.406250000000 18.375000000000 58.159996032715 102 102 102
30.437500000000 18.656250000000 59.328010559082 106 106 106
30.421875000000 18.664062500000 58.218009948730 255 255 255
30.406250000000 18.664062500000 58.177009582520 153 153 153
30.437500000000 18.953125000000 58.213005065918 255 255 255
30.421875000000 18.953125000000 58.170005798340 232 232 232
30.437500000000 19.250000000000 58.237007141113 155 155 155
30.406250000000 19.257812500000 58.185997009277 219 219 219
30.390625000000 19.250000000000 58.170005798340 44 44 44
30.437500000000 19.539062500000 59.291007995605 89 89 89
30.437500000000 19.539062500000 58.246009826660 255 255 255
30.406250000000 19.546875000000 58.187995910645 161 161 161
30.437500000000 19.835937500000 58.215003967285 255 255 255
30.406250000000 19.828125000000 58.187995910645 211 211 211
30.437500000000 20.117187500000 58.220008850098 161 161 161
30.437500000000 20.109375000000 58.194999694824 245 245 245
30.437500000000 20.414062500000 58.198997497559 82 82 82
30.421875000000 20.406250000000 58.254997253418 255 255 255
30.406250000000 20.414062500000 58.187004089355 38 38 38
30.437500000000 20.406250000000 59.316001892090 109 109 109
30.437500000000 20.710937500000 58.256996154785 255 255 255
30.406250000000 20.710937500000 58.200996398926 165 165 165
30.437500000000 20.992187500000 58.237007141113 149 149 149
30.421875000000 21.000000000000 58.220008850098 231 231 231
30.453125000000 21.289062500000 58.228004455566 57 57 57
30.437500000000 21.289062500000 58.226005554199 218 218 218
30.406250000000 21.289062500000 58.209007263184 84 84 84
30.437500000000 21.578125000000 58.250007629395 255 255 255
30.406250000000 21.578125000000 58.226005554199 239 239 239
30.437500000000 21.867187500000 58.236000061035 150 150 150
30.421875000000 21.875000000000 58.215003967285 205 205 205
30.453125000000 22.171875000000 58.274009704590 105 105 105
30.437500000000 22.164062500000 58.249000549316 255 255 255
30.437500000000 22.453125000000 58.245002746582 214 214 214
30.421875000000 22.453125000000 58.236000061035 171 171 171
30.453125000000 22.742187500000 58.252998352051 106 106 106
30.437500000000 22.750000000000 58.274009704590 254 254 254
30.453125000000 23.031250000000 58.243003845215 206 206 206
30.437500000000 23.039062500000 58.246009826660 140 140 140
30.453125000000 23.335937500000 58.260002136230 255 255 255
30.437500000000 23.335937500000 58.256004333496 220 220 220
30.468750000000 23.632812500000 58.248008728027 82 82 82
30.453125000000 23.625000000000 58.258003234863 218 218 218
30.468750000000 23.921875000000 58.246009826660 93 93 93
30.437500000000 23.914062500000 58.258003234863 255 255 255
30.421875000000 23.914062500000 58.249000549316 157 157 157
30.468750000000 24.203125000000 58.250007629395 255 255 255
30.437500000000 24.203125000000 58.254997253418 255 255 255
30.468750000000 24.500000000000 58.276008605957 128 128 128
30.437500000000 24.500000000000 58.261009216309 255 255 255
30.421875000000 24.507812500000 58.278007507324 152 152 152
30.468750000000 24.789062500000 58.276008605957 255 255 255
30.437500000000 24.789062500000 58.261009216309 255 255 255
30.468750000000 25.085937500000 58.265007019043 156 156 156
30.437500000000 25.093750000000 58.269996643066 255 255 255
30.484375000000 25.375000000000 58.277000427246 86 86 86
30.468750000000 25.375000000000 58.273002624512 255 255 255
30.437500000000 25.375000000000 58.265998840332 112 112 112
30.453125000000 25.664062500000 58.278007507324 255 255 255
30.437500000000 25.664062500000 58.278999328613 255 255 255
30.468750000000 25.953125000000 58.277000427246 131 131 131
30.453125000000 25.953125000000 58.284004211426 255 255 255
30.468750000000 26.250000000000 58.276008605957 50 50 50
30.453125000000 26.250000000000 58.284996032715 240 240 240
30.421875000000 26.250000000000 58.263999938965 180 180 180
30.468750000000 26.539062500000 58.265007019043 198 198 198
30.453125000000 26.546875000000 58.315010070801 255 255 255
30.468750000000 26.828125000000 58.278007507324 116 116 116
30.437500000000 26.835937500000 58.302009582520 255 255 255
30.421875000000 26.835937500000 58.319007873535 78 78 78
30.484375000000 27.117187500000 58.275001525879 84 84 84
30.468750000000 27.117187500000 58.278999328613 255 255 255
30.437500000000 27.117187500000 58.301002502441 151 151 151
30.453125000000 27.414062500000 58.282005310059 255 255 255
30.437500000000 27.414062500000 58.306999206543 255 255 255
30.468750000000 27.703125000000 58.284996032715 151 151 151
30.437500000000 27.703125000000 58.323997497559 239 239 239
30.468750000000 28.000000000000 58.282005310059 47 47 47
30.453125000000 28.000000000000 58.290000915527 230 230 230
30.437500000000 28.000000000000 58.330009460449 161 161 161
30.468750000000 28.281250000000 58.293998718262 221 221 221
30.437500000000 28.296875000000 58.317008972168 255 255 255
30.468750000000 28.578125000000 58.287010192871 169 169 169
30.453125000000 28.578125000000 58.332008361816 255 255 255
30.421875000000 28.570312500000 59.237007141113 65 65 65
30.468750000000 28.875000000000 58.295005798340 131 131 131
30.453125000000 28.875000000000 58.317008972168 236 236 236
30.453125000000 28.867187500000 59.295997619629 109 109 109
30.468750000000 29.164062500000 58.289009094238 71 71 71
30.453125000000 29.171875000000 58.301002502441 255 255 255
30.437500000000 29.164062500000 58.357002258301 154 154 154
30.468750000000 29.453125000000 58.293006896973 212 212 212
30.453125000000 29.453125000000 58.336006164551 255 255 255
30.468750000000 29.750000000000 58.295997619629 106 106 106
30.437500000000 29.742187500000 58.288002014160 206 206 206
30.437500000000 29.742187500000 59.263999938965 109 109 109
30.484375000000 30.031250000000 58.303001403809 71 71 71
30.468750000000 30.031250000000 58.305000305176 255 255 255
30.437500000000 30.031250000000 58.314002990723 108 108 108
30.468750000000 30.023437500000 59.297004699707 107 107 107
30.453125000000 30.328125000000 58.301002502441 205 205 205
30.437500000000 30.328125000000 58.304008483887 164 164 164
30.484375000000 30.609375000000 58.299003601074 201 201 201
30.437500000000 30.625000000000 58.349998474121 239 239 239
30.437500000000 30.617187500000 59.245002746582 85 85 85
30.468750000000 30.906250000000 58.310997009277 100 100 100
30.453125000000 30.906250000000 58.297004699707 201 201 201
30.453125000000 30.898437500000 59.261009216309 102 102 102
30.468750000000 31.187500000000 58.308006286621 249 249 249
30.437500000000 31.195312500000 58.340003967285 165 165 165
30.468750000000 31.476562500000 58.314002990723 149 149 149
30.437500000000 31.484375000000 58.325996398926 239 239 239
30.437500000000 31.476562500000 59.250007629395 109 109 109
30.500000000000 31.773437500000 58.319999694824 59 59 59
30.453125000000 31.781250000000 58.310005187988 185 185 185
30.468750000000 31.773437500000 59.317008972168 106 106 106
30.468750000000 32.078125000000 58.319999694824 255 255 255
30.437500000000 32.070312500000 58.330009460449 108 108 108
30.468750000000 32.078125000000 59.273002624512 114 114 114
30.468750000000 32.359375000000 58.318000793457 173 173 173
30.453125000000 32.359375000000 58.319007873535 195 195 195
30.453125000000 32.359375000000 59.246009826660 105 105 105
30.468750000000 32.648437500000 58.317008972168 94 94 94
30.453125000000 32.648437500000 58.323997497559 206 206 206
30.453125000000 32.648437500000 59.262001037598 96 96 96
30.484375000000 32.937500000000 58.321998596191 39 39 39
30.468750000000 32.945312500000 58.323997497559 255 255 255
30.437500000000 32.945312500000 58.332008361816 149 149 149
30.437500000000 32.945312500000 59.245002746582 93 93 93
30.468750000000 33.234375000000 58.327003479004 175 175 175
30.453125000000 33.234375000000 58.331001281738 255 255 255
30.453125000000 33.234375000000 59.254005432129 92 92 92
30.484375000000 33.531250000000 58.334007263184 74 74 74
30.468750000000 33.539062500000 58.317008972168 199 199 199
30.468750000000 33.539062500000 59.297996520996 109 109 109
30.437500000000 33.531250000000 59.261009216309 71 71 71
30.500000000000 33.812500000000 58.310005187988 45 45 45
30.468750000000 33.828125000000 58.323997497559 255 255 255
30.453125000000 33.820312500000 58.323997497559 157 157 157
30.453125000000 33.828125000000 59.250007629395 112 112 112
30.484375000000 34.117187500000 58.319999694824 184 184 184
30.453125000000 34.109375000000 58.329002380371 215 215 215
30.453125000000 34.109375000000 59.265007019043 92 92 92
30.484375000000 34.398437500000 58.334007263184 64 64 64
30.468750000000 34.406250000000 58.325996398926 197 197 197
30.437500000000 34.406250000000 58.435997009277 132 132 132
30.437500000000 34.406250000000 59.265998840332 90 90 90
30.468750000000 34.695312500000 58.333000183105 170 170 170
30.453125000000 34.695312500000 58.325996398926 197 197 197
30.453125000000 34.695312500000 59.278999328613 115 115 115
30.484375000000 34.992187500000 58.340995788574 63 63 63
30.468750000000 34.992187500000 58.327003479004 198 198 198
30.437500000000 35.000000000000 58.415000915527 125 125 125
30.437500000000 35.000000000000 59.265007019043 114 114 114
30.468750000000 35.281250000000 58.333000183105 187 187 187
30.453125000000 35.281250000000 58.343009948730 204 204 204
30.453125000000 35.289062500000 59.275001525879 84 84 84
30.484375000000 35.570312500000 58.342002868652 102 102 102
30.468750000000 35.578125000000 58.334999084473 194 194 194
30.468750000000 35.570312500000 59.276008605957 118 118 118
30.484375000000 35.867187500000 58.334999084473 49 49 49
30.468750000000 35.867187500000 58.338005065918 185 185 185
30.437500000000 35.867187500000 58.441001892090 112 112 112
30.437500000000 35.867187500000 59.280998229980 116 116 116
30.468750000000 36.156250000000 58.333000183105 176 176 176
30.453125000000 36.156250000000 58.351005554199 210 210 210
30.468750000000 36.164062500000 59.291999816895 106 106 106
30.484375000000 36.453125000000 58.343009948730 53 53 53
30.468750000000 36.445312500000 58.334999084473 195 195 195
30.437500000000 36.453125000000 59.291007995605 108 108 108
30.468750000000 36.742187500000 58.343009948730 239 239 239
30.453125000000 36.750000000000 58.344001770020 141 141 141
30.468750000000 36.742187500000 59.299003601074 94 94 94
30.468750000000 37.023437500000 58.345008850098 132 132 132
30.453125000000 37.031250000000 58.333000183105 182 182 182
30.468750000000 37.023437500000 59.299003601074 116 116 116
30.437500000000 37.031250000000 59.293006896973 70 70 70
30.500000000000 37.328125000000 58.346000671387 53 53 53
30.468750000000 37.328125000000 58.342002868652 187 187 187
30.484375000000 37.328125000000 59.288002014160 45 45 45
30.437500000000 37.328125000000 59.305000305176 114 114 114
34.062500000000 6.273437500000 59.652000427246 146 146 146
33.140625000000 6.281250000000 59.116004943848 164 164 164
33.125000000000 6.281250000000 59.140007019043 109 109 109
32.437500000000 6.273437500000 60.933998107910 138 138 138
30.437500000000 6.304687500000 59.517997741699 95 95 95
34.093750000000 6.554687500000 59.614997863770 94 94 94
34.062500000000 6.554687500000 59.635002136230 157 157 157
33.156250000000 6.562500000000 59.121009826660 113 113 113
33.140625000000 6.562500000000 59.127998352051 155 155 155
33.437500000000 6.554687500000 60.913002014160 139 139 139
32.437500000000 6.570312500000 60.925010681152 112 112 112
30.437500000000 6.593750000000 59.524009704590 68 68 68
30.406250000000 6.593750000000 59.519996643066 128 128 128
34.093750000000 6.843750000000 59.606010437012 55 55 55
34.062500000000 6.843750000000 59.607002258301 165 165 165
33.125000000000 6.859375000000 59.114997863770 157 157 157
33.453125000000 6.851562500000 60.888999938965 153 153 153
32.453125000000 6.859375000000 60.907997131348 133 133 133
30.437500000000 6.882812500000 59.504005432129 78 78 78
34.062500000000 7.132812500000 59.597007751465 145 145 145
33.140625000000 7.156250000000 59.097999572754 172 172 172
33.125000000000 7.148437500000 59.106010437012 77 77 77
33.421875000000 7.140625000000 60.890007019043 152 152 152
32.468750000000 7.148437500000 60.888999938965 53 53 53
32.437500000000 7.148437500000 60.900001525879 132 132 132
30.421875000000 7.187500000000 59.491996765137 100 100 100
30.406250000000 7.179687500000 59.495002746582 107 107 107
34.078125000000 7.421875000000 59.584007263184 142 142 142
34.046875000000 7.421875000000 59.588996887207 109 109 109
33.156250000000 7.437500000000 59.088005065918 104 104 104
33.109375000000 7.437500000000 59.101997375488 158 158 158
33.437500000000 7.429687500000 60.881996154785 157 157 157
32.453125000000 7.437500000000 60.890007019043 140 140 140
32.390625000000 7.445312500000 60.875999450684 20 20 20
30.421875000000 7.476562500000 59.487007141113 79 79 79
34.093750000000 7.726562500000 59.562995910645 111 111 111
34.046875000000 7.718750000000 59.577003479004 154 154 154
33.125000000000 7.726562500000 59.092002868652 162 162 162
33.453125000000 7.718750000000 60.866996765137 62 62 62
33.406250000000 7.718750000000 60.873008728027 122 122 122
32.453125000000 7.718750000000 60.877006530762 74 74 74
32.437500000000 7.726562500000 60.877006530762 139 139 139
30.437500000000 7.757812500000 59.491996765137 97 97 97
30.406250000000 7.757812500000 59.480003356934 77 77 77
34.093750000000 8.007812500000 59.552009582520 30 30 30
34.062500000000 8.000000000000 59.560005187988 168 168 168
33.125000000000 8.023437500000 59.075996398926 173 173 173
33.093750000000 8.023437500000 59.075004577637 84 84 84
33.437500000000 8.007812500000 60.872001647949 148 148 148
32.421875000000 8.023437500000 60.864006042480 129 129 129
30.421875000000 8.046875000000 59.470008850098 95 95 95
34.062500000000 8.296875000000 59.545997619629 155 155 155
33.125000000000 8.312500000000 59.056007385254 152 152 152
33.109375000000 8.312500000000 59.071006774902 152 152 152
33.437500000000 8.304687500000 60.849006652832 154 154 154
32.453125000000 8.304687500000 60.861000061035 141 141 141
32.406250000000 8.312500000000 60.858009338379 113 113 113
30.437500000000 8.335937500000 59.454002380371 92 92 92
34.062500000000 8.593750000000 59.530998229980 138 138 138
33.140625000000 8.601562500000 59.053001403809 53 53 53
33.125000000000 8.609375000000 59.064002990723 157 157 157
33.453125000000 8.593750000000 60.833000183105 61 61 61
33.390625000000 8.593750000000 60.843009948730 124 124 124
32.468750000000 8.601562500000 60.842002868652 42 42 42
32.421875000000 8.593750000000 60.849998474121 119 119 119
30.437500000000 8.632812500000 59.446998596191 80 80 80
30.406250000000 8.632812500000 59.458000183105 126 126 126
34.078125000000 8.875000000000 59.513999938965 133 133 133
34.031250000000 8.875000000000 59.517005920410 89 89 89
33.125000000000 8.882812500000 59.052009582520 158 158 158
33.093750000000 8.882812500000 59.071998596191 41 41 41
33.421875000000 8.875000000000 60.845008850098 153 153 153
32.437500000000 8.882812500000 60.838996887207 135 135 135
30.421875000000 8.921875000000 59.465003967285 82 82 82
34.078125000000 9.171875000000 59.482002258301 40 40 40
34.062500000000 9.164062500000 59.511009216309 170 170 170
33.125000000000 9.171875000000 59.038002014160 129 129 129
33.109375000000 9.179687500000 59.056999206543 149 149 149
33.437500000000 9.164062500000 60.823005676270 99 99 99
33.406250000000 9.164062500000 60.840995788574 92 92 92
32.453125000000 9.171875000000 60.838996887207 41 41 41
32.406250000000 9.171875000000 60.829002380371 121 121 121
30.437500000000 9.203125000000 59.448005676270 85 85 85
30.406250000000 9.203125000000 59.435997009277 132 132 132
34.046875000000 9.453125000000 59.487007141113 146 146 146
33.125000000000 9.476562500000 59.039009094238 159 159 159
33.406250000000 9.468750000000 60.821006774902 150 150 150
32.437500000000 9.468750000000 60.832008361816 135 135 135
32.406250000000 9.468750000000 60.860008239746 18 18 18
30.421875000000 9.500000000000 59.433998107910 80 80 80
34.062500000000 9.750000000000 59.472007751465 142 142 142
34.031250000000 9.750000000000 59.500007629395 37 37 37
33.125000000000 9.765625000000 59.027000427246 163 163 163
33.093750000000 9.765625000000 59.034004211426 94 94 94
33.421875000000 9.750000000000 60.808998107910 155 155 155
32.437500000000 9.773437500000 60.817008972168 103 103 103
32.390625000000 9.765625000000 60.821006774902 134 134 134
30.437500000000 9.789062500000 59.428001403809 107 107 107
30.406250000000 9.789062500000 59.428001403809 30 30 30
34.062500000000 10.039062500000 59.455009460449 143 143 143
34.031250000000 10.046875000000 59.476997375488 93 93 93
33.125000000000 10.046875000000 59.017997741699 159 159 159
33.093750000000 10.054687500000 59.030998229980 144 144 144
33.437500000000 10.039062500000 60.791999816895 117 117 117
33.406250000000 10.039062500000 60.814002990723 81 81 81
32.406250000000 10.046875000000 60.815010070801 108 108 108
30.437500000000 10.085937500000 59.420997619629 51 51 51
30.437500000000 10.085937500000 59.426002502441 133 133 133
34.062500000000 10.328125000000 59.437004089355 95 95 95
34.031250000000 10.328125000000 59.456001281738 157 157 157
33.125000000000 10.335937500000 59.009010314941 49 49 49
33.109375000000 10.328125000000 59.026008605957 162 162 162
33.406250000000 10.320312500000 60.804008483887 156 156 156
32.421875000000 10.335937500000 60.797996520996 138 138 138
32.390625000000 10.335937500000 60.806007385254 45 45 45
30.437500000000 10.367187500000 59.407997131348 82 82 82
30.421875000000 10.382812500000 58.112007141113 154 154 154
34.031250000000 10.609375000000 59.437995910645 164 164 164
33.109375000000 10.632812500000 59.006996154785 165 165 165
33.078125000000 10.625000000000 59.015007019043 103 103 103
33.421875000000 10.609375000000 60.786003112793 156 156 156
33.375000000000 10.617187500000 60.795997619629 17 17 17
32.406250000000 10.632812500000 60.804008483887 117 117 117
30.421875000000 10.656250000000 59.414009094238 55 55 55
30.421875000000 10.656250000000 59.399009704590 133 133 133
34.046875000000 10.914062500000 59.422004699707 144 144 144
34.015625000000 10.906250000000 59.437995910645 107 107 107
33.125000000000 10.929687500000 59.015007019043 89 89 89
33.093750000000 10.921875000000 59.008003234863 159 159 159
33.390625000000 10.914062500000 60.784996032715 158 158 158
32.421875000000 10.921875000000 60.787010192871 149 149 149
32.390625000000 10.914062500000 60.797004699707 88 88 88
30.437500000000 10.945312500000 59.403007507324 83 83 83
30.421875000000 10.960937500000 58.109001159668 184 184 184
34.046875000000 11.195312500000 59.401008605957 98 98 98
34.031250000000 11.203125000000 59.422996520996 159 159 159
33.093750000000 11.210937500000 58.989997863770 160 160 160
33.421875000000 11.203125000000 60.763008117676 162 162 162
32.437500000000 11.210937500000 60.775001525879 55 55 55
32.406250000000 11.210937500000 60.789009094238 125 125 125
30.437500000000 11.234375000000 59.400001525879 99 99 99
30.406250000000 11.242187500000 59.383003234863 110 110 110
34.015625000000 11.500000000000 59.403007507324 176 176 176
33.109375000000 11.500000000000 58.986000061035 164 164 164
33.093750000000 11.500000000000 59.002998352051 108 108 108
33.421875000000 11.492187500000 60.750999450684 91 91 91
33.375000000000 11.484375000000 60.763999938965 123 123 123
32.406250000000 11.492187500000 60.778999328613 124 124 124
30.421875000000 11.531250000000 59.384010314941 93 93 93
30.406250000000 11.539062500000 58.107002258301 169 169 169
34.015625000000 11.773437500000 59.401008605957 176 176 176
33.109375000000 11.789062500000 58.974998474121 146 146 146
33.093750000000 11.789062500000 58.996009826660 151 151 151
33.406250000000 11.781250000000 60.763999938965 169 169 169
32.437500000000 11.781250000000 60.774009704590 140 140 140
32.375000000000 11.789062500000 60.771003723145 103 103 103
30.437500000000 11.820312500000 59.381996154785 79 79 79
30.437500000000 11.828125000000 58.112998962402 164 164 164
34.046875000000 12.062500000000 59.383003234863 142 142 142
34.000000000000 12.062500000000 59.400001525879 57 57 57
33.093750000000 12.078125000000 58.976005554199 158 158 158
33.406250000000 12.070312500000 60.739006042480 167 167 167
32.406250000000 12.078125000000 60.773002624512 110 110 110
30.437500000000 12.109375000000 59.362998962402 34 34 34
30.406250000000 12.101562500000 59.368995666504 135 135 135
30.406250000000 12.125000000000 58.111000061035 170 170 170
34.031250000000 12.359375000000 59.358009338379 63 63 63
34.015625000000 12.367187500000 59.379005432129 168 168 168
33.093750000000 12.375000000000 58.959007263184 159 159 159
33.062500000000 12.367187500000 58.974006652832 150 150 150
33.375000000000 12.359375000000 60.737007141113 163 163 163
32.406250000000 12.375000000000 60.758003234863 125 125 125
32.375000000000 12.367187500000 60.762001037598 141 141 141
30.421875000000 12.398437500000 59.364006042480 91 91 91
30.437500000000 12.414062500000 58.120002746582 161 161 161
34.031250000000 12.648437500000 59.364006042480 162 162 162
33.078125000000 12.671875000000 58.963996887207 156 156 156
33.406250000000 12.656250000000 60.722999572754 152 152 152
32.406250000000 12.664062500000 60.745002746582 120 120 120
30.406250000000 12.695312500000 59.349006652832 139 139 139
30.406250000000 12.710937500000 58.125007629395 158 158 158
34.031250000000 12.953125000000 59.343009948730 136 136 136
34.015625000000 12.953125000000 59.366996765137 87 87 87
33.078125000000 12.953125000000 58.954002380371 164 164 164
33.062500000000 12.953125000000 58.963996887207 109 109 109
33.375000000000 12.945312500000 60.741004943848 175 175 175
32.406250000000 12.953125000000 60.743995666504 127 127 127
32.359375000000 12.960937500000 60.731010437012 115 115 115
30.421875000000 12.984375000000 59.343009948730 81 81 81
30.421875000000 12.992187500000 58.123008728027 160 160 160
34.031250000000 13.242187500000 59.330009460449 91 91 91
34.000000000000 13.242187500000 59.346000671387 152 152 152
33.109375000000 13.242187500000 58.957008361816 130 130 130
33.062500000000 13.250000000000 58.952003479004 161 161 161
33.390625000000 13.234375000000 60.728004455566 148 148 148
32.390625000000 13.242187500000 60.739997863770 112 112 112
30.453125000000 13.273437500000 59.345008850098 101 101 101
30.406250000000 13.281250000000 59.334007263184 108 108 108
30.421875000000 13.289062500000 58.129005432129 171 171 171
30.390625000000 13.289062500000 58.124000549316 215 215 215
34.031250000000 13.523437500000 59.310997009277 25 25 25
34.015625000000 13.515625000000 59.330009460449 170 170 170
33.078125000000 13.531250000000 58.953010559082 163 163 163
33.406250000000 13.531250000000 60.711006164551 159 159 159
33.375000000000 13.523437500000 60.730003356934 20 20 20
32.406250000000 13.539062500000 60.726997375488 131 131 131
30.437500000000 13.562500000000 59.338996887207 130 130 130
30.437500000000 13.570312500000 58.146003723145 54 54 54
30.421875000000 13.578125000000 58.136009216309 154 154 154
34.015625000000 13.820312500000 59.321006774902 157 157 157
33.093750000000 13.835937500000 58.937004089355 168 168 168
33.046875000000 13.828125000000 58.937995910645 114 114 114
33.375000000000 13.820312500000 60.721000671387 158 158 158
32.406250000000 13.835937500000 60.715995788574 70 70 70
32.375000000000 13.828125000000 60.724998474121 131 131 131
30.437500000000 13.867187500000 59.331001281738 109 109 109
30.406250000000 13.875000000000 58.129997253418 152 152 152
30.390625000000 13.867187500000 58.144004821777 50 50 50
34.031250000000 14.101562500000 59.302009582520 104 104 104
34.000000000000 14.117187500000 59.321006774902 146 146 146
33.093750000000 14.125000000000 58.943000793457 63 63 63
33.062500000000 14.117187500000 58.950004577637 155 155 155
33.390625000000 14.117187500000 60.698005676270 136 136 136
33.343750000000 14.117187500000 60.726005554199 32 32 32
32.375000000000 14.125000000000 60.719001770020 143 143 143
32.359375000000 14.125000000000 60.728996276855 33 33 33
30.437500000000 14.148437500000 59.314002990723 123 123 123
30.437500000000 14.164062500000 58.133003234863 165 165 165
30.406250000000 14.156250000000 58.131004333496 178 178 178
34.000000000000 14.398437500000 59.299003601074 173 173 173
33.078125000000 14.406250000000 58.922996520996 171 171 171
33.031250000000 14.414062500000 58.937995910645 110 110 110
33.375000000000 14.398437500000 60.700004577637 151 151 151
32.359375000000 14.421875000000 60.713996887207 127 127 127
30.437500000000 14.437500000000 59.312004089355 107 107 107
30.406250000000 14.445312500000 58.135002136230 153 153 153
34.031250000000 14.695312500000 59.297996520996 156 156 156
33.968750000000 14.695312500000 59.302009582520 34 34 34
33.093750000000 14.703125000000 58.924003601074 120 120 120
33.062500000000 14.703125000000 58.929008483887 156 156 156
33.390625000000 14.695312500000 60.683006286621 151 151 151
32.375000000000 14.710937500000 60.713996887207 147 147 147
32.343750000000 14.695312500000 60.728996276855 24 24 24
30.421875000000 14.734375000000 59.306999206543 139 139 139
30.437500000000 14.734375000000 58.138008117676 188 188 188
30.406250000000 14.742187500000 58.140998840332 137 137 137
34.000000000000 14.984375000000 59.269004821777 143 143 143
33.984375000000 14.976562500000 59.289009094238 93 93 93
33.093750000000 14.984375000000 58.909004211426 57 57 57
33.078125000000 14.992187500000 58.927009582520 157 157 157
33.406250000000 14.976562500000 60.683998107910 79 79 79
33.359375000000 15.000000000000 60.687004089355 124 124 124
32.406250000000 15.000000000000 60.709007263184 134 134 134
32.359375000000 15.000000000000 60.708000183105 133 133 133
30.421875000000 15.031250000000 59.310997009277 86 86 86
30.421875000000 15.039062500000 58.144996643066 188 188 188
30.406250000000 15.039062500000 58.147010803223 254 254 254
34.015625000000 15.281250000000 59.256996154785 75 75 75
34.000000000000 15.273437500000 59.273002624512 164 164 164
33.078125000000 15.281250000000 58.909004211426 165 165 165
33.031250000000 15.281250000000 58.920005798340 82 82 82
33.359375000000 15.281250000000 60.679008483887 155 155 155
32.375000000000 15.289062500000 60.700996398926 115 115 115
30.437500000000 15.320312500000 59.297996520996 112 112 112
30.437500000000 15.328125000000 58.134010314941 175 175 175
33.984375000000 15.570312500000 59.260002136230 171 171 171
33.062500000000 15.578125000000 58.909996032715 140 140 140
33.046875000000 15.578125000000 58.920005798340 146 146 146
33.375000000000 15.570312500000 60.670997619629 146 146 146
33.343750000000 15.570312500000 60.705009460449 22 22 22
32.375000000000 15.578125000000 60.692008972168 137 137 137
32.343750000000 15.578125000000 60.698997497559 100 100 100
30.406250000000 15.609375000000 59.297004699707 132 132 132
30.421875000000 15.617187500000 58.140998840332 202 202 202
30.406250000000 15.617187500000 58.146003723145 117 117 117
34.000000000000 15.859375000000 59.252998352051 162 162 162
33.968750000000 15.859375000000 59.263008117676 80 80 80
33.062500000000 15.867187500000 58.905998229980 159 159 159
33.359375000000 15.851562500000 60.666999816895 161 161 161
32.359375000000 15.867187500000 60.692008972168 107 107 107
30.437500000000 15.890625000000 59.290000915527 108 108 108
30.437500000000 15.898437500000 58.149009704590 127 127 127
30.421875000000 15.898437500000 58.147010803223 187 187 187
34.000000000000 16.156250000000 59.228996276855 66 66 66
34.000000000000 16.148437500000 59.243995666504 164 164 164
33.062500000000 16.156250000000 58.898002624512 164 164 164
33.031250000000 16.164062500000 58.907997131348 131 131 131
33.375000000000 16.148437500000 60.661003112793 153 153 153
32.390625000000 16.156250000000 60.681999206543 138 138 138
32.328125000000 16.164062500000 60.681007385254 97 97 97
30.406250000000 16.187500000000 59.291999816895 140 140 140
30.406250000000 16.195312500000 58.150001525879 179 179 179
30.390625000000 16.195312500000 58.136009216309 52 52 52
33.984375000000 16.437500000000 59.236000061035 175 175 175
33.078125000000 16.453125000000 58.890007019043 111 111 111
33.046875000000 16.453125000000 58.901008605957 158 158 158
33.390625000000 16.437500000000 60.661003112793 40 40 40
33.343750000000 16.453125000000 60.653999328613 148 148 148
32.375000000000 16.453125000000 60.676002502441 72 72 72
32.359375000000 16.453125000000 60.674003601074 130 130 130
30.437500000000 16.476562500000 59.269004821777 86 86 86
30.437500000000 16.484375000000 58.151008605957 193 193 193
30.421875000000 16.484375000000 58.149009704590 105 105 105
34.000000000000 16.726562500000 59.228004455566 173 173 173
33.046875000000 16.742187500000 58.890998840332 158 158 158
33.359375000000 16.734375000000 60.653999328613 152 152 152
32.359375000000 16.742187500000 60.678001403809 110 110 110
30.437500000000 16.765625000000 59.282005310059 109 109 109
30.437500000000 16.773437500000 58.144996643066 161 161 161
30.406250000000 16.781250000000 58.159004211426 200 200 200
34.000000000000 17.023437500000 59.224006652832 156 156 156
33.968750000000 17.015625000000 59.243995666504 41 41 41
33.062500000000 17.023437500000 58.887001037598 161 161 161
33.046875000000 17.023437500000 58.912010192871 86 86 86
33.359375000000 17.015625000000 60.646003723145 148 148 148
32.375000000000 17.023437500000 60.666007995605 131 131 131
32.328125000000 17.031250000000 60.663002014160 108 108 108
30.453125000000 17.062500000000 59.291007995605 50 50 50
30.421875000000 17.054687500000 59.275001525879 135 135 135
30.406250000000 17.070312500000 58.159004211426 163 163 163
33.984375000000 17.304687500000 59.200996398926 89 89 89
33.968750000000 17.296875000000 59.213005065918 151 151 151
33.062500000000 17.320312500000 58.872001647949 138 138 138
33.031250000000 17.320312500000 58.885002136230 155 155 155
33.343750000000 17.296875000000 60.653007507324 158 158 158
32.343750000000 17.312500000000 60.677009582520 113 113 113
30.437500000000 17.335937500000 59.278999328613 90 90 90
30.421875000000 17.351562500000 58.147010803223 167 167 167
30.406250000000 17.359375000000 58.155998229980 79 79 79
33.968750000000 17.601562500000 59.205009460449 178 178 178
33.046875000000 17.617187500000 58.883003234863 155 155 155
33.359375000000 17.593750000000 60.642997741699 157 157 157
32.359375000000 17.601562500000 60.664009094238 146 146 146
32.343750000000 17.609375000000 60.670997619629 111 111 111
30.437500000000 17.640625000000 59.267997741699 98 98 98
30.421875000000 17.632812500000 59.269004821777 103 103 103
30.437500000000 17.640625000000 58.159996032715 164 164 164
30.421875000000 17.640625000000 58.159996032715 216 216 216
34.000000000000 17.898437500000 59.194007873535 144 144 144
33.984375000000 17.898437500000 59.219001770020 85 85 85
33.062500000000 17.906250000000 58.881004333496 154 154 154
33.031250000000 17.914062500000 58.883003234863 142 142 142
33.328125000000 17.906250000000 60.638008117676 166 166 166
32.343750000000 17.906250000000 60.668006896973 103 103 103
30.437500000000 17.929687500000 59.278007507324 109 109 109
30.421875000000 17.937500000000 58.157997131348 156 156 156
34.000000000000 18.187500000000 59.176002502441 66 66 66
33.953125000000 18.187500000000 59.196006774902 160 160 160
33.062500000000 18.195312500000 58.860008239746 71 71 71
33.031250000000 18.195312500000 58.879997253418 159 159 159
33.343750000000 18.187500000000 60.629997253418 158 158 158
32.359375000000 18.203125000000 60.657005310059 142 142 142
32.312500000000 18.195312500000 60.666999816895 50 50 50
30.437500000000 18.218750000000 59.263999938965 105 105 105
30.421875000000 18.226562500000 58.166007995605 165 165 165
30.406250000000 18.234375000000 58.161003112793 75 75 75
34.000000000000 18.468750000000 59.177009582520 34 34 34
33.968750000000 18.476562500000 59.185005187988 175 175 175
33.046875000000 18.484375000000 58.868003845215 158 158 158
33.359375000000 18.468750000000 60.620002746582 166 166 166
32.375000000000 18.476562500000 60.652000427246 136 136 136
32.328125000000 18.476562500000 60.655998229980 130 130 130
30.453125000000 18.515625000000 59.256004333496 108 108 108
30.406250000000 18.515625000000 59.259010314941 81 81 81
30.437500000000 18.523437500000 58.164009094238 180 180 180
30.406250000000 18.515625000000 58.166999816895 145 145 145
33.968750000000 18.765625000000 59.180000305176 175 175 175
33.046875000000 18.765625000000 58.862998962402 163 163 163
33.015625000000 18.781250000000 58.879005432129 109 109 109
33.343750000000 18.765625000000 60.614006042480 80 80 80
33.328125000000 18.765625000000 60.627006530762 128 128 128
32.343750000000 18.765625000000 60.657005310059 114 114 114
30.437500000000 18.804687500000 59.265998840332 135 135 135
30.437500000000 18.812500000000 58.183006286621 82 82 82
30.421875000000 18.812500000000 58.176002502441 176 176 176
33.984375000000 19.054687500000 59.177009582520 151 151 151
33.968750000000 19.046875000000 59.200004577637 57 57 57
33.046875000000 19.062500000000 58.861000061035 116 116 116
33.031250000000 19.062500000000 58.874000549316 157 157 157
33.343750000000 19.054687500000 60.625007629395 154 154 154
32.343750000000 19.070312500000 60.638008117676 139 139 139
32.312500000000 19.070312500000 60.651008605957 87 87 87
30.437500000000 19.085937500000 59.261009216309 98 98 98
30.421875000000 19.093750000000 58.174003601074 145 145 145
34.000000000000 19.351562500000 59.166999816895 26 26 26
33.937500000000 19.351562500000 59.162010192871 169 169 169
33.031250000000 19.367187500000 58.864006042480 157 157 157
33.000000000000 19.359375000000 58.875007629395 65 65 65
33.343750000000 19.351562500000 60.605003356934 107 107 107
33.312500000000 19.359375000000 60.612007141113 114 114 114
32.328125000000 19.359375000000 60.652000427246 124 124 124
30.453125000000 19.390625000000 59.261009216309 81 81 81
30.437500000000 19.382812500000 59.262001037598 125 125 125
30.437500000000 19.398437500000 58.179008483887 177 177 177
30.406250000000 19.390625000000 58.172996520996 101 101 101
33.968750000000 19.640625000000 59.157005310059 180 180 180
33.046875000000 19.656250000000 58.861000061035 145 145 145
33.031250000000 19.656250000000 58.874000549316 158 158 158
33.343750000000 19.656250000000 60.624000549316 149 149 149
32.343750000000 19.656250000000 60.631996154785 132 132 132
32.312500000000 19.648437500000 60.642005920410 77 77 77
30.421875000000 19.679687500000 59.265007019043 107 107 107
30.437500000000 19.679687500000 58.185997009277 76 76 76
30.406250000000 19.687500000000 58.187995910645 180 180 180
33.968750000000 19.937500000000 59.146003723145 152 152 152
33.953125000000 19.937500000000 59.170997619629 82 82 82
33.062500000000 19.945312500000 58.864997863770 48 48 48
33.031250000000 19.945312500000 58.871009826660 158 158 158
33.343750000000 19.929687500000 60.610008239746 160 160 160
32.375000000000 19.937500000000 60.638008117676 87 87 87
32.328125000000 19.945312500000 60.659004211426 151 151 151
30.437500000000 19.968750000000 59.252998352051 114 114 114
30.437500000000 19.976562500000 58.187004089355 142 142 142
33.984375000000 20.226562500000 59.152000427246 116 116 116
33.953125000000 20.218750000000 59.159996032715 131 131 131
33.031250000000 20.234375000000 58.857002258301 159 159 159
33.000000000000 20.234375000000 58.875999450684 34 34 34
33.343750000000 20.226562500000 60.607002258301 100 100 100
33.312500000000 20.226562500000 60.612007141113 124 124 124
32.328125000000 20.226562500000 60.638008117676 115 115 115
30.453125000000 20.257812500000 59.252998352051 98 98 98
30.421875000000 20.265625000000 59.250999450684 110 110 110
30.421875000000 20.273437500000 58.194007873535 138 138 138
33.937500000000 20.507812500000 59.152000427246 180 180 180
33.031250000000 20.515625000000 58.853004455566 164 164 164
33.000000000000 20.523437500000 58.866996765137 140 140 140
33.343750000000 20.507812500000 60.610008239746 167 167 167
32.343750000000 20.531250000000 60.638999938965 144 144 144
32.296875000000 20.531250000000 60.653007507324 44 44 44
30.437500000000 20.546875000000 59.247001647949 128 128 128
30.437500000000 20.554687500000 58.198005676270 156 156 156
30.421875000000 20.554687500000 58.194007873535 84 84 84
33.953125000000 20.812500000000 59.138008117676 172 172 172
33.046875000000 20.812500000000 58.860008239746 29 29 29
33.031250000000 20.820312500000 58.856010437012 157 157 157
33.343750000000 20.804687500000 60.614006042480 137 137 137
33.312500000000 20.812500000000 60.618995666504 73 73 73
32.328125000000 20.820312500000 60.644004821777 126 126 126
30.437500000000 20.851562500000 59.241996765137 106 106 106
30.437500000000 20.859375000000 58.185997009277 43 43 43
30.421875000000 20.851562500000 58.207008361816 175 175 175
33.968750000000 21.101562500000 59.137001037598 29 29 29
33.937500000000 21.109375000000 59.147010803223 167 167 167
33.031250000000 21.109375000000 58.853004455566 162 162 162
33.000000000000 21.117187500000 58.864997863770 141 141 141
33.343750000000 21.109375000000 60.611000061035 154 154 154
32.343750000000 21.117187500000 60.631996154785 144 144 144
32.296875000000 21.109375000000 60.625999450684 123 123 123
30.437500000000 21.125000000000 59.245002746582 125 125 125
30.437500000000 21.132812500000 58.211006164551 162 162 162
30.421875000000 21.140625000000 58.204002380371 45 45 45
33.953125000000 21.390625000000 59.134010314941 178 178 178
33.046875000000 21.398437500000 58.864997863770 79 79 79
33.015625000000 21.398437500000 58.856010437012 163 163 163
33.343750000000 21.390625000000 60.605003356934 145 145 145
33.312500000000 21.390625000000 60.624000549316 54 54 54
32.328125000000 21.406250000000 60.642005920410 123 123 123
30.453125000000 21.421875000000 59.239997863770 89 89 89
30.453125000000 21.429687500000 58.207008361816 175 175 175
30.406250000000 21.429687500000 58.200004577637 173 173 173
33.968750000000 21.687500000000 59.131996154785 166 166 166
33.937500000000 21.687500000000 59.155006408691 49 49 49
33.015625000000 21.695312500000 58.851005554199 164 164 164
32.984375000000 21.687500000000 58.864006042480 58 58 58
33.312500000000 21.687500000000 60.603996276855 155 155 155
32.328125000000 21.687500000000 60.629997253418 130 130 130
30.453125000000 21.718750000000 59.258003234863 102 102 102
30.437500000000 21.718750000000 59.247001647949 114 114 114
30.468750000000 21.726562500000 58.222007751465 37 37 37
30.437500000000 21.726562500000 58.213996887207 178 178 178
33.968750000000 21.976562500000 59.133003234863 118 118 118
33.937500000000 21.968750000000 59.144996643066 138 138 138
33.031250000000 21.984375000000 58.853004455566 161 161 161
33.000000000000 21.992187500000 58.868995666504 147 147 147
33.328125000000 21.976562500000 60.612998962402 148 148 148
32.343750000000 21.984375000000 60.638999938965 144 144 144
32.312500000000 21.984375000000 60.644004821777 136 136 136
30.437500000000 22.015625000000 59.254005432129 139 139 139
30.437500000000 22.023437500000 58.228996276855 153 153 153
33.953125000000 22.265625000000 59.133003234863 175 175 175
33.046875000000 22.273437500000 58.870002746582 76 76 76
33.000000000000 22.281250000000 58.864006042480 161 161 161
33.343750000000 22.265625000000 60.597999572754 131 131 131
33.296875000000 22.265625000000 60.612007141113 86 86 86
32.328125000000 22.273437500000 60.646003723145 102 102 102
30.453125000000 22.312500000000 59.239006042480 93 93 93
30.453125000000 22.312500000000 58.232002258301 175 175 175
30.437500000000 22.312500000000 58.226997375488 104 104 104
33.968750000000 22.562500000000 59.135002136230 150 150 150
33.921875000000 22.562500000000 59.153007507324 78 78 78
33.031250000000 22.570312500000 58.862007141113 168 168 168
33.000000000000 22.570312500000 58.868003845215 130 130 130
33.312500000000 22.562500000000 60.610008239746 144 144 144
32.343750000000 22.570312500000 60.642005920410 116 116 116
32.312500000000 22.562500000000 60.655006408691 141 141 141
30.421875000000 22.601562500000 59.247001647949 140 140 140
30.437500000000 22.609375000000 58.241996765137 168 168 168
33.953125000000 22.851562500000 59.140998840332 177 177 177
33.031250000000 22.867187500000 58.858009338379 50 50 50
33.000000000000 22.859375000000 58.868003845215 162 162 162
33.343750000000 22.851562500000 60.607002258301 90 90 90
33.296875000000 22.851562500000 60.610008239746 117 117 117
32.328125000000 22.859375000000 60.640998840332 118 118 118
30.468750000000 22.882812500000 59.239997863770 96 96 96
30.453125000000 22.890625000000 58.234001159668 163 163 163
30.437500000000 22.890625000000 58.254005432129 70 70 70
33.968750000000 23.148437500000 59.134010314941 166 166 166
33.921875000000 23.148437500000 59.144004821777 59 59 59
33.031250000000 23.156250000000 58.862998962402 163 163 163
33.000000000000 23.156250000000 58.871009826660 146 146 146
33.312500000000 23.148437500000 60.614997863770 160 160 160
32.343750000000 23.156250000000 60.644004821777 75 75 75
32.312500000000 23.148437500000 60.659996032715 155 155 155
30.437500000000 23.179687500000 59.248008728027 143 143 143
30.468750000000 23.187500000000 58.258003234863 62 62 62
30.437500000000 23.187500000000 58.246009826660 204 204 204
33.968750000000 23.437500000000 59.127998352051 74 74 74
33.937500000000 23.453125000000 59.140007019043 155 155 155
33.031250000000 23.453125000000 58.864006042480 103 103 103
33.000000000000 23.453125000000 58.877006530762 163 163 163
33.343750000000 23.445312500000 60.616996765137 127 127 127
33.296875000000 23.445312500000 60.625007629395 78 78 78
32.328125000000 23.445312500000 60.652000427246 106 106 106
30.453125000000 23.476562500000 59.254997253418 111 111 111
30.453125000000 23.476562500000 58.254005432129 154 154 154
33.937500000000 23.726562500000 59.129005432129 181 181 181
33.000000000000 23.734375000000 58.871009826660 154 154 154
33.312500000000 23.734375000000 60.616996765137 147 147 147
32.328125000000 23.742187500000 60.644996643066 149 149 149
32.296875000000 23.750000000000 60.659004211426 84 84 84
30.468750000000 23.765625000000 59.252006530762 111 111 111
30.437500000000 23.773437500000 58.252998352051 162 162 162
30.437500000000 23.773437500000 58.256996154785 69 69 69
33.937500000000 24.023437500000 59.127006530762 177 177 177
33.015625000000 24.023437500000 58.868003845215 165 165 165
33.000000000000 24.031250000000 58.879005432129 139 139 139
33.312500000000 24.023437500000 60.610008239746 170 170 170
32.343750000000 24.031250000000 60.653007507324 53 53 53
32.296875000000 24.031250000000 60.644996643066 145 145 145
30.437500000000 24.062500000000 59.250007629395 134 134 134
30.468750000000 24.062500000000 58.265998840332 145 145 145
30.437500000000 24.070312500000 58.262001037598 231 231 231
33.968750000000 24.304687500000 59.125007629395 61 61 61
33.937500000000 24.304687500000 59.142005920410 166 166 166
33.000000000000 24.320312500000 58.864997863770 152 152 152
33.296875000000 24.312500000000 60.616004943848 161 161 161
32.328125000000 24.320312500000 60.640998840332 143 143 143
32.281250000000 24.320312500000 60.640998840332 113 113 113
30.453125000000 24.343750000000 59.246009826660 113 113 113
30.453125000000 24.351562500000 58.249000549316 179 179 179
30.437500000000 24.351562500000 58.272010803223 84 84 84
33.937500000000 24.601562500000 59.118995666504 167 167 167
33.921875000000 24.609375000000 59.147010803223 22 22 22
33.015625000000 24.609375000000 58.862007141113 151 151 151
32.984375000000 24.609375000000 58.875007629395 168 168 168
33.328125000000 24.601562500000 60.612998962402 142 142 142
33.281250000000 24.601562500000 60.625007629395 44 44 44
32.312500000000 24.609375000000 60.655006408691 110 110 110
30.453125000000 24.632812500000 59.252006530762 138 138 138
30.468750000000 24.648437500000 58.267997741699 126 126 126
30.437500000000 24.648437500000 58.278999328613 228 228 228
33.953125000000 24.898437500000 59.118003845215 53 53 53
33.906250000000 24.906250000000 59.127006530762 175 175 175
33.000000000000 24.906250000000 58.866004943848 154 154 154
33.312500000000 24.898437500000 60.618995666504 162 162 162
32.328125000000 24.906250000000 60.640998840332 128 128 128
32.296875000000 24.898437500000 60.649009704590 152 152 152
30.453125000000 24.929687500000 59.247001647949 96 96 96
30.453125000000 24.929687500000 58.260002136230 192 192 192
30.437500000000 24.937500000000 58.271003723145 53 53 53
33.937500000000 25.187500000000 59.116004943848 180 180 180
33.000000000000 25.195312500000 58.861000061035 166 166 166
32.984375000000 25.195312500000 58.881996154785 141 141 141
33.312500000000 25.187500000000 60.605003356934 170 170 170
32.296875000000 25.203125000000 60.650001525879 108 108 108
30.468750000000 25.226562500000 59.254005432129 107 107 107
