29.093750000000 20.437500000000 62.632995605469 140 140 140
27.156250000000 19.367187500000 61.475997924805 99 99 99
26.593750000000 19.031250000000 61.417999267578 54 54 54
26.562500000000 19.015625000000 61.410995483398 138 138 138
26.531250000000 19.046875000000 60.197998046875 141 141 141
26.515625000000 19.039062500000 60.192001342773 68 68 68
30.125000000000 20.765625000000 60.744003295898 80 80 80
30.125000000000 20.773437500000 60.794998168945 134 134 134
30.656250000000 21.062500000000 61.436004638672 76 76 76
30.687500000000 21.031250000000 62.554992675781 14 14 14
30.656250000000 21.015625000000 62.580993652344 73 73 73
29.125000000000 20.132812500000 62.626998901367 152 152 152
27.187500000000 19.085937500000 61.468002319336 107 107 107
27.156250000000 19.070312500000 61.466995239258 105 105 105
26.562500000000 18.734375000000 61.401000976563 138 138 138
26.546875000000 18.750000000000 60.205001831055 154 154 154
26.515625000000 18.750000000000 60.192993164063 126 126 126
30.125000000000 20.476562500000 60.738006591797 41 41 41
30.109375000000 20.468750000000 60.761993408203 123 123 123
30.687500000000 20.781250000000 61.425003051758 106 106 106
30.656250000000 20.726562500000 62.563995361328 125 125 125
29.125000000000 19.851562500000 62.615005493164 143 143 143
29.093750000000 19.835937500000 62.630004882813 55 55 55
27.187500000000 18.796875000000 61.464004516602 108 108 108
26.562500000000 18.437500000000 61.401992797852 138 138 138
26.546875000000 18.453125000000 60.255996704102 144 144 144
26.531250000000 18.445312500000 60.192001342773 161 161 161
30.109375000000 20.179687500000 60.744995117188 126 126 126
30.687500000000 20.484375000000 61.399993896484 108 108 108
30.687500000000 20.437500000000 62.546005249023 112 112 112
29.140625000000 19.562500000000 62.608001708984 94 94 94
29.109375000000 19.546875000000 62.619003295898 111 111 111
27.187500000000 18.507812500000 61.464996337891 127 127 127
26.578125000000 18.156250000000 61.404006958008 91 91 91
26.546875000000 18.140625000000 61.475997924805 129 129 129
26.531250000000 18.164062500000 60.205001831055 154 154 154
30.109375000000 19.898437500000 60.727005004883 123 123 123
30.687500000000 20.187500000000 61.386993408203 104 104 104
30.687500000000 20.148437500000 62.526992797852 64 64 64
30.656250000000 20.140625000000 62.565002441406 16 16 16
29.093750000000 19.265625000000 62.604003906250 141 141 141
27.234375000000 18.234375000000 61.453994750977 119 119 119
26.562500000000 17.851562500000 61.399993896484 138 138 138
26.531250000000 17.875000000000 60.203994750977 151 151 151
30.109375000000 19.593750000000 60.707000732422 121 121 121
30.703125000000 19.906250000000 61.382995605469 89 89 89
30.687500000000 19.890625000000 61.417999267578 15 15 15
30.687500000000 19.859375000000 62.522003173828 18 18 18
30.656250000000 19.835937500000 62.541000366211 81 81 81
29.125000000000 18.968750000000 62.589996337891 153 153 153
27.234375000000 17.937500000000 61.455001831055 134 134 134
26.562500000000 17.554687500000 61.391006469727 136 136 136
26.531250000000 17.570312500000 60.214004516602 145 145 145
26.531250000000 17.562500000000 60.212005615234 46 46 46
30.109375000000 19.304687500000 60.703002929688 130 130 130
30.703125000000 19.609375000000 61.373992919922 73 73 73
30.671875000000 19.593750000000 61.389999389648 68 68 68
30.656250000000 19.546875000000 62.524993896484 111 111 111
29.125000000000 18.679687500000 62.589004516602 144 144 144
29.093750000000 18.656250000000 62.604003906250 50 50 50
27.250000000000 17.656250000000 61.445999145508 116 116 116
27.250000000000 17.640625000000 61.438995361328 56 56 56
26.578125000000 17.257812500000 61.378005981445 130 130 130
26.531250000000 17.281250000000 60.208999633789 156 156 156
26.531250000000 17.265625000000 60.208999633789 126 126 126
30.125000000000 19.015625000000 60.684997558594 64 64 64
30.109375000000 18.992187500000 60.710006713867 101 101 101
30.687500000000 19.312500000000 61.375991821289 111 111 111
30.687500000000 19.273437500000 62.511993408203 72 72 72
30.640625000000 19.242187500000 62.518997192383 20 20 20
29.109375000000 18.375000000000 62.591003417969 145 145 145
27.281250000000 17.367187500000 61.449996948242 115 115 115
26.562500000000 16.953125000000 61.429992675781 131 131 131
26.531250000000 16.984375000000 60.214996337891 156 156 156
30.125000000000 18.710937500000 60.697006225586 119 119 119
30.687500000000 19.023437500000 61.352996826172 95 95 95
30.656250000000 18.968750000000 62.511993408203 90 90 90
29.125000000000 18.093750000000 62.576004028320 152 152 152
29.093750000000 18.078125000000 62.600006103516 19 19 19
27.281250000000 17.085937500000 61.444000244141 127 127 127
26.578125000000 16.671875000000 61.388000488281 135 135 135
26.546875000000 16.687500000000 60.216003417969 159 159 159
30.109375000000 18.429687500000 60.673004150391 127 127 127
30.687500000000 18.734375000000 61.326995849609 53 53 53
30.671875000000 18.726562500000 61.360000610352 75 75 75
30.671875000000 18.687500000000 62.501998901367 122 122 122
29.125000000000 17.812500000000 62.565994262695 96 96 96
29.093750000000 17.796875000000 62.585006713867 95 95 95
27.312500000000 16.812500000000 61.440002441406 87 87 87
27.281250000000 16.796875000000 61.432998657227 105 105 105
26.578125000000 16.390625000000 61.361999511719 92 92 92
26.562500000000 16.398437500000 60.216995239258 169 169 169
26.531250000000 16.390625000000 60.233993530273 76 76 76
30.125000000000 18.132812500000 60.660003662109 118 118 118
30.687500000000 18.421875000000 61.352996826172 99 99 99
30.687500000000 18.382812500000 62.488006591797 96 96 96
29.125000000000 17.500000000000 62.576995849609 139 139 139
27.343750000000 16.507812500000 61.436004638672 121 121 121
26.562500000000 16.101562500000 60.222000122070 173 173 173
26.531250000000 16.093750000000 60.220001220703 137 137 137
30.125000000000 17.835937500000 60.651992797852 108 108 108
30.125000000000 17.828125000000 60.686004638672 42 42 42
30.687500000000 18.132812500000 61.335006713867 109 109 109
30.687500000000 18.093750000000 62.466003417969 35 35 35
30.656250000000 18.078125000000 62.498001098633 54 54 54
29.125000000000 17.203125000000 62.555999755859 149 149 149
27.343750000000 16.218750000000 61.423995971680 119 119 119
26.562500000000 15.804687500000 60.227005004883 169 169 169
26.531250000000 15.796875000000 60.216995239258 181 181 181
30.125000000000 17.546875000000 60.623992919922 42 42 42
30.093750000000 17.539062500000 60.647994995117 109 109 109
30.703125000000 17.851562500000 61.317993164063 74 74 74
30.687500000000 17.835937500000 61.337997436523 29 29 29
30.671875000000 17.796875000000 62.475997924805 124 124 124
29.125000000000 16.921875000000 62.546005249023 100 100 100
29.109375000000 16.906250000000 62.567001342773 98 98 98
27.375000000000 15.945312500000 61.427001953125 96 96 96
27.343750000000 15.929687500000 61.436004638672 102 102 102
26.546875000000 15.515625000000 60.229995727539 187 187 187
30.125000000000 17.257812500000 60.643997192383 126 126 126
30.687500000000 17.546875000000 61.326004028320 106 106 106
30.687500000000 17.515625000000 62.462997436523 70 70 70
30.640625000000 17.500000000000 62.479003906250 20 20 20
29.125000000000 16.625000000000 62.563003540039 148 148 148
27.375000000000 15.664062500000 61.425994873047 134 134 134
26.546875000000 15.226562500000 60.223999023438 200 200 200
26.531250000000 15.210937500000 60.233001708984 83 83 83
30.125000000000 16.968750000000 60.625000000000 124 124 124
30.718750000000 17.281250000000 61.317993164063 117 117 117
30.671875000000 17.218750000000 62.472000122070 91 91 91
29.125000000000 16.343750000000 62.541992187500 144 144 144
29.093750000000 16.320312500000 62.554000854492 32 32 32
27.390625000000 15.375000000000 61.416000366211 113 113 113
26.562500000000 14.929687500000 60.218994140625 194 194 194
26.546875000000 14.914062500000 60.220993041992 164 164 164
30.140625000000 16.671875000000 60.615997314453 94 94 94
30.109375000000 16.656250000000 60.636001586914 58 58 58
30.718750000000 16.976562500000 61.294006347656 96 96 96
30.671875000000 16.929687500000 62.451995849609 113 113 113
29.140625000000 16.054687500000 62.539001464844 93 93 93
29.109375000000 16.039062500000 62.550994873047 116 116 116
27.421875000000 15.093750000000 61.419006347656 89 89 89
27.390625000000 15.078125000000 61.410003662109 100 100 100
26.562500000000 14.632812500000 60.255004882813 71 71 71
26.546875000000 14.617187500000 60.231002807617 184 184 184
30.156250000000 16.382812500000 60.608993530273 57 57 57
30.125000000000 16.375000000000 60.630004882813 96 96 96
30.718750000000 16.679687500000 61.277999877930 53 53 53
30.687500000000 16.664062500000 61.304000854492 71 71 71
30.703125000000 16.632812500000 62.453002929688 94 94 94
29.125000000000 15.734375000000 62.541000366211 139 139 139
27.437500000000 14.804687500000 61.416992187500 118 118 118
26.562500000000 14.335937500000 60.225997924805 170 170 170
30.125000000000 16.070312500000 60.604995727539 115 115 115
30.687500000000 16.382812500000 61.292999267578 104 104 104
30.687500000000 16.351562500000 62.423995971680 17 17 17
30.656250000000 16.343750000000 62.458999633789 71 71 71
29.125000000000 15.460937500000 62.524002075195 157 157 157
27.437500000000 14.515625000000 61.408996582031 109 109 109
26.562500000000 14.039062500000 60.222991943359 197 197 197
26.531250000000 14.039062500000 60.235992431641 69 69 69
30.125000000000 15.789062500000 60.595001220703 124 124 124
30.718750000000 16.093750000000 61.277999877930 106 106 106
30.687500000000 16.039062500000 62.429000854492 117 117 117
29.156250000000 15.171875000000 62.518997192383 89 89 89
29.109375000000 15.164062500000 62.533004760742 108 108 108
27.468750000000 14.242187500000 61.408996582031 77 77 77
27.437500000000 14.234375000000 61.401992797852 100 100 100
26.562500000000 13.750000000000 60.225006103516 162 162 162
26.546875000000 13.742187500000 60.227996826172 206 206 206
30.140625000000 15.500000000000 60.583999633789 113 113 113
30.718750000000 15.812500000000 61.268005371094 73 73 73
30.687500000000 15.789062500000 61.283004760742 26 26 26
30.687500000000 15.765625000000 62.419006347656 102 102 102
29.125000000000 14.859375000000 62.524002075195 139 139 139
27.468750000000 13.953125000000 61.393997192383 112 112 112
26.562500000000 13.453125000000 60.220993041992 182 182 182
30.156250000000 15.203125000000 60.576004028320 98 98 98
30.125000000000 15.187500000000 60.600997924805 49 49 49
30.718750000000 15.515625000000 61.248992919922 40 40 40
30.687500000000 15.507812500000 61.279006958008 76 76 76
30.703125000000 15.468750000000 62.416000366211 50 50 50
30.687500000000 15.453125000000 62.436004638672 52 52 52
29.140625000000 14.578125000000 62.516006469727 149 149 149
27.484375000000 13.656250000000 61.401000976563 105 105 105
26.562500000000 13.156250000000 60.222000122070 210 210 210
26.546875000000 13.140625000000 60.223999023438 125 125 125
30.156250000000 14.914062500000 60.565994262695 87 87 87
30.125000000000 14.898437500000 60.589996337891 70 70 70
30.687500000000 15.203125000000 61.261001586914 102 102 102
30.687500000000 15.156250000000 62.414993286133 89 89 89
29.156250000000 14.281250000000 62.509002685547 124 124 124
29.125000000000 14.265625000000 62.520004272461 74 74 74
27.515625000000 13.382812500000 61.395996093750 110 110 110
27.500000000000 13.375000000000 61.408996582031 73 73 73
26.562500000000 12.867187500000 60.218002319336 183 183 183
26.562500000000 12.851562500000 60.218994140625 187 187 187
30.125000000000 14.625000000000 60.548995971680 36 36 36
30.125000000000 14.609375000000 60.569992065430 108 108 108
30.703125000000 14.921875000000 61.250991821289 107 107 107
30.687500000000 14.875000000000 62.406997680664 116 116 116
29.156250000000 14.000000000000 62.492996215820 42 42 42
29.125000000000 13.976562500000 62.498001098633 118 118 118
27.531250000000 13.093750000000 61.399002075195 109 109 109
26.562500000000 12.570312500000 60.214004516602 181 181 181
30.125000000000 14.312500000000 60.559997558594 125 125 125
30.703125000000 14.625000000000 61.238006591797 103 103 103
30.687500000000 14.585937500000 62.395996093750 90 90 90
29.125000000000 13.695312500000 62.496002197266 144 144 144
27.531250000000 12.804687500000 61.393997192383 109 109 109
26.562500000000 12.265625000000 60.225997924805 208 208 208
26.546875000000 12.265625000000 60.231002807617 130 130 130
30.125000000000 14.023437500000 60.552993774414 134 134 134
30.718750000000 14.343750000000 61.235000610352 73 73 73
30.703125000000 14.328125000000 61.259994506836 47 47 47
30.703125000000 14.289062500000 62.384002685547 25 25 25
30.671875000000 14.273437500000 62.408004760742 70 70 70
29.156250000000 13.390625000000 62.494995117188 144 144 144
29.125000000000 13.375000000000 62.505996704102 62 62 62
27.578125000000 12.523437500000 61.397003173828 117 117 117
27.546875000000 12.500000000000 61.380004882813 85 85 85
26.562500000000 11.976562500000 60.242004394531 110 110 110
26.546875000000 11.968750000000 60.216995239258 204 204 204
30.140625000000 13.726562500000 60.541992187500 127 127 127
30.718750000000 14.039062500000 61.208999633789 30 30 30
30.687500000000 14.031250000000 61.236999511719 89 89 89
30.687500000000 13.984375000000 62.399002075195 99 99 99
29.156250000000 13.101562500000 62.479003906250 96 96 96
29.125000000000 13.085937500000 62.490997314453 105 105 105
27.593750000000 12.226562500000 61.386993408203 105 105 105
26.562500000000 11.671875000000 60.220993041992 174 174 174
30.156250000000 13.437500000000 60.533996582031 108 108 108
30.125000000000 13.429687500000 60.555999755859 22 22 22
30.718750000000 13.734375000000 61.229003906250 114 114 114
30.687500000000 13.695312500000 62.382995605469 105 105 105
29.140625000000 12.796875000000 62.486999511719 144 144 144
27.625000000000 11.953125000000 61.380004882813 30 30 30
27.593750000000 11.945312500000 61.391998291016 114 114 114
26.578125000000 11.382812500000 60.222991943359 200 200 200
26.562500000000 11.375000000000 60.218002319336 190 190 190
30.156250000000 13.156250000000 60.526000976563 60 60 60
30.125000000000 13.132812500000 60.535995483398 88 88 88
30.718750000000 13.445312500000 61.218994140625 105 105 105
30.703125000000 13.414062500000 62.371002197266 57 57 57
30.671875000000 13.398437500000 62.391998291016 41 41 41
29.156250000000 12.515625000000 62.479003906250 151 151 151
29.125000000000 12.500000000000 62.490997314453 38 38 38
27.625000000000 11.664062500000 61.369003295898 98 98 98
27.593750000000 11.648437500000 61.386993408203 86 86 86
26.593750000000 11.093750000000 60.235000610352 50 50 50
26.562500000000 11.085937500000 60.214996337891 195 195 195
30.125000000000 12.843750000000 60.526000976563 127 127 127
30.718750000000 13.164062500000 61.197998046875 51 51 51
30.703125000000 13.148437500000 61.227996826172 73 73 73
30.687500000000 13.093750000000 62.380004882813 104 104 104
29.156250000000 12.234375000000 62.470993041992 89 89 89
29.125000000000 12.218750000000 62.481994628906 110 110 110
27.625000000000 11.375000000000 61.373001098633 108 108 108
26.562500000000 10.789062500000 60.220001220703 201 201 201
26.531250000000 10.781250000000 60.235000610352 96 96 96
30.125000000000 12.546875000000 60.514999389648 127 127 127
30.703125000000 12.851562500000 61.218994140625 104 104 104
30.703125000000 12.812500000000 62.371002197266 121 121 121
29.156250000000 11.906250000000 62.472991943359 139 139 139
27.656250000000 11.093750000000 61.367996215820 28 28 28
27.625000000000 11.078125000000 61.371994018555 107 107 107
26.562500000000 10.500000000000 60.227005004883 171 171 171
26.562500000000 10.484375000000 60.218994140625 188 188 188
30.140625000000 12.265625000000 60.503005981445 131 131 131
30.718750000000 12.570312500000 61.207992553711 119 119 119
30.718750000000 12.523437500000 62.360992431641 79 79 79
30.687500000000 12.515625000000 62.389999389648 23 23 23
29.156250000000 11.625000000000 62.462005615234 146 146 146
29.125000000000 11.601562500000 62.473999023438 48 48 48
27.671875000000 10.804687500000 61.369003295898 93 93 93
27.640625000000 10.796875000000 61.376998901367 79 79 79
26.562500000000 10.195312500000 60.220001220703 186 186 186
30.156250000000 11.968750000000 60.492004394531 34 34 34
30.125000000000 11.960937500000 60.511001586914 96 96 96
30.718750000000 12.281250000000 61.192001342773 40 40 40
30.703125000000 12.265625000000 61.214004516602 77 77 77
30.687500000000 12.226562500000 62.373001098633 113 113 113
29.156250000000 11.343750000000 62.457992553711 35 35 35
29.125000000000 11.335937500000 62.472000122070 132 132 132
27.687500000000 10.523437500000 61.365997314453 123 123 123
27.656250000000 10.515625000000 61.375000000000 81 81 81
26.562500000000 9.898437500000 60.222991943359 203 203 203
26.546875000000 9.890625000000 60.218002319336 162 162 162
30.125000000000 11.671875000000 60.490997314453 124 124 124
30.718750000000 11.992187500000 61.199996948242 120 120 120
30.703125000000 11.945312500000 62.352005004883 97 97 97
29.140625000000 11.039062500000 62.455001831055 142 142 142
27.687500000000 10.234375000000 61.358001708984 107 107 107
26.562500000000 9.617187500000 60.240997314453 101 101 101
26.562500000000 9.609375000000 60.276992797852 243 243 243
30.140625000000 11.382812500000 60.485992431641 109 109 109
30.125000000000 11.367187500000 60.509994506836 20 20 20
30.718750000000 11.695312500000 61.188995361328 91 91 91
30.687500000000 11.640625000000 62.358993530273 87 87 87
29.156250000000 10.757812500000 62.449996948242 103 103 103
29.125000000000 10.742187500000 62.468994140625 103 103 103
27.718750000000 9.937500000000 61.363998413086 117 117 117
26.562500000000 9.312500000000 60.216003417969 191 191 191
26.562500000000 9.296875000000 60.326995849609 155 155 155
30.171875000000 11.093750000000 60.483001708984 61 61 61
30.125000000000 11.070312500000 60.492004394531 85 85 85
30.718750000000 11.390625000000 61.169998168945 34 34 34
30.718750000000 11.375000000000 61.194992065430 80 80 80
30.687500000000 11.343750000000 62.354003906250 107 107 107
29.156250000000 10.437500000000 62.449996948242 138 138 138
27.734375000000 9.664062500000 61.363998413086 106 106 106
27.718750000000 9.648437500000 61.360000610352 93 93 93
26.593750000000 9.015625000000 60.233001708984 224 224 224
26.562500000000 9.007812500000 60.231002807617 175 175 175
30.140625000000 10.781250000000 60.479995727539 130 130 130
30.718750000000 11.101562500000 61.184997558594 121 121 121
30.718750000000 11.062500000000 62.337005615234 59 59 59
30.687500000000 11.039062500000 62.352005004883 27 27 27
29.156250000000 10.156250000000 62.434997558594 127 127 127
29.125000000000 10.140625000000 62.442993164063 71 71 71
27.750000000000 9.382812500000 61.360992431641 103 103 103
27.718750000000 9.367187500000 61.356994628906 38 38 38
26.593750000000 8.734375000000 60.244995117188 87 87 87
26.562500000000 8.718750000000 60.300994873047 253 253 253
30.156250000000 10.507812500000 60.475997924805 85 85 85
30.125000000000 10.484375000000 60.486999511719 60 60 60
30.718750000000 10.812500000000 61.166992187500 38 38 38
30.703125000000 10.804687500000 61.192993164063 76 76 76
30.687500000000 10.757812500000 62.347000122070 115 115 115
29.140625000000 9.859375000000 62.442001342773 134 134 134
27.765625000000 9.093750000000 61.358993530273 105 105 105
26.562500000000 8.429687500000 60.236999511719 229 229 229
26.562500000000 8.414062500000 60.257995605469 171 171 171
30.125000000000 10.203125000000 60.470993041992 131 131 131
30.718750000000 10.515625000000 61.175003051758 122 122 122
30.718750000000 10.484375000000 62.326995849609 85 85 85
30.687500000000 10.460937500000 62.367004394531 14 14 14
29.156250000000 9.570312500000 62.432998657227 144 144 144
29.125000000000 9.562500000000 62.451995849609 49 49 49
27.781250000000 8.812500000000 61.369003295898 114 114 114
26.578125000000 8.140625000000 60.248992919922 160 160 160
26.562500000000 8.125000000000 60.315002441406 253 253 253
30.156250000000 9.906250000000 60.460998535156 114 114 114
30.734375000000 10.226562500000 61.160995483398 70 70 70
30.703125000000 10.210937500000 61.186996459961 45 45 45
30.687500000000 10.164062500000 62.328002929688 105 105 105
29.171875000000 9.281250000000 62.423995971680 55 55 55
29.140625000000 9.265625000000 62.440994262695 131 131 131
27.781250000000 8.515625000000 61.358993530273 123 123 123
26.578125000000 7.835937500000 60.233001708984 196 196 196
26.578125000000 7.812500000000 61.345001220703 133 133 133
30.156250000000 9.625000000000 60.458999633789 22 22 22
30.156250000000 9.609375000000 60.475006103516 109 109 109
30.718750000000 9.921875000000 61.177001953125 119 119 119
30.703125000000 9.875000000000 62.324996948242 97 97 97
29.156250000000 8.976562500000 62.430999755859 143 143 143
29.125000000000 8.960937500000 62.453994750977 25 25 25
27.828125000000 8.234375000000 61.352005004883 93 93 93
27.796875000000 8.218750000000 61.348999023438 100 100 100
26.578125000000 7.546875000000 60.242004394531 241 241 241
26.562500000000 7.531250000000 60.324996948242 253 253 253
30.156250000000 9.328125000000 60.458999633789 135 135 135
30.718750000000 9.632812500000 61.154998779297 96 96 96
30.687500000000 9.578125000000 62.335006713867 83 83 83
29.156250000000 8.695312500000 62.421005249023 82 82 82
29.140625000000 8.679687500000 62.432006835938 116 116 116
27.828125000000 7.953125000000 61.347991943359 105 105 105
26.593750000000 7.257812500000 60.266006469727 112 112 112
26.578125000000 7.242187500000 60.289001464844 253 253 253
26.593750000000 7.226562500000 61.343994140625 124 124 124
30.156250000000 9.039062500000 60.451995849609 42 42 42
30.125000000000 9.023437500000 60.466995239258 99 99 99
30.718750000000 9.328125000000 61.169006347656 109 109 109
30.718750000000 9.296875000000 62.320999145508 99 99 99
29.156250000000 8.398437500000 62.429992675781 153 153 153
29.140625000000 8.382812500000 62.447998046875 32 32 32
27.843750000000 7.664062500000 61.345993041992 98 98 98
26.593750000000 6.953125000000 60.244995117188 240 240 240
26.562500000000 6.945312500000 60.250000000000 161 161 161
26.593750000000 6.937500000000 61.283996582031 152 152 152
30.156250000000 8.734375000000 60.455993652344 128 128 128
30.734375000000 9.046875000000 61.152999877930 98 98 98
30.687500000000 8.992187500000 62.326995849609 85 85 85
29.171875000000 8.101562500000 62.423995971680 77 77 77
29.140625000000 8.085937500000 62.430999755859 121 121 121
27.843750000000 7.382812500000 61.341995239258 114 114 114
26.593750000000 6.664062500000 60.272994995117 164 164 164
26.562500000000 6.664062500000 60.264999389648 253 253 253
26.593750000000 6.632812500000 61.332992553711 135 135 135
30.171875000000 8.453125000000 60.449996948242 93 93 93
30.125000000000 8.429687500000 60.457000732422 33 33 33
30.734375000000 8.757812500000 61.134002685547 16 16 16
30.718750000000 8.742187500000 61.162994384766 83 83 83
30.718750000000 8.710937500000 62.315994262695 118 118 118
29.156250000000 7.804687500000 62.423995971680 144 144 144
27.875000000000 7.093750000000 61.358001708984 125 125 125
26.593750000000 6.367187500000 60.246994018555 63 63 63
26.578125000000 6.367187500000 60.250991821289 218 218 218
26.593750000000 6.343750000000 61.317001342773 129 129 129
30.140625000000 8.140625000000 60.453994750977 126 126 126
30.718750000000 8.453125000000 61.147994995117 118 118 118
30.718750000000 8.421875000000 62.302001953125 48 48 48
30.687500000000 8.398437500000 62.324996948242 53 53 53
29.156250000000 7.507812500000 62.406997680664 107 107 107
29.156250000000 7.492187500000 62.430999755859 110 110 110
27.906250000000 6.812500000000 61.348999023438 32 32 32
27.875000000000 6.804687500000 61.358993530273 115 115 115
26.593750000000 6.070312500000 60.248001098633 225 225 225
26.578125000000 6.062500000000 60.291000366211 253 253 253
26.593750000000 6.039062500000 61.268997192383 128 128 128
30.156250000000 7.859375000000 60.444992065430 121 121 121
30.750000000000 8.164062500000 61.136993408203 48 48 48
30.718750000000 8.164062500000 61.171997070313 60 60 60
30.718750000000 8.117187500000 62.317993164063 109 109 109
29.156250000000 7.210937500000 62.427001953125 142 142 142
27.906250000000 6.531250000000 61.332000732422 72 72 72
27.890625000000 6.515625000000 61.335006713867 103 103 103
30.156250000000 7.562500000000 60.427993774414 26 26 26
30.125000000000 7.546875000000 60.444000244141 101 101 101
30.718750000000 7.867187500000 61.154006958008 113 113 113
30.718750000000 7.828125000000 62.296997070313 61 61 61
30.687500000000 7.820312500000 62.332992553711 25 25 25
29.156250000000 6.929687500000 62.416000366211 102 102 102
29.125000000000 6.906250000000 62.419998168945 93 93 93
27.937500000000 6.242187500000 61.339004516602 97 97 97
27.906250000000 6.218750000000 61.341003417969 63 63 63
30.156250000000 7.257812500000 60.440002441406 135 135 135
30.718750000000 7.578125000000 61.139999389648 91 91 91
30.687500000000 7.523437500000 62.309997558594 106 106 106
29.156250000000 6.617187500000 62.421005249023 139 139 139
27.953125000000 5.953125000000 61.345993041992 124 124 124
30.156250000000 6.976562500000 60.432998657227 115 115 115
30.734375000000 7.273437500000 61.151992797852 92 92 92
30.718750000000 7.234375000000 62.302001953125 100 100 100
29.171875000000 6.335937500000 62.416992187500 138 138 138
29.140625000000 6.304687500000 62.417999267578 49 49 49
30.140625000000 6.664062500000 60.440994262695 117 117 117
30.750000000000 6.976562500000 61.139999389648 107 107 107
30.703125000000 6.921875000000 62.311004638672 78 78 78
29.187500000000 6.039062500000 62.410003662109 22 22 22
29.156250000000 6.031250000000 62.425003051758 127 127 127
30.156250000000 6.382812500000 60.425003051758 128 128 128
30.750000000000 6.695312500000 61.128005981445 53 53 53
30.718750000000 6.679687500000 61.152999877930 49 49 49
30.718750000000 6.648437500000 62.302001953125 113 113 113
30.156250000000 6.085937500000 60.419998168945 77 77 77
30.140625000000 6.070312500000 60.440994262695 67 67 67
30.718750000000 6.398437500000 61.145004272461 113 113 113
30.718750000000 6.359375000000 62.289001464844 50 50 50
30.687500000000 6.343750000000 62.313995361328 46 46 46
30.734375000000 6.101562500000 61.128005981445 111 111 111
30.718750000000 6.039062500000 62.304000854492 104 104 104
26.625000000000 32.406250000000 60.169998168945 211 211 211
26.625000000000 32.414062500000 60.162994384766 176 176 176
26.703125000000 32.414062500000 61.630004882813 97 97 97
26.781250000000 32.468750000000 61.664993286133 108 108 108
26.812500000000 32.484375000000 61.658004760742 47 47 47
26.593750000000 32.101562500000 60.173995971680 208 208 208
26.625000000000 32.109375000000 60.158004760742 180 180 180
26.687500000000 32.109375000000 61.656005859375 129 129 129
26.750000000000 32.148437500000 61.686004638672 33 33 33
26.781250000000 32.164062500000 61.675994873047 124 124 124
26.593750000000 31.796875000000 60.175994873047 199 199 199
26.593750000000 31.812500000000 60.169006347656 208 208 208
26.656250000000 31.804687500000 61.662994384766 120 120 120
26.718750000000 31.843750000000 61.677993774414 106 106 106
26.578125000000 31.484375000000 60.179000854492 163 163 163
26.593750000000 31.500000000000 60.173995971680 207 207 207
26.625000000000 31.492187500000 61.667999267578 121 121 121
26.656250000000 31.507812500000 61.673004150391 53 53 53
26.687500000000 31.523437500000 61.692001342773 47 47 47
26.718750000000 31.531250000000 61.688003540039 117 117 117
26.562500000000 31.187500000000 60.205993652344 95 95 95
26.578125000000 31.195312500000 60.171997070313 203 203 203
26.609375000000 31.195312500000 61.682006835938 100 100 100
26.640625000000 31.210937500000 61.669998168945 123 123 123
26.656250000000 31.226562500000 61.701995849609 104 104 104
26.531250000000 30.890625000000 60.186996459961 104 104 104
26.562500000000 30.898437500000 60.169998168945 199 199 199
26.593750000000 30.890625000000 61.692993164063 79 79 79
26.625000000000 30.906250000000 61.697006225586 159 159 159
26.640625000000 30.921875000000 61.710998535156 69 69 69
26.531250000000 30.578125000000 60.203002929688 57 57 57
26.531250000000 30.593750000000 60.182998657227 182 182 182
26.609375000000 30.593750000000 61.707000732422 139 139 139
26.515625000000 29.992187500000 60.184005737305 155 155 155
26.531250000000 29.992187500000 60.182006835938 215 215 215
26.562500000000 29.984375000000 61.720993041992 45 45 45
26.593750000000 29.992187500000 61.707992553711 135 135 135
26.531250000000 29.687500000000 60.175003051758 194 194 194
26.531250000000 29.703125000000 60.180999755859 219 219 219
26.578125000000 29.695312500000 61.701004028320 101 101 101
26.593750000000 29.703125000000 61.708999633789 153 153 153
26.531250000000 29.398437500000 60.177001953125 199 199 199
26.531250000000 29.414062500000 60.177993774414 214 214 214
26.593750000000 29.406250000000 61.688995361328 112 112 112
26.609375000000 29.421875000000 61.694992065430 122 122 122
26.640625000000 29.429687500000 61.690002441406 54 54 54
26.531250000000 29.101562500000 60.182998657227 204 204 204
26.531250000000 29.109375000000 60.179000854492 201 201 201
26.593750000000 29.109375000000 61.682006835938 113 113 113
26.640625000000 29.132812500000 61.692993164063 132 132 132
26.531250000000 28.804687500000 60.175003051758 205 205 205
26.531250000000 28.820312500000 60.197006225586 155 155 155
26.593750000000 28.820312500000 61.673004150391 134 134 134
26.656250000000 28.851562500000 61.679992675781 91 91 91
26.531250000000 28.515625000000 60.182006835938 205 205 205
26.531250000000 28.531250000000 60.197998046875 111 111 111
26.593750000000 28.531250000000 61.649002075195 112 112 112
26.656250000000 28.546875000000 61.684005737305 61 61 61
26.687500000000 28.562500000000 61.682998657227 113 113 113
26.593750000000 28.515625000000 61.735992431641 106 106 106
26.531250000000 28.226562500000 60.175003051758 204 204 204
26.593750000000 28.226562500000 61.697006225586 112 112 112
26.593750000000 28.242187500000 61.671005249023 35 35 35
26.687500000000 28.273437500000 61.677001953125 84 84 84
26.531250000000 27.937500000000 60.175003051758 215 215 215
26.546875000000 27.945312500000 60.194992065430 105 105 105
26.687500000000 27.992187500000 61.679000854492 81 81 81
26.718750000000 28.000000000000 61.652999877930 93 93 93
26.593750000000 27.945312500000 61.714996337891 106 106 106
26.531250000000 27.625000000000 60.212005615234 48 48 48
26.531250000000 27.648437500000 60.186004638672 243 243 243
26.609375000000 27.632812500000 61.710006713867 122 122 122
26.718750000000 27.703125000000 61.643997192383 96 96 96
26.531250000000 27.335937500000 60.207992553711 129 129 129
26.531250000000 27.351562500000 60.203994750977 252 252 252
26.609375000000 27.343750000000 61.671005249023 119 119 119
26.718750000000 27.421875000000 61.647994995117 112 112 112
26.515625000000 27.046875000000 60.182998657227 246 246 246
26.531250000000 27.054687500000 60.216003417969 252 252 252
26.750000000000 27.132812500000 61.628997802734 123 123 123
26.531250000000 26.750000000000 60.186996459961 252 252 252
26.546875000000 26.757812500000 60.190002441406 252 252 252
26.750000000000 26.843750000000 61.638000488281 120 120 120
26.531250000000 26.460937500000 60.190002441406 251 251 251
26.546875000000 26.460937500000 60.188003540039 252 252 252
26.796875000000 26.570312500000 61.610000610352 127 127 127
26.531250000000 26.164062500000 60.188003540039 252 252 252
26.562500000000 26.171875000000 60.184005737305 252 252 252
26.796875000000 26.273437500000 61.625000000000 106 106 106
26.531250000000 25.867187500000 60.188995361328 252 252 252
26.562500000000 25.875000000000 60.190994262695 212 212 212
26.812500000000 25.992187500000 61.608001708984 57 57 57
26.843750000000 26.000000000000 61.613006591797 88 88 88
26.531250000000 25.578125000000 60.201004028320 83 83 83
26.546875000000 25.585937500000 60.184005737305 252 252 252
26.562500000000 25.585937500000 60.184997558594 166 166 166
26.843750000000 25.710937500000 61.615005493164 101 101 101
26.531250000000 25.281250000000 60.203994750977 141 141 141
26.546875000000 25.281250000000 60.182998657227 252 252 252
26.562500000000 25.289062500000 60.188995361328 106 106 106
26.843750000000 25.414062500000 61.582992553711 93 93 93
26.531250000000 24.984375000000 60.203994750977 211 211 211
26.546875000000 24.992187500000 60.188003540039 252 252 252
26.578125000000 25.000000000000 60.192993164063 80 80 80
26.875000000000 25.140625000000 61.582000732422 121 121 121
26.531250000000 24.695312500000 60.197998046875 252 252 252
26.562500000000 24.703125000000 60.188995361328 252 252 252
26.578125000000 24.703125000000 60.182998657227 43 43 43
26.875000000000 24.843750000000 61.576995849609 111 111 111
26.531250000000 24.398437500000 60.207992553711 252 252 252
26.562500000000 24.398437500000 60.192001342773 252 252 252
26.906250000000 24.570312500000 61.583999633789 124 124 124
26.531250000000 24.109375000000 60.223999023438 252 252 252
26.562500000000 24.117187500000 60.182998657227 252 252 252
26.921875000000 24.281250000000 61.561996459961 94 94 94
26.593750000000 23.796875000000 61.589996337891 109 109 109
26.546875000000 23.812500000000 60.216995239258 252 252 252
26.562500000000 23.812500000000 60.194000244141 186 186 186
26.921875000000 23.984375000000 61.567001342773 67 67 67
26.953125000000 24.000000000000 61.555999755859 62 62 62
26.593750000000 23.515625000000 61.611999511719 110 110 110
26.546875000000 23.515625000000 60.188003540039 252 252 252
26.562500000000 23.523437500000 60.205001831055 149 149 149
26.953125000000 23.703125000000 61.550003051758 102 102 102
26.546875000000 23.210937500000 60.212005615234 112 112 112
26.562500000000 23.218750000000 60.192001342773 252 252 252
26.562500000000 23.234375000000 60.194000244141 108 108 108
26.968750000000 23.414062500000 61.552993774414 84 84 84
26.609375000000 23.226562500000 61.593002319336 121 121 121
26.593750000000 22.921875000000 61.518005371094 63 63 63
26.562500000000 22.914062500000 60.207992553711 189 189 189
26.562500000000 22.929687500000 60.179992675781 252 252 252
26.578125000000 22.929687500000 60.199996948242 50 50 50
26.593750000000 22.632812500000 61.503005981445 112 112 112
26.562500000000 22.625000000000 60.203994750977 218 218 218
26.562500000000 22.632812500000 60.194992065430 252 252 252
26.593750000000 22.335937500000 61.501998901367 115 115 115
26.562500000000 22.328125000000 60.188003540039 249 249 249
26.562500000000 22.351562500000 60.182998657227 200 200 200
26.625000000000 22.039062500000 61.524993896484 128 128 128
26.562500000000 22.031250000000 60.184005737305 232 232 232
26.562500000000 22.054687500000 60.194000244141 112 112 112
26.593750000000 21.734375000000 61.473999023438 107 107 107
26.625000000000 21.750000000000 61.542999267578 101 101 101
26.562500000000 21.750000000000 60.190994262695 233 233 233
26.578125000000 21.757812500000 60.188003540039 78 78 78
26.609375000000 21.445312500000 61.470993041992 121 121 121
26.562500000000 21.437500000000 60.205001831055 150 150 150
26.562500000000 21.445312500000 60.184005737305 234 234 234
26.625000000000 21.156250000000 61.468994140625 130 130 130
26.562500000000 21.148437500000 60.192993164063 252 252 252
26.562500000000 21.156250000000 60.190002441406 222 222 222
26.593750000000 20.843750000000 61.464004516602 92 92 92
26.625000000000 20.859375000000 61.466003417969 123 123 123
26.562500000000 20.859375000000 60.188003540039 234 234 234
26.578125000000 20.859375000000 60.188995361328 141 141 141
26.609375000000 20.554687500000 61.449996948242 123 123 123
26.562500000000 20.554687500000 60.257003784180 91 91 91
26.562500000000 20.554687500000 60.197998046875 222 222 222
26.578125000000 20.570312500000 60.203002929688 64 64 64
26.625000000000 20.265625000000 61.444992065430 120 120 120
26.562500000000 20.257812500000 60.229995727539 86 86 86
26.562500000000 20.273437500000 60.195999145508 218 218 218
26.625000000000 19.968750000000 61.432998657227 127 127 127
26.546875000000 19.968750000000 60.214004516602 97 97 97
26.562500000000 19.976562500000 60.194000244141 217 217 217
26.593750000000 19.671875000000 61.429000854492 78 78 78
26.625000000000 19.695312500000 61.423995971680 123 123 123
26.562500000000 19.679687500000 60.203994750977 175 175 175
26.578125000000 19.687500000000 60.190002441406 209 209 209
26.609375000000 19.382812500000 61.423004150391 122 122 122
26.625000000000 19.382812500000 61.414993286133 64 64 64
26.562500000000 19.382812500000 60.203002929688 220 220 220
26.578125000000 19.390625000000 60.186996459961 198 198 198
26.625000000000 19.078125000000 61.416992187500 125 125 125
26.562500000000 19.085937500000 60.195999145508 201 201 201
26.578125000000 19.093750000000 60.208999633789 81 81 81
26.625000000000 18.796875000000 61.421997070313 132 132 132
26.562500000000 18.796875000000 60.190002441406 191 191 191
26.593750000000 18.804687500000 60.207000732422 43 43 43
26.593750000000 18.492187500000 61.404006958008 102 102 102
26.625000000000 18.500000000000 61.406997680664 107 107 107
26.562500000000 18.484375000000 60.208999633789 44 44 44
26.578125000000 18.500000000000 60.205001831055 207 207 207
26.609375000000 18.203125000000 61.389999389648 124 124 124
26.562500000000 18.203125000000 60.218994140625 140 140 140
26.578125000000 18.218750000000 60.201004028320 206 206 206
26.609375000000 17.914062500000 61.386001586914 122 122 122
26.578125000000 17.914062500000 60.203002929688 204 204 204
26.593750000000 17.921875000000 60.210006713867 171 171 171
26.609375000000 17.601562500000 61.389999389648 49 49 49
26.625000000000 17.625000000000 61.388992309570 131 131 131
26.578125000000 17.609375000000 60.203002929688 192 192 192
26.593750000000 17.625000000000 60.216995239258 68 68 68
26.625000000000 17.320312500000 61.376998901367 128 128 128
26.640625000000 17.328125000000 61.373992919922 55 55 55
26.578125000000 17.320312500000 60.214996337891 187 187 187
26.625000000000 17.023437500000 61.369995117188 127 127 127
26.562500000000 17.031250000000 60.229995727539 107 107 107
26.593750000000 17.023437500000 60.210998535156 195 195 195
26.609375000000 16.726562500000 61.375000000000 93 93 93
26.625000000000 16.742187500000 61.363998413086 117 117 117
26.562500000000 16.734375000000 60.229003906250 198 198 198
26.593750000000 16.742187500000 60.222000122070 130 130 130
26.609375000000 16.437500000000 61.363998413086 127 127 127
26.640625000000 16.445312500000 61.356994628906 39 39 39
26.593750000000 16.445312500000 60.225997924805 197 197 197
26.593750000000 16.453125000000 60.227996826172 61 61 61
26.625000000000 16.140625000000 61.350006103516 120 120 120
26.593750000000 16.148437500000 60.218002319336 170 170 170
26.593750000000 15.843750000000 61.347991943359 49 49 49
26.625000000000 15.859375000000 61.358001708984 124 124 124
26.593750000000 15.843750000000 60.246002197266 67 67 67
26.593750000000 15.859375000000 60.222991943359 191 191 191
26.625000000000 15.570312500000 61.350006103516 123 123 123
26.625000000000 15.570312500000 61.352005004883 35 35 35
26.578125000000 15.570312500000 60.231994628906 162 162 162
26.593750000000 15.578125000000 60.233001708984 117 117 117
26.625000000000 15.257812500000 61.341995239258 129 129 129
26.593750000000 15.257812500000 60.222991943359 136 136 136
26.609375000000 14.960937500000 61.350997924805 69 69 69
26.625000000000 14.976562500000 61.347000122070 123 123 123
26.593750000000 14.968750000000 60.229003906250 169 169 169
26.625000000000 14.671875000000 61.341003417969 122 122 122
26.625000000000 14.671875000000 61.335998535156 55 55 55
26.578125000000 14.664062500000 60.236999511719 103 103 103
26.593750000000 14.671875000000 60.229003906250 163 163 163
26.625000000000 14.382812500000 61.330993652344 126 126 126
26.593750000000 14.382812500000 60.229003906250 156 156 156
26.609375000000 14.382812500000 60.220993041992 47 47 47
26.609375000000 14.085937500000 61.328002929688 74 74 74
26.625000000000 14.101562500000 61.313995361328 118 118 118
26.593750000000 14.093750000000 60.229995727539 137 137 137
26.625000000000 13.789062500000 61.324996948242 126 126 126
26.593750000000 13.781250000000 60.244995117188 54 54 54
26.593750000000 13.796875000000 60.229995727539 164 164 164
26.625000000000 13.492187500000 61.315002441406 139 139 139
26.593750000000 13.492187500000 60.227005004883 153 153 153
26.593750000000 13.500000000000 60.238998413086 74 74 74
26.625000000000 13.187500000000 61.324996948242 90 90 90
26.625000000000 13.195312500000 61.315002441406 117 117 117
26.593750000000 13.187500000000 60.223999023438 141 141 141
26.625000000000 12.906250000000 61.319000244141 128 128 128
26.593750000000 12.906250000000 60.220993041992 161 161 161
26.625000000000 12.609375000000 61.307998657227 132 132 132
26.593750000000 12.609375000000 60.216995239258 152 152 152
26.609375000000 12.617187500000 60.220993041992 85 85 85
26.625000000000 12.296875000000 61.300994873047 107 107 107
26.640625000000 12.312500000000 61.296005249023 93 93 93
26.593750000000 12.312500000000 60.218994140625 133 133 133
26.625000000000 12.007812500000 61.300994873047 126 126 126
26.593750000000 12.000000000000 60.222991943359 69 69 69
26.609375000000 12.015625000000 60.222991943359 158 158 158
26.625000000000 11.703125000000 61.307998657227 41 41 41
26.625000000000 11.718750000000 61.302993774414 134 134 134
26.593750000000 11.718750000000 60.229995727539 141 141 141
26.625000000000 11.414062500000 61.296997070313 114 114 114
26.640625000000 11.429687500000 61.289993286133 61 61 61
26.593750000000 11.429687500000 60.222000122070 145 145 145
26.640625000000 11.132812500000 61.289993286133 119 119 119
26.593750000000 11.125000000000 60.227996826172 123 123 123
26.609375000000 11.132812500000 60.225997924805 145 145 145
26.625000000000 10.820312500000 61.292999267578 87 87 87
26.640625000000 10.835937500000 61.283996582031 111 111 111
26.593750000000 10.820312500000 60.233001708984 139 139 139
26.625000000000 10.539062500000 61.287002563477 127 127 127
26.609375000000 10.539062500000 60.236999511719 158 158 158
26.640625000000 10.234375000000 61.291000366211 136 136 136
26.593750000000 10.242187500000 60.235000610352 135 135 135
26.625000000000 10.250000000000 60.225006103516 93 93 93
26.625000000000 9.945312500000 61.287002563477 122 122 122
26.656250000000 9.953125000000 61.279998779297 61 61 61
26.593750000000 9.953125000000 60.233001708984 129 129 129
26.640625000000 9.648437500000 61.294006347656 131 131 131
26.593750000000 9.648437500000 60.238006591797 88 88 88
26.593750000000 9.664062500000 60.235000610352 159 159 159
26.625000000000 9.335937500000 61.279998779297 87 87 87
26.640625000000 9.359375000000 61.279006958008 115 115 115
26.593750000000 9.351562500000 60.235000610352 132 132 132
26.609375000000 9.359375000000 60.231994628906 74 74 74
26.640625000000 9.054687500000 61.276992797852 127 127 127
26.609375000000 9.062500000000 60.233001708984 133 133 133
26.625000000000 8.765625000000 61.296005249023 80 80 80
26.656250000000 8.765625000000 61.266998291016 113 113 113
26.593750000000 8.773437500000 60.238998413086 120 120 120
26.625000000000 8.781250000000 60.244995117188 98 98 98
26.625000000000 8.468750000000 61.270996093750 127 127 127
26.625000000000 8.468750000000 60.248001098633 127 127 127
26.656250000000 8.179687500000 61.266006469727 134 134 134
26.593750000000 8.171875000000 60.229995727539 57 57 57
26.625000000000 8.179687500000 60.248992919922 150 150 150
26.640625000000 7.875000000000 61.272003173828 124 124 124
26.593750000000 7.875000000000 60.244003295898 124 124 124
26.656250000000 7.585937500000 61.263992309570 131 131 131
26.609375000000 7.593750000000 60.242004394531 137 137 137
26.640625000000 7.289062500000 61.259994506836 118 118 118
26.656250000000 7.304687500000 61.263000488281 63 63 63
26.609375000000 7.296875000000 60.253997802734 122 122 122
26.625000000000 7.296875000000 60.242996215820 99 99 99
26.656250000000 7.000000000000 61.261993408203 131 131 131
26.609375000000 7.000000000000 60.248992919922 121 121 121
26.625000000000 6.703125000000 61.261001586914 123 123 123
26.656250000000 6.703125000000 61.261001586914 68 68 68
26.625000000000 6.703125000000 60.257003784180 114 114 114
26.625000000000 6.710937500000 60.242004394531 114 114 114
26.656250000000 6.398437500000 61.259002685547 127 127 127
26.625000000000 6.398437500000 60.251998901367 121 121 121
26.625000000000 6.101562500000 61.248001098633 89 89 89
26.656250000000 6.117187500000 61.244995117188 103 103 103
26.625000000000 6.101562500000 60.263992309570 46 46 46
26.625000000000 6.117187500000 60.253997802734 142 142 142
26.625000000000 5.828125000000 60.259994506836 72 72 72
30.781250000000 32.359375000000 61.636993408203 122 122 122
30.781250000000 32.359375000000 61.679000854492 62 62 62
30.218750000000 32.359375000000 61.018005371094 142 142 142
30.187500000000 32.359375000000 61.026992797852 102 102 102
30.781250000000 32.359375000000 62.759002685547 120 120 120
29.250000000000 32.382812500000 62.804000854492 120 120 120
29.218750000000 32.382812500000 62.820999145508 128 128 128
26.796875000000 32.429687500000 61.662994384766 103 103 103
26.687500000000 32.421875000000 61.630004882813 87 87 87
26.625000000000 32.437500000000 60.166992187500 68 68 68
30.765625000000 32.046875000000 61.649002075195 155 155 155
30.187500000000 32.054687500000 61.041000366211 170 170 170
30.171875000000 32.054687500000 61.070999145508 44 44 44
30.781250000000 32.046875000000 62.763992309570 49 49 49
30.750000000000 32.054687500000 62.789001464844 135 135 135
29.218750000000 32.085937500000 62.824996948242 119 119 119
26.781250000000 32.125000000000 61.664993286133 80 80 80
26.687500000000 32.125000000000 61.638000488281 89 89 89
26.656250000000 32.125000000000 61.634994506836 140 140 140
30.750000000000 31.750000000000 61.675994873047 166 166 166
30.171875000000 31.757812500000 61.061004638672 170 170 170
30.765625000000 31.750000000000 62.779006958008 134 134 134
30.734375000000 31.750000000000 62.798004150391 110 110 110
29.187500000000 31.781250000000 62.839996337891 156 156 156
26.750000000000 31.828125000000 61.679992675781 103 103 103
26.718750000000 31.828125000000 61.673995971680 90 90 90
26.656250000000 31.828125000000 61.636001586914 106 106 106
30.734375000000 31.445312500000 61.694992065430 163 163 163
30.156250000000 31.460937500000 61.080001831055 168 168 168
30.140625000000 31.468750000000 61.113998413086 42 42 42
30.750000000000 31.437500000000 62.802993774414 141 141 141
30.718750000000 31.453125000000 62.820999145508 61 61 61
29.218750000000 31.484375000000 62.843994140625 46 46 46
29.187500000000 31.476562500000 62.847991943359 170 170 170
26.703125000000 31.523437500000 61.671997070313 76 76 76
26.625000000000 31.531250000000 61.656997680664 84 84 84
30.718750000000 31.148437500000 61.714004516602 161 161 161
30.156250000000 31.164062500000 61.097000122070 158 158 158
30.125000000000 31.164062500000 61.119003295898 65 65 65
30.718750000000 31.156250000000 62.815002441406 149 149 149
29.203125000000 31.179687500000 62.854995727539 112 112 112
29.156250000000 31.195312500000 62.861999511719 147 147 147
26.671875000000 31.234375000000 61.690994262695 91 91 91
26.656250000000 31.234375000000 61.686004638672 45 45 45
26.625000000000 31.234375000000 61.673995971680 147 147 147
30.718750000000 30.859375000000 61.699005126953 46 46 46
30.718750000000 30.859375000000 61.733001708984 153 153 153
30.140625000000 30.867187500000 61.115005493164 159 159 159
30.109375000000 30.875000000000 61.136993408203 72 72 72
30.718750000000 30.859375000000 62.832992553711 118 118 118
29.156250000000 30.890625000000 62.869995117188 135 135 135
29.156250000000 30.882812500000 62.889999389648 32 32 32
26.656250000000 30.937500000000 61.707000732422 27 27 27
