21.937500000000 20.750000000000 24.574001312256 141 141 141
21.937500000000 20.750000000000 24.644001007080 137 137 137
21.437500000000 20.312500000000 24.506999969482 212 212 212
21.437500000000 20.312500000000 24.572999954224 204 204 204
21.437500000000 20.250000000000 24.637001037598 196 196 196
22.125000000000 20.687500000000 24.532999038696 105 105 105
22.125000000000 20.687500000000 24.605001449585 126 126 126
21.437500000000 20.187500000000 24.515001296997 206 206 206
21.437500000000 20.187500000000 24.577001571655 205 205 205
21.437500000000 20.187500000000 24.641000747681 196 196 196
22.062500000000 20.625000000000 24.544000625610 116 116 116
22.062500000000 20.625000000000 24.617000579834 123 123 123
21.437500000000 20.000000000000 24.520999908447 205 205 205
21.437500000000 20.000000000000 24.586000442505 203 203 203
21.437500000000 20.000000000000 24.645000457764 185 185 185
22.062500000000 20.437500000000 24.556001663208 117 117 117
22.062500000000 20.437500000000 24.628000259399 127 127 127
21.375000000000 19.875000000000 24.528999328613 205 205 205
21.375000000000 19.875000000000 24.591001510620 207 207 207
22.062500000000 20.312500000000 24.485000610352 184 184 184
22.000000000000 20.250000000000 24.572999954224 190 190 190
22.000000000000 20.312500000000 24.634000778198 184 184 184
21.437500000000 19.750000000000 24.530000686646 209 209 209
21.437500000000 19.750000000000 24.595001220703 204 204 204
22.062500000000 20.125000000000 24.490001678467 191 191 191
22.000000000000 20.125000000000 24.572999954224 200 200 200
22.000000000000 20.125000000000 24.641000747681 189 189 189
21.437500000000 19.562500000000 24.537000656128 207 207 207
21.437500000000 19.562500000000 24.601001739502 205 205 205
22.062500000000 20.000000000000 24.502000808716 195 195 195
22.000000000000 20.062500000000 24.581001281738 202 202 202
21.937500000000 19.937500000000 24.653999328613 128 128 128
21.375000000000 19.500000000000 24.541999816895 207 207 207
21.375000000000 19.500000000000 24.605001449585 205 205 205
21.937500000000 19.875000000000 24.517999649048 200 200 200
21.937500000000 19.812500000000 24.590000152588 201 201 201
21.937500000000 19.875000000000 24.655000686646 73 73 73
21.375000000000 19.312500000000 24.548000335693 206 206 206
21.375000000000 19.312500000000 24.611000061035 203 203 203
21.875000000000 19.687500000000 24.531000137329 202 202 202
21.875000000000 19.687500000000 24.601001739502 201 201 201
21.375000000000 19.187500000000 24.486000061035 46 46 46
21.375000000000 19.187500000000 24.552000045776 204 204 204
21.375000000000 19.187500000000 24.614000320435 206 206 206
21.875000000000 19.500000000000 24.541000366211 198 198 198
21.875000000000 19.500000000000 24.609001159668 196 196 196
21.375000000000 19.062500000000 24.556001663208 210 210 210
21.375000000000 19.062500000000 24.619001388550 206 206 206
21.812500000000 19.312500000000 24.570001602173 184 184 184
21.875000000000 19.375000000000 24.617000579834 195 195 195
21.375000000000 18.875000000000 24.497001647949 123 123 123
21.375000000000 18.875000000000 24.560001373291 211 211 211
21.375000000000 18.875000000000 24.624000549316 207 207 207
21.875000000000 19.250000000000 24.560001373291 128 128 128
21.875000000000 19.250000000000 24.631000518799 186 186 186
21.375000000000 18.812500000000 24.498001098633 164 164 164
21.375000000000 18.812500000000 24.564001083374 206 206 206
21.375000000000 18.812500000000 24.627000808716 204 204 204
21.812500000000 19.125000000000 24.572999954224 199 199 199
21.812500000000 19.125000000000 24.642000198364 190 190 190
21.375000000000 18.625000000000 24.510000228882 179 179 179
21.375000000000 18.625000000000 24.571001052856 207 207 207
21.375000000000 18.625000000000 24.633001327515 206 206 206
21.812500000000 18.937500000000 24.586000442505 198 198 198
21.812500000000 18.937500000000 24.652000427246 182 182 182
21.312500000000 18.562500000000 24.513000488281 186 186 186
21.312500000000 18.562500000000 24.574001312256 206 206 206
21.312500000000 18.562500000000 24.636001586914 207 207 207
21.750000000000 18.750000000000 24.599000930786 198 198 198
21.812500000000 18.812500000000 24.662000656128 114 114 114
21.375000000000 18.437500000000 24.517000198364 190 190 190
21.375000000000 18.437500000000 24.579999923706 207 207 207
21.375000000000 18.437500000000 24.641000747681 209 209 209
21.687500000000 18.562500000000 24.610000610352 201 201 201
21.375000000000 18.250000000000 24.521999359131 194 194 194
21.375000000000 18.250000000000 24.583000183105 207 207 207
21.375000000000 18.250000000000 24.644001007080 202 202 202
21.687500000000 18.500000000000 24.622001647949 200 200 200
21.312500000000 18.125000000000 24.526000976563 194 194 194
21.312500000000 18.125000000000 24.586000442505 207 207 207
21.312500000000 18.125000000000 24.649000167847 204 204 204
21.687500000000 18.312500000000 24.631000518799 193 193 193
21.375000000000 18.000000000000 24.527999877930 198 198 198
21.375000000000 18.000000000000 24.588001251221 205 205 205
21.375000000000 18.000000000000 24.649000167847 199 199 199
21.562500000000 18.125000000000 24.644001007080 189 189 189
21.312500000000 17.812500000000 24.531999588013 197 197 197
21.312500000000 17.812500000000 24.592000961304 210 210 210
21.312500000000 17.812500000000 24.652999877930 199 199 199
21.562500000000 17.937500000000 24.653999328613 186 186 186
21.312500000000 17.687500000000 24.534999847412 204 204 204
21.312500000000 17.687500000000 24.595001220703 204 204 204
21.312500000000 17.687500000000 24.656000137329 197 197 197
21.562500000000 17.875000000000 24.663000106812 159 159 159
21.312500000000 17.562500000000 24.539999008179 203 203 203
21.312500000000 17.562500000000 24.602001190186 207 207 207
21.312500000000 17.562500000000 24.656999588013 197 197 197
21.500000000000 17.687500000000 24.669000625610 50 50 50
21.312500000000 17.500000000000 24.545000076294 207 207 207
21.312500000000 17.500000000000 24.606000900269 204 204 204
21.312500000000 17.500000000000 24.660999298096 193 193 193
21.312500000000 17.312500000000 24.549999237061 197 197 197
21.312500000000 17.312500000000 24.615001678467 203 203 203
21.375000000000 17.375000000000 24.653999328613 194 194 194
21.312500000000 17.187500000000 24.558000564575 207 207 207
21.312500000000 17.187500000000 24.620000839233 198 198 198
21.312500000000 17.187500000000 24.663999557495 151 151 151
21.250000000000 17.000000000000 24.564001083374 203 203 203
21.250000000000 17.000000000000 24.625000000000 206 206 206
21.437500000000 17.125000000000 24.667999267578 163 163 163
21.250000000000 17.000000000000 24.750000000000 98 98 98
21.250000000000 17.000000000000 24.812000274658 70 70 70
21.312500000000 16.875000000000 24.571001052856 205 205 205
21.312500000000 16.875000000000 24.631999969482 199 199 199
21.312500000000 16.937500000000 24.692001342773 144 144 144
21.250000000000 16.812500000000 24.754001617432 151 151 151
21.250000000000 16.812500000000 24.815000534058 131 131 131
21.312500000000 16.937500000000 24.853000640869 76 76 76
22.437500000000 21.687500000000 24.607000350952 143 143 143
22.437500000000 21.687500000000 24.528999328613 154 154 154
22.437500000000 21.687500000000 24.453001022339 153 153 153
22.312500000000 21.562500000000 24.615001678467 147 147 147
22.312500000000 21.562500000000 24.539999008179 162 162 162
22.312500000000 21.562500000000 24.465000152588 156 156 156
22.312500000000 21.437500000000 24.619001388550 145 145 145
22.312500000000 21.437500000000 24.544000625610 155 155 155
22.312500000000 21.437500000000 24.469001770020 158 158 158
22.375000000000 21.375000000000 24.624000549316 143 143 143
22.375000000000 21.375000000000 24.548999786377 158 158 158
22.437500000000 21.312500000000 24.459001541138 125 125 125
21.437500000000 21.812500000000 24.609001159668 166 166 166
21.437500000000 21.812500000000 24.544000625610 164 164 164
21.437500000000 21.812500000000 24.478000640869 167 167 167
21.437500000000 21.812500000000 24.419000625610 100 100 100
22.312500000000 21.187500000000 24.628000259399 137 137 137
22.312500000000 21.187500000000 24.555000305176 153 153 153
22.375000000000 21.125000000000 24.467000961304 135 135 135
21.437500000000 21.625000000000 24.612001419067 169 169 169
21.437500000000 21.625000000000 24.549999237061 161 161 161
21.437500000000 21.625000000000 24.487001419067 171 171 171
21.500000000000 21.625000000000 24.402000427246 202 202 202
22.437500000000 21.062500000000 24.622001647949 164 164 164
22.250000000000 21.125000000000 24.570001602173 173 173 173
22.312500000000 21.187500000000 24.491001129150 165 165 165
21.437500000000 21.562500000000 24.619001388550 167 167 167
21.375000000000 21.625000000000 24.559000015259 157 157 157
21.437500000000 21.562500000000 24.494001388550 167 167 167
21.437500000000 21.562500000000 24.427999496460 157 157 157
21.875000000000 21.187500000000 24.649999618530 101 101 101
21.875000000000 21.187500000000 24.583000183105 100 100 100
21.437500000000 21.437500000000 24.607000350952 165 165 165
21.500000000000 21.437500000000 24.539999008179 163 163 163
21.437500000000 21.437500000000 24.479000091553 160 160 160
21.875000000000 21.187500000000 24.308000564575 77 77 77
21.875000000000 21.187500000000 24.236000061035 77 77 77
21.875000000000 21.187500000000 24.164999008179 77 77 77
21.875000000000 21.187500000000 24.090000152588 82 82 82
21.875000000000 21.187500000000 24.015001296997 95 95 95
21.750000000000 21.125000000000 24.683000564575 84 84 84
21.687500000000 21.187500000000 24.631999969482 169 169 169
21.437500000000 21.250000000000 24.614000320435 133 133 133
21.437500000000 21.250000000000 24.549999237061 139 139 139
21.437500000000 21.250000000000 24.485000610352 134 134 134
21.687500000000 21.187500000000 24.363000869751 165 165 165
21.687500000000 21.187500000000 24.295000076294 165 165 165
21.687500000000 21.187500000000 24.227001190186 166 166 166
21.687500000000 21.187500000000 24.157999038696 161 161 161
21.687500000000 21.187500000000 24.090000152588 161 161 161
21.687500000000 21.187500000000 24.020999908447 163 163 163
21.750000000000 21.000000000000 24.689001083374 69 69 69
21.625000000000 21.000000000000 24.638999938965 159 159 159
21.500000000000 21.125000000000 24.609001159668 139 139 139
21.500000000000 21.125000000000 24.542999267578 125 125 125
21.500000000000 21.125000000000 24.480001449585 129 129 129
21.625000000000 21.000000000000 24.373001098633 160 160 160
21.625000000000 21.000000000000 24.302000045776 162 162 162
21.625000000000 21.000000000000 24.235000610352 160 160 160
21.625000000000 21.000000000000 24.169000625610 160 160 160
21.625000000000 21.000000000000 24.099000930786 161 161 161
21.625000000000 21.000000000000 24.031000137329 168 168 168
21.687500000000 21.062500000000 23.944000244141 164 164 164
21.750000000000 21.000000000000 23.855001449585 160 160 160
21.750000000000 21.000000000000 23.778999328613 148 148 148
21.750000000000 21.000000000000 23.708000183105 151 151 151
21.750000000000 20.875000000000 24.692001342773 66 66 66
21.687500000000 20.937500000000 24.645000457764 159 159 159
21.500000000000 21.000000000000 24.610000610352 173 173 173
21.500000000000 21.000000000000 24.545000076294 166 166 166
21.500000000000 21.000000000000 24.483001708984 163 163 163
21.687500000000 21.000000000000 24.386001586914 147 147 147
21.687500000000 20.937500000000 24.313001632690 157 157 157
21.687500000000 20.937500000000 24.244001388550 163 163 163
21.687500000000 20.937500000000 24.177999496460 159 159 159
21.687500000000 20.937500000000 24.108001708984 158 158 158
21.687500000000 21.000000000000 24.044000625610 150 150 150
21.687500000000 20.937500000000 23.956001281738 154 154 154
21.812500000000 20.812500000000 23.839000701904 116 116 116
21.750000000000 20.875000000000 23.784999847412 98 98 98
21.750000000000 20.875000000000 23.718000411987 96 96 96
22.125000000000 20.562500000000 24.621000289917 165 165 165
21.625000000000 20.812500000000 24.652000427246 140 140 140
21.500000000000 20.875000000000 24.615001678467 166 166 166
21.500000000000 20.875000000000 24.551000595093 162 162 162
21.500000000000 20.875000000000 24.488000869751 164 164 164
21.562500000000 20.812500000000 24.390001296997 160 160 160
21.625000000000 20.812500000000 24.318000793457 164 164 164
21.562500000000 20.812500000000 24.255001068115 163 163 163
21.562500000000 20.812500000000 24.188001632690 164 164 164
21.562500000000 20.812500000000 24.118000030518 164 164 164
21.562500000000 20.812500000000 24.051000595093 163 163 163
21.562500000000 20.812500000000 23.982000350952 156 156 156
22.125000000000 20.500000000000 24.628000259399 167 167 167
22.062500000000 20.500000000000 24.559000015259 162 162 162
21.500000000000 20.750000000000 24.621000289917 162 162 162
21.500000000000 20.812500000000 24.558000564575 158 158 158
21.500000000000 20.812500000000 24.493000030518 158 158 158
22.062500000000 20.312500000000 24.631999969482 208 208 208
22.062500000000 20.312500000000 24.562000274658 216 216 216
21.562500000000 20.687500000000 24.625000000000 165 165 165
21.562500000000 20.687500000000 24.563001632690 164 164 164
21.562500000000 20.687500000000 24.498001098633 164 164 164
22.062500000000 20.187500000000 24.638999938965 194 194 194
22.062500000000 20.250000000000 24.576000213623 197 197 197
21.437500000000 20.500000000000 24.630001068115 167 167 167
21.437500000000 20.500000000000 24.564001083374 164 164 164
21.437500000000 20.500000000000 24.503000259399 165 165 165
22.062500000000 20.125000000000 24.642999649048 181 181 181
22.062500000000 20.125000000000 24.572999954224 219 219 219
21.500000000000 20.375000000000 24.629001617432 219 219 219
21.437500000000 20.375000000000 24.567001342773 219 219 219
21.437500000000 20.375000000000 24.504001617432 218 218 218
22.062500000000 20.000000000000 24.653999328613 143 143 143
22.062500000000 20.000000000000 24.582000732422 218 218 218
21.500000000000 20.250000000000 24.631000518799 224 224 224
21.437500000000 20.250000000000 24.575000762939 217 217 217
21.437500000000 20.250000000000 24.509000778198 218 218 218
22.062500000000 19.937500000000 24.655000686646 52 52 52
21.937500000000 19.875000000000 24.588001251221 218 218 218
21.500000000000 20.125000000000 24.629001617432 239 239 239
21.437500000000 20.187500000000 24.578001022339 218 218 218
21.437500000000 20.187500000000 24.516000747681 216 216 216
22.000000000000 19.750000000000 24.596000671387 218 218 218
22.000000000000 19.750000000000 24.527000427246 208 208 208
21.437500000000 20.062500000000 24.584001541138 217 217 217
21.437500000000 20.062500000000 24.520000457764 216 216 216
21.937500000000 19.687500000000 24.606000900269 217 217 217
21.937500000000 19.625000000000 24.531000137329 216 216 216
21.437500000000 19.875000000000 24.591001510620 217 217 217
21.437500000000 19.875000000000 24.527999877930 215 215 215
21.937500000000 19.562500000000 24.615001678467 206 206 206
22.000000000000 19.562500000000 24.542999267578 220 220 220
21.437500000000 19.812500000000 24.598001480103 217 217 217
21.437500000000 19.812500000000 24.534999847412 217 217 217
21.875000000000 19.437500000000 24.626001358032 203 203 203
21.875000000000 19.437500000000 24.556001663208 221 221 221
21.437500000000 19.687500000000 24.603000640869 218 218 218
21.437500000000 19.687500000000 24.539999008179 219 219 219
21.437500000000 19.687500000000 24.482000350952 93 93 93
21.875000000000 19.312500000000 24.634000778198 211 211 211
21.875000000000 19.312500000000 24.567001342773 166 166 166
21.500000000000 19.562500000000 24.609001159668 220 220 220
21.500000000000 19.562500000000 24.546998977661 218 218 218
21.500000000000 19.562500000000 24.484001159668 121 121 121
21.937500000000 19.187500000000 24.641000747681 211 211 211
21.875000000000 19.187500000000 24.576000213623 199 199 199
21.437500000000 19.437500000000 24.612001419067 223 223 223
21.375000000000 19.437500000000 24.552999496460 218 218 218
21.375000000000 19.437500000000 24.491001129150 151 151 151
21.812500000000 19.125000000000 24.652000427246 180 180 180
21.812500000000 19.062500000000 24.582000732422 221 221 221
21.375000000000 19.312500000000 24.620000839233 219 219 219
21.375000000000 19.312500000000 24.559000015259 216 216 216
21.375000000000 19.312500000000 24.498001098633 171 171 171
21.875000000000 19.000000000000 24.656000137329 149 149 149
21.875000000000 19.000000000000 24.592000961304 220 220 220
21.437500000000 19.187500000000 24.620000839233 225 225 225
21.375000000000 19.187500000000 24.562000274658 217 217 217
21.375000000000 19.187500000000 24.502000808716 175 175 175
21.812500000000 18.812500000000 24.663000106812 46 46 46
21.812500000000 18.812500000000 24.598001480103 224 224 224
21.375000000000 19.062500000000 24.627000808716 221 221 221
21.375000000000 19.062500000000 24.565999984741 214 214 214
21.375000000000 19.062500000000 24.506000518799 193 193 193
21.750000000000 18.750000000000 24.608001708984 219 219 219
21.375000000000 18.937500000000 24.630001068115 223 223 223
21.375000000000 18.937500000000 24.570001602173 217 217 217
21.375000000000 18.937500000000 24.508001327515 198 198 198
21.750000000000 18.625000000000 24.617000579834 220 220 220
21.375000000000 18.812500000000 24.635000228882 217 217 217
21.375000000000 18.812500000000 24.571001052856 217 217 217
21.375000000000 18.812500000000 24.513999938965 209 209 209
21.687500000000 18.562500000000 24.625000000000 213 213 213
21.375000000000 18.687500000000 24.638999938965 217 217 217
21.375000000000 18.687500000000 24.577001571655 216 216 216
21.375000000000 18.687500000000 24.516000747681 208 208 208
21.687500000000 18.375000000000 24.635000228882 210 210 210
21.375000000000 18.562500000000 24.641000747681 218 218 218
21.375000000000 18.562500000000 24.583000183105 215 215 215
21.375000000000 18.562500000000 24.520999908447 209 209 209
21.687500000000 18.312500000000 24.645000457764 202 202 202
21.375000000000 18.500000000000 24.645000457764 214 214 214
21.375000000000 18.500000000000 24.588001251221 216 216 216
21.375000000000 18.500000000000 24.523000717163 216 216 216
21.625000000000 18.187500000000 24.656000137329 196 196 196
21.437500000000 18.312500000000 24.642999649048 220 220 220
21.375000000000 18.312500000000 24.592000961304 215 215 215
21.375000000000 18.312500000000 24.531999588013 214 214 214
21.625000000000 18.062500000000 24.666999816895 129 129 129
21.500000000000 18.125000000000 24.638000488281 219 219 219
21.437500000000 18.187500000000 24.599000930786 214 214 214
21.437500000000 18.187500000000 24.534999847412 218 218 218
21.625000000000 17.937500000000 24.674999237061 25 25 25
21.500000000000 18.000000000000 24.633001327515 219 219 219
21.375000000000 18.062500000000 24.603000640869 216 216 216
21.375000000000 18.125000000000 24.541999816895 215 215 215
21.562500000000 17.875000000000 24.631999969482 217 217 217
21.375000000000 17.937500000000 24.607000350952 214 214 214
21.375000000000 17.937500000000 24.545999526978 218 218 218
21.437500000000 17.687500000000 24.638999938965 215 215 215
21.375000000000 17.812500000000 24.613000869751 216 216 216
21.375000000000 17.812500000000 24.551000595093 216 216 216
21.500000000000 17.687500000000 24.645000457764 202 202 202
21.375000000000 17.687500000000 24.615001678467 216 216 216
21.375000000000 17.687500000000 24.554000854492 216 216 216
21.437500000000 17.500000000000 24.648000717163 211 211 211
21.312500000000 17.562500000000 24.619001388550 215 215 215
21.375000000000 17.562500000000 24.556999206543 218 218 218
21.500000000000 17.375000000000 24.656000137329 195 195 195
21.312500000000 17.437500000000 24.622001647949 219 219 219
21.312500000000 17.437500000000 24.561000823975 215 215 215
21.437500000000 17.312500000000 24.666999816895 133 133 133
21.312500000000 17.375000000000 24.627000808716 216 216 216
21.312500000000 17.375000000000 24.568000793457 213 213 213
21.437500000000 17.125000000000 24.670000076294 151 151 151
21.312500000000 17.187500000000 24.631000518799 221 221 221
21.312500000000 17.187500000000 24.572000503540 213 213 213
21.437500000000 17.125000000000 24.683000564575 93 93 93
21.375000000000 17.125000000000 24.637001037598 226 226 226
21.375000000000 17.125000000000 24.578001022339 215 215 215
21.375000000000 17.125000000000 24.519001007080 100 100 100
21.312500000000 17.000000000000 24.829000473022 148 148 148
21.312500000000 17.000000000000 24.767999649048 154 154 154
21.312500000000 17.000000000000 24.711000442505 161 161 161
21.312500000000 17.000000000000 24.649000167847 173 173 173
21.312500000000 17.000000000000 24.589000701904 198 198 198
21.312500000000 16.937500000000 24.523000717163 161 161 161
21.312500000000 16.812500000000 24.776000976563 42 42 42
21.312500000000 16.812500000000 24.719001770020 63 63 63
22.312500000000 21.562500000000 24.618000030518 143 143 143
22.312500000000 21.562500000000 24.544000625610 151 151 151
22.312500000000 21.562500000000 24.467000961304 148 148 148
22.375000000000 21.437500000000 24.623001098633 137 137 137
22.375000000000 21.437500000000 24.548000335693 149 149 149
22.312500000000 21.437500000000 24.474000930786 153 153 153
22.375000000000 21.375000000000 24.628000259399 128 128 128
22.375000000000 21.375000000000 24.554000854492 154 154 154
22.437500000000 21.312500000000 24.467000961304 127 127 127
21.437500000000 21.812500000000 24.611000061035 157 157 157
21.437500000000 21.812500000000 24.548000335693 161 161 161
21.437500000000 21.812500000000 24.485000610352 162 162 162
21.437500000000 21.812500000000 24.419000625610 87 87 87
22.312500000000 21.187500000000 24.635000228882 130 130 130
22.312500000000 21.187500000000 24.562000274658 149 149 149
22.375000000000 21.125000000000 24.474000930786 140 140 140
21.437500000000 21.625000000000 24.620000839233 167 167 167
21.437500000000 21.625000000000 24.556999206543 155 155 155
21.437500000000 21.625000000000 24.493000030518 166 166 166
21.500000000000 21.562500000000 24.409000396729 200 200 200
22.187500000000 21.062500000000 24.583000183105 173 173 173
22.250000000000 21.125000000000 24.508001327515 169 169 169
21.375000000000 21.500000000000 24.630001068115 162 162 162
21.375000000000 21.500000000000 24.565999984741 161 161 161
21.375000000000 21.500000000000 24.503000259399 163 163 163
21.375000000000 21.500000000000 24.437000274658 155 155 155
21.812500000000 21.187500000000 24.674999237061 100 100 100
21.687500000000 21.187500000000 24.625000000000 113 113 113
21.500000000000 21.312500000000 24.616001129150 159 159 159
21.500000000000 21.312500000000 24.554000854492 163 163 163
21.500000000000 21.312500000000 24.489000320435 163 163 163
21.687500000000 21.187500000000 24.353000640869 107 107 107
21.687500000000 21.250000000000 24.284999847412 114 114 114
21.687500000000 21.187500000000 24.215000152588 109 109 109
21.687500000000 21.250000000000 24.145999908447 104 104 104
21.687500000000 21.250000000000 24.077001571655 109 109 109
21.687500000000 21.187500000000 24.003000259399 109 109 109
22.187500000000 21.000000000000 23.619001388550 185 185 185
21.750000000000 21.000000000000 24.690000534058 73 73 73
21.687500000000 21.062500000000 24.644001007080 158 158 158
21.500000000000 21.125000000000 24.615001678467 124 124 124
21.500000000000 21.125000000000 24.549999237061 119 119 119
21.500000000000 21.125000000000 24.486000061035 120 120 120
21.687500000000 21.062500000000 24.377000808716 154 154 154
21.687500000000 21.062500000000 24.309000015259 154 154 154
21.687500000000 21.062500000000 24.241001129150 155 155 155
21.687500000000 21.062500000000 24.173000335693 160 160 160
21.687500000000 21.062500000000 24.105001449585 158 158 158
21.687500000000 21.062500000000 24.034999847412 154 154 154
21.687500000000 21.062500000000 23.956001281738 140 140 140
21.750000000000 21.000000000000 23.844001770020 102 102 102
21.750000000000 21.000000000000 23.774999618530 104 104 104
21.750000000000 21.000000000000 23.700000762939 96 96 96
21.750000000000 20.875000000000 24.694000244141 63 63 63
21.687500000000 20.937500000000 24.653999328613 156 156 156
21.500000000000 21.000000000000 24.618000030518 166 166 166
21.500000000000 21.000000000000 24.551000595093 163 163 163
21.500000000000 21.000000000000 24.488000869751 159 159 159
21.687500000000 21.000000000000 24.392000198364 131 131 131
21.687500000000 20.937500000000 24.320001602173 160 160 160
21.687500000000 21.000000000000 24.254001617432 161 161 161
21.687500000000 20.937500000000 24.181999206543 159 159 159
21.687500000000 21.000000000000 24.118000030518 157 157 157
21.687500000000 21.000000000000 24.051000595093 144 144 144
21.687500000000 20.937500000000 23.969001770020 115 115 115
21.750000000000 20.937500000000 23.874000549316 105 105 105
21.750000000000 20.937500000000 23.802999496460 104 104 104
21.750000000000 20.937500000000 23.726001739502 104 104 104
22.125000000000 20.562500000000 24.630001068115 161 161 161
21.625000000000 20.750000000000 24.652999877930 145 145 145
21.500000000000 20.812500000000 24.623001098633 158 158 158
21.500000000000 20.812500000000 24.558000564575 158 158 158
21.500000000000 20.812500000000 24.495000839233 161 161 161
21.625000000000 20.812500000000 24.395000457764 154 154 154
21.625000000000 20.812500000000 24.328001022339 153 153 153
21.625000000000 20.812500000000 24.260000228882 157 157 157
21.625000000000 20.812500000000 24.194000244141 160 160 160
21.562500000000 20.812500000000 24.128000259399 158 158 158
21.562500000000 20.812500000000 24.059000015259 160 160 160
21.562500000000 20.812500000000 23.990001678467 152 152 152
22.062500000000 20.437500000000 24.638999938965 162 162 162
22.062500000000 20.437500000000 24.567001342773 152 152 152
21.500000000000 20.687500000000 24.631000518799 156 156 156
21.500000000000 20.687500000000 24.564001083374 157 157 157
21.500000000000 20.687500000000 24.504001617432 159 159 159
22.062500000000 20.312500000000 24.642000198364 181 181 181
22.062500000000 20.312500000000 24.575000762939 185 185 185
21.437500000000 20.500000000000 24.634000778198 157 157 157
21.437500000000 20.500000000000 24.570001602173 163 163 163
21.437500000000 20.500000000000 24.508001327515 157 157 157
22.062500000000 20.125000000000 24.648000717163 172 172 172
22.062500000000 20.125000000000 24.578001022339 218 218 218
21.437500000000 20.375000000000 24.638000488281 198 198 198
21.437500000000 20.375000000000 24.575000762939 202 202 202
21.437500000000 20.375000000000 24.511001586914 198 198 198
22.062500000000 20.000000000000 24.655000686646 132 132 132
22.062500000000 20.000000000000 24.583000183105 218 218 218
21.500000000000 20.250000000000 24.637001037598 221 221 221
21.437500000000 20.187500000000 24.579999923706 210 210 210
21.437500000000 20.187500000000 24.515001296997 214 214 214
22.000000000000 19.812500000000 24.659000396729 51 51 51
21.937500000000 19.812500000000 24.594001770020 217 217 217
21.500000000000 20.125000000000 24.637001037598 226 226 226
21.375000000000 20.062500000000 24.585000991821 212 212 212
21.437500000000 20.187500000000 24.520999908447 213 213 213
21.937500000000 19.750000000000 24.602001190186 217 217 217
21.562500000000 19.937500000000 24.631000518799 248 248 248
21.500000000000 19.937500000000 24.589000701904 214 214 214
21.437500000000 20.000000000000 24.527000427246 210 210 210
21.937500000000 19.562500000000 24.613000869751 212 212 212
22.000000000000 19.562500000000 24.537000656128 209 209 209
21.437500000000 19.875000000000 24.595001220703 215 215 215
21.437500000000 19.875000000000 24.531999588013 212 212 212
21.875000000000 19.437500000000 24.625000000000 200 200 200
21.875000000000 19.437500000000 24.558000564575 218 218 218
21.437500000000 19.687500000000 24.604000091553 215 215 215
21.437500000000 19.687500000000 24.544000625610 211 211 211
21.875000000000 19.312500000000 24.637001037598 206 206 206
21.875000000000 19.312500000000 24.570001602173 160 160 160
21.437500000000 19.500000000000 24.614000320435 214 214 214
21.437500000000 19.500000000000 24.549999237061 212 212 212
21.437500000000 19.500000000000 24.490001678467 87 87 87
21.875000000000 19.125000000000 24.649999618530 196 196 196
21.875000000000 19.125000000000 24.582000732422 215 215 215
21.437500000000 19.375000000000 24.621000289917 214 214 214
21.437500000000 19.375000000000 24.560001373291 208 208 208
21.437500000000 19.375000000000 24.500000000000 151 151 151
21.812500000000 19.000000000000 24.659999847412 147 147 147
21.812500000000 19.000000000000 24.594001770020 215 215 215
21.375000000000 19.187500000000 24.626001358032 217 217 217
21.375000000000 19.187500000000 24.565999984741 206 206 206
21.375000000000 19.187500000000 24.505001068115 180 180 180
21.812500000000 18.812500000000 24.666999816895 29 29 29
21.750000000000 18.875000000000 24.605001449585 218 218 218
21.375000000000 19.062500000000 24.635000228882 212 212 212
21.375000000000 19.062500000000 24.574001312256 211 211 211
21.375000000000 19.062500000000 24.510000228882 193 193 193
21.750000000000 18.750000000000 24.616001129150 217 217 217
21.375000000000 18.937500000000 24.640001296997 210 210 210
21.375000000000 18.937500000000 24.578001022339 211 211 211
21.375000000000 18.937500000000 24.517000198364 202 202 202
21.750000000000 18.562500000000 24.625000000000 212 212 212
21.375000000000 18.812500000000 24.642999649048 213 213 213
21.375000000000 18.812500000000 24.584001541138 210 210 210
21.375000000000 18.812500000000 24.520999908447 207 207 207
21.687500000000 18.500000000000 24.636001586914 208 208 208
21.437500000000 18.625000000000 24.645999908447 213 213 213
21.437500000000 18.625000000000 24.585000991821 213 213 213
21.375000000000 18.625000000000 24.526000976563 207 207 207
21.687500000000 18.312500000000 24.646999359131 197 197 197
21.375000000000 18.500000000000 24.648000717163 213 213 213
21.375000000000 18.500000000000 24.590000152588 211 211 211
21.375000000000 18.500000000000 24.528999328613 210 210 210
21.625000000000 18.187500000000 24.655000686646 202 202 202
21.375000000000 18.312500000000 24.651000976563 210 210 210
21.375000000000 18.312500000000 24.593000411987 211 211 211
21.375000000000 18.312500000000 24.531999588013 211 211 211
21.625000000000 18.062500000000 24.664999008179 170 170 170
21.437500000000 18.125000000000 24.651000976563 213 213 213
21.375000000000 18.125000000000 24.599000930786 211 211 211
21.375000000000 18.125000000000 24.537000656128 211 211 211
21.562500000000 17.937500000000 24.673999786377 52 52 52
21.437500000000 17.937500000000 24.645999908447 211 211 211
21.375000000000 18.000000000000 24.604000091553 211 211 211
21.375000000000 18.000000000000 24.541000366211 214 214 214
21.500000000000 17.812500000000 24.638999938965 214 214 214
21.312500000000 17.812500000000 24.609001159668 214 214 214
21.312500000000 17.812500000000 24.549999237061 212 212 212
21.500000000000 17.687500000000 24.645999908447 204 204 204
21.312500000000 17.687500000000 24.618000030518 213 213 213
21.437500000000 17.750000000000 24.554000854492 213 213 213
21.437500000000 17.500000000000 24.653999328613 211 211 211
21.312500000000 17.562500000000 24.625000000000 212 212 212
21.312500000000 17.562500000000 24.565999984741 212 212 212
21.437500000000 17.375000000000 24.666999816895 178 178 178
21.312500000000 17.437500000000 24.633001327515 211 211 211
21.312500000000 17.437500000000 24.572999954224 212 212 212
21.437500000000 17.250000000000 24.679000854492 85 85 85
21.312500000000 17.312500000000 24.642999649048 207 207 207
21.375000000000 17.312500000000 24.581001281738 209 209 209
21.312500000000 17.312500000000 24.526000976563 96 96 96
21.437500000000 17.125000000000 24.686000823975 68 68 68
21.375000000000 17.187500000000 24.649000167847 213 213 213
21.375000000000 17.187500000000 24.586000442505 215 215 215
21.375000000000 17.187500000000 24.526000976563 132 132 132
21.312500000000 17.000000000000 24.831001281738 53 53 53
21.312500000000 17.000000000000 24.774999618530 150 150 150
21.312500000000 17.000000000000 24.716001510620 149 149 149
21.312500000000 17.000000000000 24.652999877930 210 210 210
21.312500000000 17.000000000000 24.592000961304 212 212 212
21.312500000000 17.000000000000 24.530000686646 163 163 163
21.250000000000 16.812500000000 24.784000396729 106 106 106
21.312500000000 16.812500000000 24.722000122070 103 103 103
21.437500000000 21.625000000000 24.413999557495 38 38 38
21.437500000000 21.625000000000 24.478000640869 149 149 149
21.437500000000 21.625000000000 24.544000625610 128 128 128
21.437500000000 21.625000000000 24.607000350952 132 132 132
21.437500000000 21.687500000000 24.664999008179 98 98 98
21.375000000000 21.437500000000 24.427000045776 60 60 60
21.375000000000 21.500000000000 24.489000320435 137 137 137
21.375000000000 21.500000000000 24.552999496460 135 135 135
21.375000000000 21.500000000000 24.612001419067 143 143 143
21.375000000000 21.500000000000 24.670999526978 84 84 84
21.437500000000 21.375000000000 24.471000671387 125 125 125
21.437500000000 21.375000000000 24.534999847412 126 126 126
21.437500000000 21.375000000000 24.600000381470 131 131 131
21.437500000000 21.187500000000 24.471000671387 155 155 155
21.437500000000 21.187500000000 24.538999557495 181 181 181
21.437500000000 21.187500000000 24.602001190186 175 175 175
21.625000000000 21.125000000000 24.082000732422 62 62 62
21.687500000000 21.187500000000 24.145000457764 47 47 47
21.500000000000 21.125000000000 24.470001220703 177 177 177
21.500000000000 21.125000000000 24.537000656128 174 174 174
21.500000000000 21.125000000000 24.604000091553 178 178 178
22.375000000000 21.687500000000 24.440999984741 132 132 132
22.375000000000 21.687500000000 24.519001007080 149 149 149
22.437500000000 21.687500000000 24.595001220703 161 161 161
21.625000000000 21.000000000000 24.016000747681 142 142 142
21.625000000000 21.000000000000 24.089000701904 141 141 141
21.625000000000 21.000000000000 24.156000137329 143 143 143
21.625000000000 21.000000000000 24.226001739502 142 142 142
21.625000000000 21.000000000000 24.295000076294 141 141 141
21.625000000000 21.000000000000 24.362001419067 143 143 143
21.437500000000 20.937500000000 24.476001739502 127 127 127
21.437500000000 20.937500000000 24.538999557495 145 145 145
21.437500000000 20.937500000000 24.604000091553 135 135 135
21.625000000000 21.000000000000 24.635000228882 145 145 145
21.687500000000 21.062500000000 24.687000274658 105 105 105
22.375000000000 21.500000000000 24.614000320435 123 123 123
21.750000000000 20.937500000000 23.703001022339 138 138 138
21.750000000000 20.937500000000 23.777000427246 132 132 132
21.750000000000 20.937500000000 23.849000930786 137 137 137
21.687500000000 20.875000000000 23.939001083374 143 143 143
21.562500000000 20.812500000000 24.038999557495 140 140 140
21.562500000000 20.812500000000 24.105001449585 145 145 145
21.562500000000 20.812500000000 24.170999526978 144 144 144
21.562500000000 20.812500000000 24.241001129150 138 138 138
21.562500000000 20.812500000000 24.308000564575 141 141 141
21.562500000000 20.812500000000 24.377000808716 142 142 142
21.500000000000 20.812500000000 24.486000061035 131 131 131
21.500000000000 20.812500000000 24.548999786377 135 135 135
21.500000000000 20.812500000000 24.613000869751 133 133 133
21.625000000000 20.875000000000 24.644001007080 143 143 143
21.687500000000 20.937500000000 24.693000793457 69 69 69
22.312500000000 21.312500000000 24.625000000000 120 120 120
21.875000000000 20.812500000000 23.788999557495 146 146 146
21.812500000000 20.812500000000 23.874000549316 131 131 131
21.687500000000 20.687500000000 24.026000976563 140 140 140
21.687500000000 20.687500000000 24.095001220703 140 140 140
21.687500000000 20.687500000000 24.159000396729 148 148 148
21.687500000000 20.687500000000 24.232000350952 138 138 138
21.687500000000 20.687500000000 24.298000335693 141 141 141
21.687500000000 20.687500000000 24.366001129150 141 141 141
21.500000000000 20.562500000000 24.494001388550 144 144 144
21.500000000000 20.562500000000 24.556999206543 148 148 148
21.500000000000 20.562500000000 24.623001098633 143 143 143
21.687500000000 20.750000000000 24.631000518799 139 139 139
21.750000000000 20.812500000000 24.686000823975 111 111 111
22.250000000000 21.125000000000 24.638999938965 65 65 65
21.875000000000 20.687500000000 24.024000167847 136 136 136
21.875000000000 20.687500000000 24.097000122070 140 140 140
21.875000000000 20.687500000000 24.164999008179 134 134 134
21.875000000000 20.687500000000 24.239000320435 134 134 134
21.875000000000 20.687500000000 24.310001373291 140 140 140
21.437500000000 20.437500000000 24.504001617432 178 178 178
21.437500000000 20.437500000000 24.569000244141 179 179 179
21.500000000000 20.437500000000 24.629001617432 175 175 175
21.937500000000 20.750000000000 24.584001541138 142 142 142
21.937500000000 20.750000000000 24.652999877930 137 137 137
21.437500000000 20.250000000000 24.512001037598 203 203 203
21.437500000000 20.250000000000 24.575000762939 199 199 199
21.437500000000 20.250000000000 24.638000488281 194 194 194
22.125000000000 20.687500000000 24.534000396729 104 104 104
22.062500000000 20.625000000000 24.611000061035 117 117 117
21.375000000000 20.062500000000 24.517000198364 205 205 205
21.375000000000 20.062500000000 24.581001281738 204 204 204
21.375000000000 20.062500000000 24.644001007080 188 188 188
22.062500000000 20.500000000000 24.548000335693 112 112 112
22.062500000000 20.500000000000 24.620000839233 116 116 116
21.437500000000 19.937500000000 24.524000167847 202 202 202
21.437500000000 19.937500000000 24.587001800537 204 204 204
21.500000000000 19.937500000000 24.638000488281 231 231 231
22.000000000000 20.312500000000 24.558000564575 186 186 186
22.062500000000 20.312500000000 24.627000808716 181 181 181
21.437500000000 19.750000000000 24.531000137329 202 202 202
21.437500000000 19.750000000000 24.594001770020 201 201 201
22.062500000000 20.125000000000 24.490001678467 187 187 187
22.000000000000 20.125000000000 24.568000793457 192 192 192
22.000000000000 20.125000000000 24.638000488281 192 192 192
21.437500000000 19.562500000000 24.537000656128 200 200 200
21.437500000000 19.562500000000 24.598001480103 201 201 201
22.062500000000 20.000000000000 24.499000549316 191 191 191
21.937500000000 19.937500000000 24.578001022339 200 200 200
22.062500000000 20.000000000000 24.642999649048 149 149 149
21.375000000000 19.375000000000 24.541999816895 203 203 203
21.375000000000 19.375000000000 24.605001449585 204 204 204
22.000000000000 19.750000000000 24.520000457764 199 199 199
22.000000000000 19.750000000000 24.591001510620 199 199 199
22.000000000000 19.750000000000 24.657999038696 61 61 61
21.312500000000 19.187500000000 24.549999237061 195 195 195
21.312500000000 19.187500000000 24.613000869751 196 196 196
21.937500000000 19.562500000000 24.534000396729 199 199 199
21.937500000000 19.562500000000 24.603000640869 198 198 198
21.375000000000 19.062500000000 24.494001388550 67 67 67
21.375000000000 19.062500000000 24.556001663208 203 203 203
21.375000000000 19.062500000000 24.619001388550 203 203 203
21.875000000000 19.375000000000 24.548999786377 199 199 199
21.875000000000 19.437500000000 24.616001129150 194 194 194
21.375000000000 18.875000000000 24.499000549316 94 94 94
21.375000000000 18.875000000000 24.562000274658 202 202 202
21.375000000000 18.875000000000 24.622001647949 208 208 208
21.875000000000 19.250000000000 24.564001083374 126 126 126
21.875000000000 19.250000000000 24.630001068115 185 185 185
21.312500000000 18.750000000000 24.506000518799 165 165 165
21.312500000000 18.750000000000 24.569000244141 205 205 205
21.312500000000 18.750000000000 24.631999969482 204 204 204
21.812500000000 19.062500000000 24.577001571655 199 199 199
21.812500000000 19.062500000000 24.642999649048 188 188 188
21.312500000000 18.562500000000 24.513000488281 184 184 184
21.312500000000 18.562500000000 24.572999954224 202 202 202
21.312500000000 18.562500000000 24.634000778198 207 207 207
21.750000000000 18.875000000000 24.590000152588 200 200 200
21.750000000000 18.875000000000 24.652999877930 162 162 162
21.375000000000 18.437500000000 24.517999649048 191 191 191
21.375000000000 18.437500000000 24.579000473022 201 201 201
21.375000000000 18.437500000000 24.641000747681 204 204 204
21.687500000000 18.687500000000 24.605001449585 198 198 198
21.750000000000 18.750000000000 24.664999008179 48 48 48
21.375000000000 18.250000000000 24.521999359131 191 191 191
21.375000000000 18.250000000000 24.583000183105 202 202 202
21.375000000000 18.250000000000 24.645000457764 203 203 203
21.625000000000 18.500000000000 24.620000839233 196 196 196
21.312500000000 18.125000000000 24.527000427246 192 192 192
21.312500000000 18.125000000000 24.588001251221 205 205 205
21.312500000000 18.125000000000 24.648000717163 204 204 204
21.687500000000 18.312500000000 24.633001327515 192 192 192
21.312500000000 17.937500000000 24.531000137329 195 195 195
21.375000000000 17.937500000000 24.588001251221 206 206 206
21.312500000000 17.937500000000 24.651000976563 200 200 200
21.625000000000 18.125000000000 24.645000457764 187 187 187
21.375000000000 17.812500000000 24.532999038696 200 200 200
21.375000000000 17.812500000000 24.594001770020 201 201 201
21.375000000000 17.812500000000 24.656000137329 197 197 197
21.562500000000 17.937500000000 24.657999038696 185 185 185
21.312500000000 17.625000000000 24.535999298096 202 202 202
21.312500000000 17.625000000000 24.598001480103 206 206 206
21.312500000000 17.625000000000 24.656000137329 198 198 198
21.500000000000 17.687500000000 24.673000335693 124 124 124
21.312500000000 17.500000000000 24.544000625610 203 203 203
21.312500000000 17.500000000000 24.607000350952 201 201 201
21.312500000000 17.437500000000 24.656999588013 192 192 192
21.312500000000 17.312500000000 24.552000045776 196 196 196
21.312500000000 17.312500000000 24.615001678467 200 200 200
21.375000000000 17.312500000000 24.653999328613 193 193 193
21.375000000000 17.187500000000 24.561000823975 203 203 203
21.375000000000 17.187500000000 24.622001647949 203 203 203
21.375000000000 17.187500000000 24.666999816895 144 144 144
21.312500000000 16.937500000000 24.570001602173 200 200 200
21.312500000000 16.937500000000 24.633001327515 183 183 183
21.312500000000 16.937500000000 24.696001052856 131 131 131
21.312500000000 16.937500000000 24.756000518799 126 126 126
21.312500000000 16.937500000000 24.815999984741 136 136 136
21.437500000000 16.812500000000 24.552000045776 168 168 168
21.437500000000 16.812500000000 24.615001678467 155 155 155
21.437500000000 16.812500000000 24.673999786377 98 98 98
21.312500000000 16.812500000000 24.741001129150 63 63 63
21.375000000000 16.812500000000 24.798999786377 64 64 64
21.375000000000 21.750000000000 24.651000976563 165 165 165
21.375000000000 21.750000000000 24.598001480103 183 183 183
21.375000000000 21.750000000000 24.542999267578 163 163 163
21.375000000000 21.750000000000 24.486000061035 189 189 189
21.375000000000 21.750000000000 24.430000305176 178 178 178
22.375000000000 21.625000000000 24.613000869751 163 163 163
22.375000000000 21.687500000000 24.548999786377 179 179 179
21.437500000000 21.562500000000 24.656000137329 151 151 151
21.375000000000 21.625000000000 24.607000350952 186 186 186
21.375000000000 21.625000000000 24.552000045776 180 180 180
21.375000000000 21.625000000000 24.497001647949 183 183 183
21.375000000000 21.625000000000 24.440999984741 184 184 184
22.375000000000 21.437500000000 24.621000289917 157 157 157
22.375000000000 21.437500000000 24.558000564575 182 182 182
22.312500000000 21.500000000000 24.494001388550 183 183 183
21.437500000000 21.437500000000 24.597000122070 180 180 180
21.437500000000 21.437500000000 24.542999267578 181 181 181
21.437500000000 21.437500000000 24.487001419067 178 178 178
22.312500000000 21.312500000000 24.631999969482 84 84 84
22.312500000000 21.312500000000 24.567001342773 178 178 178
22.312500000000 21.312500000000 24.501001358032 184 184 184
21.437500000000 21.250000000000 24.606000900269 184 184 184
21.437500000000 21.250000000000 24.552000045776 185 185 185
21.437500000000 21.250000000000 24.495000839233 181 181 181
21.437500000000 21.312500000000 24.445001602173 66 66 66
22.312500000000 21.187500000000 24.637001037598 60 60 60
21.750000000000 21.125000000000 24.674999237061 133 133 133
21.625000000000 21.125000000000 24.627000808716 172 172 172
21.500000000000 21.125000000000 24.601001739502 168 168 168
21.500000000000 21.125000000000 24.544000625610 170 170 170
21.500000000000 21.125000000000 24.488000869751 167 167 167
21.625000000000 21.125000000000 24.395000457764 170 170 170
21.625000000000 21.125000000000 24.335000991821 167 167 167
21.625000000000 21.125000000000 24.274999618530 168 168 168
21.625000000000 21.125000000000 24.216001510620 170 170 170
21.625000000000 21.125000000000 24.153999328613 171 171 171
21.625000000000 21.125000000000 24.096000671387 172 172 172
21.625000000000 21.125000000000 24.037000656128 169 169 169
21.625000000000 21.125000000000 23.977001190186 167 167 167
21.687500000000 20.937500000000 24.684000015259 131 131 131
21.625000000000 21.000000000000 24.641000747681 173 173 173
21.500000000000 21.000000000000 24.604000091553 185 185 185
21.500000000000 21.000000000000 24.548000335693 183 183 183
21.500000000000 21.000000000000 24.491001129150 183 183 183
21.687500000000 21.000000000000 24.402000427246 166 166 166
21.687500000000 21.000000000000 24.344001770020 175 175 175
21.687500000000 21.000000000000 24.284000396729 174 174 174
21.687500000000 21.000000000000 24.226001739502 168 168 168
21.687500000000 21.000000000000 24.166000366211 167 167 167
21.687500000000 21.000000000000 24.103000640869 165 165 165
21.625000000000 21.000000000000 24.048999786377 169 169 169
21.687500000000 21.000000000000 23.984001159668 135 135 135
21.687500000000 20.937500000000 23.888000488281 156 156 156
21.687500000000 20.937500000000 23.824001312256 136 136 136
21.687500000000 20.937500000000 23.763999938965 134 134 134
21.687500000000 20.937500000000 23.702001571655 138 138 138
21.687500000000 20.812500000000 24.689001083374 115 115 115
21.562500000000 20.812500000000 24.641000747681 180 180 180
21.500000000000 20.812500000000 24.608001708984 176 176 176
21.500000000000 20.812500000000 24.552999496460 188 188 188
21.437500000000 20.812500000000 24.499000549316 196 196 196
21.562500000000 20.812500000000 24.409000396729 169 169 169
21.562500000000 20.812500000000 24.351001739502 167 167 167
21.562500000000 20.812500000000 24.294000625610 168 168 168
21.562500000000 20.812500000000 24.234001159668 168 168 168
21.562500000000 20.812500000000 24.173999786377 168 168 168
21.562500000000 20.812500000000 24.117000579834 169 169 169
21.562500000000 20.812500000000 24.054000854492 170 170 170
21.562500000000 20.812500000000 23.997001647949 169 169 169
21.875000000000 20.812500000000 23.849000930786 129 129 129
21.812500000000 20.812500000000 23.795000076294 83 83 83
22.062500000000 20.625000000000 24.614000320435 179 179 179
22.062500000000 20.625000000000 24.551000595093 177 177 177
21.500000000000 20.687500000000 24.613000869751 179 179 179
21.437500000000 20.625000000000 24.559000015259 185 185 185
21.437500000000 20.625000000000 24.504001617432 192 192 192
22.062500000000 20.500000000000 24.620000839233 180 180 180
22.062500000000 20.500000000000 24.556999206543 181 181 181
21.437500000000 20.500000000000 24.619001388550 183 183 183
21.437500000000 20.500000000000 24.563001632690 184 184 184
21.437500000000 20.500000000000 24.508001327515 187 187 187
22.062500000000 20.312500000000 24.627000808716 178 178 178
22.062500000000 20.312500000000 24.567001342773 174 174 174
21.500000000000 20.375000000000 24.619001388550 228 228 228
21.500000000000 20.375000000000 24.565000534058 234 234 234
21.437500000000 20.312500000000 24.512001037598 227 227 227
22.062500000000 20.187500000000 24.634000778198 206 206 206
