26.218750000000 12.765625000000 53.779003143311 115 115 115
26.203125000000 12.750000000000 53.814998626709 126 126 126
26.234375000000 12.781250000000 53.878002166748 34 34 34
26.218750000000 12.765625000000 53.914997100830 40 40 40
26.250000000000 13.109375000000 53.494998931885 106 106 106
26.250000000000 13.125000000000 53.771999359131 115 115 115
26.218750000000 13.093750000000 53.805004119873 129 129 129
26.250000000000 13.125000000000 53.864002227783 112 112 112
26.296875000000 13.468750000000 53.492000579834 172 172 172
26.296875000000 13.468750000000 53.535999298096 211 211 211
26.296875000000 13.468750000000 53.581996917725 193 193 193
26.312500000000 13.468750000000 53.633998870850 187 187 187
26.312500000000 13.468750000000 53.681003570557 197 197 197
26.312500000000 13.468750000000 53.723003387451 67 67 67
26.281250000000 13.468750000000 53.756999969482 92 92 92
26.250000000000 13.437500000000 53.794002532959 134 134 134
26.265625000000 13.453125000000 53.847003936768 114 114 114
26.312500000000 13.812500000000 53.475002288818 139 139 139
26.312500000000 13.812500000000 53.523998260498 213 213 213
26.343750000000 13.812500000000 53.574001312256 189 189 189
26.343750000000 13.812500000000 53.622997283936 164 164 164
26.343750000000 13.828125000000 53.673999786377 176 176 176
26.343750000000 13.828125000000 53.712001800537 111 111 111
26.312500000000 13.812500000000 53.749004364014 62 62 62
26.281250000000 13.796875000000 53.783000946045 144 144 144
26.343750000000 14.156250000000 53.465999603271 115 115 115
26.343750000000 14.156250000000 53.513004302979 215 215 215
26.343750000000 14.156250000000 53.558002471924 184 184 184
26.359375000000 14.156250000000 53.608997344971 190 190 190
26.359375000000 14.156250000000 53.655002593994 188 188 188
26.359375000000 14.156250000000 53.701999664307 153 153 153
26.328125000000 14.156250000000 53.739002227783 16 16 16
26.312500000000 14.156250000000 53.774997711182 138 138 138
26.343750000000 14.500000000000 53.454998016357 93 93 93
26.343750000000 14.500000000000 53.499004364014 208 208 208
26.375000000000 14.500000000000 53.549999237061 147 147 147
26.375000000000 14.500000000000 53.597003936768 203 203 203
26.375000000000 14.515625000000 53.645999908447 161 161 161
26.375000000000 14.515625000000 53.695003509521 171 171 171
26.343750000000 14.484375000000 53.765003204346 137 137 137
26.343750000000 14.484375000000 53.813999176025 42 42 42
26.390625000000 14.843750000000 53.447002410889 23 23 23
26.375000000000 14.828125000000 53.488002777100 186 186 186
26.375000000000 14.843750000000 53.532001495361 176 176 176
26.375000000000 14.843750000000 53.581996917725 202 202 202
26.406250000000 14.859375000000 53.632999420166 196 196 196
26.406250000000 14.859375000000 53.677997589111 194 194 194
26.343750000000 14.828125000000 53.756999969482 132 132 132
26.343750000000 14.812500000000 53.797000885010 93 93 93
26.375000000000 15.171875000000 53.469997406006 142 142 142
26.406250000000 15.187500000000 53.518001556396 209 209 209
26.406250000000 15.187500000000 53.571002960205 171 171 171
26.437500000000 15.187500000000 53.618999481201 183 183 183
26.406250000000 15.187500000000 53.664997100830 213 213 213
26.406250000000 15.187500000000 53.709003448486 77 77 77
26.406250000000 15.187500000000 53.750003814697 110 110 110
26.375000000000 15.171875000000 53.784999847412 130 130 130
26.375000000000 15.187500000000 53.838001251221 108 108 108
26.406250000000 15.515625000000 53.456996917725 112 112 112
26.406250000000 15.515625000000 53.501003265381 188 188 188
26.406250000000 15.531250000000 53.551998138428 182 182 182
26.406250000000 15.531250000000 53.601001739502 168 168 168
26.437500000000 15.531250000000 53.653003692627 147 147 147
26.437500000000 15.531250000000 53.700000762939 116 116 116
26.437500000000 15.531250000000 53.750003814697 101 101 101
26.375000000000 15.500000000000 53.775997161865 141 141 141
26.437500000000 15.531250000000 53.838001251221 90 90 90
26.437500000000 15.875000000000 53.451000213623 61 61 61
26.406250000000 15.859375000000 53.487003326416 48 48 48
26.468750000000 15.890625000000 53.740001678467 17 17 17
26.437500000000 15.875000000000 53.772998809814 148 148 148
26.468750000000 15.890625000000 53.886997222900 102 102 102
26.468750000000 16.218750000000 53.483997344971 117 117 117
26.468750000000 16.218750000000 53.764003753662 145 145 145
26.437500000000 16.218750000000 53.807003021240 80 80 80
26.500000000000 16.234375000000 53.923000335693 50 50 50
26.500000000000 16.562500000000 53.475002288818 98 98 98
26.500000000000 16.562500000000 53.756999969482 99 99 99
26.468750000000 16.562500000000 53.797000885010 140 140 140
26.531250000000 16.593750000000 53.922000885010 18 18 18
26.515625000000 16.593750000000 53.963001251221 36 36 36
26.531250000000 16.921875000000 53.472003936768 97 97 97
26.531250000000 16.937500000000 53.756000518799 64 64 64
26.500000000000 16.906250000000 53.786998748779 158 158 158
26.531250000000 16.937500000000 53.951999664307 22 22 22
26.531250000000 16.937500000000 54.002002716064 21 21 21
26.531250000000 17.250000000000 53.730998992920 59 59 59
26.515625000000 17.250000000000 53.772998809814 121 121 121
26.531250000000 17.250000000000 53.823001861572 94 94 94
26.562500000000 17.281250000000 53.990001678467 14 14 14
26.546875000000 17.250000000000 54.029003143311 40 40 40
26.593750000000 17.609375000000 53.782001495361 84 84 84
26.562500000000 17.593750000000 53.815998077393 132 132 132
26.562500000000 17.609375000000 54.069004058838 83 83 83
26.687500000000 18.000000000000 53.796001434326 102 102 102
26.593750000000 17.937500000000 53.810001373291 145 145 145
26.718750000000 18.031250000000 54.070003509521 45 45 45
26.687500000000 18.000000000000 54.093997955322 125 125 125
26.562500000000 17.937500000000 54.099002838135 46 46 46
26.468750000000 18.171875000000 49.602001190186 191 191 191
26.468750000000 18.187500000000 49.646999359131 206 206 206
26.468750000000 18.187500000000 49.688999176025 192 192 192
26.500000000000 18.187500000000 49.730998992920 192 192 192
26.500000000000 18.187500000000 49.775001525879 190 190 190
26.468750000000 18.187500000000 49.819000244141 191 191 191
26.500000000000 18.187500000000 49.860000610352 192 192 192
26.500000000000 18.187500000000 49.902999877930 193 193 193
26.500000000000 18.187500000000 49.945999145508 194 194 194
26.468750000000 18.187500000000 49.989002227783 195 195 195
26.500000000000 18.187500000000 50.031002044678 192 192 192
26.468750000000 18.187500000000 50.074001312256 192 192 192
26.500000000000 18.187500000000 50.116001129150 206 206 206
26.468750000000 18.187500000000 50.159000396729 198 198 198
26.500000000000 18.187500000000 50.200000762939 202 202 202
26.468750000000 18.187500000000 50.243000030518 198 198 198
26.500000000000 18.187500000000 50.284999847412 203 203 203
26.468750000000 18.187500000000 50.327999114990 198 198 198
26.500000000000 18.187500000000 50.368999481201 202 202 202
26.500000000000 18.187500000000 50.410999298096 200 200 200
26.500000000000 18.187500000000 50.452999114990 207 207 207
26.500000000000 18.187500000000 50.494998931885 204 204 204
26.500000000000 18.187500000000 50.535999298096 200 200 200
26.500000000000 18.187500000000 50.579002380371 190 190 190
26.500000000000 18.187500000000 50.621002197266 195 195 195
26.500000000000 18.187500000000 50.663002014160 213 213 213
26.500000000000 18.187500000000 50.704002380371 206 206 206
26.500000000000 18.187500000000 50.746002197266 208 208 208
26.500000000000 18.187500000000 50.788002014160 209 209 209
26.500000000000 18.187500000000 50.830001831055 208 208 208
26.500000000000 18.187500000000 50.871002197266 207 207 207
26.500000000000 18.187500000000 50.913002014160 210 210 210
26.500000000000 18.187500000000 50.955001831055 209 209 209
26.500000000000 18.187500000000 50.997001647949 201 201 201
26.500000000000 18.187500000000 51.039001464844 200 200 200
26.500000000000 18.187500000000 51.080001831055 192 192 192
26.500000000000 18.187500000000 51.122001647949 196 196 196
26.500000000000 18.187500000000 51.164001464844 204 204 204
26.500000000000 18.187500000000 51.206001281738 200 200 200
26.500000000000 18.187500000000 51.248001098633 198 198 198
26.500000000000 18.203125000000 51.289001464844 199 199 199
26.500000000000 18.203125000000 51.331001281738 198 198 198
26.500000000000 18.203125000000 51.373001098633 196 196 196
26.500000000000 18.203125000000 51.415000915527 191 191 191
26.515625000000 18.218750000000 51.457000732422 193 193 193
26.500000000000 18.203125000000 51.499000549316 194 194 194
26.515625000000 18.218750000000 51.541999816895 190 190 190
26.515625000000 18.218750000000 51.583999633789 194 194 194
26.515625000000 18.218750000000 51.625999450684 192 192 192
26.515625000000 18.218750000000 51.667999267578 190 190 190
26.515625000000 18.218750000000 51.709999084473 189 189 189
26.515625000000 18.218750000000 51.753002166748 193 193 193
26.531250000000 18.218750000000 51.796001434326 189 189 189
26.515625000000 18.218750000000 51.838001251221 189 189 189
26.531250000000 18.218750000000 51.881000518799 184 184 184
26.515625000000 18.218750000000 51.923000335693 167 167 167
26.515625000000 18.218750000000 51.965000152588 168 168 168
26.531250000000 18.218750000000 52.007999420166 168 168 168
26.515625000000 18.218750000000 52.050998687744 167 167 167
26.531250000000 18.218750000000 52.095001220703 164 164 164
26.531250000000 18.218750000000 52.137001037598 158 158 158
26.531250000000 18.234375000000 52.181999206543 154 154 154
26.531250000000 18.234375000000 52.225002288818 147 147 147
26.531250000000 18.234375000000 52.268001556396 141 141 141
26.531250000000 18.218750000000 52.310001373291 124 124 124
26.531250000000 18.234375000000 52.354999542236 113 113 113
26.531250000000 18.234375000000 52.399002075195 93 93 93
26.531250000000 18.234375000000 52.442001342773 74 74 74
26.531250000000 18.218750000000 52.484001159668 36 36 36
26.062500000000 10.500000000000 54.173000335693 103 103 103
26.062500000000 10.500000000000 54.119998931885 100 100 100
26.062500000000 10.500000000000 54.076000213623 143 143 143
26.062500000000 10.500000000000 54.032001495361 144 144 144
26.062500000000 10.500000000000 53.980998992920 150 150 150
26.062500000000 10.500000000000 53.938999176025 148 148 148
26.062500000000 10.500000000000 53.891002655029 111 111 111
26.062500000000 10.500000000000 53.844997406006 139 139 139
26.062500000000 10.500000000000 53.802997589111 145 145 145
26.062500000000 10.500000000000 53.755001068115 143 143 143
26.062500000000 10.500000000000 53.712001800537 128 128 128
26.062500000000 10.500000000000 53.668003082275 145 145 145
26.062500000000 10.500000000000 53.625003814697 152 152 152
26.062500000000 10.500000000000 53.583003997803 150 150 150
26.062500000000 10.500000000000 53.534000396729 149 149 149
26.062500000000 10.500000000000 53.490001678467 159 159 159
26.062500000000 10.500000000000 53.447002410889 155 155 155
26.062500000000 10.500000000000 53.407001495361 155 155 155
26.062500000000 10.500000000000 53.358997344971 169 169 169
26.062500000000 10.500000000000 53.319004058838 165 165 165
26.031250000000 10.500000000000 53.272998809814 165 165 165
26.062500000000 10.500000000000 53.232997894287 173 173 173
26.062500000000 10.500000000000 53.189998626709 169 169 169
26.062500000000 10.500000000000 53.146999359131 173 173 173
26.062500000000 10.500000000000 53.105998992920 178 178 178
26.062500000000 10.500000000000 53.064998626709 178 178 178
26.031250000000 10.500000000000 53.020000457764 182 182 182
26.062500000000 10.500000000000 52.980998992920 184 184 184
26.031250000000 10.500000000000 52.938999176025 183 183 183
26.031250000000 10.500000000000 52.896999359131 185 185 185
26.062500000000 10.500000000000 52.858001708984 187 187 187
26.031250000000 10.500000000000 52.816001892090 189 189 189
26.062500000000 10.500000000000 52.776000976563 188 188 188
26.062500000000 10.500000000000 52.735000610352 187 187 187
26.031250000000 10.500000000000 52.693000793457 193 193 193
26.062500000000 10.500000000000 52.653999328613 192 192 192
26.031250000000 10.500000000000 52.611999511719 189 189 189
26.062500000000 10.500000000000 52.574001312256 187 187 187
26.031250000000 10.500000000000 52.531002044678 189 189 189
26.031250000000 10.500000000000 52.493000030518 191 191 191
26.031250000000 10.500000000000 52.452999114990 195 195 195
26.031250000000 10.500000000000 52.414001464844 196 196 196
26.031250000000 10.500000000000 52.373001098633 194 194 194
26.031250000000 10.500000000000 52.333000183105 193 193 193
26.031250000000 10.500000000000 52.292999267578 195 195 195
26.031250000000 10.500000000000 52.254001617432 198 198 198
26.031250000000 10.500000000000 52.215000152588 196 196 196
26.031250000000 10.500000000000 52.174999237061 192 192 192
26.031250000000 10.515625000000 52.135002136230 196 196 196
26.031250000000 10.500000000000 52.097999572754 195 195 195
26.031250000000 10.515625000000 52.056999206543 194 194 194
26.031250000000 10.515625000000 52.019001007080 193 193 193
26.031250000000 10.500000000000 51.979999542236 197 197 197
26.031250000000 10.515625000000 51.941001892090 197 197 197
26.031250000000 10.515625000000 51.902000427246 195 195 195
26.031250000000 10.500000000000 51.864002227783 193 193 193
26.031250000000 10.515625000000 51.825000762939 199 199 199
26.031250000000 10.515625000000 51.786998748779 206 206 206
26.031250000000 10.515625000000 51.749000549316 205 205 205
26.031250000000 10.515625000000 51.709999084473 206 206 206
26.031250000000 10.515625000000 51.672000885010 206 206 206
26.031250000000 10.500000000000 51.633998870850 207 207 207
26.015625000000 10.531250000000 51.594001770020 208 208 208
26.031250000000 10.515625000000 51.556999206543 212 212 212
26.031250000000 10.515625000000 51.519001007080 210 210 210
26.031250000000 10.515625000000 51.480998992920 189 189 189
26.015625000000 10.531250000000 51.442001342773 208 208 208
26.031250000000 10.515625000000 51.403999328613 206 206 206
26.015625000000 10.531250000000 51.366001129150 210 210 210
26.031250000000 10.515625000000 51.327999114990 215 215 215
26.031250000000 10.515625000000 51.290000915527 216 216 216
26.031250000000 10.515625000000 51.251998901367 216 216 216
26.015625000000 10.531250000000 51.214000701904 217 217 217
26.031250000000 10.515625000000 51.177001953125 216 216 216
26.031250000000 10.515625000000 51.138999938965 214 214 214
26.015625000000 10.531250000000 51.101001739502 220 220 220
26.031250000000 10.515625000000 51.062999725342 218 218 218
26.031250000000 10.515625000000 51.025001525879 221 221 221
26.031250000000 10.515625000000 50.986999511719 216 216 216
26.015625000000 10.531250000000 50.949001312256 217 217 217
26.015625000000 10.531250000000 50.910999298096 217 217 217
26.015625000000 10.531250000000 50.873001098633 215 215 215
26.000000000000 10.515625000000 50.834999084473 220 220 220
26.031250000000 10.515625000000 50.797000885010 217 217 217
26.000000000000 10.515625000000 50.760002136230 217 217 217
26.015625000000 10.531250000000 50.721000671387 215 215 215
26.000000000000 10.515625000000 50.684001922607 217 217 217
26.031250000000 10.515625000000 50.645000457764 216 216 216
26.031250000000 10.515625000000 50.607002258301 217 217 217
26.000000000000 10.515625000000 50.569000244141 215 215 215
26.000000000000 10.515625000000 50.532001495361 217 217 217
26.000000000000 10.515625000000 50.493000030518 217 217 217
26.000000000000 10.515625000000 50.455001831055 214 214 214
26.000000000000 10.515625000000 50.416999816895 207 207 207
26.000000000000 10.515625000000 50.378002166748 215 215 215
26.000000000000 10.515625000000 50.340999603271 213 213 213
26.031250000000 10.515625000000 50.300998687744 206 206 206
26.000000000000 10.515625000000 50.263000488281 212 212 212
26.000000000000 10.515625000000 50.223999023438 211 211 211
26.000000000000 10.515625000000 50.186000823975 206 206 206
26.000000000000 10.515625000000 50.147998809814 205 205 205
26.000000000000 10.515625000000 50.109001159668 208 208 208
26.000000000000 10.515625000000 50.070999145508 209 209 209
26.000000000000 10.515625000000 50.032001495361 200 200 200
26.000000000000 10.515625000000 49.993999481201 202 202 202
26.000000000000 10.515625000000 49.955001831055 205 205 205
26.000000000000 10.531250000000 49.916999816895 203 203 203
26.000000000000 10.515625000000 49.875999450684 203 203 203
26.000000000000 10.531250000000 49.839000701904 202 202 202
26.000000000000 10.515625000000 49.798999786377 203 203 203
26.000000000000 10.515625000000 49.758998870850 202 202 202
26.000000000000 10.531250000000 49.721000671387 201 201 201
26.000000000000 10.531250000000 49.683002471924 205 205 205
26.000000000000 10.531250000000 49.643001556396 202 202 202
26.093750000000 10.812500000000 54.119998931885 23 23 23
26.125000000000 10.781250000000 54.085002899170 132 132 132
26.156250000000 10.765625000000 54.059001922607 63 63 63
26.125000000000 10.781250000000 53.900997161865 38 38 38
26.109375000000 10.796875000000 53.851001739502 156 156 156
26.218750000000 10.734375000000 53.854000091553 40 40 40
26.156250000000 11.109375000000 54.075000762939 43 43 43
26.156250000000 11.093750000000 54.037998199463 19 19 19
26.125000000000 11.109375000000 53.885997772217 18 18 18
26.156250000000 11.109375000000 53.842998504639 163 163 163
26.171875000000 11.406250000000 54.021999359131 122 122 122
26.156250000000 11.421875000000 53.876003265381 67 67 67
26.140625000000 11.437500000000 53.824001312256 143 143 143
26.156250000000 11.437500000000 53.784000396729 41 41 41
26.187500000000 11.718750000000 53.976001739502 51 51 51
26.156250000000 11.750000000000 53.868000030518 28 28 28
26.156250000000 11.750000000000 53.822002410889 164 164 164
26.218750000000 12.031250000000 53.961002349854 126 126 126
26.187500000000 12.046875000000 53.857997894287 36 36 36
26.187500000000 12.062500000000 53.809001922607 158 158 158
26.250000000000 12.015625000000 53.518001556396 113 113 113
26.218750000000 12.343750000000 53.942996978760 62 62 62
26.218750000000 12.343750000000 53.848003387451 45 45 45
26.218750000000 12.359375000000 53.800998687744 156 156 156
26.281250000000 12.312500000000 53.555004119873 19 19 19
26.250000000000 12.343750000000 53.501003265381 98 98 98
26.250000000000 12.656250000000 53.889003753662 105 105 105
26.234375000000 12.671875000000 53.835002899170 60 60 60
26.250000000000 12.656250000000 53.792003631592 158 158 158
26.250000000000 12.656250000000 53.530002593994 40 40 40
26.281250000000 12.656250000000 53.488002777100 85 85 85
26.281250000000 12.968750000000 53.881000518799 129 129 129
26.250000000000 13.000000000000 53.824001312256 86 86 86
26.250000000000 12.984375000000 53.782001495361 162 162 162
26.281250000000 12.968750000000 53.517002105713 47 47 47
26.281250000000 12.968750000000 53.475002288818 67 67 67
26.312500000000 13.281250000000 53.872997283936 81 81 81
26.281250000000 13.296875000000 53.815998077393 94 94 94
26.281250000000 13.296875000000 53.772998809814 148 148 148
26.312500000000 13.281250000000 53.460002899170 20 20 20
26.312500000000 13.593750000000 53.861003875732 67 67 67
26.312500000000 13.593750000000 53.808002471924 137 137 137
26.296875000000 13.609375000000 53.757999420166 147 147 147
26.328125000000 13.593750000000 53.725002288818 123 123 123
26.343750000000 13.578125000000 53.687000274658 203 203 203
26.343750000000 13.578125000000 53.640003204346 226 226 226
26.343750000000 13.578125000000 53.591999053955 228 228 228
26.343750000000 13.593750000000 53.546001434326 204 204 204
26.343750000000 13.593750000000 53.499004364014 201 201 201
26.328125000000 13.593750000000 53.451999664307 61 61 61
26.312500000000 13.906250000000 53.793003082275 125 125 125
26.343750000000 13.906250000000 53.757999420166 126 126 126
26.343750000000 13.890625000000 53.715999603271 47 47 47
26.359375000000 13.890625000000 53.675998687744 212 212 212
26.343750000000 13.906250000000 53.626003265381 205 205 205
26.359375000000 13.890625000000 53.583003997803 150 150 150
26.343750000000 13.906250000000 53.534999847412 215 215 215
26.343750000000 13.906250000000 53.484996795654 183 183 183
26.312500000000 14.234375000000 53.782001495361 148 148 148
26.343750000000 14.218750000000 53.742000579834 100 100 100
26.359375000000 14.218750000000 53.705997467041 106 106 106
26.375000000000 14.218750000000 53.661998748779 199 199 199
26.375000000000 14.218750000000 53.616001129150 194 194 194
26.359375000000 14.218750000000 53.567996978760 186 186 186
26.359375000000 14.218750000000 53.520000457764 225 225 225
26.359375000000 14.218750000000 53.474002838135 150 150 150
26.343750000000 14.562500000000 53.769001007080 152 152 152
26.375000000000 14.531250000000 53.738002777100 69 69 69
26.406250000000 14.515625000000 53.700000762939 110 110 110
26.406250000000 14.515625000000 53.656002044678 191 191 191
26.375000000000 14.531250000000 53.603000640869 206 206 206
26.375000000000 14.515625000000 53.559001922607 185 185 185
26.375000000000 14.531250000000 53.506000518799 224 224 224
26.375000000000 14.531250000000 53.462001800537 126 126 126
26.375000000000 14.843750000000 53.763004302979 162 162 162
26.437500000000 14.828125000000 53.689998626709 173 173 173
26.437500000000 14.828125000000 53.640003204346 149 149 149
26.421875000000 14.843750000000 53.590000152588 114 114 114
26.421875000000 14.843750000000 53.545001983643 151 151 151
26.406250000000 14.843750000000 53.493000030518 218 218 218
26.406250000000 14.843750000000 53.451000213623 86 86 86
26.406250000000 15.156250000000 53.805004119873 115 115 115
26.406250000000 15.156250000000 53.756999969482 166 166 166
26.437500000000 15.140625000000 53.720996856689 84 84 84
26.437500000000 15.140625000000 53.673999786377 203 203 203
26.437500000000 15.125000000000 53.631000518799 179 179 179
26.437500000000 15.140625000000 53.580997467041 161 161 161
26.406250000000 15.140625000000 53.528003692627 198 198 198
26.406250000000 15.140625000000 53.480998992920 190 190 190
26.437500000000 15.453125000000 53.848003387451 120 120 120
26.406250000000 15.468750000000 53.786998748779 117 117 117
26.437500000000 15.468750000000 53.746997833252 128 128 128
26.437500000000 15.437500000000 53.710002899170 41 41 41
26.437500000000 15.437500000000 53.661998748779 212 212 212
26.437500000000 15.437500000000 53.615001678467 186 186 186
26.468750000000 15.453125000000 53.570003509521 126 126 126
26.437500000000 15.468750000000 53.515003204346 217 217 217
26.437500000000 15.468750000000 53.465999603271 157 157 157
26.500000000000 15.765625000000 53.843997955322 81 81 81
26.437500000000 15.781250000000 53.779003143311 158 158 158
26.468750000000 15.781250000000 53.739002227783 100 100 100
26.437500000000 15.781250000000 53.453998565674 124 124 124
26.515625000000 16.062500000000 53.884998321533 116 116 116
26.468750000000 16.093750000000 53.768001556396 155 155 155
26.500000000000 16.093750000000 53.732997894287 13 13 13
26.468750000000 16.093750000000 53.487003326416 73 73 73
26.468750000000 16.093750000000 53.440998077393 26 26 26
26.531250000000 16.390625000000 53.917003631592 107 107 107
26.500000000000 16.406250000000 53.803997039795 101 101 101
26.500000000000 16.406250000000 53.760997772217 143 143 143
26.500000000000 16.406250000000 53.476001739502 130 130 130
26.546875000000 16.703125000000 53.951000213623 70 70 70
26.531250000000 16.718750000000 53.793003082275 149 149 149
26.531250000000 16.703125000000 53.752002716064 112 112 112
26.546875000000 16.703125000000 53.473003387451 129 129 129
26.578125000000 17.000000000000 53.996997833252 26 26 26
26.531250000000 17.031250000000 53.783000946045 148 148 148
26.578125000000 17.000000000000 53.752002716064 134 134 134
26.578125000000 17.000000000000 53.704998016357 136 136 136
26.578125000000 17.000000000000 53.656002044678 143 143 143
26.562500000000 17.000000000000 53.606998443604 149 149 149
26.578125000000 17.000000000000 53.560001373291 148 148 148
26.562500000000 17.000000000000 53.511997222900 136 136 136
26.562500000000 17.015625000000 53.460002899170 70 70 70
26.593750000000 17.328125000000 54.030002593994 45 45 45
26.562500000000 17.328125000000 53.829998016357 95 95 95
26.562500000000 17.343750000000 53.778003692627 149 149 149
26.593750000000 17.656250000000 54.061000823975 88 88 88
26.562500000000 17.656250000000 53.809001922607 138 138 138
26.593750000000 17.640625000000 53.770999908447 98 98 98
26.531250000000 18.000000000000 54.103000640869 83 83 83
26.625000000000 17.968750000000 54.095996856689 103 103 103
26.625000000000 17.953125000000 54.053997039795 100 100 100
26.546875000000 17.984375000000 53.820003509521 75 75 75
26.625000000000 17.968750000000 53.799999237061 153 153 153
26.687500000000 18.250000000000 53.229000091553 14 14 14
26.687500000000 18.250000000000 53.133998870850 23 23 23
26.687500000000 18.250000000000 53.086002349854 17 17 17
26.656250000000 18.250000000000 53.035999298096 49 49 49
26.671875000000 18.250000000000 52.992000579834 57 57 57
26.656250000000 18.250000000000 52.941001892090 81 81 81
26.656250000000 18.250000000000 52.897998809814 82 82 82
26.656250000000 18.250000000000 52.848999023438 86 86 86
26.656250000000 18.250000000000 52.803001403809 104 104 104
26.625000000000 18.250000000000 52.755001068115 103 103 103
26.656250000000 18.250000000000 52.712001800537 113 113 113
26.625000000000 18.265625000000 52.663002014160 121 121 121
26.625000000000 18.250000000000 52.618999481201 121 121 121
26.625000000000 18.250000000000 52.574001312256 131 131 131
26.656250000000 18.265625000000 52.529998779297 132 132 132
26.625000000000 18.265625000000 52.484001159668 131 131 131
26.625000000000 18.265625000000 52.436000823975 129 129 129
26.625000000000 18.265625000000 52.392002105713 126 126 126
26.625000000000 18.265625000000 52.347999572754 139 139 139
26.625000000000 18.265625000000 52.304000854492 140 140 140
26.625000000000 18.265625000000 52.260002136230 149 149 149
26.625000000000 18.265625000000 52.215000152588 148 148 148
26.625000000000 18.281250000000 52.171001434326 149 149 149
26.625000000000 18.281250000000 52.126998901367 149 149 149
26.625000000000 18.265625000000 52.083999633789 150 150 150
26.625000000000 18.281250000000 52.039001464844 148 148 148
26.625000000000 18.265625000000 51.996002197266 149 149 149
26.593750000000 18.281250000000 51.950000762939 136 136 136
26.609375000000 18.265625000000 51.908000946045 141 141 141
26.593750000000 18.281250000000 51.864002227783 149 149 149
26.625000000000 18.281250000000 51.820999145508 151 151 151
26.593750000000 18.281250000000 51.777000427246 147 147 147
26.593750000000 18.281250000000 51.734001159668 147 147 147
26.593750000000 18.281250000000 51.691001892090 153 153 153
26.593750000000 18.281250000000 51.647998809814 156 156 156
26.625000000000 18.250000000000 51.607002258301 184 184 184
26.625000000000 18.265625000000 51.520000457764 193 193 193
26.625000000000 18.265625000000 51.477001190186 200 200 200
26.625000000000 18.265625000000 51.434001922607 200 200 200
26.625000000000 18.265625000000 51.389999389648 202 202 202
26.593750000000 18.281250000000 51.303001403809 160 160 160
26.593750000000 18.281250000000 51.260002136230 157 157 157
26.593750000000 18.281250000000 51.216999053955 153 153 153
26.593750000000 18.281250000000 51.173999786377 148 148 148
26.593750000000 18.281250000000 51.131000518799 144 144 144
26.593750000000 18.281250000000 51.089000701904 140 140 140
26.593750000000 18.281250000000 51.046001434326 140 140 140
26.593750000000 18.281250000000 51.003002166748 152 152 152
26.593750000000 18.281250000000 50.959999084473 152 152 152
26.593750000000 18.281250000000 50.916999816895 146 146 146
26.593750000000 18.281250000000 50.874000549316 143 143 143
26.593750000000 18.281250000000 50.831001281738 144 144 144
26.593750000000 18.281250000000 50.788002014160 138 138 138
26.593750000000 18.281250000000 50.746002197266 136 136 136
26.593750000000 18.281250000000 50.701999664307 134 134 134
26.593750000000 18.281250000000 50.659999847412 135 135 135
26.593750000000 18.281250000000 50.616001129150 145 145 145
26.593750000000 18.281250000000 50.574001312256 136 136 136
26.593750000000 18.281250000000 50.531002044678 130 130 130
26.593750000000 18.281250000000 50.486999511719 134 134 134
26.593750000000 18.281250000000 50.444000244141 129 129 129
26.593750000000 18.281250000000 50.401000976563 130 130 130
26.609375000000 18.265625000000 50.355998992920 160 160 160
26.625000000000 18.265625000000 50.311000823975 196 196 196
26.625000000000 18.265625000000 50.268001556396 193 193 193
26.625000000000 18.265625000000 50.223999023438 196 196 196
26.593750000000 18.281250000000 50.183002471924 157 157 157
26.593750000000 18.281250000000 50.139999389648 151 151 151
26.593750000000 18.281250000000 50.097000122070 144 144 144
26.593750000000 18.281250000000 50.054000854492 136 136 136
26.593750000000 18.281250000000 50.010002136230 140 140 140
26.593750000000 18.281250000000 49.965999603271 144 144 144
26.593750000000 18.281250000000 49.923000335693 144 144 144
26.593750000000 18.281250000000 49.879001617432 140 140 140
26.578125000000 18.281250000000 49.837001800537 128 128 128
26.593750000000 18.281250000000 49.791999816895 126 126 126
26.593750000000 18.281250000000 49.748001098633 130 130 130
26.593750000000 18.281250000000 49.702999114990 133 133 133
26.593750000000 18.281250000000 49.657001495361 133 133 133
26.593750000000 18.281250000000 49.612998962402 126 126 126
26.593750000000 18.281250000000 49.567001342773 132 132 132
26.593750000000 18.281250000000 49.522998809814 124 124 124
26.593750000000 18.281250000000 49.477001190186 128 128 128
26.593750000000 18.281250000000 49.434001922607 118 118 118
26.593750000000 18.281250000000 49.387001037598 117 117 117
26.593750000000 18.281250000000 49.341999053955 108 108 108
26.593750000000 18.281250000000 49.297000885010 116 116 116
26.593750000000 18.281250000000 49.253002166748 104 104 104
26.593750000000 18.281250000000 49.206001281738 108 108 108
26.625000000000 18.250000000000 49.154998779297 116 116 116
25.968750000000 10.468750000000 48.694999694824 176 176 176
25.968750000000 10.468750000000 48.735000610352 178 178 178
25.968750000000 10.468750000000 48.767002105713 170 170 170
26.000000000000 10.468750000000 48.796001434326 179 179 179
26.000000000000 10.468750000000 48.832000732422 180 180 180
26.000000000000 10.468750000000 48.868000030518 176 176 176
25.968750000000 10.468750000000 48.908000946045 177 177 177
26.000000000000 10.468750000000 48.941001892090 179 179 179
25.968750000000 10.468750000000 48.979000091553 180 180 180
25.968750000000 10.468750000000 49.017002105713 177 177 177
25.968750000000 10.468750000000 49.052001953125 179 179 179
25.968750000000 10.468750000000 49.088001251221 181 181 181
25.968750000000 10.468750000000 49.125000000000 179 179 179
25.968750000000 10.468750000000 49.158000946045 182 182 182
25.968750000000 10.468750000000 49.192001342773 181 181 181
25.968750000000 10.468750000000 49.228000640869 182 182 182
25.968750000000 10.468750000000 49.263000488281 177 177 177
25.968750000000 10.484375000000 49.298999786377 177 177 177
25.968750000000 10.468750000000 49.333000183105 184 184 184
25.968750000000 10.468750000000 49.368000030518 186 186 186
25.968750000000 10.468750000000 49.403999328613 184 184 184
25.968750000000 10.484375000000 49.437999725342 184 184 184
25.968750000000 10.468750000000 49.471000671387 183 183 183
25.968750000000 10.484375000000 49.506000518799 186 186 186
25.968750000000 10.468750000000 49.540000915527 182 182 182
25.968750000000 10.468750000000 49.574001312256 182 182 182
25.968750000000 10.468750000000 49.607002258301 183 183 183
25.968750000000 10.468750000000 49.640998840332 186 186 186
25.968750000000 10.484375000000 49.675998687744 188 188 188
25.968750000000 10.484375000000 49.709999084473 191 191 191
25.968750000000 10.468750000000 49.743000030518 189 189 189
25.968750000000 10.484375000000 49.777000427246 188 188 188
25.968750000000 10.484375000000 49.811000823975 187 187 187
25.968750000000 10.484375000000 49.845001220703 187 187 187
25.968750000000 10.484375000000 49.878002166748 190 190 190
25.968750000000 10.484375000000 49.911998748779 190 190 190
25.968750000000 10.484375000000 49.944999694824 187 187 187
26.000000000000 10.484375000000 49.977001190186 194 194 194
26.000000000000 10.500000000000 50.011001586914 192 192 192
26.000000000000 10.484375000000 50.043998718262 193 193 193
26.000000000000 10.500000000000 50.076999664307 193 193 193
25.968750000000 10.484375000000 50.111000061035 187 187 187
26.000000000000 10.484375000000 50.143001556396 193 193 193
25.968750000000 10.484375000000 50.177001953125 192 192 192
26.000000000000 10.500000000000 50.209999084473 196 196 196
25.968750000000 10.484375000000 50.243000030518 201 201 201
25.968750000000 10.500000000000 50.277000427246 199 199 199
26.000000000000 10.500000000000 50.308002471924 206 206 206
26.000000000000 10.500000000000 50.341999053955 204 204 204
26.000000000000 10.500000000000 50.374000549316 204 204 204
26.000000000000 10.500000000000 50.407001495361 197 197 197
26.000000000000 10.500000000000 50.440002441406 188 188 188
26.000000000000 10.500000000000 50.472000122070 203 203 203
26.000000000000 10.500000000000 50.505001068115 208 208 208
26.000000000000 10.500000000000 50.538002014160 208 208 208
26.000000000000 10.500000000000 50.570999145508 202 202 202
26.000000000000 10.500000000000 50.603000640869 202 202 202
26.000000000000 10.500000000000 50.636001586914 208 208 208
26.000000000000 10.500000000000 50.668998718262 201 201 201
26.000000000000 10.500000000000 50.701000213623 201 201 201
26.000000000000 10.500000000000 50.734001159668 206 206 206
26.000000000000 10.500000000000 50.767002105713 207 207 207
26.000000000000 10.500000000000 50.798999786377 205 205 205
26.000000000000 10.500000000000 50.832000732422 207 207 207
26.000000000000 10.500000000000 50.864002227783 203 203 203
26.000000000000 10.500000000000 50.896999359131 205 205 205
26.000000000000 10.500000000000 50.930000305176 207 207 207
26.000000000000 10.500000000000 50.962001800537 209 209 209
26.000000000000 10.500000000000 50.994998931885 207 207 207
26.000000000000 10.500000000000 51.027999877930 208 208 208
26.000000000000 10.500000000000 51.060001373291 210 210 210
26.000000000000 10.500000000000 51.093002319336 203 203 203
26.000000000000 10.500000000000 51.125999450684 202 202 202
26.000000000000 10.500000000000 51.159000396729 198 198 198
26.000000000000 10.500000000000 51.192001342773 199 199 199
26.000000000000 10.500000000000 51.225002288818 200 200 200
25.984375000000 10.500000000000 51.256999969482 202 202 202
25.984375000000 10.500000000000 51.290000915527 200 200 200
25.984375000000 10.500000000000 51.322002410889 201 201 201
26.000000000000 10.500000000000 51.355998992920 199 199 199
26.000000000000 10.500000000000 51.388999938965 199 199 199
26.000000000000 10.500000000000 51.422000885010 201 201 201
26.000000000000 10.500000000000 51.456001281738 191 191 191
26.000000000000 10.515625000000 51.487998962402 185 185 185
26.000000000000 10.515625000000 51.520999908447 192 192 192
26.000000000000 10.515625000000 51.555000305176 195 195 195
26.000000000000 10.515625000000 51.588001251221 196 196 196
26.000000000000 10.500000000000 51.622001647949 195 195 195
26.000000000000 10.515625000000 51.653999328613 192 192 192
26.000000000000 10.500000000000 51.688999176025 194 194 194
26.000000000000 10.500000000000 51.722999572754 194 194 194
26.000000000000 10.515625000000 51.756000518799 194 194 194
26.000000000000 10.515625000000 51.789001464844 192 192 192
26.000000000000 10.515625000000 51.823001861572 188 188 188
26.000000000000 10.515625000000 51.857002258301 186 186 186
26.000000000000 10.515625000000 51.890998840332 189 189 189
26.000000000000 10.515625000000 51.924999237061 189 189 189
26.000000000000 10.515625000000 51.958999633789 189 189 189
26.000000000000 10.515625000000 51.993000030518 191 191 191
26.000000000000 10.515625000000 52.027000427246 188 188 188
26.000000000000 10.515625000000 52.061000823975 187 187 187
26.000000000000 10.515625000000 52.095001220703 188 188 188
26.015625000000 10.531250000000 52.131999969482 189 189 189
26.000000000000 10.515625000000 52.165000915527 192 192 192
26.015625000000 10.531250000000 52.201000213623 196 196 196
26.015625000000 10.531250000000 52.235000610352 179 179 179
26.015625000000 10.531250000000 52.270999908447 187 187 187
26.015625000000 10.531250000000 52.305999755859 189 189 189
26.015625000000 10.531250000000 52.340000152588 189 189 189
26.031250000000 10.515625000000 52.378002166748 190 190 190
26.015625000000 10.531250000000 52.411998748779 191 191 191
26.015625000000 10.531250000000 52.448001861572 191 191 191
26.015625000000 10.531250000000 52.485000610352 198 198 198
26.015625000000 10.531250000000 52.519001007080 185 185 185
26.015625000000 10.531250000000 52.555999755859 188 188 188
26.015625000000 10.531250000000 52.590000152588 189 189 189
26.015625000000 10.531250000000 52.626998901367 188 188 188
26.015625000000 10.531250000000 52.664001464844 186 186 186
26.015625000000 10.531250000000 52.700000762939 186 186 186
26.015625000000 10.531250000000 52.736999511719 194 194 194
26.031250000000 10.531250000000 52.775001525879 188 188 188
26.031250000000 10.531250000000 52.812999725342 193 193 193
26.031250000000 10.531250000000 52.848999023438 185 185 185
26.015625000000 10.531250000000 52.883998870850 185 185 185
26.031250000000 10.531250000000 52.923000335693 184 184 184
26.031250000000 10.531250000000 52.964000701904 181 181 181
26.031250000000 10.531250000000 52.997997283936 184 184 184
26.031250000000 10.531250000000 53.036998748779 187 187 187
26.031250000000 10.531250000000 53.074001312256 185 185 185
26.031250000000 10.531250000000 53.114002227783 181 181 181
26.031250000000 10.531250000000 53.148998260498 183 183 183
26.031250000000 10.531250000000 53.192996978760 183 183 183
26.031250000000 10.531250000000 53.229000091553 178 178 178
26.031250000000 10.531250000000 53.265003204346 181 181 181
26.031250000000 10.531250000000 53.309001922607 183 183 183
26.031250000000 10.531250000000 53.347003936768 182 182 182
26.031250000000 10.531250000000 53.386997222900 179 179 179
26.031250000000 10.531250000000 53.430004119873 179 179 179
26.031250000000 10.531250000000 53.467998504639 180 180 180
26.031250000000 10.531250000000 53.506000518799 181 181 181
26.031250000000 10.531250000000 53.547000885010 177 177 177
26.031250000000 10.531250000000 53.588001251221 182 182 182
26.031250000000 10.531250000000 53.631000518799 180 180 180
26.031250000000 10.531250000000 53.673000335693 170 170 170
26.031250000000 10.531250000000 53.713001251221 180 180 180
26.031250000000 10.531250000000 53.757999420166 180 180 180
26.031250000000 10.531250000000 53.800998687744 180 180 180
26.031250000000 10.531250000000 53.839000701904 159 159 159
26.031250000000 10.531250000000 53.881999969482 175 175 175
26.031250000000 10.531250000000 53.923000335693 182 182 182
26.031250000000 10.531250000000 53.966999053955 180 180 180
26.031250000000 10.531250000000 54.014003753662 176 176 176
26.031250000000 10.531250000000 54.062000274658 162 162 162
26.031250000000 10.531250000000 54.092998504639 141 141 141
26.031250000000 10.531250000000 54.141002655029 86 86 86
26.109375000000 10.859375000000 53.822002410889 156 156 156
26.093750000000 10.875000000000 53.853000640869 90 90 90
26.125000000000 10.875000000000 54.043003082275 109 109 109
26.125000000000 11.187500000000 53.808002471924 163 163 163
26.093750000000 11.187500000000 53.840999603271 64 64 64
26.187500000000 11.187500000000 54.006999969482 29 29 29
26.140625000000 11.187500000000 54.029003143311 78 78 78
26.187500000000 11.531250000000 53.780002593994 28 28 28
26.156250000000 11.531250000000 53.800998687744 164 164 164
26.125000000000 11.515625000000 53.840999603271 54 54 54
26.156250000000 11.515625000000 53.980998992920 117 117 117
26.203125000000 11.843750000000 53.767002105713 56 56 56
26.156250000000 11.843750000000 53.789997100830 171 171 171
26.156250000000 11.843750000000 53.826999664307 44 44 44
26.203125000000 11.843750000000 53.937999725342 102 102 102
26.250000000000 12.171875000000 53.474002838135 29 29 29
26.250000000000 12.171875000000 53.511997222900 127 127 127
26.218750000000 12.171875000000 53.759998321533 51 51 51
26.187500000000 12.187500000000 53.783000946045 173 173 173
26.187500000000 12.187500000000 53.826000213623 34 34 34
26.187500000000 12.187500000000 53.919002532959 112 112 112
26.250000000000 12.500000000000 53.499004364014 127 127 127
26.234375000000 12.500000000000 53.747997283936 63 63 63
26.218750000000 12.500000000000 53.774997711182 172 172 172
26.218750000000 12.500000000000 53.812000274658 17 17 17
26.218750000000 12.515625000000 53.871997833252 91 91 91
26.281250000000 12.812500000000 53.452999114990 37 37 37
26.265625000000 12.828125000000 53.483997344971 108 108 108
26.265625000000 12.843750000000 53.740001678467 82 82 82
26.250000000000 12.828125000000 53.766002655029 169 169 169
26.250000000000 12.828125000000 53.866001129150 123 123 123
26.296875000000 13.156250000000 53.441997528076 30 30 30
26.281250000000 13.156250000000 53.474002838135 109 109 109
26.281250000000 13.156250000000 53.731998443604 64 64 64
26.250000000000 13.156250000000 53.757999420166 168 168 168
26.281250000000 13.156250000000 53.817996978760 70 70 70
26.281250000000 13.156250000000 53.853000640869 37 37 37
26.328125000000 13.484375000000 53.433002471924 65 65 65
26.312500000000 13.468750000000 53.468997955322 196 196 196
26.312500000000 13.484375000000 53.509998321533 202 202 202
26.328125000000 13.484375000000 53.557003021240 176 176 176
26.328125000000 13.484375000000 53.601001739502 172 172 172
26.328125000000 13.484375000000 53.643001556396 199 199 199
26.328125000000 13.484375000000 53.686000823975 112 112 112
26.312500000000 13.484375000000 53.719997406006 48 48 48
26.281250000000 13.484375000000 53.749004364014 170 170 170
26.281250000000 13.484375000000 53.798000335693 128 128 128
26.343750000000 13.812500000000 53.427997589111 21 21 21
26.343750000000 13.812500000000 53.464000701904 182 182 182
26.312500000000 13.812500000000 53.501003265381 205 205 205
26.343750000000 13.812500000000 53.548999786377 210 210 210
26.343750000000 13.812500000000 53.597003936768 133 133 133
26.343750000000 13.812500000000 53.640003204346 199 199 199
26.343750000000 13.812500000000 53.685001373291 128 128 128
26.343750000000 13.812500000000 53.715000152588 43 43 43
26.296875000000 13.812500000000 53.740001678467 177 177 177
26.296875000000 13.812500000000 53.787998199463 37 37 37
26.343750000000 14.140625000000 53.453998565674 174 174 174
26.343750000000 14.140625000000 53.495998382568 217 217 217
26.343750000000 14.140625000000 53.538997650146 218 218 218
26.343750000000 14.140625000000 53.583003997803 222 222 222
26.375000000000 14.156250000000 53.628002166748 221 221 221
26.375000000000 14.156250000000 53.671001434326 150 150 150
26.312500000000 14.140625000000 53.734996795654 175 175 175
26.312500000000 14.140625000000 53.777004241943 57 57 57
26.375000000000 14.468750000000 53.445003509521 150 150 150
26.375000000000 14.468750000000 53.484996795654 219 219 219
26.375000000000 14.468750000000 53.532001495361 171 171 171
26.375000000000 14.468750000000 53.576000213623 159 159 159
26.390625000000 14.468750000000 53.622997283936 192 192 192
26.375000000000 14.468750000000 53.659999847412 172 172 172
26.343750000000 14.468750000000 53.730998992920 171 171 171
26.328125000000 14.468750000000 53.766002655029 90 90 90
26.375000000000 14.781250000000 53.430004119873 123 123 123
26.406250000000 14.796875000000 53.476001739502 218 218 218
26.406250000000 14.781250000000 53.519001007080 137 137 137
26.406250000000 14.781250000000 53.562000274658 103 103 103
26.437500000000 14.781250000000 53.618000030518 118 118 118
26.406250000000 14.781250000000 53.654003143311 199 199 199
26.375000000000 14.796875000000 53.725002288818 155 155 155
26.359375000000 14.796875000000 53.760997772217 129 129 129
26.406250000000 15.125000000000 53.421001434326 101 101 101
26.406250000000 15.125000000000 53.462001800537 204 204 204
26.406250000000 15.125000000000 53.505001068115 185 185 185
26.437500000000 15.125000000000 53.553997039795 185 185 185
26.406250000000 15.125000000000 53.593997955322 187 187 187
26.437500000000 15.125000000000 53.640003204346 205 205 205
26.406250000000 15.125000000000 53.677997589111 43 43 43
26.406250000000 15.125000000000 53.717998504639 153 153 153
26.375000000000 15.125000000000 53.751003265381 142 142 142
26.390625000000 15.125000000000 53.798999786377 103 103 103
26.437500000000 15.453125000000 53.417003631592 30 30 30
26.437500000000 15.453125000000 53.452999114990 185 185 185
26.406250000000 15.437500000000 53.490001678467 217 217 217
26.437500000000 15.453125000000 53.539997100830 186 186 186
26.437500000000 15.453125000000 53.584003448486 199 199 199
26.437500000000 15.453125000000 53.630001068115 218 218 218
26.437500000000 15.453125000000 53.680004119873 69 69 69
26.437500000000 15.453125000000 53.711002349854 103 103 103
26.406250000000 15.453125000000 53.743000030518 163 163 163
26.437500000000 15.453125000000 53.812000274658 104 104 104
26.437500000000 15.781250000000 53.440998077393 136 136 136
26.468750000000 15.781250000000 53.713001251221 73 73 73
26.437500000000 15.781250000000 53.736003875732 173 173 173
26.468750000000 15.781250000000 53.850002288818 116 116 116
26.468750000000 16.109375000000 53.430004119873 113 113 113
26.468750000000 16.109375000000 53.734996795654 169 169 169
26.468750000000 16.093750000000 53.780002593994 81 81 81
26.500000000000 16.109375000000 53.845996856689 69 69 69
26.500000000000 16.437500000000 53.428997039795 63 63 63
26.500000000000 16.437500000000 53.467998504639 77 77 77
26.500000000000 16.437500000000 53.730998992920 162 162 162
26.500000000000 16.437500000000 53.772998809814 120 120 120
26.531250000000 16.437500000000 53.880001068115 120 120 120
26.531250000000 16.750000000000 53.425998687744 32 32 32
26.531250000000 16.765625000000 53.463001251221 79 79 79
26.531250000000 16.750000000000 53.729000091553 115 115 115
26.500000000000 16.750000000000 53.760997772217 161 161 161
26.531250000000 16.781250000000 53.916004180908 116 116 116
26.562500000000 17.093750000000 53.722003936768 45 45 45
26.546875000000 17.093750000000 53.756999969482 164 164 164
26.546875000000 17.093750000000 53.807003021240 17 17 17
26.562500000000 17.093750000000 53.951999664307 121 121 121
26.562500000000 17.421875000000 53.753002166748 159 159 159
26.562500000000 17.406250000000 53.794002532959 66 66 66
26.593750000000 17.406250000000 53.991001129150 114 114 114
26.625000000000 17.750000000000 53.755001068115 137 137 137
26.593750000000 17.750000000000 53.788997650146 124 124 124
26.625000000000 17.750000000000 54.028003692627 99 99 99
26.625000000000 18.062500000000 53.215999603271 19 19 19
26.625000000000 18.062500000000 53.258998870850 34 34 34
26.625000000000 18.062500000000 53.305004119873 60 60 60
26.625000000000 18.062500000000 53.347003936768 78 78 78
26.609375000000 18.062500000000 53.384998321533 98 98 98
26.609375000000 18.062500000000 53.426998138428 108 108 108
26.609375000000 18.062500000000 53.468997955322 115 115 115
26.593750000000 18.078125000000 53.510997772217 114 114 114
26.593750000000 18.062500000000 53.551998138428 108 108 108
26.593750000000 18.078125000000 53.597003936768 134 134 134
26.593750000000 18.078125000000 53.643001556396 143 143 143
26.609375000000 18.062500000000 53.689998626709 150 150 150
26.593750000000 18.078125000000 53.731998443604 159 159 159
26.593750000000 18.062500000000 53.767002105713 141 141 141
26.531250000000 18.078125000000 53.793003082275 133 133 133
