16.000000000000 26.562500000000 56.167003631592 77 77 77
16.031250000000 26.593750000000 56.188999176025 95 95 95
16.031250000000 26.281250000000 55.158000946045 112 112 112
16.656250000000 26.640625000000 54.520000457764 126 126 126
16.031250000000 26.281250000000 56.174999237061 140 140 140
16.625000000000 26.312500000000 54.542003631592 171 171 171
16.031250000000 25.968750000000 56.160999298096 111 111 111
16.031250000000 25.984375000000 56.174999237061 50 50 50
16.031250000000 25.671875000000 55.169002532959 120 120 120
16.687500000000 26.031250000000 54.515003204346 96 96 96
16.031250000000 25.687500000000 56.162998199463 123 123 123
17.562500000000 26.546875000000 55.437000274658 87 87 87
17.593750000000 26.562500000000 55.450000762939 88 88 88
16.656250000000 25.718750000000 54.531002044678 166 166 166
16.031250000000 25.375000000000 56.162998199463 122 122 122
16.062500000000 25.375000000000 56.186000823975 38 38 38
17.562500000000 26.250000000000 55.448001861572 134 134 134
16.031250000000 25.062500000000 55.184001922607 127 127 127
16.718750000000 25.437500000000 54.508998870850 88 88 88
16.031250000000 25.062500000000 56.173999786377 125 125 125
17.562500000000 25.953125000000 55.451000213623 64 64 64
17.593750000000 25.968750000000 55.448001861572 122 122 122
16.031250000000 24.765625000000 55.157001495361 25 25 25
16.656250000000 25.125000000000 54.523998260498 165 165 165
16.031250000000 24.765625000000 56.159000396729 128 128 128
16.062500000000 24.781250000000 56.201000213623 16 16 16
17.578125000000 25.656250000000 55.438999176025 126 126 126
16.031250000000 24.437500000000 55.187999725342 125 125 125
16.718750000000 24.843750000000 54.506999969482 60 60 60
16.031250000000 24.437500000000 56.159000396729 39 39 39
16.062500000000 24.468750000000 56.171001434326 111 111 111
17.578125000000 25.343750000000 55.441997528076 55 55 55
17.609375000000 25.375000000000 55.453998565674 121 121 121
19.828125000000 26.625000000000 54.361003875732 239 239 239
19.843750000000 26.625000000000 54.350002288818 252 252 252
19.875000000000 26.640625000000 54.367000579834 158 158 158
16.062500000000 24.156250000000 55.145000457764 84 84 84
16.687500000000 24.515625000000 54.506999969482 131 131 131
16.062500000000 24.156250000000 56.156002044678 133 133 133
17.593750000000 25.046875000000 55.451999664307 128 128 128
19.828125000000 26.312500000000 54.345996856689 62 62 62
19.843750000000 26.312500000000 54.356998443604 252 252 252
19.859375000000 26.328125000000 54.356998443604 252 252 252
19.875000000000 26.343750000000 55.171001434326 117 117 117
16.062500000000 23.859375000000 55.176998138428 118 118 118
16.718750000000 24.234375000000 54.502002716064 42 42 42
16.062500000000 23.843750000000 56.145000457764 68 68 68
16.062500000000 23.875000000000 56.168003082275 99 99 99
17.562500000000 24.718750000000 55.460002899170 34 34 34
17.593750000000 24.750000000000 55.458003997803 129 129 129
19.843750000000 26.000000000000 54.369998931885 133 133 133
19.843750000000 26.031250000000 54.350002288818 252 252 252
19.875000000000 26.031250000000 54.383998870850 235 235 235
16.093750000000 23.562500000000 55.141002655029 88 88 88
16.718750000000 23.921875000000 54.499004364014 124 124 124
16.062500000000 23.562500000000 56.152004241943 141 141 141
17.593750000000 24.437500000000 55.465999603271 117 117 117
17.593750000000 24.437500000000 55.483997344971 54 54 54
19.843750000000 25.718750000000 54.364002227783 223 223 223
19.875000000000 25.718750000000 54.357997894287 252 252 252
19.875000000000 25.734375000000 54.377002716064 162 162 162
16.046875000000 23.234375000000 55.199001312256 113 113 113
16.734375000000 23.625000000000 54.493000030518 53 53 53
16.062500000000 23.250000000000 56.148998260498 43 43 43
16.062500000000 23.265625000000 56.163997650146 110 110 110
17.625000000000 24.140625000000 55.465999603271 132 132 132
19.875000000000 25.421875000000 54.349002838135 252 252 252
19.875000000000 25.437500000000 54.350002288818 252 252 252
19.906250000000 25.437500000000 54.452999114990 154 154 154
16.093750000000 22.968750000000 55.138004302979 95 95 95
16.718750000000 23.328125000000 54.494998931885 126 126 126
16.062500000000 22.937500000000 56.145999908447 140 140 140
17.625000000000 23.828125000000 55.466999053955 77 77 77
17.625000000000 23.843750000000 55.480998992920 87 87 87
19.875000000000 25.125000000000 54.365001678467 98 98 98
19.875000000000 25.125000000000 54.353000640869 252 252 252
19.906250000000 25.140625000000 54.391002655029 251 251 251
16.703125000000 23.000000000000 54.521999359131 173 173 173
16.062500000000 22.625000000000 56.147998809814 90 90 90
16.093750000000 22.656250000000 56.162998199463 83 83 83
17.609375000000 23.531250000000 55.479999542236 140 140 140
19.875000000000 24.812500000000 54.379001617432 198 198 198
19.875000000000 24.812500000000 54.352001190186 252 252 252
19.906250000000 24.843750000000 54.396999359131 157 157 157
16.093750000000 22.343750000000 55.132999420166 106 106 106
16.750000000000 22.718750000000 54.488002777100 116 116 116
16.093750000000 22.343750000000 56.150997161865 139 139 139
17.609375000000 23.218750000000 55.468997955322 63 63 63
17.640625000000 23.234375000000 55.481998443604 105 105 105
19.890625000000 24.515625000000 54.348003387451 252 252 252
19.906250000000 24.531250000000 54.362003326416 252 252 252
19.937500000000 24.546875000000 55.094997406006 113 113 113
16.687500000000 22.375000000000 54.524997711182 176 176 176
16.093750000000 22.031250000000 56.140003204346 82 82 82
16.125000000000 22.062500000000 56.163997650146 93 93 93
17.625000000000 22.921875000000 55.483997344971 132 132 132
19.890625000000 24.203125000000 54.375003814697 70 70 70
19.906250000000 24.218750000000 54.348003387451 252 252 252
19.921875000000 24.234375000000 54.381000518799 252 252 252
16.093750000000 21.734375000000 55.139003753662 106 106 106
16.750000000000 22.109375000000 54.486003875732 108 108 108
16.093750000000 21.750000000000 56.149997711182 139 139 139
17.625000000000 22.609375000000 55.487003326416 52 52 52
17.656250000000 22.625000000000 55.492000579834 124 124 124
19.906250000000 23.906250000000 54.371997833252 170 170 170
19.906250000000 23.921875000000 54.366001129150 252 252 252
19.937500000000 23.937500000000 54.384998321533 155 155 155
16.718750000000 21.781250000000 54.514003753662 172 172 172
16.093750000000 21.437500000000 56.136997222900 88 88 88
16.125000000000 21.437500000000 56.158000946045 72 72 72
17.625000000000 22.312500000000 55.493999481201 118 118 118
17.656250000000 22.328125000000 55.506000518799 43 43 43
19.906250000000 23.609375000000 54.363002777100 252 252 252
19.937500000000 23.625000000000 54.369998931885 252 252 252
19.937500000000 23.625000000000 54.465000152588 146 146 146
16.125000000000 21.125000000000 55.138004302979 109 109 109
16.781250000000 21.500000000000 54.488002777100 105 105 105
16.109375000000 21.125000000000 56.153003692627 137 137 137
17.656250000000 22.031250000000 55.495998382568 130 130 130
19.906250000000 23.312500000000 54.386997222900 56 56 56
19.937500000000 23.312500000000 54.363002777100 252 252 252
19.937500000000 23.328125000000 54.371997833252 252 252 252
16.734375000000 21.187500000000 54.507999420166 162 162 162
16.093750000000 20.812500000000 56.143001556396 102 102 102
16.140625000000 20.843750000000 56.153003692627 44 44 44
17.656250000000 21.703125000000 55.517002105713 104 104 104
17.656250000000 21.718750000000 55.506000518799 65 65 65
19.937500000000 23.000000000000 54.383998870850 60 60 60
19.937500000000 23.015625000000 54.365001678467 247 247 247
19.968750000000 23.031250000000 54.418003082275 159 159 159
16.093750000000 20.500000000000 55.178997039795 110 110 110
16.781250000000 20.906250000000 54.494998931885 77 77 77
16.125000000000 20.531250000000 56.146999359131 122 122 122
17.625000000000 21.390625000000 55.515003204346 25 25 25
17.656250000000 21.406250000000 55.501003265381 127 127 127
19.937500000000 22.718750000000 54.376003265381 214 214 214
19.968750000000 22.718750000000 54.372997283936 252 252 252
16.125000000000 20.218750000000 55.135997772217 34 34 34
16.750000000000 20.578125000000 54.499004364014 151 151 151
16.125000000000 20.218750000000 56.144001007080 115 115 115
17.656250000000 21.093750000000 55.505001068115 96 96 96
17.671875000000 21.125000000000 55.518001556396 71 71 71
19.953125000000 22.406250000000 54.363002777100 237 237 237
19.968750000000 22.437500000000 54.382999420166 215 215 215
16.093750000000 19.890625000000 55.190998077393 103 103 103
16.781250000000 20.281250000000 54.496997833252 67 67 67
16.156250000000 19.921875000000 56.156002044678 129 129 129
17.656250000000 20.812500000000 55.517002105713 130 130 130
19.937500000000 22.109375000000 54.356998443604 44 44 44
19.968750000000 22.125000000000 54.361003875732 240 240 240
19.968750000000 22.125000000000 54.419002532959 151 151 151
16.125000000000 19.593750000000 55.132999420166 27 27 27
16.781250000000 19.968750000000 54.497997283936 140 140 140
16.125000000000 19.609375000000 56.142002105713 129 129 129
17.656250000000 20.500000000000 55.517002105713 83 83 83
17.687500000000 20.500000000000 55.534999847412 90 90 90
19.968750000000 21.796875000000 54.365001678467 184 184 184
19.984375000000 21.812500000000 54.371997833252 252 252 252
16.750000000000 19.640625000000 54.519001007080 166 166 166
16.812500000000 19.687500000000 54.497997283936 35 35 35
16.109375000000 19.281250000000 56.139003753662 58 58 58
16.140625000000 19.312500000000 56.159000396729 103 103 103
17.656250000000 20.187500000000 55.528003692627 128 128 128
19.968750000000 21.500000000000 54.363002777100 239 239 239
20.000000000000 21.515625000000 54.380001068115 189 189 189
16.140625000000 19.000000000000 55.133998870850 65 65 65
16.812500000000 19.375000000000 54.495998382568 123 123 123
16.140625000000 19.000000000000 56.147998809814 133 133 133
17.656250000000 19.875000000000 55.538997650146 79 79 79
17.687500000000 19.890625000000 55.549999237061 96 96 96
19.968750000000 21.187500000000 54.385997772217 50 50 50
20.000000000000 21.203125000000 54.372997283936 223 223 223
20.000000000000 21.218750000000 54.440998077393 125 125 125
16.765625000000 19.046875000000 54.521999359131 166 166 166
16.125000000000 18.687500000000 56.147998809814 52 52 52
16.156250000000 18.703125000000 56.166004180908 106 106 106
17.687500000000 19.593750000000 55.546001434326 121 121 121
20.000000000000 20.906250000000 54.367000579834 210 210 210
20.000000000000 20.906250000000 54.369998931885 252 252 252
16.156250000000 18.390625000000 55.141002655029 66 66 66
16.812500000000 18.765625000000 54.486003875732 121 121 121
16.156250000000 18.406250000000 56.143001556396 137 137 137
17.687500000000 19.281250000000 55.547000885010 49 49 49
17.718750000000 19.281250000000 55.547000885010 117 117 117
20.000000000000 20.593750000000 54.357997894287 232 232 232
20.031250000000 20.625000000000 54.368000030518 172 172 172
16.781250000000 18.437500000000 54.518001556396 161 161 161
16.125000000000 18.078125000000 56.145000457764 64 64 64
16.156250000000 18.093750000000 56.159000396729 98 98 98
17.718750000000 18.968750000000 55.547000885010 120 120 120
17.718750000000 18.968750000000 55.570003509521 27 27 27
20.000000000000 20.296875000000 54.374004364014 82 82 82
20.031250000000 20.312500000000 54.369998931885 242 242 242
20.031250000000 20.312500000000 54.433002471924 79 79 79
16.187500000000 17.781250000000 55.139003753662 67 67 67
16.812500000000 18.156250000000 54.489002227783 121 121 121
16.156250000000 17.781250000000 56.154003143311 130 130 130
17.703125000000 18.687500000000 55.553997039795 134 134 134
20.031250000000 19.984375000000 54.358997344971 229 229 229
20.031250000000 20.000000000000 54.364002227783 242 242 242
16.781250000000 17.843750000000 54.517002105713 165 165 165
16.156250000000 17.468750000000 56.155002593994 63 63 63
16.187500000000 17.484375000000 56.168003082275 94 94 94
17.718750000000 18.375000000000 55.551998138428 89 89 89
17.718750000000 18.375000000000 55.573001861572 76 76 76
20.031250000000 19.687500000000 54.355998992920 222 222 222
20.046875000000 19.703125000000 54.386997222900 146 146 146
16.187500000000 17.187500000000 55.148998260498 34 34 34
16.843750000000 17.562500000000 54.493999481201 125 125 125
16.187500000000 17.171875000000 56.155002593994 130 130 130
17.718750000000 18.062500000000 55.569004058838 126 126 126
20.031250000000 19.375000000000 54.371997833252 92 92 92
20.046875000000 19.390625000000 54.374004364014 249 249 249
20.078125000000 19.406250000000 54.392002105713 58 58 58
16.812500000000 17.218750000000 54.517002105713 167 167 167
16.171875000000 16.875000000000 56.146999359131 70 70 70
16.187500000000 16.875000000000 56.177997589111 99 99 99
17.718750000000 17.750000000000 55.563999176025 73 73 73
17.718750000000 17.781250000000 55.587001800537 98 98 98
20.031250000000 19.093750000000 54.367000579834 233 233 233
20.062500000000 19.093750000000 54.366001129150 211 211 211
16.187500000000 16.562500000000 55.150997161865 30 30 30
16.843750000000 16.937500000000 54.496997833252 130 130 130
16.156250000000 16.562500000000 56.166004180908 133 133 133
17.718750000000 17.453125000000 55.583003997803 116 116 116
20.062500000000 18.781250000000 54.366001129150 219 219 219
20.093750000000 18.812500000000 54.379001617432 115 115 115
16.781250000000 16.609375000000 54.537998199463 165 165 165
16.859375000000 16.656250000000 54.516002655029 51 51 51
16.156250000000 16.250000000000 56.158000946045 21 21 21
16.187500000000 16.281250000000 56.172000885010 115 115 115
17.750000000000 17.156250000000 55.591999053955 130 130 130
20.062500000000 18.500000000000 54.381999969482 86 86 86
20.062500000000 18.500000000000 54.367000579834 225 225 225
16.843750000000 16.343750000000 54.503002166748 142 142 142
16.187500000000 15.968750000000 56.159999847412 128 128 128
17.718750000000 16.843750000000 55.590999603271 104 104 104
17.750000000000 16.843750000000 55.616001129150 58 58 58
20.062500000000 18.187500000000 54.359996795654 223 223 223
20.093750000000 18.187500000000 54.358997344971 200 200 200
16.187500000000 15.656250000000 55.198001861572 94 94 94
16.875000000000 16.046875000000 54.510997772217 73 73 73
16.187500000000 15.656250000000 56.169002532959 16 16 16
16.218750000000 15.671875000000 56.180004119873 115 115 115
17.734375000000 16.546875000000 55.614002227783 132 132 132
20.093750000000 17.875000000000 54.359996795654 214 214 214
20.093750000000 17.906250000000 54.368000030518 100 100 100
16.843750000000 15.734375000000 54.522998809814 155 155 155
16.187500000000 15.359375000000 56.172000885010 124 124 124
17.718750000000 16.250000000000 55.606998443604 58 58 58
17.750000000000 16.250000000000 55.631000518799 122 122 122
20.078125000000 17.578125000000 54.395999908447 93 93 93
20.109375000000 17.593750000000 54.367000579834 227 227 227
16.218750000000 15.062500000000 55.177997589111 89 89 89
16.875000000000 15.437500000000 54.510997772217 114 114 114
16.218750000000 15.062500000000 56.178997039795 125 125 125
17.750000000000 15.937500000000 55.615001678467 101 101 101
17.781250000000 15.968750000000 55.628002166748 56 56 56
20.093750000000 17.281250000000 54.365001678467 208 208 208
20.093750000000 17.281250000000 54.359996795654 212 212 212
16.828125000000 15.109375000000 54.542003631592 167 167 167
16.187500000000 14.750000000000 56.173999786377 97 97 97
16.234375000000 14.765625000000 56.194004058838 52 52 52
17.750000000000 15.656250000000 55.641002655029 127 127 127
20.093750000000 16.968750000000 54.367000579834 212 212 212
20.125000000000 17.000000000000 54.378002166748 128 128 128
16.218750000000 14.453125000000 55.171001434326 21 21 21
16.875000000000 14.843750000000 54.520999908447 140 140 140
16.218750000000 14.468750000000 56.177997589111 133 133 133
17.750000000000 15.343750000000 55.620998382568 52 52 52
17.781250000000 15.343750000000 55.639003753662 117 117 117
20.125000000000 16.687500000000 54.365001678467 208 208 208
20.125000000000 16.687500000000 54.359996795654 43 43 43
16.218750000000 14.156250000000 55.214000701904 106 106 106
16.906250000000 14.531250000000 54.520999908447 88 88 88
16.218750000000 14.156250000000 56.160999298096 58 58 58
16.250000000000 14.171875000000 56.196002960205 92 92 92
17.765625000000 15.031250000000 55.641002655029 103 103 103
17.796875000000 15.062500000000 55.653003692627 55 55 55
20.125000000000 16.375000000000 54.384998321533 150 150 150
20.156250000000 16.390625000000 54.368000030518 222 222 222
16.875000000000 14.218750000000 54.539997100830 169 169 169
16.218750000000 13.843750000000 56.189998626709 124 124 124
17.750000000000 14.750000000000 55.661998748779 124 124 124
20.125000000000 16.078125000000 54.365001678467 211 211 211
20.140625000000 16.093750000000 54.364002227783 192 192 192
16.250000000000 13.562500000000 55.181003570557 94 94 94
16.906250000000 13.937500000000 54.520000457764 115 115 115
16.250000000000 13.562500000000 56.198001861572 114 114 114
17.750000000000 14.437500000000 55.661998748779 67 67 67
17.781250000000 14.437500000000 55.667003631592 116 116 116
20.156250000000 15.796875000000 54.368999481201 208 208 208
20.187500000000 15.796875000000 54.375003814697 63 63 63
16.843750000000 13.593750000000 54.563999176025 167 167 167
16.906250000000 13.625000000000 54.541004180908 36 36 36
16.234375000000 13.250000000000 56.185001373291 114 114 114
17.781250000000 14.125000000000 55.670001983643 113 113 113
17.812500000000 14.156250000000 55.680004119873 51 51 51
20.156250000000 15.484375000000 54.414997100830 109 109 109
20.156250000000 15.500000000000 54.374004364014 216 216 216
16.250000000000 12.937500000000 55.189998626709 22 22 22
16.906250000000 13.312500000000 54.543003082275 150 150 150
16.250000000000 12.953125000000 56.203998565674 121 121 121
17.781250000000 13.843750000000 55.686000823975 128 128 128
20.156250000000 15.187500000000 54.366001129150 207 207 207
20.187500000000 15.187500000000 54.364002227783 207 207 207
16.218750000000 12.625000000000 55.245998382568 105 105 105
16.921875000000 13.031250000000 54.544002532959 74 74 74
16.250000000000 12.656250000000 56.178997039795 87 87 87
16.281250000000 12.656250000000 56.203998565674 41 41 41
17.781250000000 13.531250000000 55.684001922607 67 67 67
17.796875000000 13.531250000000 55.701000213623 103 103 103
20.187500000000 14.875000000000 54.379001617432 216 216 216
20.187500000000 14.890625000000 54.383998870850 86 86 86
16.875000000000 12.687500000000 54.567996978760 167 167 167
16.281250000000 12.343750000000 56.204998016357 130 130 130
17.781250000000 13.218750000000 55.699001312256 102 102 102
17.812500000000 13.234375000000 55.716999053955 42 42 42
20.187500000000 14.578125000000 54.494998931885 108 108 108
20.187500000000 14.593750000000 54.380001068115 220 220 220
16.281250000000 12.031250000000 55.201999664307 94 94 94
16.937500000000 12.406250000000 54.546001434326 104 104 104
16.250000000000 12.031250000000 56.199001312256 59 59 59
16.281250000000 12.031250000000 56.222003936768 85 85 85
17.812500000000 12.937500000000 55.718997955322 125 125 125
20.187500000000 14.281250000000 54.379001617432 195 195 195
20.187500000000 14.281250000000 54.379001617432 252 252 252
20.218750000000 14.296875000000 54.371997833252 202 202 202
16.875000000000 12.078125000000 54.588001251221 173 173 173
16.265625000000 11.734375000000 56.214000701904 124 124 124
17.781250000000 12.625000000000 55.716999053955 90 90 90
17.812500000000 12.625000000000 55.724002838135 90 90 90
20.203125000000 13.984375000000 54.378002166748 204 204 204
20.218750000000 14.000000000000 54.368000030518 76 76 76
16.281250000000 11.437500000000 55.203998565674 66 66 66
16.937500000000 11.812500000000 54.549999237061 127 127 127
16.250000000000 11.437500000000 56.196002960205 17 17 17
16.281250000000 11.437500000000 56.226001739502 110 110 110
17.812500000000 12.312500000000 55.728000640869 129 129 129
20.187500000000 13.671875000000 54.527004241943 116 116 116
20.218750000000 13.687500000000 54.366001129150 200 200 200
16.281250000000 11.125000000000 55.252002716064 104 104 104
16.937500000000 11.500000000000 54.562999725342 87 87 87
16.281250000000 11.125000000000 56.222003936768 92 92 92
16.296875000000 11.140625000000 56.253002166748 59 59 59
17.812500000000 12.031250000000 55.749004364014 126 126 126
20.203125000000 13.375000000000 54.380001068115 147 147 147
20.234375000000 13.390625000000 54.368000030518 197 197 197
16.906250000000 11.171875000000 54.584003448486 164 164 164
16.281250000000 10.828125000000 56.237003326416 131 131 131
17.812500000000 11.718750000000 55.738002777100 84 84 84
17.843750000000 11.718750000000 55.757999420166 102 102 102
20.218750000000 13.078125000000 54.381999969482 209 209 209
20.218750000000 13.093750000000 54.363002777100 109 109 109
16.312500000000 10.531250000000 55.216999053955 78 78 78
16.953125000000 10.906250000000 54.564998626709 126 126 126
16.281250000000 10.515625000000 56.228000640869 53 53 53
16.312500000000 10.531250000000 56.253002166748 96 96 96
17.828125000000 11.406250000000 55.756999969482 113 113 113
17.843750000000 11.406250000000 55.766002655029 35 35 35
20.250000000000 12.781250000000 54.948001861572 91 91 91
20.218750000000 12.781250000000 54.369998931885 193 193 193
16.937500000000 10.593750000000 54.562999725342 103 103 103
16.968750000000 10.593750000000 54.585002899170 25 25 25
16.312500000000 10.218750000000 56.238002777100 131 131 131
17.843750000000 11.125000000000 55.782001495361 114 114 114
20.250000000000 12.468750000000 54.391002655029 152 152 152
20.250000000000 12.484375000000 54.364002227783 201 201 201
16.312500000000 10.218750000000 55.249004364014 111 111 111
16.312500000000 9.906250000000 55.241001129150 29 29 29
16.937500000000 10.281250000000 54.587001800537 145 145 145
16.312500000000 9.937500000000 56.254001617432 114 114 114
17.843750000000 10.812500000000 55.770999908447 82 82 82
17.843750000000 10.812500000000 55.784999847412 102 102 102
20.234375000000 12.171875000000 54.381999969482 212 212 212
20.250000000000 12.187500000000 54.358997344971 158 158 158
16.312500000000 9.593750000000 55.280002593994 109 109 109
16.968750000000 10.000000000000 54.595996856689 83 83 83
16.296875000000 9.609375000000 56.257999420166 121 121 121
16.312500000000 9.625000000000 56.272998809814 16 16 16
17.843750000000 10.500000000000 55.780002593994 122 122 122
20.265625000000 11.875000000000 54.976001739502 107 107 107
20.265625000000 11.875000000000 54.368999481201 185 185 185
16.937500000000 9.656250000000 54.607997894287 172 172 172
16.312500000000 9.312500000000 56.264003753662 137 137 137
17.875000000000 10.218750000000 55.814998626709 115 115 115
20.250000000000 11.562500000000 54.507999420166 141 141 141
20.265625000000 11.562500000000 54.361003875732 197 197 197
16.343750000000 9.015625000000 55.243000030518 69 69 69
16.968750000000 9.375000000000 54.595996856689 125 125 125
16.312500000000 9.000000000000 56.258998870850 76 76 76
16.343750000000 9.015625000000 56.280002593994 89 89 89
17.843750000000 9.906250000000 55.801998138428 75 75 75
17.875000000000 9.906250000000 55.823001861572 108 108 108
20.281250000000 11.265625000000 54.377002716064 196 196 196
20.281250000000 11.281250000000 54.355998992920 178 178 178
16.312500000000 8.703125000000 55.306003570557 110 110 110
17.000000000000 9.093750000000 54.601001739502 66 66 66
16.312500000000 8.718750000000 56.270000457764 131 131 131
17.859375000000 9.593750000000 55.826999664307 110 110 110
17.875000000000 9.609375000000 55.837001800537 33 33 33
20.281250000000 10.968750000000 54.994998931885 90 90 90
20.281250000000 10.968750000000 54.374004364014 194 194 194
20.281250000000 10.968750000000 54.374004364014 63 63 63
16.343750000000 8.406250000000 55.258998870850 18 18 18
16.968750000000 8.765625000000 54.615001678467 155 155 155
16.312500000000 8.406250000000 56.270999908447 14 14 14
16.343750000000 8.421875000000 56.286998748779 112 112 112
17.859375000000 9.281250000000 55.847003936768 118 118 118
20.281250000000 10.656250000000 54.564998626709 139 139 139
20.312500000000 10.687500000000 54.364002227783 185 185 185
16.343750000000 8.109375000000 55.266002655029 93 93 93
17.000000000000 8.468750000000 54.614002227783 110 110 110
16.312500000000 8.093750000000 56.282001495361 106 106 106
16.375000000000 8.125000000000 56.293003082275 23 23 23
17.843750000000 8.984375000000 55.840000152588 64 64 64
17.890625000000 9.000000000000 55.848003387451 105 105 105
20.281250000000 10.375000000000 54.376003265381 161 161 161
20.312500000000 10.375000000000 54.357997894287 191 191 191
16.937500000000 8.125000000000 54.662998199463 174 174 174
17.000000000000 8.187500000000 54.625003814697 35 35 35
16.375000000000 7.812500000000 56.282001495361 131 131 131
17.875000000000 8.687500000000 55.861003875732 110 110 110
17.875000000000 8.687500000000 55.884998321533 30 30 30
20.312500000000 10.062500000000 55.010997772217 88 88 88
20.312500000000 10.062500000000 54.369998931885 194 194 194
20.343750000000 10.062500000000 54.359996795654 102 102 102
16.343750000000 7.500000000000 55.284000396729 38 38 38
16.968750000000 7.859375000000 54.634998321533 145 145 145
16.343750000000 7.500000000000 56.282001495361 75 75 75
16.375000000000 7.500000000000 56.311000823975 79 79 79
17.875000000000 8.375000000000 55.875003814697 115 115 115
20.312500000000 9.781250000000 55.002002716064 110 110 110
20.312500000000 9.765625000000 54.370998382568 167 167 167
16.343750000000 7.187500000000 55.323001861572 115 115 115
17.031250000000 7.562500000000 54.629001617432 85 85 85
16.359375000000 7.187500000000 56.297000885010 137 137 137
17.875000000000 8.078125000000 55.885997772217 84 84 84
17.906250000000 8.093750000000 55.881999969482 101 101 101
20.328125000000 9.468750000000 54.402004241943 157 157 157
20.343750000000 9.468750000000 54.357997894287 183 183 183
16.968750000000 7.234375000000 54.671001434326 173 173 173
16.343750000000 6.890625000000 56.315998077393 113 113 113
17.906250000000 7.781250000000 55.888004302979 107 107 107
17.906250000000 7.781250000000 55.911998748779 29 29 29
20.343750000000 9.171875000000 55.021999359131 101 101 101
20.312500000000 9.156250000000 54.367000579834 181 181 181
20.343750000000 9.156250000000 54.355998992920 117 117 117
16.375000000000 6.593750000000 55.299999237061 55 55 55
17.000000000000 6.937500000000 54.654003143311 141 141 141
16.343750000000 6.593750000000 56.306003570557 97 97 97
16.375000000000 6.593750000000 56.331996917725 56 56 56
17.906250000000 7.468750000000 55.914997100830 124 124 124
20.375000000000 8.875000000000 55.016002655029 105 105 105
20.343750000000 8.875000000000 54.364002227783 168 168 168
16.375000000000 6.281250000000 55.351001739502 116 116 116
17.000000000000 6.656250000000 54.660999298096 90 90 90
16.375000000000 6.281250000000 56.319004058838 138 138 138
17.875000000000 7.171875000000 55.908000946045 59 59 59
17.906250000000 7.187500000000 55.928997039795 109 109 109
20.343750000000 8.562500000000 54.477001190186 151 151 151
20.343750000000 8.562500000000 54.368000030518 185 185 185
17.000000000000 6.343750000000 54.650997161865 104 104 104
16.343750000000 5.968750000000 56.333003997803 28 28 28
16.375000000000 6.000000000000 56.341999053955 104 104 104
17.906250000000 6.875000000000 55.931003570557 92 92 92
17.937500000000 6.875000000000 55.948001861572 53 53 53
20.375000000000 8.281250000000 55.025997161865 99 99 99
20.343750000000 8.250000000000 54.374004364014 171 171 171
20.375000000000 8.281250000000 54.367000579834 148 148 148
16.375000000000 5.984375000000 55.354999542236 109 109 109
16.406250000000 5.687500000000 55.326000213623 85 85 85
17.031250000000 6.062500000000 54.656002044678 127 127 127
16.375000000000 5.687500000000 56.333003997803 128 128 128
17.906250000000 6.562500000000 55.950000762939 119 119 119
20.375000000000 7.968750000000 55.018001556396 104 104 104
20.375000000000 7.968750000000 54.369998931885 169 169 169
16.375000000000 5.375000000000 55.377002716064 117 117 117
17.062500000000 5.750000000000 54.666004180908 77 77 77
16.375000000000 5.390625000000 56.358997344971 127 127 127
17.906250000000 6.250000000000 55.954998016357 68 68 68
17.937500000000 6.265625000000 55.967998504639 118 118 118
20.375000000000 7.656250000000 55.041004180908 52 52 52
20.375000000000 7.656250000000 54.445003509521 155 155 155
20.375000000000 7.656250000000 54.364002227783 182 182 182
17.015625000000 5.437500000000 54.697002410889 168 168 168
16.375000000000 5.062500000000 56.355998992920 82 82 82
16.421875000000 5.093750000000 56.364002227783 79 79 79
17.906250000000 5.953125000000 55.977001190186 104 104 104
17.937500000000 5.968750000000 55.978000640869 59 59 59
20.375000000000 7.375000000000 55.045001983643 107 107 107
20.375000000000 7.343750000000 54.368999481201 160 160 160
20.375000000000 7.359375000000 54.368000030518 149 149 149
16.421875000000 4.781250000000 55.342998504639 96 96 96
17.046875000000 5.140625000000 54.685001373291 130 130 130
16.406250000000 4.781250000000 56.348003387451 131 131 131
17.937500000000 5.656250000000 55.979999542236 119 119 119
20.406250000000 7.062500000000 55.028003692627 109 109 109
20.390625000000 7.031250000000 54.368999481201 165 165 165
20.421875000000 7.062500000000 54.376003265381 44 44 44
16.375000000000 4.453125000000 55.413997650146 121 121 121
17.062500000000 4.843750000000 54.689998626709 67 67 67
16.375000000000 4.468750000000 56.351001739502 13 13 13
16.406250000000 4.468750000000 56.378002166748 114 114 114
17.921875000000 5.343750000000 55.993000030518 61 61 61
17.937500000000 5.375000000000 56.004001617432 110 110 110
20.406250000000 6.750000000000 55.028003692627 78 78 78
20.406250000000 6.750000000000 54.421001434326 147 147 147
20.406250000000 6.750000000000 54.371997833252 189 189 189
16.406250000000 4.156250000000 55.361003875732 46 46 46
17.031250000000 4.515625000000 54.718997955322 157 157 157
16.406250000000 4.156250000000 56.364002227783 113 113 113
16.437500000000 4.187500000000 56.369998931885 13 13 13
17.937500000000 5.062500000000 56.010997772217 95 95 95
17.968750000000 5.062500000000 56.025997161865 58 58 58
20.437500000000 6.468750000000 55.044002532959 102 102 102
20.406250000000 6.437500000000 54.368999481201 171 171 171
20.437500000000 6.453125000000 54.382999420166 151 151 151
16.437500000000 3.875000000000 55.380001068115 110 110 110
17.062500000000 4.234375000000 54.705997467041 117 117 117
16.437500000000 3.875000000000 56.388004302979 137 137 137
17.937500000000 4.750000000000 56.025997161865 112 112 112
20.421875000000 6.156250000000 55.037998199463 118 118 118
20.437500000000 6.156250000000 54.365001678467 171 171 171
20.437500000000 6.156250000000 54.385997772217 38 38 38
16.406250000000 3.546875000000 55.431003570557 124 124 124
17.062500000000 3.921875000000 54.722003936768 76 76 76
16.406250000000 3.546875000000 56.395000457764 62 62 62
16.437500000000 3.562500000000 56.408000946045 87 87 87
17.906250000000 4.421875000000 56.056003570557 45 45 45
17.968750000000 4.453125000000 56.048000335693 108 108 108
20.421875000000 5.859375000000 55.061000823975 85 85 85
20.437500000000 5.843750000000 54.509998321533 119 119 119
20.437500000000 5.843750000000 54.365001678467 168 168 168
16.437500000000 3.250000000000 55.383998870850 44 44 44
17.062500000000 3.609375000000 54.736003875732 156 156 156
16.421875000000 3.250000000000 56.386997222900 127 127 127
17.937500000000 4.125000000000 56.050998687744 95 95 95
17.968750000000 4.156250000000 56.066997528076 63 63 63
20.437500000000 5.562500000000 55.062999725342 105 105 105
20.437500000000 5.531250000000 54.368999481201 158 158 158
20.437500000000 5.546875000000 54.368999481201 134 134 134
16.453125000000 2.968750000000 55.393001556396 118 118 118
17.093750000000 3.328125000000 54.724002838135 114 114 114
16.437500000000 2.968750000000 56.413997650146 125 125 125
17.968750000000 3.843750000000 56.073001861572 110 110 110
20.468750000000 5.265625000000 55.051998138428 111 111 111
20.437500000000 5.234375000000 54.372997283936 152 152 152
20.453125000000 5.250000000000 54.372997283936 31 31 31
16.437500000000 2.656250000000 55.450000762939 123 123 123
17.093750000000 3.031250000000 54.743000030518 97 97 97
16.406250000000 2.656250000000 56.411998748779 79 79 79
16.437500000000 2.656250000000 56.435001373291 76 76 76
17.968750000000 3.531250000000 56.086002349854 116 116 116
20.468750000000 4.953125000000 55.074001312256 90 90 90
20.468750000000 4.937500000000 54.378002166748 164 164 164
16.437500000000 2.343750000000 55.423000335693 21 21 21
17.031250000000 2.687500000000 54.789997100830 156 156 156
17.093750000000 2.718750000000 54.763004302979 27 27 27
16.437500000000 2.343750000000 56.420001983643 129 129 129
17.968750000000 3.218750000000 56.087001800537 84 84 84
17.968750000000 3.250000000000 56.097003936768 91 91 91
20.468750000000 4.656250000000 55.079998016357 105 105 105
20.437500000000 4.625000000000 54.377002716064 130 130 130
20.468750000000 4.640625000000 54.361003875732 157 157 157
16.468750000000 2.046875000000 55.419002532959 108 108 108
17.093750000000 2.406250000000 54.761997222900 115 115 115
16.437500000000 2.031250000000 56.444004058838 125 125 125
17.984375000000 2.937500000000 56.104000091553 111 111 111
20.468750000000 4.343750000000 55.089000701904 50 50 50
20.468750000000 4.343750000000 55.065998077393 103 103 103
20.468750000000 4.328125000000 54.370998382568 147 147 147
20.468750000000 4.343750000000 54.368999481201 36 36 36
16.468750000000 1.750000000000 55.454998016357 124 124 124
17.093750000000 2.109375000000 54.761997222900 107 107 107
16.437500000000 1.734375000000 56.432003021240 100 100 100
16.500000000000 1.750000000000 56.453998565674 50 50 50
17.968750000000 2.625000000000 56.129001617432 119 119 119
20.500000000000 4.046875000000 55.102001190186 89 89 89
20.468750000000 4.031250000000 54.370998382568 156 156 156
16.468750000000 1.437500000000 55.492000579834 103 103 103
17.125000000000 1.812500000000 54.782001495361 61 61 61
16.468750000000 1.437500000000 56.446002960205 128 128 128
17.968750000000 2.312500000000 56.146999359131 59 59 59
18.000000000000 2.343750000000 56.147998809814 103 103 103
20.500000000000 3.750000000000 55.090999603271 102 102 102
20.468750000000 3.718750000000 54.368000030518 116 116 116
20.500000000000 3.750000000000 54.371997833252 168 168 168
16.500000000000 1.156250000000 55.448001861572 83 83 83
17.078125000000 1.484375000000 54.808002471924 141 141 141
16.484375000000 1.156250000000 56.466999053955 119 119 119
18.000000000000 2.015625000000 56.146999359131 88 88 88
18.000000000000 2.031250000000 56.163997650146 71 71 71
20.500000000000 3.453125000000 55.099002838135 33 33 33
20.515625000000 3.468750000000 55.088001251221 107 107 107
20.484375000000 3.437500000000 54.372997283936 148 148 148
20.500000000000 3.437500000000 54.364002227783 106 106 106
16.500000000000 0.843750000000 55.461002349854 112 112 112
17.125000000000 1.203125000000 54.781002044678 104 104 104
16.468750000000 0.843750000000 56.459003448486 96 96 96
16.468750000000 0.843750000000 56.482997894287 39 39 39
18.000000000000 1.718750000000 56.171001434326 109 109 109
20.500000000000 3.156250000000 55.095996856689 94 94 94
20.500000000000 3.125000000000 54.368000030518 152 152 152
16.468750000000 0.531250000000 55.521999359131 112 112 112
17.140625000000 0.906250000000 54.796001434326 85 85 85
16.468750000000 0.531250000000 56.483997344971 137 137 137
18.015625000000 1.421875000000 56.175998687744 105 105 105
20.531250000000 2.843750000000 55.106998443604 102 102 102
20.500000000000 2.828125000000 54.379001617432 76 76 76
20.500000000000 2.843750000000 54.358997344971 173 173 173
16.500000000000 0.218750000000 55.480998992920 68 68 68
17.093750000000 0.562500000000 54.848003387451 139 139 139
17.140625000000 0.593750000000 54.814998626709 29 29 29
16.500000000000 0.250000000000 56.495998382568 112 112 112
18.000000000000 1.109375000000 56.187000274658 79 79 79
18.031250000000 1.125000000000 56.203998565674 79 79 79
20.531250000000 2.546875000000 55.116001129150 52 52 52
20.531250000000 2.562500000000 55.103000640869 105 105 105
20.500000000000 2.531250000000 54.365001678467 138 138 138
20.531250000000 2.546875000000 54.366001129150 125 125 125
17.125000000000 0.296875000000 54.815998077393 105 105 105
18.000000000000 0.812500000000 56.215999603271 111 111 111
20.531250000000 2.250000000000 55.118000030518 94 94 94
20.531250000000 2.234375000000 54.372997283936 133 133 133
17.156250000000 0.000000000000 54.828998565674 96 96 96
18.031250000000 0.515625000000 56.225002288818 110 110 110
20.562500000000 1.953125000000 55.118999481201 104 104 104
20.531250000000 1.937500000000 54.372997283936 164 164 164
18.000000000000 0.187500000000 56.233997344971 70 70 70
18.031250000000 0.218750000000 56.249004364014 103 103 103
20.546875000000 1.640625000000 55.121997833252 64 64 64
20.562500000000 1.656250000000 55.130001068115 95 95 95
20.531250000000 1.625000000000 54.377002716064 124 124 124
20.562500000000 1.343750000000 55.140003204346 89 89 89
20.546875000000 1.328125000000 54.371997833252 134 134 134
20.562500000000 1.046875000000 55.145999908447 110 110 110
20.593750000000 0.750000000000 55.149997711182 75 75 75
20.593750000000 0.750000000000 55.133998870850 78 78 78
20.562500000000 0.718750000000 54.366001129150 63 63 63
20.593750000000 0.437500000000 55.148998260498 88 88 88
20.609375000000 0.156250000000 55.154003143311 113 113 113
19.843750000000 26.593750000000 55.100002288818 114 114 114
19.859375000000 26.296875000000 55.094997406006 104 104 104
19.875000000000 26.281250000000 55.104999542236 90 90 90
19.859375000000 25.984375000000 55.097003936768 113 113 113
19.875000000000 25.687500000000 55.090999603271 43 43 43
19.875000000000 25.687500000000 55.071002960205 116 116 116
19.843750000000 25.687500000000 54.431003570557 125 125 125
19.875000000000 25.375000000000 55.070003509521 115 115 115
19.906250000000 25.375000000000 55.078998565674 68 68 68
19.890625000000 25.062500000000 55.067996978760 107 107 107
19.875000000000 25.078125000000 54.410999298096 143 143 143
19.906250000000 24.781250000000 55.076999664307 69 69 69
19.906250000000 24.765625000000 55.076999664307 117 117 117
19.875000000000 24.781250000000 54.414997100830 145 145 145
19.906250000000 24.468750000000 55.063999176025 117 117 117
19.875000000000 24.468750000000 54.405002593994 108 108 108
19.921875000000 24.156250000000 55.055004119873 115 115 115
19.890625000000 24.171875000000 54.410999298096 136 136 136
19.906250000000 24.156250000000 54.368000030518 77 77 77
19.906250000000 23.859375000000 55.051998138428 98 98 98
19.937500000000 23.859375000000 55.052997589111 96 96 96
19.906250000000 23.859375000000 54.413997650146 167 167 167
19.937500000000 23.562500000000 55.048999786377 117 117 117
19.937500000000 23.562500000000 54.389003753662 145 145 145
19.937500000000 23.250000000000 54.375003814697 140 140 140
19.953125000000 23.250000000000 55.046001434326 115 115 115
19.921875000000 23.250000000000 54.426998138428 132 132 132
19.937500000000 22.937500000000 54.367000579834 51 51 51
19.937500000000 22.937500000000 55.034000396729 117 117 117
19.968750000000 22.937500000000 55.046001434326 57 57 57
19.937500000000 22.953125000000 54.399997711182 167 167 167
19.937500000000 22.640625000000 54.374004364014 144 144 144
19.968750000000 22.625000000000 55.023998260498 114 114 114
19.968750000000 22.328125000000 54.363002777100 142 142 142
19.968750000000 22.343750000000 55.032001495361 85 85 85
19.984375000000 22.328125000000 55.037998199463 113 113 113
19.953125000000 22.343750000000 54.397998809814 129 129 129
19.968750000000 22.031250000000 54.375003814697 170 170 170
19.968750000000 22.031250000000 54.345996856689 56 56 56
19.968750000000 22.031250000000 55.031002044678 115 115 115
19.968750000000 21.718750000000 54.366001129150 150 150 150
20.000000000000 21.718750000000 55.032001495361 121 121 121
19.968750000000 21.437500000000 54.374004364014 152 152 152
20.000000000000 21.406250000000 54.362003326416 154 154 154
20.000000000000 21.421875000000 55.020000457764 114 114 114
20.000000000000 21.406250000000 55.028003692627 71 71 71
19.984375000000 21.125000000000 54.363002777100 172 172 172
20.000000000000 21.109375000000 54.358997344971 40 40 40
20.000000000000 21.125000000000 55.022998809814 124 124 124
20.000000000000 20.812500000000 54.359996795654 61 61 61
20.000000000000 20.812500000000 54.359996795654 158 158 158
20.015625000000 20.812500000000 55.020000457764 91 91 91
20.031250000000 20.796875000000 55.011997222900 112 112 112
20.000000000000 20.500000000000 54.361003875732 171 171 171
20.031250000000 20.500000000000 54.361003875732 157 157 157
20.031250000000 20.500000000000 55.009998321533 123 123 123
20.015625000000 20.203125000000 54.359996795654 171 171 171
20.031250000000 20.203125000000 55.022998809814 122 122 122
20.000000000000 19.906250000000 54.351001739502 103 103 103
20.031250000000 19.906250000000 54.364002227783 165 165 165
20.031250000000 19.906250000000 55.019001007080 113 113 113
20.031250000000 19.875000000000 55.028003692627 86 86 86
20.031250000000 19.593750000000 54.354000091553 179 179 179
20.062500000000 19.593750000000 54.364002227783 126 126 126
20.062500000000 19.593750000000 55.007999420166 123 123 123
20.031250000000 19.296875000000 54.358997344971 162 162 162
20.031250000000 19.296875000000 55.020999908447 76 76 76
20.062500000000 19.281250000000 55.010997772217 121 121 121
20.031250000000 19.000000000000 54.354000091553 118 118 118
20.062500000000 18.984375000000 54.358997344971 172 172 172
20.062500000000 18.984375000000 55.008998870850 123 123 123
20.093750000000 18.968750000000 55.022998809814 47 47 47
20.062500000000 18.687500000000 54.354000091553 175 175 175
20.062500000000 18.671875000000 54.368999481201 129 129 129
20.062500000000 18.671875000000 55.007999420166 123 123 123
20.062500000000 18.375000000000 54.369998931885 168 168 168
20.062500000000 18.375000000000 55.002002716064 81 81 81
20.093750000000 18.375000000000 55.002002716064 114 114 114
20.062500000000 18.093750000000 54.363002777100 72 72 72
20.062500000000 18.078125000000 54.368999481201 173 173 173
20.093750000000 18.093750000000 55.011997222900 116 116 116
20.093750000000 18.062500000000 55.017002105713 59 59 59
20.093750000000 17.781250000000 54.365001678467 183 183 183
20.093750000000 17.750000000000 54.366001129150 144 144 144
20.109375000000 17.765625000000 54.995998382568 127 127 127
20.093750000000 17.468750000000 54.358997344971 181 181 181
20.109375000000 17.468750000000 54.368000030518 35 35 35
20.093750000000 17.468750000000 55.017002105713 102 102 102
20.125000000000 17.453125000000 55.008998870850 118 118 118
20.093750000000 17.171875000000 54.368000030518 74 74 74
20.093750000000 17.156250000000 54.365001678467 182 182 182
20.125000000000 17.156250000000 55.011997222900 122 122 122
20.109375000000 16.859375000000 54.363002777100 163 163 163
20.125000000000 16.843750000000 54.364002227783 182 182 182
20.125000000000 16.843750000000 54.993999481201 123 123 123
20.125000000000 16.546875000000 54.355998992920 196 196 196
20.125000000000 16.562500000000 54.359996795654 119 119 119
20.125000000000 16.562500000000 55.002002716064 102 102 102
20.140625000000 16.546875000000 54.999004364014 102 102 102
20.125000000000 16.250000000000 54.350002288818 184 184 184
20.156250000000 16.250000000000 55.003002166748 121 121 121
20.125000000000 15.937500000000 54.352001190186 120 120 120
20.156250000000 15.937500000000 54.361003875732 190 190 190
20.156250000000 15.937500000000 54.989002227783 128 128 128
20.156250000000 15.625000000000 54.357997894287 197 197 197
20.156250000000 15.625000000000 54.358997344971 174 174 174
20.156250000000 15.656250000000 55.001003265381 117 117 117
20.187500000000 15.625000000000 54.993000030518 91 91 91
20.156250000000 15.343750000000 54.368999481201 200 200 200
20.156250000000 15.328125000000 54.383998870850 56 56 56
20.156250000000 15.343750000000 54.995998382568 121 121 121
20.156250000000 15.031250000000 54.362003326416 110 110 110
20.187500000000 15.031250000000 54.362003326416 205 205 205
20.187500000000 15.031250000000 54.994998931885 122 122 122
20.156250000000 14.718750000000 54.368000030518 203 203 203
20.187500000000 14.718750000000 54.366001129150 202 202 202
20.171875000000 14.718750000000 54.979999542236 116 116 116
20.187500000000 14.718750000000 54.994998931885 83 83 83
20.187500000000 14.437500000000 54.381999969482 222 222 222
20.187500000000 14.406250000000 54.382999420166 107 107 107
20.187500000000 14.421875000000 54.987003326416 120 120 120
20.187500000000 14.125000000000 54.369998931885 73 73 73
20.187500000000 14.125000000000 54.370998382568 196 196 196
20.218750000000 14.125000000000 54.982997894287 126 126 126
20.187500000000 13.812500000000 54.364002227783 180 180 180
20.203125000000 13.812500000000 54.359996795654 190 190 190
20.187500000000 13.812500000000 54.987003326416 122 122 122
20.218750000000 13.812500000000 54.993000030518 72 72 72
20.203125000000 13.500000000000 54.354999542236 200 200 200
20.218750000000 13.500000000000 54.376003265381 110 110 110
20.218750000000 13.515625000000 55.002002716064 127 127 127
20.187500000000 13.203125000000 54.364002227783 71 71 71
20.218750000000 13.203125000000 54.363002777100 196 196 196
20.250000000000 13.203125000000 54.990001678467 132 132 132
20.218750000000 12.906250000000 54.358997344971 162 162 162
20.234375000000 12.890625000000 54.364002227783 203 203 203
20.218750000000 12.906250000000 54.987003326416 113 113 113
20.250000000000 12.875000000000 55.008998870850 79 79 79
20.218750000000 12.593750000000 54.365001678467 198 198 198
20.234375000000 12.593750000000 54.379001617432 150 150 150
20.250000000000 12.593750000000 54.995998382568 127 127 127
20.234375000000 12.312500000000 54.372997283936 46 46 46
20.250000000000 12.281250000000 54.356998443604 198 198 198
20.250000000000 12.281250000000 54.515003204346 94 94 94
20.250000000000 12.281250000000 54.997997283936 126 126 126
20.250000000000 12.000000000000 54.368000030518 144 144 144
20.250000000000 11.968750000000 54.355998992920 208 208 208
20.250000000000 11.984375000000 55.001003265381 118 118 118
20.281250000000 11.968750000000 55.001003265381 82 82 82
20.250000000000 11.687500000000 54.352001190186 198 198 198
20.281250000000 11.687500000000 54.354000091553 185 185 185
20.281250000000 11.687500000000 55.003002166748 130 130 130
20.250000000000 11.375000000000 54.369998931885 33 33 33
20.250000000000 11.375000000000 54.357997894287 205 205 205
20.281250000000 11.375000000000 54.454998016357 109 109 109
20.281250000000 11.375000000000 55.007999420166 131 131 131
20.281250000000 11.078125000000 54.364002227783 111 111 111
20.281250000000 11.062500000000 54.352001190186 206 206 206
20.281250000000 11.078125000000 54.970996856689 114 114 114
20.312500000000 11.062500000000 55.014003753662 81 81 81
20.281250000000 10.781250000000 54.355998992920 193 193 193
20.281250000000 10.765625000000 54.347003936768 204 204 204
20.281250000000 10.765625000000 54.999004364014 125 125 125
20.281250000000 10.468750000000 54.368000030518 219 219 219
20.312500000000 10.453125000000 54.390003204346 137 137 137
20.312500000000 10.453125000000 54.997997283936 133 133 133
20.281250000000 10.156250000000 54.376003265381 90 90 90
20.281250000000 10.140625000000 54.367000579834 210 210 210
20.312500000000 10.156250000000 54.627002716064 136 136 136
20.312500000000 10.140625000000 55.020999908447 80 80 80
20.312500000000 9.843750000000 54.359996795654 178 178 178
20.312500000000 9.843750000000 54.362003326416 220 220 220
20.312500000000 9.843750000000 55.001003265381 121 121 121
20.312500000000 9.546875000000 54.369998931885 219 219 219
20.312500000000 9.531250000000 54.354999542236 186 186 186
