22.593750000000 25.234375000000 3.985992431641 164 164 164
22.593750000000 25.234375000000 4.013000488281 164 164 164
22.593750000000 25.234375000000 4.042999267578 165 165 165
22.593750000000 25.234375000000 4.070999145508 161 161 161
22.593750000000 25.234375000000 4.099990844727 161 161 161
22.609375000000 25.250000000000 4.125991821289 160 160 160
22.609375000000 25.250000000000 4.153991699219 159 159 159
22.609375000000 25.250000000000 4.180999755859 83 83 83
24.703125000000 19.062500000000 4.250000000000 101 101 101
24.687500000000 19.062500000000 4.209991455078 128 128 128
24.562500000000 19.140625000000 4.190994262695 212 212 212
24.578125000000 19.140625000000 4.148986816406 219 219 219
24.562500000000 19.140625000000 4.107986450195 220 220 220
24.593750000000 19.125000000000 4.062988281250 132 132 132
24.484375000000 19.500000000000 4.185989379883 217 217 217
24.500000000000 19.500000000000 4.143997192383 217 217 217
24.500000000000 19.515625000000 4.105987548828 215 215 215
24.406250000000 19.859375000000 4.182998657227 214 214 214
24.406250000000 19.859375000000 4.142990112305 207 207 207
24.406250000000 19.859375000000 4.102996826172 213 213 213
24.406250000000 19.859375000000 4.062988281250 151 151 151
24.343750000000 20.203125000000 4.181991577148 217 217 217
24.343750000000 20.203125000000 4.141998291016 217 217 217
24.343750000000 20.203125000000 4.102996826172 216 216 216
24.328125000000 20.234375000000 4.063995361328 181 181 181
24.187500000000 20.609375000000 4.190994262695 199 199 199
24.187500000000 20.609375000000 4.153991699219 204 204 204
24.187500000000 20.609375000000 4.114990234375 213 213 213
24.187500000000 20.609375000000 4.074996948242 199 199 199
24.218750000000 20.890625000000 4.207000732422 104 104 104
24.109375000000 20.968750000000 4.194000244141 189 189 189
24.078125000000 20.984375000000 4.161987304688 193 193 193
24.078125000000 20.984375000000 4.123992919922 210 210 210
24.093750000000 20.984375000000 4.083999633789 192 192 192
24.078125000000 20.984375000000 4.047988891602 85 85 85
24.187500000000 21.218750000000 4.199996948242 123 123 123
24.125000000000 21.265625000000 4.176986694336 211 211 211
23.968750000000 21.343750000000 4.169998168945 206 206 206
23.968750000000 21.343750000000 4.132995605469 191 191 191
23.968750000000 21.343750000000 4.095993041992 199 199 199
23.968750000000 21.359375000000 4.055999755859 195 195 195
24.000000000000 21.625000000000 4.371994018555 27 27 27
23.953125000000 21.656250000000 4.342987060547 147 147 147
23.937500000000 21.671875000000 4.306991577148 161 161 161
23.953125000000 21.656250000000 4.269989013672 160 160 160
23.937500000000 21.671875000000 4.233993530273 161 161 161
24.062500000000 21.609375000000 4.172988891602 212 212 212
23.843750000000 21.718750000000 4.180999755859 205 205 205
23.843750000000 21.734375000000 4.145996093750 197 197 197
23.843750000000 21.734375000000 4.108993530273 202 202 202
23.843750000000 21.734375000000 4.072998046875 208 208 208
23.843750000000 21.734375000000 4.035995483398 99 99 99
24.062500000000 21.890625000000 4.191986083984 160 160 160
24.062500000000 21.906250000000 4.156997680664 216 216 216
23.843750000000 22.046875000000 4.166000366211 223 223 223
23.718750000000 22.109375000000 4.159988403320 204 204 204
23.718750000000 22.109375000000 4.122985839844 197 197 197
23.718750000000 22.125000000000 4.088989257813 205 205 205
23.718750000000 22.109375000000 4.050994873047 200 200 200
24.031250000000 22.234375000000 4.184997558594 181 181 181
24.031250000000 22.234375000000 4.147994995117 218 218 218
24.015625000000 22.265625000000 4.111999511719 222 222 222
23.593750000000 22.484375000000 4.169998168945 207 207 207
23.593750000000 22.500000000000 4.138992309570 194 194 194
23.593750000000 22.500000000000 4.103988647461 191 191 191
23.593750000000 22.500000000000 4.069000244141 203 203 203
23.593750000000 22.500000000000 4.033996582031 171 171 171
23.968750000000 22.578125000000 4.176986694336 203 203 203
23.968750000000 22.593750000000 4.139999389648 220 220 220
23.968750000000 22.593750000000 4.102996826172 221 221 221
23.531250000000 22.843750000000 4.170989990234 240 240 240
23.468750000000 22.890625000000 4.150985717773 211 211 211
23.468750000000 22.890625000000 4.117996215820 209 209 209
23.437500000000 22.890625000000 4.085998535156 212 212 212
23.468750000000 22.890625000000 4.051986694336 211 211 211
23.906250000000 22.921875000000 4.172988891602 208 208 208
23.937500000000 22.921875000000 4.134994506836 201 201 201
23.875000000000 22.937500000000 4.106994628906 165 165 165
23.906250000000 22.937500000000 4.067993164063 191 191 191
23.343750000000 23.265625000000 4.166992187500 212 212 212
23.328125000000 23.265625000000 4.135986328125 209 209 209
23.343750000000 23.265625000000 4.101989746094 209 209 209
23.343750000000 23.265625000000 4.067993164063 210 210 210
23.343750000000 23.265625000000 4.035995483398 208 208 208
23.875000000000 23.250000000000 4.166992187500 205 205 205
23.875000000000 23.250000000000 4.130996704102 214 214 214
23.875000000000 23.250000000000 4.093994140625 218 218 218
23.875000000000 23.250000000000 4.056991577148 216 216 216
23.250000000000 23.609375000000 4.172988891602 176 176 176
23.218750000000 23.625000000000 4.148986816406 212 212 212
23.218750000000 23.640625000000 4.117996215820 214 214 214
23.218750000000 23.640625000000 4.085998535156 212 212 212
23.218750000000 23.640625000000 4.052993774414 214 214 214
23.218750000000 23.640625000000 4.018997192383 196 196 196
23.828125000000 23.578125000000 4.164993286133 205 205 205
23.828125000000 23.578125000000 4.126998901367 218 218 218
23.828125000000 23.578125000000 4.090988159180 220 220 220
23.812500000000 23.593750000000 4.056991577148 213 213 213
23.812500000000 23.593750000000 4.018997192383 158 158 158
23.109375000000 24.015625000000 4.166992187500 145 145 145
23.125000000000 24.000000000000 4.130996704102 145 145 145
23.125000000000 24.000000000000 4.100997924805 150 150 150
23.125000000000 24.000000000000 4.066986083984 148 148 148
23.109375000000 24.015625000000 4.037994384766 151 151 151
23.093750000000 24.015625000000 4.008987426758 125 125 125
23.750000000000 23.921875000000 4.158996582031 210 210 210
23.750000000000 23.937500000000 4.125000000000 197 197 197
23.718750000000 23.953125000000 4.094985961914 180 180 180
23.750000000000 23.937500000000 4.053985595703 203 203 203
23.750000000000 23.937500000000 4.015991210938 176 176 176
23.000000000000 24.359375000000 4.177993774414 104 104 104
23.000000000000 24.375000000000 4.147994995117 147 147 147
23.000000000000 24.375000000000 4.115997314453 145 145 145
23.000000000000 24.359375000000 4.080993652344 145 145 145
23.000000000000 24.375000000000 4.052993774414 145 145 145
23.000000000000 24.375000000000 4.020996093750 145 145 145
23.000000000000 24.390625000000 3.991989135742 93 93 93
23.156250000000 24.296875000000 3.743988037109 59 59 59
23.187500000000 24.296875000000 3.707000732422 121 121 121
23.171875000000 24.312500000000 3.674987792969 138 138 138
23.187500000000 24.296875000000 3.627990722656 209 209 209
23.171875000000 24.312500000000 3.605987548828 186 186 186
23.171875000000 24.312500000000 3.573989868164 172 172 172
23.156250000000 24.328125000000 3.542999267578 170 170 170
23.156250000000 24.328125000000 3.506988525391 144 144 144
23.718750000000 24.265625000000 4.184997558594 56 56 56
23.406250000000 24.437500000000 4.222000122070 141 141 141
23.281250000000 24.515625000000 4.218994140625 139 139 139
23.156250000000 24.593750000000 4.217987060547 136 136 136
23.093750000000 24.625000000000 4.199996948242 173 173 173
23.078125000000 24.640625000000 4.173995971680 176 176 176
23.078125000000 24.640625000000 4.140991210938 173 173 173
23.078125000000 24.640625000000 4.108993530273 176 176 176
22.812500000000 24.781250000000 4.151992797852 150 150 150
22.812500000000 24.796875000000 4.122985839844 163 163 163
22.812500000000 24.796875000000 4.093994140625 149 149 149
22.812500000000 24.796875000000 4.063995361328 154 154 154
22.812500000000 24.796875000000 4.032989501953 155 155 155
22.812500000000 24.796875000000 4.003997802734 165 165 165
22.843750000000 24.796875000000 3.958999633789 167 167 167
23.031250000000 24.687500000000 3.868988037109 177 177 177
23.062500000000 24.671875000000 3.827987670898 176 176 176
23.093750000000 24.656250000000 3.784988403320 180 180 180
23.093750000000 24.656250000000 3.752990722656 177 177 177
23.078125000000 24.671875000000 3.720993041992 177 177 177
23.078125000000 24.671875000000 3.687988281250 174 174 174
23.078125000000 24.671875000000 3.654998779297 177 177 177
23.078125000000 24.671875000000 3.618988037109 179 179 179
23.078125000000 24.671875000000 3.585998535156 180 180 180
23.078125000000 24.671875000000 3.554992675781 180 180 180
23.078125000000 24.671875000000 3.520996093750 181 181 181
23.156250000000 24.640625000000 3.459991455078 175 175 175
23.218750000000 24.609375000000 3.395996093750 158 158 158
23.218750000000 24.609375000000 3.360000610352 156 156 156
23.218750000000 24.609375000000 3.322998046875 156 156 156
23.218750000000 24.609375000000 3.287994384766 162 162 162
23.218750000000 24.609375000000 3.250000000000 169 169 169
23.218750000000 24.609375000000 3.215988159180 151 151 151
23.562500000000 24.671875000000 4.203994750977 57 57 57
23.375000000000 24.781250000000 4.213989257813 152 152 152
23.312500000000 24.796875000000 4.190994262695 179 179 179
23.312500000000 24.828125000000 4.159988403320 177 177 177
23.312500000000 24.828125000000 4.125000000000 179 179 179
23.312500000000 24.796875000000 4.090988159180 181 181 181
23.343750000000 24.812500000000 4.054992675781 179 179 179
23.312500000000 24.828125000000 4.023986816406 180 180 180
22.656250000000 25.203125000000 4.180999755859 142 142 142
22.593750000000 25.234375000000 4.172988891602 167 167 167
22.593750000000 25.234375000000 4.144989013672 166 166 166
22.593750000000 25.234375000000 4.115997314453 161 161 161
22.578125000000 25.250000000000 4.090988159180 154 154 154
22.593750000000 25.250000000000 4.057998657227 154 154 154
22.593750000000 25.234375000000 4.026992797852 153 153 153
22.593750000000 25.250000000000 3.997985839844 157 157 157
22.593750000000 25.250000000000 3.968994140625 157 157 157
23.343750000000 24.828125000000 3.675994873047 172 172 172
23.343750000000 24.828125000000 3.639999389648 180 180 180
23.343750000000 24.828125000000 3.604995727539 181 181 181
23.343750000000 24.828125000000 3.569992065430 183 183 183
23.343750000000 24.828125000000 3.534988403320 186 186 186
23.343750000000 24.828125000000 3.497985839844 173 173 173
23.656250000000 24.921875000000 4.163986206055 133 133 133
23.656250000000 24.921875000000 4.129989624023 159 159 159
23.687500000000 24.906250000000 4.089996337891 167 167 167
23.671875000000 24.921875000000 4.054992675781 171 171 171
23.656250000000 24.921875000000 4.020996093750 164 164 164
23.640625000000 24.953125000000 3.990997314453 37 37 37
23.703125000000 25.171875000000 4.211990356445 18 18 18
23.656250000000 25.218750000000 4.189987182617 148 148 148
23.609375000000 25.250000000000 4.161987304688 127 127 127
23.593750000000 25.265625000000 4.131988525391 129 129 129
23.593750000000 25.265625000000 4.097000122070 129 129 129
23.593750000000 25.265625000000 4.061996459961 128 128 128
23.593750000000 25.265625000000 4.024993896484 139 139 139
23.625000000000 25.234375000000 3.981994628906 136 136 136
24.609375000000 19.078125000000 4.067993164063 162 162 162
24.593750000000 19.078125000000 4.104995727539 202 202 202
24.593750000000 19.093750000000 4.138992309570 199 199 199
24.593750000000 19.078125000000 4.173995971680 200 200 200
24.625000000000 19.093750000000 4.205993652344 172 172 172
24.531250000000 19.406250000000 4.097000122070 218 218 218
24.531250000000 19.406250000000 4.130996704102 219 219 219
24.531250000000 19.406250000000 4.166000366211 219 219 219
24.562500000000 19.390625000000 4.196990966797 214 214 214
24.453125000000 19.703125000000 4.089996337891 216 216 216
24.468750000000 19.703125000000 4.122985839844 220 220 220
24.453125000000 19.703125000000 4.157989501953 219 219 219
24.453125000000 19.703125000000 4.192993164063 217 217 217
24.390625000000 20.015625000000 4.079986572266 214 214 214
24.390625000000 20.015625000000 4.113998413086 219 219 219
24.375000000000 20.015625000000 4.148986816406 216 216 216
24.390625000000 20.015625000000 4.181991577148 219 219 219
24.390625000000 20.015625000000 4.214996337891 62 62 62
24.312500000000 20.328125000000 4.071990966797 204 204 204
24.312500000000 20.328125000000 4.104995727539 218 218 218
24.343750000000 20.343750000000 4.136993408203 219 219 219
24.312500000000 20.328125000000 4.171997070313 221 221 221
24.312500000000 20.328125000000 4.204986572266 171 171 171
24.203125000000 20.640625000000 4.073989868164 209 209 209
24.203125000000 20.640625000000 4.107986450195 213 213 213
24.203125000000 20.640625000000 4.141998291016 214 214 214
24.203125000000 20.640625000000 4.173995971680 211 211 211
24.218750000000 20.640625000000 4.202987670898 181 181 181
24.125000000000 20.953125000000 4.041992187500 18 18 18
24.125000000000 20.953125000000 4.075988769531 211 211 211
24.125000000000 20.953125000000 4.107986450195 219 219 219
24.125000000000 20.953125000000 4.140991210938 213 213 213
24.125000000000 20.953125000000 4.173995971680 206 206 206
24.156250000000 20.953125000000 4.198989868164 190 190 190
24.031250000000 21.265625000000 4.043991088867 86 86 86
24.015625000000 21.265625000000 4.077987670898 215 215 215
24.015625000000 21.265625000000 4.110992431641 186 186 186
24.015625000000 21.265625000000 4.141998291016 162 162 162
24.015625000000 21.250000000000 4.173995971680 214 214 214
24.093750000000 21.265625000000 4.190994262695 208 208 208
24.218750000000 21.265625000000 4.207992553711 57 57 57
23.906250000000 21.578125000000 4.046997070313 163 163 163
23.906250000000 21.578125000000 4.079986572266 216 216 216
23.906250000000 21.578125000000 4.111999511719 201 201 201
23.906250000000 21.578125000000 4.143997192383 198 198 198
23.906250000000 21.578125000000 4.174987792969 206 206 206
23.921875000000 21.578125000000 4.201995849609 171 171 171
24.000000000000 21.578125000000 4.222991943359 168 168 168
23.984375000000 21.578125000000 4.255996704102 171 171 171
24.000000000000 21.578125000000 4.284988403320 157 157 157
24.000000000000 21.578125000000 4.317993164063 171 171 171
24.000000000000 21.578125000000 4.347991943359 166 166 166
23.812500000000 21.890625000000 4.049987792969 180 180 180
23.812500000000 21.890625000000 4.079986572266 217 217 217
23.812500000000 21.890625000000 4.111999511719 196 196 196
23.812500000000 21.890625000000 4.144989013672 207 207 207
23.812500000000 21.890625000000 4.173995971680 216 216 216
24.000000000000 21.890625000000 4.172988891602 217 217 217
24.078125000000 21.890625000000 4.192993164063 192 192 192
23.703125000000 22.203125000000 4.054992675781 212 212 212
23.703125000000 22.203125000000 4.085998535156 215 215 215
23.703125000000 22.203125000000 4.115997314453 174 174 174
23.703125000000 22.203125000000 4.146987915039 214 214 214
23.718750000000 22.203125000000 4.173995971680 215 215 215
24.031250000000 22.203125000000 4.152999877930 218 218 218
24.031250000000 22.203125000000 4.183990478516 206 206 206
23.593750000000 22.515625000000 4.033996582031 115 115 115
23.609375000000 22.515625000000 4.061996459961 212 212 212
23.609375000000 22.515625000000 4.092987060547 211 211 211
23.609375000000 22.515625000000 4.121994018555 211 211 211
23.609375000000 22.515625000000 4.150985717773 209 209 209
23.625000000000 22.515625000000 4.177993774414 216 216 216
24.000000000000 22.515625000000 4.142990112305 217 217 217
24.000000000000 22.515625000000 4.174987792969 209 209 209
23.500000000000 22.828125000000 4.041992187500 202 202 202
23.500000000000 22.828125000000 4.069992065430 210 210 210
23.500000000000 22.828125000000 4.099990844727 214 214 214
23.500000000000 22.828125000000 4.128997802734 199 199 199
23.500000000000 22.828125000000 4.157989501953 216 216 216
23.578125000000 22.812500000000 4.172988891602 224 224 224
23.953125000000 22.812500000000 4.138000488281 219 219 219
23.953125000000 22.812500000000 4.168991088867 210 210 210
23.968750000000 22.812500000000 4.197998046875 53 53 53
23.375000000000 23.140625000000 4.024993896484 122 122 122
23.406250000000 23.140625000000 4.049987792969 217 217 217
23.406250000000 23.140625000000 4.077987670898 217 217 217
23.406250000000 23.140625000000 4.108993530273 215 215 215
23.406250000000 23.140625000000 4.138000488281 214 214 214
23.406250000000 23.140625000000 4.164993286133 217 217 217
23.906250000000 23.140625000000 4.102996826172 217 217 217
23.906250000000 23.125000000000 4.131988525391 221 221 221
23.906250000000 23.125000000000 4.164993286133 200 200 200
23.906250000000 23.140625000000 4.191986083984 103 103 103
23.296875000000 23.453125000000 4.030990600586 203 203 203
23.296875000000 23.453125000000 4.057998657227 219 219 219
23.296875000000 23.453125000000 4.087997436523 219 219 219
23.296875000000 23.453125000000 4.114990234375 214 214 214
23.296875000000 23.453125000000 4.142990112305 217 217 217
23.296875000000 23.453125000000 4.170989990234 213 213 213
23.859375000000 23.437500000000 4.097000122070 220 220 220
23.875000000000 23.453125000000 4.125991821289 220 220 220
23.859375000000 23.437500000000 4.157989501953 195 195 195
23.859375000000 23.437500000000 4.188995361328 145 145 145
23.187500000000 23.750000000000 4.011993408203 126 126 126
23.187500000000 23.750000000000 4.041000366211 215 215 215
23.203125000000 23.765625000000 4.065994262695 218 218 218
23.203125000000 23.765625000000 4.093994140625 215 215 215
23.203125000000 23.765625000000 4.121994018555 219 219 219
23.203125000000 23.765625000000 4.148986816406 216 216 216
23.265625000000 23.765625000000 4.166000366211 240 240 240
23.812500000000 23.750000000000 4.089996337891 220 220 220
23.812500000000 23.765625000000 4.119995117188 219 219 219
23.812500000000 23.750000000000 4.152999877930 194 194 194
23.812500000000 23.750000000000 4.183990478516 161 161 161
23.109375000000 24.062500000000 4.018997192383 155 155 155
23.109375000000 24.062500000000 4.045989990234 162 162 162
23.109375000000 24.062500000000 4.073989868164 156 156 156
23.109375000000 24.062500000000 4.100997924805 164 164 164
23.109375000000 24.062500000000 4.127990722656 159 159 159
23.109375000000 24.062500000000 4.154998779297 164 164 164
23.781250000000 24.062500000000 4.047988891602 153 153 153
23.750000000000 24.062500000000 4.086990356445 209 209 209
23.750000000000 24.062500000000 4.117996215820 202 202 202
23.750000000000 24.062500000000 4.145996093750 202 202 202
23.750000000000 24.062500000000 4.177993774414 194 194 194
23.156250000000 24.375000000000 3.508987426758 123 123 123
23.156250000000 24.375000000000 3.541000366211 181 181 181
23.156250000000 24.375000000000 3.567993164063 176 176 176
23.156250000000 24.375000000000 3.597000122070 179 179 179
23.156250000000 24.375000000000 3.626998901367 177 177 177
23.156250000000 24.375000000000 3.656997680664 180 180 180
23.156250000000 24.375000000000 3.682998657227 176 176 176
23.156250000000 24.375000000000 3.713989257813 177 177 177
23.156250000000 24.375000000000 3.742996215820 180 180 180
23.156250000000 24.375000000000 3.770996093750 177 177 177
23.156250000000 24.375000000000 3.799987792969 177 177 177
23.156250000000 24.375000000000 3.826995849609 178 178 178
23.156250000000 24.375000000000 3.855987548828 176 176 176
23.156250000000 24.375000000000 3.882995605469 178 178 178
23.156250000000 24.375000000000 3.912994384766 176 176 176
23.156250000000 24.375000000000 3.940994262695 178 178 178
23.062500000000 24.375000000000 3.992996215820 160 160 160
23.031250000000 24.375000000000 4.029998779297 159 159 159
23.031250000000 24.375000000000 4.056991577148 166 166 166
23.031250000000 24.375000000000 4.083999633789 158 158 158
23.031250000000 24.375000000000 4.110000610352 158 158 158
23.031250000000 24.375000000000 4.138000488281 159 159 159
23.031250000000 24.375000000000 4.164993286133 166 166 166
23.156250000000 24.375000000000 4.163986206055 177 177 177
23.156250000000 24.375000000000 4.191986083984 176 176 176
23.156250000000 24.375000000000 4.216995239258 169 169 169
23.437500000000 24.390625000000 4.195999145508 171 171 171
23.687500000000 24.375000000000 4.178985595703 134 134 134
23.109375000000 24.687500000000 3.486999511719 122 122 122
23.093750000000 24.687500000000 3.523986816406 181 181 181
23.093750000000 24.687500000000 3.551986694336 181 181 181
23.109375000000 24.687500000000 3.578994750977 180 180 180
23.109375000000 24.687500000000 3.608993530273 181 181 181
23.093750000000 24.687500000000 3.640991210938 179 179 179
23.093750000000 24.687500000000 3.667999267578 179 179 179
23.093750000000 24.687500000000 3.698989868164 180 180 180
23.093750000000 24.687500000000 3.725997924805 179 179 179
23.093750000000 24.687500000000 3.754989624023 178 178 178
23.093750000000 24.687500000000 3.783996582031 177 177 177
23.093750000000 24.687500000000 3.810989379883 175 175 175
23.093750000000 24.687500000000 3.838989257813 176 176 176
23.093750000000 24.687500000000 3.866989135742 178 178 178
23.093750000000 24.687500000000 3.894989013672 177 177 177
23.031250000000 24.687500000000 3.938995361328 177 177 177
22.890625000000 24.687500000000 4.000991821289 144 144 144
22.890625000000 24.687500000000 4.025985717773 147 147 147
22.906250000000 24.687500000000 4.050994873047 145 145 145
22.890625000000 24.687500000000 4.077987670898 148 148 148
22.890625000000 24.687500000000 4.104995727539 145 145 145
22.890625000000 24.687500000000 4.130996704102 148 148 148
22.890625000000 24.687500000000 4.156997680664 150 150 150
23.062500000000 24.687500000000 4.145996093750 176 176 176
23.093750000000 24.687500000000 4.170989990234 176 176 176
23.093750000000 24.703125000000 4.194992065430 175 175 175
23.125000000000 24.687500000000 4.215988159180 136 136 136
23.265625000000 24.671875000000 4.215988159180 122 122 122
23.437500000000 24.687500000000 4.216995239258 126 126 126
22.656250000000 24.984375000000 3.947998046875 113 113 113
22.656250000000 24.984375000000 3.976989746094 170 170 170
22.656250000000 25.000000000000 4.003997802734 171 171 171
22.656250000000 24.984375000000 4.026992797852 174 174 174
22.656250000000 25.000000000000 4.053985595703 167 167 167
22.656250000000 25.000000000000 4.080993652344 164 164 164
22.656250000000 25.000000000000 4.103988647461 173 173 173
22.656250000000 25.000000000000 4.128997802734 173 173 173
22.656250000000 25.000000000000 4.153991699219 171 171 171
22.656250000000 25.000000000000 4.178985595703 170 170 170
22.734375000000 25.000000000000 4.185989379883 178 178 178
23.656250000000 25.000000000000 4.009994506836 150 150 150
23.687500000000 24.984375000000 4.039993286133 159 159 159
23.656250000000 25.000000000000 4.070999145508 166 166 166
23.656250000000 25.000000000000 4.102996826172 161 161 161
23.656250000000 25.000000000000 4.131988525391 160 160 160
23.656250000000 25.000000000000 4.162994384766 144 144 144
23.625000000000 25.296875000000 3.973999023438 155 155 155
23.593750000000 25.296875000000 4.013992309570 153 153 153
23.593750000000 25.296875000000 4.041992187500 163 163 163
23.593750000000 25.296875000000 4.072998046875 161 161 161
23.593750000000 25.296875000000 4.104995727539 160 160 160
23.593750000000 25.296875000000 4.132995605469 158 158 158
23.593750000000 25.296875000000 4.162994384766 149 149 149
23.625000000000 25.296875000000 4.185989379883 170 170 170
23.687500000000 25.296875000000 4.207992553711 59 59 59
23.734375000000 25.250000000000 4.209991455078 27 27 27
23.687500000000 25.296875000000 4.188995361328 144 144 144
23.625000000000 25.296875000000 4.160995483398 122 122 122
23.593750000000 25.328125000000 4.132995605469 124 124 124
23.625000000000 25.328125000000 4.094985961914 132 132 132
23.593750000000 25.328125000000 4.062988281250 129 129 129
23.593750000000 25.328125000000 4.027999877930 129 129 129
23.656250000000 25.312500000000 3.981994628906 130 130 130
23.656250000000 24.968750000000 4.168991088867 125 125 125
23.687500000000 24.968750000000 4.132995605469 167 167 167
23.687500000000 24.968750000000 4.097000122070 167 167 167
23.687500000000 24.968750000000 4.061996459961 166 166 166
23.687500000000 24.968750000000 4.024993896484 163 163 163
23.687500000000 24.968750000000 3.990997314453 66 66 66
23.562500000000 24.703125000000 4.209991455078 68 68 68
23.375000000000 24.796875000000 4.215988159180 135 135 135
23.312500000000 24.843750000000 4.197998046875 177 177 177
23.281250000000 24.859375000000 4.170989990234 182 182 182
23.281250000000 24.859375000000 4.136993408203 181 181 181
23.296875000000 24.843750000000 4.102996826172 181 181 181
23.281250000000 24.859375000000 4.070999145508 181 181 181
23.281250000000 24.859375000000 4.037994384766 183 183 183
22.671875000000 25.203125000000 4.185989379883 134 134 134
22.609375000000 25.250000000000 4.172988891602 165 165 165
22.609375000000 25.250000000000 4.143997192383 161 161 161
22.609375000000 25.250000000000 4.114990234375 157 157 157
22.609375000000 25.250000000000 4.087997436523 156 156 156
22.609375000000 25.250000000000 4.058990478516 152 152 152
22.609375000000 25.250000000000 4.026992797852 157 157 157
22.609375000000 25.250000000000 4.000991821289 155 155 155
22.609375000000 25.250000000000 3.970993041992 155 155 155
22.609375000000 25.250000000000 3.939987182617 111 111 111
23.312500000000 24.859375000000 3.661987304688 180 180 180
23.312500000000 24.859375000000 3.626998901367 178 178 178
23.312500000000 24.859375000000 3.590988159180 179 179 179
23.312500000000 24.859375000000 3.555999755859 186 186 186
23.312500000000 24.859375000000 3.521987915039 185 185 185
23.312500000000 24.859375000000 3.485992431641 137 137 137
23.359375000000 24.843750000000 3.679992675781 153 153 153
23.750000000000 24.281250000000 4.181991577148 87 87 87
23.437500000000 24.453125000000 4.211990356445 146 146 146
23.281250000000 24.546875000000 4.217987060547 138 138 138
23.156250000000 24.609375000000 4.216995239258 148 148 148
23.140625000000 24.625000000000 4.194000244141 177 177 177
23.125000000000 24.640625000000 4.164993286133 175 175 175
23.125000000000 24.640625000000 4.132995605469 175 175 175
23.093750000000 24.656250000000 4.110000610352 174 174 174
22.828125000000 24.796875000000 4.148986816406 139 139 139
22.843750000000 24.796875000000 4.112991333008 139 139 139
22.843750000000 24.796875000000 4.084991455078 141 141 141
22.843750000000 24.796875000000 4.054992675781 137 137 137
22.843750000000 24.796875000000 4.025985717773 139 139 139
22.843750000000 24.796875000000 3.994995117188 145 145 145
23.000000000000 24.703125000000 3.909988403320 186 186 186
23.125000000000 24.656250000000 3.842987060547 176 176 176
23.125000000000 24.640625000000 3.809997558594 178 178 178
23.125000000000 24.656250000000 3.776992797852 178 178 178
23.125000000000 24.640625000000 3.742996215820 178 178 178
23.125000000000 24.640625000000 3.707992553711 178 178 178
23.125000000000 24.656250000000 3.678985595703 178 178 178
23.125000000000 24.656250000000 3.642990112305 176 176 176
23.125000000000 24.656250000000 3.610992431641 176 176 176
23.125000000000 24.656250000000 3.576995849609 179 179 179
23.125000000000 24.656250000000 3.542999267578 179 179 179
23.125000000000 24.656250000000 3.508987426758 182 182 182
23.250000000000 24.593750000000 3.425994873047 148 148 148
23.250000000000 24.593750000000 3.391998291016 135 135 135
23.250000000000 24.593750000000 3.358993530273 134 134 134
23.218750000000 24.578125000000 3.324996948242 131 131 131
23.250000000000 24.593750000000 3.286987304688 133 133 133
23.250000000000 24.593750000000 3.251998901367 141 141 141
23.250000000000 24.593750000000 3.216995239258 150 150 150
23.812500000000 23.921875000000 4.181991577148 109 109 109
23.812500000000 23.921875000000 4.148986816406 201 201 201
23.796875000000 23.921875000000 4.113998413086 208 208 208
23.796875000000 23.921875000000 4.077987670898 216 216 216
23.796875000000 23.921875000000 4.041000366211 211 211 211
23.781250000000 23.921875000000 4.008987426758 85 85 85
23.062500000000 24.343750000000 4.163986206055 133 133 133
23.062500000000 24.343750000000 4.133987426758 143 143 143
23.062500000000 24.359375000000 4.102996826172 143 143 143
23.062500000000 24.359375000000 4.071990966797 144 144 144
23.062500000000 24.359375000000 4.039993286133 146 146 146
23.062500000000 24.359375000000 4.006988525391 142 142 142
23.890625000000 23.531250000000 4.186996459961 75 75 75
23.875000000000 23.546875000000 4.155990600586 195 195 195
23.875000000000 23.546875000000 4.118988037109 220 220 220
23.875000000000 23.546875000000 4.080993652344 220 220 220
23.875000000000 23.546875000000 4.044998168945 209 209 209
23.218750000000 23.921875000000 4.175994873047 143 143 143
23.187500000000 23.937500000000 4.151992797852 216 216 216
23.171875000000 23.953125000000 4.120986938477 215 215 215
23.171875000000 23.953125000000 4.087997436523 214 214 214
23.171875000000 23.953125000000 4.056991577148 211 211 211
23.171875000000 23.953125000000 4.025985717773 208 208 208
23.921875000000 23.187500000000 4.162994384766 202 202 202
23.921875000000 23.187500000000 4.126998901367 218 218 218
23.921875000000 23.187500000000 4.088989257813 220 220 220
23.921875000000 23.187500000000 4.053985595703 216 216 216
23.296875000000 23.546875000000 4.170989990234 207 207 207
23.296875000000 23.546875000000 4.138992309570 211 211 211
23.281250000000 23.546875000000 4.107986450195 211 211 211
23.281250000000 23.546875000000 4.073989868164 210 210 210
23.281250000000 23.546875000000 4.041992187500 214 214 214
23.296875000000 23.546875000000 4.006988525391 76 76 76
23.968750000000 22.812500000000 4.167999267578 213 213 213
23.968750000000 22.812500000000 4.132995605469 214 214 214
23.968750000000 22.812500000000 4.095993041992 222 222 222
23.500000000000 23.078125000000 4.167999267578 235 235 235
23.406250000000 23.140625000000 4.155990600586 212 212 212
23.406250000000 23.140625000000 4.122985839844 211 211 211
23.406250000000 23.140625000000 4.089996337891 211 211 211
23.406250000000 23.140625000000 4.054992675781 209 209 209
23.406250000000 23.140625000000 4.021987915039 144 144 144
24.015625000000 22.468750000000 4.172988891602 211 211 211
24.015625000000 22.468750000000 4.134994506836 215 215 215
24.015625000000 22.468750000000 4.098999023438 220 220 220
23.546875000000 22.734375000000 4.170989990234 209 209 209
23.546875000000 22.734375000000 4.135986328125 211 211 211
23.546875000000 22.734375000000 4.103988647461 209 209 209
23.546875000000 22.734375000000 4.067993164063 211 211 211
23.546875000000 22.734375000000 4.033996582031 159 159 159
24.062500000000 22.125000000000 4.172988891602 212 212 212
24.062500000000 22.125000000000 4.135986328125 216 216 216
23.718750000000 22.328125000000 4.177993774414 213 213 213
23.687500000000 22.343750000000 4.148986816406 210 210 210
23.687500000000 22.343750000000 4.112991333008 169 169 169
23.687500000000 22.343750000000 4.078994750977 209 209 209
23.687500000000 22.343750000000 4.043991088867 182 182 182
24.093750000000 21.765625000000 4.332992553711 29 29 29
24.078125000000 21.796875000000 4.297988891602 96 96 96
24.078125000000 21.796875000000 4.260986328125 44 44 44
24.062500000000 21.781250000000 4.224990844727 89 89 89
24.125000000000 21.765625000000 4.175994873047 212 212 212
24.031250000000 21.796875000000 4.156997680664 219 219 219
23.812500000000 21.937500000000 4.167999267578 205 205 205
23.812500000000 21.937500000000 4.131988525391 188 188 188
23.812500000000 21.937500000000 4.093994140625 202 202 202
23.843750000000 21.937500000000 4.057998657227 202 202 202
24.187500000000 21.390625000000 4.182998657227 206 206 206
24.000000000000 21.500000000000 4.182998657227 212 212 212
23.953125000000 21.531250000000 4.155990600586 202 202 202
23.953125000000 21.531250000000 4.117996215820 190 190 190
23.953125000000 21.531250000000 4.082000732422 211 211 211
23.953125000000 21.531250000000 4.042999267578 144 144 144
24.203125000000 21.046875000000 4.200988769531 173 173 173
24.093750000000 21.125000000000 4.184997558594 201 201 201
24.062500000000 21.125000000000 4.149993896484 203 203 203
24.093750000000 21.125000000000 4.110000610352 200 200 200
24.093750000000 21.125000000000 4.071990966797 202 202 202
24.281250000000 20.671875000000 4.204986572266 145 145 145
24.203125000000 20.703125000000 4.179992675781 207 207 207
24.203125000000 20.703125000000 4.141998291016 210 210 210
24.187500000000 20.734375000000 4.103988647461 211 211 211
24.218750000000 20.718750000000 4.064987182617 193 193 193
24.343750000000 20.312500000000 4.201995849609 174 174 174
24.343750000000 20.312500000000 4.163986206055 218 218 218
24.343750000000 20.312500000000 4.123992919922 217 217 217
24.343750000000 20.312500000000 4.085998535156 217 217 217
24.437500000000 19.921875000000 4.197998046875 190 190 190
24.437500000000 19.921875000000 4.157989501953 215 215 215
24.421875000000 19.953125000000 4.119995117188 215 215 215
24.437500000000 19.921875000000 4.078994750977 204 204 204
24.531250000000 19.546875000000 4.199996948242 171 171 171
24.531250000000 19.546875000000 4.159988403320 216 216 216
24.531250000000 19.546875000000 4.119995117188 215 215 215
24.531250000000 19.546875000000 4.079986572266 202 202 202
24.640625000000 19.156250000000 4.204986572266 129 129 129
24.609375000000 19.171875000000 4.167999267578 214 214 214
24.625000000000 19.156250000000 4.125991821289 216 216 216
24.625000000000 19.156250000000 4.085998535156 203 203 203
22.593750000000 25.281250000000 3.931991577148 73 73 73
22.578125000000 25.265625000000 3.962997436523 172 172 172
22.578125000000 25.265625000000 3.991989135742 174 174 174
22.578125000000 25.265625000000 4.018997192383 171 171 171
22.578125000000 25.265625000000 4.047988891602 171 171 171
22.578125000000 25.265625000000 4.075988769531 167 167 167
22.578125000000 25.265625000000 4.104995727539 172 172 172
22.578125000000 25.265625000000 4.132995605469 175 175 175
22.578125000000 25.265625000000 4.159988403320 179 179 179
22.593750000000 25.281250000000 4.182998657227 92 92 92
22.671875000000 24.984375000000 3.948989868164 143 143 143
22.656250000000 24.968750000000 3.981994628906 168 168 168
22.656250000000 24.968750000000 4.009994506836 168 168 168
22.656250000000 24.968750000000 4.037994384766 170 170 170
22.656250000000 24.968750000000 4.066986083984 168 168 168
22.656250000000 24.984375000000 4.095993041992 172 172 172
22.656250000000 24.984375000000 4.123992919922 170 170 170
22.656250000000 24.984375000000 4.151992797852 169 169 169
22.656250000000 24.984375000000 4.182998657227 156 156 156
23.656250000000 25.546875000000 3.939987182617 148 148 148
23.593750000000 25.515625000000 3.990997314453 169 169 169
23.562500000000 25.515625000000 4.026992797852 168 168 168
23.593750000000 25.515625000000 4.060989379883 169 169 169
23.593750000000 25.515625000000 4.094985961914 168 168 168
23.593750000000 25.515625000000 4.127990722656 168 168 168
23.593750000000 25.515625000000 4.162994384766 165 165 165
23.593750000000 25.531250000000 4.194000244141 41 41 41
22.843750000000 24.734375000000 3.969985961914 56 56 56
22.875000000000 24.750000000000 3.990997314453 162 162 162
22.875000000000 24.750000000000 4.020996093750 162 162 162
22.875000000000 24.750000000000 4.052993774414 161 161 161
22.875000000000 24.750000000000 4.082992553711 161 161 161
22.859375000000 24.765625000000 4.112991333008 159 159 159
22.843750000000 24.750000000000 4.142990112305 163 163 163
23.656250000000 25.203125000000 3.959991455078 105 105 105
23.625000000000 25.187500000000 4.002990722656 141 141 141
23.609375000000 25.171875000000 4.039993286133 153 153 153
23.609375000000 25.171875000000 4.075988769531 156 156 156
23.609375000000 25.171875000000 4.108993530273 152 152 152
23.625000000000 25.187500000000 4.142990112305 148 148 148
23.656250000000 25.203125000000 4.166992187500 142 142 142
23.718750000000 25.234375000000 4.192993164063 109 109 109
23.218750000000 24.578125000000 3.240997314453 153 153 153
23.218750000000 24.578125000000 3.276992797852 149 149 149
23.218750000000 24.593750000000 3.308990478516 144 144 144
23.218750000000 24.593750000000 3.344985961914 143 143 143
23.218750000000 24.593750000000 3.377990722656 146 146 146
23.218750000000 24.593750000000 3.414993286133 148 148 148
23.187500000000 24.578125000000 3.451995849609 156 156 156
23.125000000000 24.546875000000 3.514999389648 161 161 161
23.125000000000 24.546875000000 3.546997070313 164 164 164
23.125000000000 24.546875000000 3.582000732422 156 156 156
23.125000000000 24.546875000000 3.613998413086 175 175 175
23.125000000000 24.546875000000 3.647994995117 176 176 176
23.125000000000 24.546875000000 3.679992675781 178 178 178
23.125000000000 24.546875000000 3.710998535156 182 182 182
23.125000000000 24.546875000000 3.744995117188 185 185 185
23.125000000000 24.546875000000 3.777999877930 210 210 210
23.125000000000 24.546875000000 3.809997558594 196 196 196
23.125000000000 24.546875000000 3.842987060547 181 181 181
23.125000000000 24.546875000000 3.873992919922 180 180 180
23.093750000000 24.531250000000 3.913986206055 165 165 165
23.093750000000 24.531250000000 3.944000244141 166 166 166
23.000000000000 24.468750000000 4.005996704102 149 149 149
23.000000000000 24.484375000000 4.034988403320 157 157 157
23.000000000000 24.484375000000 4.064987182617 160 160 160
22.984375000000 24.484375000000 4.097000122070 156 156 156
23.000000000000 24.500000000000 4.126998901367 160 160 160
23.000000000000 24.500000000000 4.152999877930 157 157 157
23.093750000000 24.546875000000 4.163986206055 178 178 178
23.125000000000 24.562500000000 4.187988281250 180 180 180
23.156250000000 24.578125000000 4.211990356445 144 144 144
23.296875000000 24.671875000000 4.205993652344 129 129 129
23.421875000000 24.734375000000 4.211990356445 113 113 113
23.421875000000 24.390625000000 3.514999389648 117 117 117
23.437500000000 24.406250000000 3.543991088867 138 138 138
23.453125000000 24.421875000000 3.575988769531 136 136 136
23.453125000000 24.421875000000 3.610000610352 134 134 134
23.468750000000 24.421875000000 3.641998291016 133 133 133
23.468750000000 24.421875000000 3.673995971680 130 130 130
23.468750000000 24.421875000000 3.707000732422 133 133 133
23.468750000000 24.421875000000 3.739990234375 133 133 133
23.468750000000 24.421875000000 3.772994995117 130 130 130
23.500000000000 24.437500000000 3.804992675781 130 130 130
23.500000000000 24.437500000000 3.838989257813 131 131 131
23.093750000000 24.218750000000 3.986999511719 145 145 145
23.062500000000 24.203125000000 4.026992797852 161 161 161
23.062500000000 24.203125000000 4.057998657227 158 158 158
23.093750000000 24.203125000000 4.085998535156 161 161 161
23.062500000000 24.203125000000 4.118988037109 157 157 157
23.062500000000 24.203125000000 4.149993896484 156 156 156
23.156250000000 24.250000000000 4.160995483398 157 157 157
23.562500000000 24.484375000000 4.092987060547 145 145 145
23.562500000000 24.500000000000 4.123992919922 145 145 145
23.593750000000 24.515625000000 4.151992797852 158 158 158
23.625000000000 24.531250000000 4.175994873047 106 106 106
23.156250000000 23.921875000000 4.011993408203 198 198 198
23.156250000000 23.921875000000 4.043991088867 220 220 220
23.156250000000 23.921875000000 4.074996948242 220 220 220
23.171875000000 23.921875000000 4.104995727539 222 222 222
23.156250000000 23.921875000000 4.138000488281 222 222 222
23.171875000000 23.921875000000 4.166992187500 204 204 204
23.703125000000 24.250000000000 4.064987182617 140 140 140
23.703125000000 24.250000000000 4.101989746094 143 143 143
23.703125000000 24.250000000000 4.138000488281 168 168 168
23.718750000000 24.265625000000 4.168991088867 132 132 132
23.234375000000 23.640625000000 4.000000000000 88 88 88
23.234375000000 23.640625000000 4.033996582031 221 221 221
23.234375000000 23.640625000000 4.063995361328 223 223 223
23.234375000000 23.640625000000 4.097000122070 221 221 221
23.234375000000 23.640625000000 4.128997802734 220 220 220
23.250000000000 23.656250000000 4.157989501953 222 222 222
23.765625000000 23.953125000000 4.066986083984 219 219 219
23.765625000000 23.953125000000 4.100997924805 207 207 207
23.781250000000 23.953125000000 4.133987426758 220 220 220
23.781250000000 23.968750000000 4.169998168945 179 179 179
23.343750000000 23.359375000000 3.994995117188 25 25 25
23.328125000000 23.359375000000 4.032989501953 219 219 219
23.328125000000 23.359375000000 4.064987182617 220 220 220
23.328125000000 23.359375000000 4.097000122070 220 220 220
23.328125000000 23.359375000000 4.128997802734 219 219 219
23.343750000000 23.359375000000 4.157989501953 219 219 219
23.812500000000 23.640625000000 4.078994750977 222 222 222
23.828125000000 23.640625000000 4.112991333008 222 222 222
23.812500000000 23.640625000000 4.148986816406 203 203 203
23.843750000000 23.671875000000 4.179992675781 26 26 26
23.406250000000 23.078125000000 4.033996582031 220 220 220
23.406250000000 23.078125000000 4.069992065430 220 220 220
23.406250000000 23.078125000000 4.101989746094 218 218 218
23.406250000000 23.078125000000 4.133987426758 222 222 222
23.437500000000 23.078125000000 4.163986206055 225 225 225
23.875000000000 23.328125000000 4.097991943359 219 219 219
23.875000000000 23.328125000000 4.132995605469 205 205 205
23.875000000000 23.328125000000 4.169998168945 188 188 188
23.500000000000 22.765625000000 4.034988403320 208 208 208
23.500000000000 22.765625000000 4.069000244141 222 222 222
23.531250000000 22.781250000000 4.099990844727 221 221 221
23.531250000000 22.781250000000 4.134994506836 222 222 222
23.531250000000 22.781250000000 4.167999267578 217 217 217
23.906250000000 23.000000000000 4.111999511719 150 150 150
23.937500000000 23.015625000000 4.146987915039 201 201 201
23.906250000000 23.000000000000 4.184997558594 146 146 146
23.609375000000 22.500000000000 4.023986816406 130 130 130
23.609375000000 22.500000000000 4.059997558594 220 220 220
23.609375000000 22.500000000000 4.093994140625 185 185 185
23.609375000000 22.500000000000 4.127990722656 194 194 194
23.609375000000 22.500000000000 4.160995483398 219 219 219
23.937500000000 22.687500000000 4.123992919922 223 223 223
23.968750000000 22.703125000000 4.153991699219 218 218 218
23.968750000000 22.718750000000 4.188995361328 135 135 135
23.703125000000 22.234375000000 4.046997070313 211 211 211
23.687500000000 22.218750000000 4.082992553711 222 222 222
23.703125000000 22.234375000000 4.116989135742 204 204 204
23.687500000000 22.218750000000 4.151992797852 219 219 219
23.750000000000 22.265625000000 4.173995971680 223 223 223
24.000000000000 22.421875000000 4.156997680664 215 215 215
24.015625000000 22.421875000000 4.190994262695 122 122 122
23.781250000000 21.953125000000 4.039993286133 198 198 198
23.781250000000 21.953125000000 4.076995849609 221 221 221
23.781250000000 21.953125000000 4.111999511719 195 195 195
23.781250000000 21.953125000000 4.145996093750 223 223 223
23.843750000000 21.968750000000 4.172988891602 221 221 221
24.062500000000 22.093750000000 4.163986206055 207 207 207
23.890625000000 21.671875000000 4.044998168945 211 211 211
23.875000000000 21.656250000000 4.082992553711 214 214 214
23.875000000000 21.656250000000 4.117996215820 162 162 162
23.875000000000 21.656250000000 4.153991699219 217 217 217
23.921875000000 21.687500000000 4.181991577148 188 188 188
23.937500000000 21.703125000000 4.210998535156 163 163 163
23.937500000000 21.703125000000 4.246994018555 175 175 175
23.937500000000 21.703125000000 4.282989501953 171 171 171
23.937500000000 21.703125000000 4.319000244141 177 177 177
23.968750000000 21.703125000000 4.352996826172 71 71 71
23.984375000000 21.375000000000 4.052993774414 214 214 214
23.968750000000 21.375000000000 4.091995239258 199 199 199
23.968750000000 21.375000000000 4.128997802734 184 184 184
23.968750000000 21.375000000000 4.163986206055 220 220 220
24.109375000000 21.453125000000 4.173995971680 213 213 213
24.062500000000 21.093750000000 4.055999755859 193 193 193
24.062500000000 21.093750000000 4.092987060547 216 216 216
24.062500000000 21.093750000000 4.130996704102 180 180 180
24.062500000000 21.093750000000 4.166992187500 218 218 218
24.156250000000 21.140625000000 4.184997558594 198 198 198
24.156250000000 20.796875000000 4.048995971680 162 162 162
24.156250000000 20.796875000000 4.087997436523 211 211 211
24.156250000000 20.812500000000 4.122985839844 219 219 219
24.156250000000 20.796875000000 4.161987304688 210 210 210
24.171875000000 20.828125000000 4.194992065430 182 182 182
24.265625000000 20.546875000000 4.070999145508 218 218 218
24.250000000000 20.546875000000 4.110992431641 221 221 221
24.265625000000 20.546875000000 4.146987915039 218 218 218
24.250000000000 20.546875000000 4.186996459961 206 206 206
24.328125000000 20.250000000000 4.073989868164 219 219 219
24.343750000000 20.265625000000 4.111999511719 223 223 223
24.312500000000 20.265625000000 4.150985717773 224 224 224
24.312500000000 20.265625000000 4.188995361328 191 191 191
24.406250000000 19.953125000000 4.039993286133 64 64 64
24.406250000000 19.953125000000 4.082000732422 222 222 222
24.406250000000 19.953125000000 4.121994018555 217 217 217
24.406250000000 19.953125000000 4.160995483398 222 222 222
24.406250000000 19.953125000000 4.196990966797 125 125 125
24.500000000000 19.671875000000 4.044998168945 165 165 165
24.468750000000 19.640625000000 4.092987060547 221 221 221
24.468750000000 19.640625000000 4.131988525391 216 216 216
24.468750000000 19.640625000000 4.171997070313 221 221 221
24.546875000000 19.343750000000 4.095993041992 223 223 223
24.531250000000 19.343750000000 4.138000488281 223 223 223
24.546875000000 19.343750000000 4.176986694336 222 222 222
24.593750000000 19.062500000000 4.093994140625 226 226 226
24.593750000000 19.062500000000 4.133987426758 220 220 220
24.593750000000 19.062500000000 4.173995971680 224 224 224
24.671875000000 19.093750000000 4.203994750977 98 98 98
23.609375000000 25.484375000000 3.967987060547 162 162 162
23.593750000000 25.484375000000 4.000991821289 159 159 159
23.593750000000 25.484375000000 4.031997680664 166 166 166
23.593750000000 25.484375000000 4.062988281250 167 167 167
23.593750000000 25.484375000000 4.091995239258 166 166 166
23.593750000000 25.484375000000 4.122985839844 166 166 166
23.578125000000 25.484375000000 4.153991699219 160 160 160
23.609375000000 25.484375000000 4.178985595703 168 168 168
23.640625000000 25.484375000000 4.201995849609 45 45 45
22.640625000000 25.156250000000 3.945999145508 126 126 126
22.625000000000 25.140625000000 3.976989746094 172 172 172
22.625000000000 25.140625000000 4.002990722656 169 169 169
22.625000000000 25.140625000000 4.026992797852 166 166 166
22.625000000000 25.140625000000 4.051986694336 167 167 167
22.625000000000 25.156250000000 4.074996948242 171 171 171
22.625000000000 25.140625000000 4.100997924805 173 173 173
22.625000000000 25.140625000000 4.125991821289 171 171 171
22.625000000000 25.140625000000 4.150985717773 173 173 173
22.625000000000 25.140625000000 4.175994873047 170 170 170
22.656250000000 25.156250000000 4.190994262695 114 114 114
23.625000000000 25.140625000000 4.003997802734 125 125 125
23.625000000000 25.140625000000 4.033996582031 157 157 157
23.656250000000 25.140625000000 4.062988281250 164 164 164
23.625000000000 25.140625000000 4.094985961914 160 160 160
23.625000000000 25.140625000000 4.125991821289 161 161 161
23.656250000000 25.140625000000 4.153991699219 157 157 157
23.093750000000 24.828125000000 3.515991210938 163 163 163
23.093750000000 24.828125000000 3.542999267578 156 156 156
23.093750000000 24.828125000000 3.573989868164 156 156 156
