21.984375000000 2.375000000000 6.152999877930 166 166 166
21.968750000000 2.375000000000 6.172988891602 167 167 167
21.984375000000 2.375000000000 6.196990966797 165 165 165
21.984375000000 2.375000000000 6.217987060547 167 167 167
21.968750000000 2.375000000000 6.238998413086 165 165 165
21.968750000000 2.375000000000 6.258987426758 163 163 163
21.968750000000 2.375000000000 6.281997680664 166 166 166
21.968750000000 2.375000000000 6.304992675781 167 167 167
21.984375000000 2.375000000000 6.332000732422 164 164 164
21.984375000000 2.375000000000 6.352996826172 167 167 167
21.984375000000 2.375000000000 6.375991821289 167 167 167
21.968750000000 2.375000000000 6.394989013672 166 166 166
21.984375000000 2.375000000000 6.422988891602 166 166 166
21.984375000000 2.375000000000 6.444992065430 168 168 168
21.984375000000 2.375000000000 6.468994140625 166 166 166
21.984375000000 2.375000000000 6.490997314453 164 164 164
21.984375000000 2.375000000000 6.517990112305 167 167 167
21.984375000000 2.375000000000 6.539993286133 166 166 166
21.984375000000 2.375000000000 6.565994262695 167 167 167
21.984375000000 2.375000000000 6.587997436523 166 166 166
21.984375000000 2.375000000000 6.613998413086 167 167 167
21.984375000000 2.375000000000 6.635986328125 166 166 166
21.984375000000 2.375000000000 6.659988403320 164 164 164
21.984375000000 2.375000000000 6.684997558594 164 164 164
21.984375000000 2.375000000000 6.708999633789 167 167 167
21.968750000000 2.390625000000 6.711990356445 167 167 167
21.968750000000 2.390625000000 6.684997558594 162 162 162
21.968750000000 2.390625000000 6.660995483398 162 162 162
22.000000000000 2.406250000000 6.636993408203 163 163 163
21.968750000000 2.390625000000 6.607986450195 166 166 166
22.000000000000 2.406250000000 6.583999633789 163 163 163
21.968750000000 2.390625000000 6.555999755859 164 164 164
22.000000000000 2.406250000000 6.530990600586 164 164 164
21.984375000000 2.421875000000 6.504989624023 164 164 164
22.000000000000 2.406250000000 6.480987548828 164 164 164
21.984375000000 2.421875000000 6.454986572266 167 167 167
22.000000000000 2.406250000000 6.431991577148 167 167 167
21.984375000000 2.421875000000 6.405990600586 168 168 168
21.984375000000 2.421875000000 6.378997802734 166 166 166
21.968750000000 2.406250000000 6.352996826172 165 165 165
21.984375000000 2.421875000000 6.332000732422 165 165 165
21.984375000000 2.421875000000 6.306991577148 167 167 167
21.984375000000 2.421875000000 6.281997680664 167 167 167
21.984375000000 2.421875000000 6.256988525391 165 165 165
21.984375000000 2.421875000000 6.233993530273 166 166 166
21.984375000000 2.421875000000 6.208999633789 165 165 165
21.984375000000 2.421875000000 6.184997558594 167 167 167
21.968750000000 2.421875000000 6.160995483398 167 167 167
21.968750000000 2.421875000000 6.136993408203 168 168 168
21.984375000000 2.421875000000 6.113998413086 171 171 171
21.968750000000 2.421875000000 6.088989257813 169 169 169
21.968750000000 2.421875000000 6.064987182617 167 167 167
21.968750000000 2.421875000000 6.042999267578 169 169 169
21.968750000000 2.421875000000 6.017990112305 166 166 166
21.984375000000 2.421875000000 5.997985839844 167 167 167
21.968750000000 2.421875000000 5.972991943359 165 165 165
21.968750000000 2.421875000000 5.949996948242 167 167 167
21.968750000000 2.421875000000 5.924987792969 165 165 165
21.968750000000 2.421875000000 5.902999877930 166 166 166
21.968750000000 2.421875000000 5.879989624023 167 167 167
21.968750000000 2.421875000000 5.857986450195 165 165 165
21.968750000000 2.421875000000 5.834991455078 168 168 168
21.968750000000 2.437500000000 5.809997558594 170 170 170
21.968750000000 2.437500000000 5.787994384766 170 170 170
21.968750000000 2.437500000000 5.765991210938 171 171 171
21.968750000000 2.421875000000 5.743988037109 170 170 170
22.000000000000 2.437500000000 5.722000122070 169 169 169
21.968750000000 2.437500000000 5.697998046875 170 170 170
21.968750000000 2.437500000000 5.674987792969 171 171 171
21.984375000000 2.453125000000 5.653991699219 170 170 170
22.000000000000 2.437500000000 5.631988525391 170 170 170
21.968750000000 2.437500000000 5.607986450195 173 173 173
21.984375000000 2.453125000000 5.586990356445 170 170 170
21.984375000000 2.453125000000 5.563995361328 172 172 172
21.968750000000 2.437500000000 5.541000366211 171 171 171
21.984375000000 2.453125000000 5.520996093750 171 171 171
21.968750000000 2.437500000000 5.496994018555 172 172 172
21.984375000000 2.453125000000 5.475997924805 172 172 172
21.968750000000 2.453125000000 5.452987670898 172 172 172
21.968750000000 2.453125000000 5.430999755859 170 170 170
21.984375000000 2.453125000000 5.409988403320 172 172 172
21.984375000000 2.453125000000 5.388000488281 170 170 170
21.984375000000 2.453125000000 5.365997314453 167 167 167
21.984375000000 2.453125000000 5.343994140625 162 162 162
21.984375000000 2.453125000000 5.321990966797 164 164 164
21.984375000000 2.453125000000 5.299987792969 164 164 164
21.968750000000 2.468750000000 5.277999877930 161 161 161
21.984375000000 2.453125000000 5.255996704102 161 161 161
21.968750000000 2.468750000000 5.233993530273 160 160 160
21.968750000000 2.468750000000 5.212997436523 160 160 160
21.968750000000 2.468750000000 5.190994262695 160 160 160
21.984375000000 2.453125000000 5.168991088867 161 161 161
21.984375000000 2.453125000000 5.147994995117 161 161 161
21.968750000000 2.468750000000 5.125991821289 159 159 159
21.984375000000 2.453125000000 5.103988647461 160 160 160
21.984375000000 2.453125000000 5.082000732422 157 157 157
22.000000000000 2.453125000000 5.059997558594 161 161 161
22.000000000000 2.453125000000 5.038986206055 160 160 160
21.984375000000 2.453125000000 5.016998291016 152 152 152
22.000000000000 2.453125000000 4.994995117188 144 144 144
22.000000000000 2.453125000000 4.972991943359 143 143 143
22.000000000000 2.453125000000 4.950988769531 142 142 142
22.000000000000 2.453125000000 4.928985595703 143 143 143
22.000000000000 2.453125000000 4.906997680664 140 140 140
22.000000000000 2.453125000000 4.884994506836 138 138 138
22.000000000000 2.453125000000 4.863998413086 141 141 141
22.000000000000 2.453125000000 4.840988159180 136 136 136
22.015625000000 2.453125000000 4.817993164063 140 140 140
22.000000000000 2.453125000000 4.797988891602 137 137 137
22.015625000000 2.453125000000 4.773986816406 134 134 134
22.015625000000 2.453125000000 4.751998901367 136 136 136
22.015625000000 2.453125000000 4.729995727539 133 133 133
22.015625000000 2.453125000000 4.707992553711 137 137 137
22.015625000000 2.453125000000 4.685989379883 148 148 148
22.015625000000 2.453125000000 4.662994384766 153 153 153
22.015625000000 2.453125000000 4.640991210938 150 150 150
22.015625000000 2.453125000000 4.618988037109 146 146 146
22.015625000000 2.453125000000 4.594985961914 142 142 142
22.031250000000 2.453125000000 4.571990966797 143 143 143
22.031250000000 2.453125000000 4.546997070313 139 139 139
22.062500000000 2.421875000000 4.519989013672 143 143 143
22.062500000000 2.421875000000 4.496994018555 139 139 139
22.093750000000 2.421875000000 4.472000122070 142 142 142
22.093750000000 2.421875000000 4.447998046875 139 139 139
22.093750000000 2.421875000000 4.424987792969 141 141 141
22.093750000000 2.406250000000 4.399993896484 139 139 139
22.093750000000 2.406250000000 4.376998901367 139 139 139
22.093750000000 2.421875000000 4.350997924805 140 140 140
22.109375000000 2.406250000000 4.324996948242 140 140 140
22.125000000000 2.390625000000 4.298995971680 140 140 140
22.156250000000 2.375000000000 4.263992309570 142 142 142
22.187500000000 2.375000000000 4.238998413086 140 140 140
22.218750000000 2.343750000000 4.203994750977 138 138 138
22.265625000000 2.328125000000 4.168991088867 139 139 139
22.296875000000 2.312500000000 4.136993408203 143 143 143
22.296875000000 2.312500000000 4.111999511719 145 145 145
22.296875000000 2.312500000000 4.082992553711 147 147 147
22.296875000000 2.312500000000 4.060989379883 148 148 148
22.296875000000 2.312500000000 4.032989501953 147 147 147
22.312500000000 2.312500000000 4.006988525391 144 144 144
22.312500000000 2.296875000000 3.979995727539 151 151 151
22.312500000000 2.296875000000 3.951995849609 152 152 152
22.312500000000 2.296875000000 3.927993774414 155 155 155
22.312500000000 2.296875000000 3.900985717773 149 149 149
22.312500000000 2.312500000000 3.880996704102 199 199 199
22.312500000000 2.296875000000 3.850997924805 225 225 225
22.312500000000 2.312500000000 3.825988769531 225 225 225
22.250000000000 2.359375000000 3.823989868164 217 217 217
22.062500000000 2.468750000000 3.867996215820 193 193 193
22.062500000000 2.468750000000 3.842987060547 195 195 195
22.062500000000 2.468750000000 3.817993164063 176 176 176
22.062500000000 2.468750000000 3.791992187500 165 165 165
22.062500000000 2.468750000000 3.766998291016 178 178 178
22.078125000000 2.453125000000 3.740997314453 187 187 187
22.062500000000 2.468750000000 3.716995239258 191 191 191
22.078125000000 2.453125000000 3.689987182617 174 174 174
22.093750000000 2.437500000000 3.657989501953 133 133 133
22.093750000000 2.453125000000 3.635986328125 128 128 128
22.093750000000 2.437500000000 3.605987548828 128 128 128
22.093750000000 2.453125000000 3.582992553711 127 127 127
22.109375000000 2.453125000000 3.551986694336 128 128 128
22.156250000000 2.406250000000 3.492996215820 165 165 165
22.343750000000 2.296875000000 3.378997802734 174 174 174
22.343750000000 2.296875000000 3.350997924805 177 177 177
22.343750000000 2.296875000000 3.322998046875 169 169 169
22.343750000000 2.312500000000 3.296997070313 170 170 170
22.343750000000 2.312500000000 3.267990112305 165 165 165
22.343750000000 2.296875000000 3.236999511719 167 167 167
22.343750000000 2.312500000000 3.210998535156 166 166 166
22.343750000000 2.296875000000 3.179992675781 167 167 167
22.343750000000 2.312500000000 3.152999877930 168 168 168
22.343750000000 2.312500000000 3.120986938477 169 169 169
22.375000000000 2.296875000000 3.088989257813 167 167 167
22.000000000000 2.203125000000 3.131988525391 216 216 216
21.937500000000 2.218750000000 3.138000488281 161 161 161
21.937500000000 2.234375000000 3.112991333008 164 164 164
21.921875000000 2.234375000000 3.092987060547 159 159 159
21.921875000000 2.234375000000 3.118988037109 160 160 160
21.921875000000 2.234375000000 3.144989013672 157 157 157
21.953125000000 2.234375000000 3.162994384766 147 147 147
22.093750000000 2.296875000000 3.112991333008 142 142 142
22.328125000000 2.421875000000 3.080993652344 162 162 162
22.343750000000 2.437500000000 3.106994628906 160 160 160
22.328125000000 2.421875000000 3.136993408203 161 161 161
22.328125000000 2.421875000000 3.168991088867 160 160 160
22.328125000000 2.421875000000 3.198989868164 161 161 161
22.328125000000 2.421875000000 3.224990844727 163 163 163
22.328125000000 2.421875000000 3.255996704102 166 166 166
22.328125000000 2.421875000000 3.281997680664 166 166 166
22.328125000000 2.421875000000 3.309997558594 164 164 164
22.328125000000 2.421875000000 3.340988159180 170 170 170
22.312500000000 2.437500000000 3.372985839844 170 170 170
22.093750000000 2.312500000000 3.501998901367 159 159 159
22.031250000000 2.281250000000 3.550994873047 134 134 134
22.046875000000 2.296875000000 3.573989868164 134 134 134
22.046875000000 2.296875000000 3.599990844727 132 132 132
22.031250000000 2.281250000000 3.625000000000 129 129 129
22.031250000000 2.281250000000 3.651992797852 130 130 130
22.187500000000 2.375000000000 3.614990234375 163 163 163
22.312500000000 2.437500000000 3.586990356445 164 164 164
22.296875000000 2.421875000000 3.616989135742 166 166 166
22.296875000000 2.421875000000 3.645996093750 162 162 162
22.296875000000 2.421875000000 3.671997070313 157 157 157
22.281250000000 2.421875000000 3.704986572266 167 167 167
22.265625000000 2.421875000000 3.733993530273 167 167 167
22.250000000000 2.406250000000 3.769989013672 170 170 170
22.250000000000 2.406250000000 3.794998168945 169 169 169
22.281250000000 2.421875000000 3.806991577148 162 162 162
22.250000000000 2.406250000000 3.839996337891 164 164 164
22.250000000000 2.406250000000 3.864990234375 162 162 162
22.187500000000 2.390625000000 3.907989501953 155 155 155
22.187500000000 2.390625000000 3.932998657227 162 162 162
22.156250000000 2.375000000000 3.963989257813 160 160 160
22.187500000000 2.390625000000 3.987991333008 163 163 163
22.125000000000 2.359375000000 4.022994995117 164 164 164
22.125000000000 2.359375000000 4.046997070313 164 164 164
22.125000000000 2.359375000000 4.072998046875 161 161 161
22.109375000000 2.343750000000 4.102996826172 151 151 151
22.093750000000 2.343750000000 4.126998901367 151 151 151
22.078125000000 2.328125000000 4.156997680664 142 142 142
22.093750000000 2.343750000000 4.176986694336 148 148 148
22.093750000000 2.343750000000 4.199996948242 149 149 149
22.078125000000 2.328125000000 4.226989746094 148 148 148
22.078125000000 2.328125000000 4.248992919922 143 143 143
22.062500000000 2.328125000000 4.273986816406 146 146 146
22.062500000000 2.328125000000 4.295989990234 149 149 149
22.062500000000 2.312500000000 4.320999145508 140 140 140
22.062500000000 2.328125000000 4.341995239258 149 149 149
22.062500000000 2.312500000000 4.368988037109 144 144 144
22.031250000000 2.312500000000 4.391998291016 139 139 139
22.046875000000 2.328125000000 4.412994384766 139 139 139
22.015625000000 2.312500000000 4.439987182617 137 137 137
22.015625000000 2.312500000000 4.462997436523 132 132 132
22.015625000000 2.312500000000 4.483993530273 135 135 135
22.000000000000 2.296875000000 4.508987426758 132 132 132
22.000000000000 2.296875000000 4.530990600586 134 134 134
22.000000000000 2.296875000000 4.554992675781 137 137 137
22.000000000000 2.296875000000 4.575988769531 142 142 142
22.000000000000 2.296875000000 4.597991943359 133 133 133
22.000000000000 2.296875000000 4.618988037109 136 136 136
21.968750000000 2.281250000000 4.642990112305 133 133 133
22.000000000000 2.296875000000 4.662994384766 135 135 135
22.000000000000 2.296875000000 4.684997558594 131 131 131
22.000000000000 2.296875000000 4.704986572266 129 129 129
21.968750000000 2.281250000000 4.727996826172 130 130 130
21.968750000000 2.281250000000 4.750000000000 132 132 132
21.968750000000 2.281250000000 4.771987915039 129 129 129
21.968750000000 2.281250000000 4.792999267578 131 131 131
21.968750000000 2.281250000000 4.814987182617 124 124 124
21.968750000000 2.281250000000 4.835998535156 125 125 125
22.000000000000 2.296875000000 4.855987548828 131 131 131
21.968750000000 2.281250000000 4.877990722656 125 125 125
22.000000000000 2.296875000000 4.898986816406 128 128 128
21.968750000000 2.281250000000 4.920989990234 126 126 126
22.000000000000 2.296875000000 4.941986083984 121 121 121
21.968750000000 2.281250000000 4.962997436523 133 133 133
21.968750000000 2.281250000000 4.985000610352 129 129 129
21.968750000000 2.281250000000 5.005996704102 131 131 131
21.968750000000 2.281250000000 5.027999877930 128 128 128
21.968750000000 2.281250000000 5.048995971680 128 128 128
21.968750000000 2.296875000000 5.069992065430 131 131 131
21.953125000000 2.296875000000 5.090988159180 138 138 138
21.953125000000 2.296875000000 5.111999511719 141 141 141
21.968750000000 2.296875000000 5.133987426758 148 148 148
21.953125000000 2.296875000000 5.154998779297 153 153 153
21.953125000000 2.296875000000 5.175994873047 148 148 148
21.953125000000 2.296875000000 5.196990966797 150 150 150
21.953125000000 2.296875000000 5.218994140625 149 149 149
21.953125000000 2.296875000000 5.239990234375 149 149 149
21.968750000000 2.296875000000 5.261993408203 149 149 149
21.953125000000 2.296875000000 5.281997680664 149 149 149
21.953125000000 2.296875000000 5.303985595703 145 145 145
21.953125000000 2.296875000000 5.324996948242 144 144 144
21.953125000000 2.296875000000 5.345993041992 149 149 149
21.953125000000 2.296875000000 5.367996215820 149 149 149
21.953125000000 2.296875000000 5.388992309570 147 147 147
21.953125000000 2.296875000000 5.410995483398 148 148 148
21.953125000000 2.296875000000 5.431991577148 146 146 146
21.953125000000 2.296875000000 5.453994750977 144 144 144
21.953125000000 2.296875000000 5.474990844727 151 151 151
21.953125000000 2.296875000000 5.496994018555 152 152 152
21.953125000000 2.296875000000 5.517990112305 151 151 151
21.953125000000 2.296875000000 5.539993286133 151 151 151
21.953125000000 2.296875000000 5.559997558594 152 152 152
21.968750000000 2.296875000000 5.583999633789 150 150 150
21.953125000000 2.296875000000 5.603988647461 152 152 152
21.953125000000 2.296875000000 5.626998901367 151 151 151
21.953125000000 2.296875000000 5.647994995117 154 154 154
21.953125000000 2.296875000000 5.669998168945 159 159 159
21.953125000000 2.296875000000 5.691986083984 156 156 156
21.968750000000 2.296875000000 5.714996337891 160 160 160
21.953125000000 2.296875000000 5.735000610352 160 160 160
21.953125000000 2.296875000000 5.757995605469 159 159 159
21.937500000000 2.312500000000 5.779998779297 161 161 161
21.968750000000 2.312500000000 5.803985595703 165 165 165
21.937500000000 2.312500000000 5.823989868164 163 163 163
21.937500000000 2.312500000000 5.847000122070 161 161 161
21.937500000000 2.312500000000 5.868988037109 161 161 161
21.937500000000 2.312500000000 5.890991210938 158 158 158
21.968750000000 2.312500000000 5.916000366211 163 163 163
21.968750000000 2.312500000000 5.936996459961 161 161 161
21.937500000000 2.312500000000 5.958999633789 160 160 160
21.968750000000 2.312500000000 5.982986450195 157 157 157
21.968750000000 2.312500000000 6.004989624023 159 159 159
21.968750000000 2.312500000000 6.030990600586 151 151 151
21.937500000000 2.312500000000 6.049987792969 159 159 159
21.968750000000 2.312500000000 6.074996948242 161 161 161
21.968750000000 2.312500000000 6.097991943359 161 161 161
21.968750000000 2.312500000000 6.121994018555 160 160 160
21.968750000000 2.312500000000 6.143997192383 163 163 163
21.968750000000 2.312500000000 6.167999267578 161 161 161
21.968750000000 2.312500000000 6.188995361328 161 161 161
21.968750000000 2.312500000000 6.212997436523 163 163 163
21.968750000000 2.312500000000 6.240997314453 164 164 164
21.968750000000 2.312500000000 6.260986328125 161 161 161
21.968750000000 2.312500000000 6.282989501953 165 165 165
21.968750000000 2.312500000000 6.308990478516 161 161 161
21.968750000000 2.312500000000 6.332000732422 163 163 163
21.968750000000 2.312500000000 6.356994628906 162 162 162
21.968750000000 2.312500000000 6.379989624023 163 163 163
21.968750000000 2.312500000000 6.405990600586 162 162 162
21.953125000000 2.328125000000 6.427993774414 161 161 161
21.953125000000 2.328125000000 6.451995849609 162 162 162
21.953125000000 2.328125000000 6.478988647461 161 161 161
21.953125000000 2.328125000000 6.502990722656 161 161 161
21.953125000000 2.328125000000 6.526992797852 158 158 158
21.953125000000 2.328125000000 6.551986694336 158 158 158
21.953125000000 2.328125000000 6.579986572266 160 160 160
21.953125000000 2.328125000000 6.605987548828 164 164 164
21.953125000000 2.328125000000 6.627990722656 156 156 156
21.968750000000 2.343750000000 6.657989501953 157 157 157
21.953125000000 2.328125000000 6.679992675781 156 156 156
21.953125000000 2.328125000000 6.707000732422 162 162 162
21.937500000000 2.296875000000 3.099990844727 166 166 166
21.937500000000 2.296875000000 3.122985839844 164 164 164
21.937500000000 2.296875000000 3.144989013672 159 159 159
21.937500000000 2.296875000000 3.170989990234 158 158 158
21.937500000000 2.296875000000 3.195999145508 160 160 160
21.937500000000 2.296875000000 3.218994140625 167 167 167
21.968750000000 2.281250000000 3.222000122070 176 176 176
22.000000000000 2.281250000000 3.231994628906 193 193 193
22.000000000000 2.281250000000 3.259994506836 196 196 196
22.015625000000 2.296875000000 3.272994995117 195 195 195
22.031250000000 2.281250000000 3.291992187500 193 193 193
22.031250000000 2.281250000000 3.313995361328 191 191 191
22.062500000000 2.281250000000 3.324996948242 193 193 193
22.031250000000 2.281250000000 3.357986450195 180 180 180
21.937500000000 2.296875000000 3.420989990234 109 109 109
22.078125000000 2.265625000000 3.384994506836 255 255 255
21.937500000000 2.296875000000 3.462997436523 99 99 99
21.968750000000 2.281250000000 3.480987548828 94 94 94
21.937500000000 2.281250000000 3.558990478516 58 58 58
21.953125000000 2.265625000000 3.571990966797 50 50 50
21.953125000000 2.265625000000 3.700988769531 43 43 43
21.953125000000 2.265625000000 3.717987060547 31 31 31
22.000000000000 2.312500000000 6.716995239258 79 79 79
21.984375000000 2.312500000000 6.689987182617 83 83 83
21.984375000000 2.312500000000 6.664993286133 97 97 97
22.000000000000 2.312500000000 6.642990112305 106 106 106
21.984375000000 2.312500000000 6.615997314453 119 119 119
22.000000000000 2.312500000000 6.594985961914 123 123 123
21.984375000000 2.312500000000 6.565994262695 126 126 126
21.984375000000 2.312500000000 6.541992187500 136 136 136
22.000000000000 2.312500000000 6.521987915039 137 137 137
22.000000000000 2.312500000000 6.498992919922 139 139 139
22.000000000000 2.312500000000 6.476989746094 143 143 143
22.000000000000 2.312500000000 6.452987670898 146 146 146
21.968750000000 2.328125000000 6.425994873047 151 151 151
22.000000000000 2.312500000000 6.405990600586 151 151 151
22.000000000000 2.312500000000 6.382995605469 158 158 158
22.000000000000 2.312500000000 6.361999511719 156 156 156
21.968750000000 2.328125000000 6.335998535156 159 159 159
22.000000000000 2.312500000000 6.319000244141 164 164 164
22.000000000000 2.328125000000 6.292999267578 165 165 165
22.000000000000 2.328125000000 6.269989013672 168 168 168
21.968750000000 2.328125000000 6.245986938477 170 170 170
22.000000000000 2.328125000000 6.224990844727 171 171 171
22.000000000000 2.328125000000 6.203994750977 171 171 171
22.000000000000 2.328125000000 6.181991577148 173 173 173
21.968750000000 2.328125000000 6.158996582031 172 172 172
21.968750000000 2.328125000000 6.134994506836 172 172 172
22.000000000000 2.328125000000 6.115997314453 170 170 170
22.000000000000 2.328125000000 6.094985961914 174 174 174
22.000000000000 2.328125000000 6.075988769531 170 170 170
22.000000000000 2.328125000000 6.051986694336 169 169 169
21.968750000000 2.328125000000 6.029998779297 173 173 173
21.968750000000 2.343750000000 6.007995605469 169 169 169
22.000000000000 2.328125000000 5.988998413086 174 174 174
22.000000000000 2.328125000000 5.967987060547 177 177 177
21.984375000000 2.343750000000 5.946990966797 174 174 174
21.984375000000 2.343750000000 5.925994873047 174 174 174
21.984375000000 2.343750000000 5.904998779297 175 175 175
21.984375000000 2.343750000000 5.885986328125 173 173 173
21.968750000000 2.343750000000 5.862991333008 179 179 179
21.984375000000 2.343750000000 5.843994140625 176 176 176
21.984375000000 2.343750000000 5.823989868164 175 175 175
21.984375000000 2.343750000000 5.804992675781 177 177 177
21.984375000000 2.343750000000 5.782989501953 173 173 173
21.984375000000 2.343750000000 5.763000488281 177 177 177
21.984375000000 2.343750000000 5.742996215820 176 176 176
21.984375000000 2.343750000000 5.723999023438 176 176 176
21.984375000000 2.343750000000 5.703994750977 180 180 180
21.984375000000 2.343750000000 5.682998657227 180 180 180
21.984375000000 2.343750000000 5.661987304688 180 180 180
21.984375000000 2.343750000000 5.642990112305 180 180 180
21.968750000000 2.343750000000 5.621994018555 175 175 175
21.984375000000 2.343750000000 5.604995727539 179 179 179
21.984375000000 2.343750000000 5.584991455078 177 177 177
21.984375000000 2.343750000000 5.565994262695 177 177 177
21.984375000000 2.343750000000 5.545989990234 180 180 180
21.984375000000 2.343750000000 5.525985717773 177 177 177
21.968750000000 2.359375000000 5.505996704102 178 178 178
21.968750000000 2.343750000000 5.485992431641 175 175 175
21.968750000000 2.359375000000 5.466995239258 175 175 175
21.968750000000 2.359375000000 5.447998046875 177 177 177
21.968750000000 2.359375000000 5.428985595703 174 174 174
21.984375000000 2.343750000000 5.410995483398 178 178 178
21.968750000000 2.359375000000 5.390991210938 177 177 177
21.968750000000 2.359375000000 5.370986938477 176 176 176
21.968750000000 2.359375000000 5.352996826172 182 182 182
21.968750000000 2.359375000000 5.332992553711 177 177 177
21.968750000000 2.359375000000 5.314987182617 176 176 176
21.968750000000 2.359375000000 5.295989990234 183 183 183
21.968750000000 2.359375000000 5.276992797852 177 177 177
21.968750000000 2.359375000000 5.257995605469 182 182 182
21.968750000000 2.359375000000 5.238998413086 185 185 185
21.968750000000 2.359375000000 5.219985961914 180 180 180
21.968750000000 2.359375000000 5.200988769531 186 186 186
21.968750000000 2.359375000000 5.181991577148 184 184 184
21.968750000000 2.359375000000 5.162994384766 182 182 182
21.968750000000 2.359375000000 5.144989013672 183 183 183
21.968750000000 2.359375000000 5.126998901367 183 183 183
21.968750000000 2.359375000000 5.106994628906 185 185 185
21.968750000000 2.359375000000 5.087997436523 187 187 187
21.968750000000 2.359375000000 5.069992065430 179 179 179
21.968750000000 2.375000000000 5.050994873047 177 177 177
21.968750000000 2.359375000000 5.031997680664 184 184 184
21.968750000000 2.359375000000 5.013992309570 185 185 185
21.968750000000 2.359375000000 4.994995117188 182 182 182
21.968750000000 2.375000000000 4.975997924805 180 180 180
21.968750000000 2.375000000000 4.957992553711 177 177 177
21.968750000000 2.375000000000 4.938995361328 183 183 183
21.968750000000 2.375000000000 4.919998168945 179 179 179
21.968750000000 2.375000000000 4.901992797852 180 180 180
21.968750000000 2.375000000000 4.882995605469 179 179 179
21.968750000000 2.375000000000 4.863998413086 179 179 179
21.968750000000 2.375000000000 4.845993041992 181 181 181
21.968750000000 2.375000000000 4.826995849609 179 179 179
21.968750000000 2.375000000000 4.807998657227 186 186 186
21.968750000000 2.375000000000 4.789993286133 178 178 178
21.968750000000 2.375000000000 4.770996093750 176 176 176
21.968750000000 2.375000000000 4.752990722656 179 179 179
21.968750000000 2.375000000000 4.733993530273 176 176 176
21.968750000000 2.375000000000 4.714996337891 173 173 173
21.968750000000 2.375000000000 4.695999145508 177 177 177
21.968750000000 2.375000000000 4.677993774414 172 172 172
21.984375000000 2.375000000000 4.658996582031 173 173 173
21.968750000000 2.375000000000 4.639999389648 180 180 180
21.968750000000 2.375000000000 4.621994018555 175 175 175
21.968750000000 2.375000000000 4.602996826172 181 181 181
21.968750000000 2.375000000000 4.583999633789 179 179 179
21.968750000000 2.390625000000 4.565994262695 180 180 180
21.984375000000 2.375000000000 4.544998168945 179 179 179
21.968750000000 2.375000000000 4.526992797852 173 173 173
21.968750000000 2.390625000000 4.507995605469 177 177 177
21.984375000000 2.375000000000 4.488998413086 180 180 180
21.968750000000 2.390625000000 4.470993041992 177 177 177
21.968750000000 2.390625000000 4.451995849609 176 176 176
21.968750000000 2.390625000000 4.432998657227 178 178 178
21.968750000000 2.390625000000 4.413986206055 178 178 178
21.968750000000 2.390625000000 4.393997192383 180 180 180
21.968750000000 2.390625000000 4.375991821289 178 178 178
21.968750000000 2.390625000000 4.356994628906 180 180 180
21.968750000000 2.390625000000 4.336990356445 179 179 179
21.968750000000 2.390625000000 4.317993164063 178 178 178
21.968750000000 2.390625000000 4.298995971680 176 176 176
21.968750000000 2.390625000000 4.279998779297 177 177 177
21.968750000000 2.390625000000 4.259994506836 175 175 175
21.968750000000 2.390625000000 4.242996215820 171 171 171
21.968750000000 2.390625000000 4.222991943359 171 171 171
21.968750000000 2.390625000000 4.201995849609 172 172 172
21.968750000000 2.390625000000 4.181991577148 175 175 175
21.968750000000 2.390625000000 4.161987304688 175 175 175
21.968750000000 2.390625000000 4.143997192383 176 176 176
21.968750000000 2.406250000000 4.125000000000 177 177 177
21.968750000000 2.390625000000 4.104995727539 178 178 178
21.968750000000 2.390625000000 4.084991455078 175 175 175
21.968750000000 2.406250000000 4.065994262695 178 178 178
21.968750000000 2.406250000000 4.044998168945 177 177 177
21.968750000000 2.390625000000 4.023986816406 175 175 175
21.968750000000 2.406250000000 4.004989624023 178 178 178
21.968750000000 2.406250000000 3.985000610352 175 175 175
21.968750000000 2.406250000000 3.964996337891 175 175 175
21.968750000000 2.406250000000 3.944000244141 178 178 178
21.968750000000 2.406250000000 3.922988891602 220 220 220
21.968750000000 2.406250000000 3.903991699219 225 225 225
21.968750000000 2.406250000000 3.881988525391 229 229 229
21.968750000000 2.406250000000 3.863998413086 221 221 221
21.968750000000 2.406250000000 3.842987060547 220 220 220
21.968750000000 2.406250000000 3.819000244141 208 208 208
21.968750000000 2.406250000000 3.798995971680 223 223 223
21.984375000000 2.421875000000 3.776992797852 231 231 231
21.968750000000 2.406250000000 3.756988525391 226 226 226
21.968750000000 2.406250000000 3.738998413086 211 211 211
21.968750000000 2.406250000000 3.717987060547 174 174 174
21.968750000000 2.406250000000 3.694992065430 171 171 171
21.968750000000 2.421875000000 3.677993774414 171 171 171
21.968750000000 2.406250000000 3.652999877930 171 171 171
21.968750000000 2.406250000000 3.631988525391 167 167 167
21.968750000000 2.406250000000 3.610992431641 178 178 178
21.968750000000 2.421875000000 3.591995239258 172 172 172
21.968750000000 2.421875000000 3.569992065430 172 172 172
21.968750000000 2.406250000000 3.544998168945 172 172 172
21.968750000000 2.421875000000 3.523986816406 173 173 173
21.968750000000 2.421875000000 3.500991821289 170 170 170
21.968750000000 2.421875000000 3.479995727539 174 174 174
21.968750000000 2.421875000000 3.459991455078 172 172 172
21.968750000000 2.421875000000 3.433990478516 174 174 174
21.968750000000 2.421875000000 3.412994384766 171 171 171
21.968750000000 2.421875000000 3.388992309570 170 170 170
21.968750000000 2.421875000000 3.367996215820 172 172 172
21.968750000000 2.421875000000 3.343994140625 175 175 175
21.968750000000 2.421875000000 3.321990966797 171 171 171
21.968750000000 2.421875000000 3.295989990234 168 168 168
21.968750000000 2.421875000000 3.274993896484 170 170 170
21.968750000000 2.421875000000 3.247985839844 175 175 175
21.968750000000 2.421875000000 3.227996826172 170 170 170
21.968750000000 2.421875000000 3.205993652344 172 172 172
21.968750000000 2.421875000000 3.178985595703 170 170 170
21.968750000000 2.421875000000 3.156997680664 171 171 171
21.968750000000 2.421875000000 3.135986328125 168 168 168
21.968750000000 2.421875000000 3.110992431641 170 170 170
22.000000000000 2.203125000000 3.189987182617 171 171 171
21.953125000000 2.234375000000 3.183990478516 152 152 152
21.953125000000 2.234375000000 3.157989501953 155 155 155
21.953125000000 2.234375000000 3.129989624023 152 152 152
21.953125000000 2.234375000000 3.099990844727 156 156 156
21.984375000000 2.312500000000 6.597991943359 64 64 64
22.000000000000 2.312500000000 6.575988769531 98 98 98
22.000000000000 2.312500000000 6.547988891602 116 116 116
22.000000000000 2.312500000000 6.523986816406 131 131 131
22.000000000000 2.312500000000 6.497985839844 140 140 140
22.000000000000 2.312500000000 6.472991943359 142 142 142
22.000000000000 2.312500000000 6.448989868164 148 148 148
22.000000000000 2.312500000000 6.424987792969 151 151 151
22.000000000000 2.328125000000 6.398986816406 153 153 153
22.000000000000 2.328125000000 6.373992919922 158 158 158
22.000000000000 2.328125000000 6.349990844727 158 158 158
22.000000000000 2.328125000000 6.326995849609 162 162 162
21.984375000000 2.343750000000 6.299987792969 164 164 164
21.984375000000 2.343750000000 6.275985717773 164 164 164
22.000000000000 2.328125000000 6.252990722656 165 165 165
21.984375000000 2.343750000000 6.229995727539 166 166 166
21.984375000000 2.343750000000 6.204986572266 165 165 165
21.984375000000 2.343750000000 6.179992675781 163 163 163
21.984375000000 2.343750000000 6.159988403320 162 162 162
21.984375000000 2.343750000000 6.134994506836 164 164 164
21.984375000000 2.343750000000 6.110000610352 161 161 161
21.984375000000 2.343750000000 6.087997436523 155 155 155
21.984375000000 2.343750000000 6.063995361328 148 148 148
22.000000000000 2.359375000000 6.043991088867 146 146 146
21.968750000000 2.359375000000 6.016998291016 150 150 150
21.984375000000 2.359375000000 5.995986938477 155 155 155
21.984375000000 2.359375000000 5.972000122070 163 163 163
21.984375000000 2.359375000000 5.949996948242 161 161 161
21.984375000000 2.359375000000 5.927993774414 161 161 161
21.984375000000 2.359375000000 5.902999877930 159 159 159
21.984375000000 2.359375000000 5.880996704102 162 162 162
21.984375000000 2.359375000000 5.858993530273 162 162 162
21.984375000000 2.375000000000 5.833999633789 162 162 162
21.984375000000 2.359375000000 5.813995361328 166 166 166
21.984375000000 2.359375000000 5.791000366211 162 162 162
21.984375000000 2.359375000000 5.768997192383 162 162 162
21.984375000000 2.375000000000 5.744995117188 162 162 162
21.984375000000 2.375000000000 5.724990844727 161 161 161
21.984375000000 2.375000000000 5.701995849609 159 159 159
21.984375000000 2.375000000000 5.678985595703 160 160 160
21.984375000000 2.375000000000 5.657989501953 164 164 164
21.984375000000 2.375000000000 5.634994506836 162 162 162
21.968750000000 2.390625000000 5.611999511719 163 163 163
21.984375000000 2.375000000000 5.590988159180 162 162 162
21.968750000000 2.390625000000 5.569000244141 161 161 161
21.968750000000 2.390625000000 5.546997070313 164 164 164
22.000000000000 2.406250000000 5.524993896484 161 161 161
21.968750000000 2.390625000000 5.502990722656 163 163 163
22.000000000000 2.406250000000 5.480987548828 162 162 162
22.000000000000 2.406250000000 5.458999633789 163 163 163
22.000000000000 2.406250000000 5.436996459961 166 166 166
22.000000000000 2.406250000000 5.416000366211 161 161 161
22.000000000000 2.406250000000 5.393997192383 163 163 163
22.000000000000 2.406250000000 5.371994018555 161 161 161
21.984375000000 2.421875000000 5.349990844727 160 160 160
21.984375000000 2.421875000000 5.328994750977 162 162 162
21.984375000000 2.421875000000 5.306991577148 161 161 161
21.984375000000 2.421875000000 5.285995483398 164 164 164
21.984375000000 2.421875000000 5.263992309570 165 165 165
21.984375000000 2.421875000000 5.241989135742 163 163 163
21.984375000000 2.421875000000 5.220993041992 166 166 166
21.984375000000 2.421875000000 5.198989868164 166 166 166
21.984375000000 2.421875000000 5.177993774414 166 166 166
21.968750000000 2.421875000000 5.155990600586 163 163 163
21.968750000000 2.421875000000 5.134994506836 170 170 170
21.968750000000 2.421875000000 5.112991333008 166 166 166
21.968750000000 2.421875000000 5.091995239258 166 166 166
21.968750000000 2.421875000000 5.069992065430 165 165 165
21.968750000000 2.421875000000 5.048995971680 163 163 163
22.000000000000 2.437500000000 5.026992797852 167 167 167
22.000000000000 2.437500000000 5.005996704102 165 165 165
22.000000000000 2.437500000000 4.983993530273 167 167 167
22.000000000000 2.437500000000 4.961990356445 163 163 163
21.984375000000 2.453125000000 4.940994262695 163 163 163
21.984375000000 2.453125000000 4.919998168945 163 163 163
21.984375000000 2.453125000000 4.897994995117 164 164 164
21.984375000000 2.453125000000 4.876998901367 165 165 165
21.984375000000 2.453125000000 4.854995727539 163 163 163
21.984375000000 2.453125000000 4.833999633789 169 169 169
21.984375000000 2.453125000000 4.811996459961 166 166 166
21.984375000000 2.453125000000 4.789993286133 168 168 168
21.984375000000 2.453125000000 4.768997192383 162 162 162
21.984375000000 2.453125000000 4.745986938477 155 155 155
21.984375000000 2.453125000000 4.724990844727 152 152 152
21.968750000000 2.468750000000 4.703994750977 153 153 153
21.984375000000 2.453125000000 4.680999755859 150 150 150
22.000000000000 2.453125000000 4.659988403320 149 149 149
22.000000000000 2.453125000000 4.638000488281 151 151 151
22.000000000000 2.453125000000 4.614990234375 144 144 144
22.000000000000 2.453125000000 4.590988159180 143 143 143
22.000000000000 2.453125000000 4.570999145508 145 145 145
22.000000000000 2.453125000000 4.548995971680 144 144 144
22.000000000000 2.453125000000 4.526992797852 141 141 141
22.015625000000 2.453125000000 4.500991821289 134 134 134
22.000000000000 2.468750000000 4.480987548828 137 137 137
22.000000000000 2.468750000000 4.458999633789 134 134 134
22.000000000000 2.468750000000 4.433990478516 137 137 137
22.000000000000 2.468750000000 4.412994384766 135 135 135
22.031250000000 2.453125000000 4.385986328125 137 137 137
22.031250000000 2.453125000000 4.364990234375 133 133 133
22.031250000000 2.453125000000 4.337997436523 130 130 130
22.078125000000 2.453125000000 4.307998657227 141 141 141
22.078125000000 2.453125000000 4.284988403320 136 136 136
22.093750000000 2.421875000000 4.254989624023 144 144 144
22.093750000000 2.421875000000 4.228988647461 137 137 137
22.125000000000 2.421875000000 4.200988769531 146 146 146
22.125000000000 2.406250000000 4.173995971680 145 145 145
22.156250000000 2.390625000000 4.142990112305 142 142 142
22.187500000000 2.390625000000 4.112991333008 141 141 141
22.187500000000 2.375000000000 4.078994750977 143 143 143
22.250000000000 2.359375000000 4.042999267578 145 145 145
22.296875000000 2.328125000000 4.000000000000 148 148 148
22.312500000000 2.328125000000 3.969985961914 153 153 153
22.328125000000 2.296875000000 3.937988281250 151 151 151
22.312500000000 2.328125000000 3.917999267578 205 205 205
22.312500000000 2.328125000000 3.892990112305 214 214 214
22.312500000000 2.328125000000 3.867996215820 216 216 216
22.234375000000 2.375000000000 3.872985839844 212 212 212
22.062500000000 2.468750000000 3.911987304688 182 182 182
22.062500000000 2.468750000000 3.888000488281 182 182 182
22.062500000000 2.468750000000 3.865997314453 157 157 157
22.062500000000 2.484375000000 3.836990356445 158 158 158
22.078125000000 2.468750000000 3.807998657227 171 171 171
22.093750000000 2.468750000000 3.777999877930 181 181 181
22.093750000000 2.468750000000 3.752990722656 181 181 181
22.093750000000 2.484375000000 3.729995727539 157 157 157
22.093750000000 2.468750000000 3.697998046875 130 130 130
22.125000000000 2.453125000000 3.666000366211 129 129 129
22.125000000000 2.453125000000 3.643997192383 122 122 122
22.125000000000 2.453125000000 3.614990234375 125 125 125
22.140625000000 2.453125000000 3.580993652344 133 133 133
22.250000000000 2.390625000000 3.500000000000 166 166 166
22.343750000000 2.328125000000 3.423995971680 162 162 162
22.375000000000 2.328125000000 3.393997192383 162 162 162
22.359375000000 2.343750000000 3.366989135742 159 159 159
22.359375000000 2.343750000000 3.338989257813 160 160 160
22.359375000000 2.343750000000 3.312988281250 159 159 159
22.359375000000 2.343750000000 3.280990600586 154 154 154
22.359375000000 2.343750000000 3.250991821289 157 157 157
22.359375000000 2.343750000000 3.223999023438 157 157 157
22.359375000000 2.343750000000 3.194000244141 156 156 156
22.359375000000 2.343750000000 3.163986206055 155 155 155
22.343750000000 2.359375000000 3.138992309570 153 153 153
22.375000000000 2.359375000000 3.103988647461 152 152 152
22.375000000000 2.359375000000 3.074996948242 154 154 154
21.937500000000 2.593750000000 3.115997314453 154 154 154
21.906250000000 2.625000000000 3.103988647461 149 149 149
22.250000000000 2.500000000000 6.711990356445 102 102 102
22.281250000000 2.484375000000 6.692993164063 93 93 93
22.281250000000 2.484375000000 6.663986206055 84 84 84
22.281250000000 2.484375000000 6.638000488281 76 76 76
22.281250000000 2.484375000000 6.610992431641 69 69 69
22.296875000000 2.484375000000 6.585998535156 65 65 65
22.296875000000 2.484375000000 6.561996459961 52 52 52
21.968750000000 2.265625000000 3.111999511719 160 160 160
21.968750000000 2.265625000000 3.136993408203 158 158 158
21.968750000000 2.265625000000 3.162994384766 154 154 154
21.968750000000 2.265625000000 3.190994262695 154 154 154
21.968750000000 2.265625000000 3.219985961914 157 157 157
21.968750000000 2.265625000000 3.239990234375 162 162 162
22.187500000000 2.390625000000 3.139999389648 157 157 157
22.125000000000 2.359375000000 3.207000732422 139 139 139
22.093750000000 2.343750000000 3.252990722656 140 140 140
22.078125000000 2.328125000000 3.288986206055 141 141 141
22.078125000000 2.328125000000 3.315994262695 142 142 142
22.078125000000 2.328125000000 3.345993041992 142 142 142
22.062500000000 2.328125000000 3.375000000000 145 145 145
22.062500000000 2.312500000000 3.408996582031 138 138 138
22.062500000000 2.312500000000 3.435989379883 142 142 142
22.062500000000 2.312500000000 3.460998535156 145 145 145
22.062500000000 2.328125000000 3.485000610352 145 145 145
22.062500000000 2.312500000000 3.515991210938 145 145 145
22.062500000000 2.312500000000 3.541992187500 141 141 141
22.015625000000 2.296875000000 3.582992553711 128 128 128
22.000000000000 2.296875000000 3.607986450195 135 135 135
22.000000000000 2.296875000000 3.632995605469 135 135 135
22.015625000000 2.312500000000 3.656997680664 138 138 138
22.000000000000 2.296875000000 3.686996459961 131 131 131
22.000000000000 2.296875000000 3.710998535156 140 140 140
22.000000000000 2.296875000000 3.740997314453 180 180 180
22.000000000000 2.296875000000 3.763992309570 190 190 190
22.000000000000 2.296875000000 3.786987304688 190 190 190
22.000000000000 2.296875000000 3.811996459961 191 191 191
22.000000000000 2.296875000000 3.838989257813 188 188 188
21.968750000000 2.281250000000 3.864990234375 190 190 190
22.000000000000 2.296875000000 3.886993408203 192 192 192
21.968750000000 2.281250000000 3.912994384766 195 195 195
22.000000000000 2.296875000000 3.929992675781 151 151 151
22.000000000000 2.296875000000 3.957000732422 131 131 131
22.000000000000 2.296875000000 3.981994628906 137 137 137
22.000000000000 2.296875000000 4.004989624023 139 139 139
21.968750000000 2.281250000000 4.030990600586 147 147 147
22.000000000000 2.296875000000 4.051986694336 151 151 151
22.000000000000 2.296875000000 4.072998046875 152 152 152
22.000000000000 2.296875000000 4.097991943359 156 156 156
21.968750000000 2.296875000000 4.123992919922 157 157 157
21.968750000000 2.296875000000 4.145996093750 158 158 158
21.984375000000 2.312500000000 4.167999267578 157 157 157
21.968750000000 2.296875000000 4.191986083984 158 158 158
21.968750000000 2.296875000000 4.215988159180 159 159 159
21.968750000000 2.296875000000 4.239990234375 160 160 160
21.968750000000 2.296875000000 4.261993408203 158 158 158
21.968750000000 2.296875000000 4.282989501953 160 160 160
21.968750000000 2.296875000000 4.305999755859 161 161 161
21.968750000000 2.296875000000 4.327987670898 161 161 161
21.984375000000 2.312500000000 4.349990844727 161 161 161
21.968750000000 2.296875000000 4.372985839844 163 163 163
21.984375000000 2.312500000000 4.394989013672 167 167 167
21.984375000000 2.312500000000 4.416992187500 167 167 167
21.984375000000 2.312500000000 4.438995361328 171 171 171
21.984375000000 2.312500000000 4.460998535156 169 169 169
21.968750000000 2.296875000000 4.483993530273 169 169 169
21.984375000000 2.312500000000 4.504989624023 174 174 174
21.968750000000 2.296875000000 4.528991699219 174 174 174
21.984375000000 2.312500000000 4.547988891602 171 171 171
21.984375000000 2.312500000000 4.570999145508 169 169 169
21.984375000000 2.312500000000 4.592987060547 166 166 166
21.968750000000 2.328125000000 4.614990234375 173 173 173
21.968750000000 2.328125000000 4.636993408203 171 171 171
21.968750000000 2.328125000000 4.658996582031 170 170 170
21.968750000000 2.328125000000 4.679992675781 170 170 170
21.968750000000 2.328125000000 4.701995849609 171 171 171
21.968750000000 2.328125000000 4.723999023438 172 172 172
21.968750000000 2.328125000000 4.745986938477 171 171 171
22.000000000000 2.328125000000 4.765991210938 171 171 171
21.968750000000 2.328125000000 4.787994384766 166 166 166
21.968750000000 2.328125000000 4.810989379883 173 173 173
21.968750000000 2.328125000000 4.832000732422 172 172 172
21.968750000000 2.328125000000 4.853988647461 170 170 170
21.968750000000 2.328125000000 4.875000000000 170 170 170
22.000000000000 2.328125000000 4.896987915039 170 170 170
22.000000000000 2.328125000000 4.917999267578 170 170 170
21.968750000000 2.328125000000 4.939987182617 168 168 168
22.000000000000 2.328125000000 4.960998535156 170 170 170
21.968750000000 2.328125000000 4.982986450195 171 171 171
22.000000000000 2.328125000000 5.004989624023 169 169 169
22.000000000000 2.328125000000 5.025985717773 172 172 172
22.000000000000 2.328125000000 5.047988891602 169 169 169
22.000000000000 2.328125000000 5.069000244141 171 171 171
21.984375000000 2.343750000000 5.090988159180 171 171 171
21.984375000000 2.343750000000 5.112991333008 169 169 169
21.984375000000 2.343750000000 5.133987426758 171 171 171
21.984375000000 2.343750000000 5.155990600586 171 171 171
21.984375000000 2.343750000000 5.176986694336 170 170 170
21.984375000000 2.343750000000 5.198989868164 171 171 171
22.000000000000 2.359375000000 5.220993041992 171 171 171
21.984375000000 2.343750000000 5.241989135742 171 171 171
21.984375000000 2.343750000000 5.263992309570 171 171 171
21.984375000000 2.343750000000 5.285995483398 169 169 169
21.984375000000 2.343750000000 5.306991577148 168 168 168
21.984375000000 2.343750000000 5.328994750977 168 168 168
21.984375000000 2.343750000000 5.350997924805 166 166 166
21.984375000000 2.343750000000 5.372985839844 163 163 163
21.984375000000 2.343750000000 5.393997192383 165 165 165
21.984375000000 2.343750000000 5.416000366211 165 165 165
22.000000000000 2.359375000000 5.437988281250 167 167 167
21.984375000000 2.343750000000 5.459991455078 163 163 163
21.984375000000 2.343750000000 5.481994628906 166 166 166
21.984375000000 2.343750000000 5.502990722656 165 165 165
21.984375000000 2.343750000000 5.524993896484 163 163 163
22.000000000000 2.359375000000 5.547988891602 163 163 163
21.984375000000 2.343750000000 5.569000244141 162 162 162
21.984375000000 2.359375000000 5.590988159180 165 165 165
21.968750000000 2.359375000000 5.612991333008 162 162 162
21.984375000000 2.359375000000 5.635986328125 168 168 168
21.984375000000 2.359375000000 5.658996582031 166 166 166
21.984375000000 2.359375000000 5.679992675781 164 164 164
21.984375000000 2.359375000000 5.701995849609 164 164 164
21.968750000000 2.359375000000 5.722991943359 165 165 165
21.984375000000 2.359375000000 5.746994018555 165 165 165
21.984375000000 2.359375000000 5.769989013672 163 163 163
21.984375000000 2.359375000000 5.792999267578 167 167 167
21.984375000000 2.359375000000 5.812988281250 167 167 167
21.984375000000 2.359375000000 5.836990356445 164 164 164
21.984375000000 2.359375000000 5.858993530273 161 161 161
21.984375000000 2.359375000000 5.881988525391 162 162 162
21.968750000000 2.359375000000 5.901992797852 160 160 160
21.984375000000 2.359375000000 5.927993774414 160 160 160
21.984375000000 2.359375000000 5.951995849609 162 162 162
21.984375000000 2.359375000000 5.973999023438 163 163 163
22.000000000000 2.375000000000 5.996994018555 162 162 162
21.984375000000 2.359375000000 6.019989013672 159 159 159
22.000000000000 2.375000000000 6.043991088867 158 158 158
22.000000000000 2.375000000000 6.067993164063 159 159 159
21.984375000000 2.375000000000 6.088989257813 159 159 159
22.000000000000 2.390625000000 6.112991333008 163 163 163
22.000000000000 2.390625000000 6.135986328125 161 161 161
22.000000000000 2.390625000000 6.161987304688 157 157 157
22.000000000000 2.390625000000 6.184997558594 160 160 160
22.000000000000 2.390625000000 6.209991455078 162 162 162
21.984375000000 2.375000000000 6.228988647461 159 159 159
