25.875000000000 20.171875000000 8.643997192383 94 94 94
25.843750000000 20.203125000000 8.129989624023 159 159 159
25.875000000000 20.203125000000 8.087997436523 16 16 16
25.828125000000 20.515625000000 8.491989135742 40 40 40
25.781250000000 20.531250000000 8.120986938477 153 153 153
25.796875000000 20.546875000000 8.082992553711 38 38 38
25.781250000000 20.875000000000 8.396987915039 38 38 38
25.796875000000 20.875000000000 8.353988647461 21 21 21
25.734375000000 20.875000000000 8.130996704102 137 137 137
25.750000000000 20.875000000000 8.088989257813 110 110 110
25.687500000000 21.234375000000 8.253997802734 49 49 49
25.671875000000 21.234375000000 8.143997192383 75 75 75
25.687500000000 21.250000000000 8.099990844727 144 144 144
25.718750000000 21.250000000000 8.066986083984 86 86 86
25.718750000000 21.250000000000 8.021987915039 161 161 161
25.718750000000 21.234375000000 7.966995239258 183 183 183
25.718750000000 21.234375000000 7.916000366211 182 182 182
25.687500000000 21.250000000000 7.863998413086 182 182 182
25.687500000000 21.250000000000 7.812988281250 154 154 154
25.609375000000 21.578125000000 8.146987915039 44 44 44
25.625000000000 21.593750000000 8.102996826172 157 157 157
25.656250000000 21.578125000000 8.023986816406 166 166 166
25.656250000000 21.578125000000 7.976989746094 167 167 167
25.640625000000 21.578125000000 7.924987792969 188 188 188
25.640625000000 21.578125000000 7.872985839844 176 176 176
25.640625000000 21.578125000000 7.824996948242 162 162 162
25.640625000000 21.578125000000 7.780990600586 23 23 23
25.562500000000 21.921875000000 8.150985717773 83 83 83
25.562500000000 21.921875000000 8.103988647461 158 158 158
25.593750000000 21.921875000000 8.022994995117 172 172 172
25.609375000000 21.921875000000 7.976989746094 172 172 172
25.593750000000 21.921875000000 7.926986694336 171 171 171
25.593750000000 21.937500000000 7.875000000000 177 177 177
25.562500000000 21.921875000000 7.822998046875 154 154 154
25.500000000000 22.265625000000 8.138000488281 102 102 102
25.531250000000 22.265625000000 8.095993041992 141 141 141
25.531250000000 22.250000000000 8.058990478516 13 13 13
25.562500000000 22.265625000000 8.017990112305 185 185 185
25.562500000000 22.265625000000 7.966995239258 174 174 174
25.531250000000 22.265625000000 7.916000366211 163 163 163
25.531250000000 22.265625000000 7.864990234375 189 189 189
25.531250000000 22.265625000000 7.816986083984 146 146 146
25.453125000000 22.593750000000 8.139999389648 77 77 77
25.453125000000 22.593750000000 8.097000122070 150 150 150
25.500000000000 22.609375000000 8.021987915039 176 176 176
25.484375000000 22.593750000000 7.968994140625 159 159 159
25.484375000000 22.593750000000 7.920989990234 156 156 156
25.468750000000 22.593750000000 7.870986938477 170 170 170
25.468750000000 22.593750000000 7.820999145508 162 162 162
25.468750000000 22.609375000000 7.779998779297 23 23 23
25.406250000000 22.937500000000 8.152999877930 33 33 33
25.406250000000 22.937500000000 8.105987548828 163 163 163
25.437500000000 22.937500000000 8.029998779297 144 144 144
25.437500000000 22.937500000000 7.985000610352 167 167 167
25.437500000000 22.953125000000 7.933990478516 164 164 164
25.406250000000 22.953125000000 7.882995605469 165 165 165
25.406250000000 22.968750000000 7.832000732422 174 174 174
25.406250000000 22.953125000000 7.784988403320 67 67 67
25.359375000000 23.296875000000 8.275985717773 39 39 39
25.343750000000 23.312500000000 8.121994018555 166 166 166
25.359375000000 23.296875000000 8.082992553711 60 60 60
25.375000000000 23.312500000000 8.042999267578 76 76 76
25.375000000000 23.312500000000 7.996994018555 184 184 184
25.375000000000 23.312500000000 7.950988769531 190 190 190
25.343750000000 23.312500000000 7.899993896484 191 191 191
25.343750000000 23.312500000000 7.850997924805 187 187 187
25.343750000000 23.312500000000 7.801986694336 119 119 119
25.312500000000 23.640625000000 8.372985839844 99 99 99
25.281250000000 23.640625000000 8.126998901367 163 163 163
25.296875000000 23.640625000000 8.084991455078 60 60 60
25.234375000000 23.984375000000 8.505996704102 94 94 94
25.218750000000 23.984375000000 8.161987304688 49 49 49
25.218750000000 23.984375000000 8.121994018555 166 166 166
25.187500000000 24.296875000000 8.638992309570 107 107 107
25.171875000000 24.328125000000 8.164993286133 103 103 103
25.171875000000 24.328125000000 8.115997314453 145 145 145
25.109375000000 24.640625000000 8.786987304688 101 101 101
25.125000000000 24.656250000000 8.162994384766 108 108 108
25.125000000000 24.656250000000 8.122985839844 145 145 145
25.046875000000 25.000000000000 8.928985595703 98 98 98
25.062500000000 25.000000000000 8.169998168945 81 81 81
25.062500000000 25.015625000000 8.131988525391 156 156 156
24.968750000000 25.343750000000 9.088989257813 100 100 100
25.015625000000 25.359375000000 8.190994262695 45 45 45
25.015625000000 25.359375000000 8.145996093750 166 166 166
24.906250000000 25.687500000000 9.235992431641 107 107 107
24.937500000000 25.671875000000 9.199996948242 69 69 69
24.906250000000 25.703125000000 8.177993774414 105 105 105
24.937500000000 25.703125000000 8.150985717773 142 142 142
25.000000000000 25.703125000000 8.130996704102 73 73 73
26.000000000000 18.484375000000 2.993988037109 184 184 184
26.000000000000 18.500000000000 2.944000244141 180 180 180
25.953125000000 18.515625000000 2.910995483398 183 183 183
25.937500000000 18.531250000000 2.864990234375 176 176 176
26.062500000000 18.578125000000 6.957000732422 19 19 19
26.031250000000 18.578125000000 6.901992797852 60 60 60
26.062500000000 18.578125000000 6.852996826172 106 106 106
26.046875000000 18.578125000000 6.799987792969 114 114 114
26.078125000000 18.562500000000 6.755996704102 120 120 120
26.000000000000 18.609375000000 6.440994262695 160 160 160
26.031250000000 18.609375000000 6.391998291016 162 162 162
26.031250000000 18.609375000000 6.342987060547 168 168 168
26.031250000000 18.609375000000 6.291992187500 174 174 174
26.031250000000 18.609375000000 6.241989135742 175 175 175
26.031250000000 18.609375000000 6.191986083984 177 177 177
26.062500000000 18.609375000000 6.146987915039 156 156 156
26.000000000000 18.640625000000 5.893997192383 137 137 137
25.984375000000 18.656250000000 5.842987060547 185 185 185
25.984375000000 18.656250000000 5.793991088867 189 189 189
25.984375000000 18.671875000000 5.743988037109 184 184 184
26.000000000000 18.671875000000 5.695999145508 185 185 185
25.984375000000 18.671875000000 5.646987915039 186 186 186
25.984375000000 18.671875000000 5.597991943359 185 185 185
26.000000000000 18.671875000000 5.548995971680 183 183 183
26.000000000000 18.687500000000 5.500000000000 181 181 181
25.968750000000 18.671875000000 5.450988769531 186 186 186
26.000000000000 18.687500000000 5.401992797852 184 184 184
26.000000000000 18.687500000000 5.352996826172 188 188 188
25.984375000000 18.703125000000 5.303985595703 188 188 188
25.984375000000 18.703125000000 5.255996704102 186 186 186
25.984375000000 18.703125000000 5.207000732422 186 186 186
25.984375000000 18.703125000000 5.157989501953 186 186 186
25.984375000000 18.703125000000 5.108993530273 190 190 190
25.968750000000 18.718750000000 5.060989379883 193 193 193
25.968750000000 18.718750000000 5.011993408203 188 188 188
25.968750000000 18.718750000000 4.962997436523 186 186 186
26.000000000000 18.734375000000 4.913986206055 180 180 180
25.968750000000 18.734375000000 4.865997314453 183 183 183
25.968750000000 18.734375000000 4.816986083984 183 183 183
26.000000000000 18.734375000000 4.767990112305 184 184 184
25.984375000000 18.734375000000 4.718994140625 185 185 185
25.984375000000 18.734375000000 4.669998168945 183 183 183
25.984375000000 18.734375000000 4.620986938477 176 176 176
25.984375000000 18.734375000000 4.572998046875 174 174 174
25.984375000000 18.734375000000 4.523986816406 174 174 174
25.984375000000 18.734375000000 4.473999023438 172 172 172
25.968750000000 18.750000000000 4.425994873047 164 164 164
25.968750000000 18.750000000000 4.376998901367 170 170 170
25.968750000000 18.750000000000 4.325988769531 166 166 166
26.000000000000 18.734375000000 4.275985717773 166 166 166
26.000000000000 18.765625000000 4.226989746094 171 171 171
26.000000000000 18.765625000000 4.177993774414 171 171 171
26.000000000000 18.765625000000 4.127990722656 164 164 164
26.000000000000 18.765625000000 4.076995849609 163 163 163
26.000000000000 18.765625000000 4.026992797852 165 165 165
26.000000000000 18.765625000000 3.777999877930 137 137 137
26.000000000000 18.765625000000 3.725997924805 121 121 121
26.140625000000 18.703125000000 3.642990112305 44 44 44
26.125000000000 18.703125000000 3.597000122070 44 44 44
26.109375000000 18.718750000000 3.549987792969 17 17 17
26.093750000000 18.718750000000 3.500991821289 0 0 0
26.093750000000 18.734375000000 3.453994750977 239 239 239
26.093750000000 18.734375000000 3.399993896484 242 242 242
26.109375000000 18.734375000000 3.345993041992 233 233 233
26.125000000000 18.734375000000 3.284988403320 234 234 234
26.031250000000 18.750000000000 3.972000122070 136 136 136
26.156250000000 18.671875000000 9.758987426758 147 147 147
26.171875000000 18.687500000000 9.697998046875 177 177 177
26.187500000000 18.671875000000 9.641998291016 160 160 160
26.187500000000 18.671875000000 9.580993652344 156 156 156
26.156250000000 18.687500000000 9.509994506836 129 129 129
26.187500000000 18.687500000000 9.453994750977 101 101 101
26.187500000000 18.687500000000 9.390991210938 91 91 91
26.156250000000 18.703125000000 9.310989379883 84 84 84
26.125000000000 18.734375000000 9.240997314453 85 85 85
26.187500000000 18.703125000000 9.213989257813 101 101 101
26.187500000000 18.703125000000 9.154998779297 35 35 35
26.218750000000 18.687500000000 9.097991943359 13 13 13
26.109375000000 18.796875000000 8.176986694336 68 68 68
26.125000000000 18.796875000000 8.129989624023 98 98 98
26.250000000000 18.734375000000 8.118988037109 26 26 26
26.031250000000 19.140625000000 9.053985595703 13 13 13
26.031250000000 19.203125000000 8.129989624023 116 116 116
25.984375000000 19.546875000000 8.888000488281 29 29 29
25.937500000000 19.609375000000 8.138992309570 130 130 130
25.921875000000 19.921875000000 8.783996582031 14 14 14
25.875000000000 19.984375000000 8.147994995117 108 108 108
25.906250000000 19.953125000000 8.103988647461 65 65 65
25.859375000000 20.296875000000 8.610992431641 57 57 57
25.812500000000 20.343750000000 8.150985717773 115 115 115
25.843750000000 20.343750000000 8.103988647461 79 79 79
25.781250000000 20.671875000000 8.438995361328 33 33 33
25.750000000000 20.703125000000 8.154998779297 98 98 98
25.781250000000 20.703125000000 8.107986450195 108 108 108
25.750000000000 21.046875000000 8.340988159180 21 21 21
25.718750000000 21.078125000000 8.164993286133 38 38 38
25.687500000000 21.078125000000 8.105987548828 138 138 138
25.718750000000 21.078125000000 7.798995971680 32 32 32
25.671875000000 21.453125000000 8.185989379883 90 90 90
25.640625000000 21.468750000000 8.123992919922 138 138 138
25.687500000000 21.453125000000 8.079986572266 86 86 86
25.687500000000 21.453125000000 8.030990600586 153 153 153
25.687500000000 21.453125000000 7.975997924805 144 144 144
25.687500000000 21.453125000000 7.921997070313 176 176 176
25.656250000000 21.468750000000 7.862991333008 178 178 178
25.656250000000 21.484375000000 7.806991577148 124 124 124
25.578125000000 21.859375000000 8.136993408203 121 121 121
25.593750000000 21.859375000000 8.092987060547 85 85 85
25.625000000000 21.828125000000 8.049987792969 94 94 94
25.625000000000 21.843750000000 7.995986938477 174 174 174
25.625000000000 21.843750000000 7.941986083984 160 160 160
25.593750000000 21.859375000000 7.881988525391 157 157 157
25.593750000000 21.859375000000 7.830993652344 151 151 151
25.515625000000 22.234375000000 8.148986816406 91 91 91
25.531250000000 22.234375000000 8.103988647461 118 118 118
25.578125000000 22.218750000000 8.066986083984 39 39 39
25.578125000000 22.218750000000 8.015991210938 171 171 171
25.578125000000 22.218750000000 7.959991455078 157 157 157
25.546875000000 22.234375000000 7.898986816406 163 163 163
25.531250000000 22.234375000000 7.845993041992 167 167 167
25.546875000000 22.234375000000 7.796997070313 50 50 50
25.468750000000 22.593750000000 8.158996582031 64 64 64
25.468750000000 22.593750000000 8.110000610352 122 122 122
25.500000000000 22.578125000000 8.065994262695 25 25 25
25.500000000000 22.562500000000 8.017990112305 178 178 178
25.500000000000 22.578125000000 7.960998535156 178 178 178
25.500000000000 22.578125000000 7.912994384766 151 151 151
25.468750000000 22.593750000000 7.852996826172 170 170 170
25.484375000000 22.593750000000 7.804992675781 69 69 69
25.406250000000 22.953125000000 8.152999877930 86 86 86
25.406250000000 22.953125000000 8.107986450195 125 125 125
25.468750000000 22.921875000000 8.078994750977 25 25 25
25.437500000000 22.937500000000 8.016998291016 166 166 166
25.468750000000 22.937500000000 7.965988159180 151 151 151
25.437500000000 22.953125000000 7.908996582031 138 138 138
25.421875000000 22.968750000000 7.853988647461 170 170 170
25.406250000000 22.984375000000 7.796997070313 58 58 58
25.375000000000 23.312500000000 8.276992797852 94 94 94
25.343750000000 23.343750000000 8.155990600586 91 91 91
25.328125000000 23.328125000000 8.102996826172 119 119 119
25.390625000000 23.312500000000 8.021987915039 171 171 171
25.390625000000 23.312500000000 7.968994140625 171 171 171
25.375000000000 23.328125000000 7.914993286133 162 162 162
25.359375000000 23.328125000000 7.858993530273 148 148 148
25.328125000000 23.359375000000 7.802993774414 93 93 93
25.312500000000 23.703125000000 8.386993408203 79 79 79
25.281250000000 23.703125000000 8.169998168945 19 19 19
25.281250000000 23.703125000000 8.118988037109 141 141 141
25.218750000000 24.078125000000 8.552993774414 85 85 85
25.218750000000 24.109375000000 8.132995605469 146 146 146
25.156250000000 24.453125000000 8.702987670898 86 86 86
25.156250000000 24.484375000000 8.187988281250 9 9 9
25.156250000000 24.468750000000 8.139999389648 141 141 141
25.093750000000 24.812500000000 8.854995727539 97 97 97
25.093750000000 24.828125000000 8.182998657227 90 90 90
25.125000000000 24.843750000000 8.138992309570 130 130 130
25.031250000000 25.156250000000 9.002990722656 82 82 82
25.031250000000 25.187500000000 8.174987792969 131 131 131
25.062500000000 25.187500000000 8.138000488281 87 87 87
24.953125000000 25.546875000000 9.210998535156 23 23 23
24.968750000000 25.531250000000 9.163986206055 69 69 69
25.000000000000 25.578125000000 8.178985595703 130 130 130
25.000000000000 25.562500000000 8.138992309570 100 100 100
24.937500000000 25.859375000000 3.334991455078 106 106 106
24.984375000000 25.843750000000 3.275985717773 216 216 216
24.984375000000 25.843750000000 3.225997924805 206 206 206
24.968750000000 25.859375000000 3.184997558594 201 201 201
24.953125000000 25.859375000000 3.142990112305 195 195 195
24.968750000000 25.859375000000 3.093994140625 185 185 185
24.968750000000 25.859375000000 3.041992187500 172 172 172
24.968750000000 25.859375000000 3.001998901367 177 177 177
24.937500000000 25.875000000000 2.959991455078 168 168 168
24.937500000000 25.875000000000 2.916000366211 169 169 169
24.875000000000 25.921875000000 9.589996337891 156 156 156
24.875000000000 25.921875000000 9.547988891602 161 161 161
24.875000000000 25.921875000000 9.483993530273 160 160 160
24.875000000000 25.921875000000 9.423995971680 157 157 157
24.875000000000 25.921875000000 9.375000000000 157 157 157
24.875000000000 25.921875000000 9.325988769531 158 158 158
24.875000000000 25.921875000000 9.264999389648 135 135 135
24.875000000000 25.921875000000 9.208999633789 149 149 149
24.875000000000 25.921875000000 9.159988403320 144 144 144
24.875000000000 25.937500000000 9.099990844727 141 141 141
24.875000000000 25.937500000000 9.046997070313 141 141 141
24.875000000000 25.937500000000 8.992996215820 146 146 146
24.875000000000 25.953125000000 8.944992065430 156 156 156
24.890625000000 25.937500000000 8.898986816406 163 163 163
24.890625000000 25.937500000000 8.842987060547 159 159 159
24.890625000000 25.937500000000 8.791992187500 160 160 160
24.875000000000 25.953125000000 8.738998413086 155 155 155
24.906250000000 25.953125000000 8.687988281250 148 148 148
24.906250000000 25.953125000000 8.642990112305 147 147 147
24.906250000000 25.953125000000 8.590988159180 152 152 152
24.906250000000 25.953125000000 8.537994384766 151 151 151
24.906250000000 25.953125000000 8.488998413086 161 161 161
24.906250000000 25.953125000000 8.436996459961 155 155 155
24.906250000000 25.953125000000 8.389999389648 156 156 156
24.906250000000 25.953125000000 8.337997436523 154 154 154
24.906250000000 25.953125000000 8.289993286133 154 154 154
24.906250000000 25.953125000000 8.241989135742 162 162 162
24.906250000000 25.953125000000 8.190994262695 116 116 116
24.906250000000 25.953125000000 8.142990112305 159 159 159
24.921875000000 25.968750000000 8.095993041992 159 159 159
24.921875000000 25.968750000000 8.048995971680 161 161 161
24.921875000000 25.968750000000 8.001998901367 164 164 164
24.921875000000 25.968750000000 7.953994750977 158 158 158
24.921875000000 25.968750000000 7.903991699219 172 172 172
24.921875000000 25.968750000000 7.858993530273 169 169 169
24.921875000000 25.968750000000 7.809997558594 154 154 154
24.937500000000 25.984375000000 7.765991210938 154 154 154
24.937500000000 25.984375000000 7.719985961914 157 157 157
24.937500000000 25.984375000000 7.669998168945 148 148 148
24.937500000000 25.984375000000 7.621994018555 142 142 142
24.937500000000 25.984375000000 7.576995849609 165 165 165
24.953125000000 25.984375000000 7.534988403320 164 164 164
24.937500000000 25.984375000000 7.483993530273 154 154 154
24.953125000000 25.984375000000 7.439987182617 149 149 149
24.937500000000 26.000000000000 7.391998291016 141 141 141
24.953125000000 25.984375000000 7.347991943359 142 142 142
24.937500000000 26.000000000000 7.300994873047 140 140 140
24.937500000000 26.000000000000 7.254989624023 139 139 139
24.937500000000 26.000000000000 7.210998535156 132 132 132
24.937500000000 26.000000000000 7.164993286133 131 131 131
24.968750000000 25.984375000000 7.122985839844 130 130 130
24.968750000000 25.984375000000 7.077987670898 129 129 129
24.968750000000 25.984375000000 7.032989501953 124 124 124
24.968750000000 26.015625000000 6.985000610352 121 121 121
24.968750000000 25.984375000000 6.942993164063 115 115 115
24.968750000000 26.000000000000 6.900985717773 114 114 114
24.968750000000 26.015625000000 6.853988647461 108 108 108
24.968750000000 26.000000000000 6.810989379883 93 93 93
24.968750000000 26.000000000000 6.765991210938 117 117 117
25.000000000000 26.000000000000 6.722991943359 112 112 112
24.968750000000 26.000000000000 6.676986694336 92 92 92
25.000000000000 26.000000000000 6.635986328125 67 67 67
25.000000000000 26.000000000000 6.590988159180 18 18 18
26.187500000000 18.515625000000 3.057998657227 191 191 191
26.125000000000 18.546875000000 6.399993896484 21 21 21
26.109375000000 18.546875000000 6.449996948242 68 68 68
26.109375000000 18.546875000000 6.500991821289 107 107 107
26.093750000000 18.546875000000 6.548995971680 114 114 114
26.093750000000 18.546875000000 6.598999023438 123 123 123
26.093750000000 18.546875000000 6.652999877930 126 126 126
26.093750000000 18.546875000000 6.701995849609 133 133 133
26.093750000000 18.546875000000 6.752990722656 133 133 133
26.093750000000 18.546875000000 6.800994873047 138 138 138
26.093750000000 18.546875000000 6.855987548828 144 144 144
26.093750000000 18.546875000000 6.905990600586 148 148 148
26.093750000000 18.546875000000 6.957992553711 159 159 159
26.093750000000 18.546875000000 7.009994506836 165 165 165
26.093750000000 18.546875000000 7.060989379883 167 167 167
26.093750000000 18.546875000000 7.112991333008 166 166 166
26.093750000000 18.546875000000 7.166000366211 167 167 167
26.093750000000 18.546875000000 7.217987060547 166 166 166
26.093750000000 18.546875000000 7.269989013672 168 168 168
26.093750000000 18.546875000000 7.319992065430 163 163 163
26.078125000000 18.562500000000 7.370986938477 165 165 165
26.093750000000 18.578125000000 7.426986694336 162 162 162
26.093750000000 18.578125000000 7.478988647461 160 160 160
26.078125000000 18.562500000000 7.529998779297 159 159 159
26.078125000000 18.562500000000 7.582992553711 160 160 160
26.078125000000 18.562500000000 7.635986328125 157 157 157
26.078125000000 18.562500000000 7.689987182617 153 153 153
26.078125000000 18.562500000000 7.743988037109 153 153 153
26.078125000000 18.562500000000 7.798995971680 149 149 149
26.093750000000 18.578125000000 7.856994628906 153 153 153
26.093750000000 18.578125000000 7.906997680664 152 152 152
26.093750000000 18.578125000000 7.963989257813 154 154 154
26.078125000000 18.562500000000 8.013000488281 154 154 154
26.093750000000 18.578125000000 8.071990966797 155 155 155
26.078125000000 18.562500000000 8.125991821289 144 144 144
26.093750000000 18.578125000000 8.183990478516 146 146 146
26.062500000000 18.578125000000 8.232986450195 153 153 153
26.093750000000 18.578125000000 8.295989990234 151 151 151
26.093750000000 18.578125000000 8.353988647461 151 151 151
26.093750000000 18.578125000000 8.409988403320 147 147 147
26.093750000000 18.578125000000 8.463989257813 148 148 148
26.093750000000 18.578125000000 8.521987915039 149 149 149
26.093750000000 18.593750000000 8.580993652344 149 149 149
26.093750000000 18.593750000000 8.642990112305 139 139 139
26.093750000000 18.593750000000 8.697998046875 142 142 142
26.093750000000 18.578125000000 8.751998901367 149 149 149
26.093750000000 18.593750000000 8.813995361328 154 154 154
26.093750000000 18.593750000000 8.869995117188 149 149 149
26.093750000000 18.593750000000 8.928985595703 145 145 145
26.078125000000 18.593750000000 8.986999511719 152 152 152
26.093750000000 18.609375000000 9.052993774414 154 154 154
26.093750000000 18.609375000000 9.111999511719 157 157 157
26.093750000000 18.609375000000 9.179992675781 162 162 162
26.093750000000 18.609375000000 9.226989746094 133 133 133
26.093750000000 18.609375000000 9.300994873047 165 165 165
26.125000000000 18.609375000000 9.364990234375 165 165 165
26.125000000000 18.609375000000 9.425994873047 164 164 164
26.125000000000 18.609375000000 9.485992431641 165 165 165
26.125000000000 18.609375000000 9.551986694336 162 162 162
26.125000000000 18.609375000000 9.616989135742 163 163 163
26.125000000000 18.625000000000 9.682998657227 167 167 167
26.109375000000 18.640625000000 9.738998413086 149 149 149
25.906250000000 18.671875000000 2.854995727539 172 172 172
25.906250000000 18.671875000000 2.901992797852 168 168 168
25.906250000000 18.671875000000 2.954986572266 165 165 165
25.906250000000 18.671875000000 3.006988525391 162 162 162
25.906250000000 18.687500000000 3.056991577148 178 178 178
25.906250000000 18.687500000000 3.108993530273 176 176 176
25.906250000000 18.687500000000 3.159988403320 176 176 176
25.906250000000 18.687500000000 3.210998535156 181 181 181
25.906250000000 18.703125000000 3.258987426758 178 178 178
25.906250000000 18.703125000000 3.309997558594 180 180 180
25.906250000000 18.703125000000 3.360000610352 178 178 178
25.906250000000 18.703125000000 3.409988403320 185 185 185
25.906250000000 18.703125000000 3.460998535156 185 185 185
25.937500000000 18.703125000000 3.509994506836 179 179 179
25.906250000000 18.703125000000 3.559997558594 183 183 183
25.906250000000 18.703125000000 3.610992431641 182 182 182
25.937500000000 18.703125000000 3.658996582031 185 185 185
25.937500000000 18.703125000000 3.707000732422 184 184 184
25.921875000000 18.718750000000 3.757995605469 192 192 192
25.937500000000 18.734375000000 3.805999755859 184 184 184
25.937500000000 18.734375000000 3.855987548828 184 184 184
25.937500000000 18.734375000000 3.903991699219 178 178 178
25.921875000000 18.718750000000 3.955993652344 170 170 170
25.937500000000 18.734375000000 4.001998901367 165 165 165
25.937500000000 18.734375000000 4.052993774414 164 164 164
25.937500000000 18.734375000000 4.100997924805 159 159 159
25.937500000000 18.734375000000 4.150985717773 156 156 156
25.937500000000 18.734375000000 4.199996948242 151 151 151
25.937500000000 18.734375000000 4.247985839844 153 153 153
25.937500000000 18.734375000000 4.297988891602 137 137 137
25.937500000000 18.734375000000 4.344985961914 144 144 144
25.937500000000 18.734375000000 4.392990112305 119 119 119
25.968750000000 18.750000000000 4.439987182617 101 101 101
25.968750000000 18.734375000000 4.489990234375 67 67 67
26.093750000000 18.906250000000 8.140991210938 137 137 137
26.093750000000 18.937500000000 9.181991577148 60 60 60
26.031250000000 19.203125000000 8.142990112305 129 129 129
26.046875000000 19.265625000000 9.014999389648 61 61 61
25.984375000000 19.546875000000 8.112991333008 125 125 125
25.968750000000 19.531250000000 8.161987304688 39 39 39
25.984375000000 19.562500000000 8.904998779297 30 30 30
25.906250000000 19.875000000000 8.128997802734 135 135 135
25.921875000000 19.890625000000 8.753997802734 85 85 85
25.875000000000 20.203125000000 8.091995239258 64 64 64
25.843750000000 20.171875000000 8.136993408203 133 133 133
25.843750000000 20.203125000000 8.638000488281 20 20 20
25.812500000000 20.515625000000 8.093994140625 80 80 80
25.781250000000 20.484375000000 8.135986328125 130 130 130
25.828125000000 20.515625000000 8.477996826172 18 18 18
25.812500000000 20.515625000000 8.525985717773 7 7 7
25.765625000000 20.796875000000 8.089996337891 99 99 99
25.750000000000 20.781250000000 8.140991210938 121 121 121
25.796875000000 20.828125000000 8.373992919922 53 53 53
25.718750000000 21.125000000000 7.791992187500 83 83 83
25.703125000000 21.125000000000 8.101989746094 144 144 144
25.671875000000 21.109375000000 8.145996093750 33 33 33
25.718750000000 21.140625000000 8.273986816406 85 85 85
25.671875000000 21.453125000000 7.815994262695 152 152 152
25.656250000000 21.453125000000 7.869995117188 195 195 195
25.687500000000 21.453125000000 7.923995971680 189 189 189
25.687500000000 21.468750000000 7.982986450195 156 156 156
25.687500000000 21.468750000000 8.032989501953 128 128 128
25.656250000000 21.453125000000 8.075988769531 91 91 91
25.656250000000 21.453125000000 8.120986938477 133 133 133
25.593750000000 21.781250000000 7.785995483398 66 66 66
25.593750000000 21.781250000000 7.836990356445 184 184 184
25.625000000000 21.796875000000 7.889999389648 195 195 195
25.625000000000 21.796875000000 7.944000244141 183 183 183
25.625000000000 21.796875000000 8.001998901367 190 190 190
25.625000000000 21.796875000000 8.051986694336 61 61 61
25.593750000000 21.765625000000 8.089996337891 131 131 131
25.593750000000 21.765625000000 8.138992309570 82 82 82
25.546875000000 22.093750000000 7.792999267578 75 75 75
25.546875000000 22.093750000000 7.842987060547 186 186 186
25.562500000000 22.109375000000 7.897994995117 142 142 142
25.562500000000 22.109375000000 7.951995849609 137 137 137
25.578125000000 22.109375000000 8.007995605469 183 183 183
25.578125000000 22.109375000000 8.056991577148 49 49 49
25.546875000000 22.093750000000 8.097991943359 136 136 136
25.531250000000 22.078125000000 8.141998291016 80 80 80
25.500000000000 22.390625000000 7.795989990234 84 84 84
25.500000000000 22.390625000000 7.844985961914 180 180 180
25.500000000000 22.421875000000 7.896987915039 180 180 180
25.515625000000 22.421875000000 7.952987670898 178 178 178
25.531250000000 22.421875000000 8.010986328125 169 169 169
25.531250000000 22.421875000000 8.060989379883 112 112 112
25.500000000000 22.421875000000 8.100997924805 140 140 140
25.500000000000 22.406250000000 8.145996093750 95 95 95
25.468750000000 22.703125000000 7.799987792969 101 101 101
25.468750000000 22.703125000000 7.850997924805 195 195 195
25.468750000000 22.703125000000 7.900985717773 153 153 153
25.468750000000 22.703125000000 7.953994750977 161 161 161
25.484375000000 22.718750000000 8.013992309570 175 175 175
25.500000000000 22.734375000000 8.069000244141 15 15 15
25.437500000000 22.703125000000 8.099990844727 138 138 138
25.437500000000 22.703125000000 8.147994995117 64 64 64
25.406250000000 23.015625000000 7.812988281250 135 135 135
25.406250000000 23.015625000000 7.865997314453 194 194 194
25.421875000000 23.046875000000 7.920989990234 168 168 168
25.421875000000 23.046875000000 7.972991943359 99 99 99
25.437500000000 23.046875000000 8.026992797852 170 170 170
25.406250000000 23.031250000000 8.069000244141 87 87 87
25.390625000000 23.031250000000 8.111999511719 141 141 141
25.421875000000 23.046875000000 8.171997070313 85 85 85
25.359375000000 23.359375000000 7.786987304688 20 20 20
25.343750000000 23.359375000000 7.830993652344 118 118 118
25.343750000000 23.359375000000 7.881988525391 95 95 95
25.359375000000 23.359375000000 7.934997558594 90 90 90
25.375000000000 23.375000000000 7.992996215820 64 64 64
25.375000000000 23.390625000000 8.047988891602 38 38 38
25.343750000000 23.359375000000 8.082000732422 81 81 81
25.328125000000 23.359375000000 8.128997802734 122 122 122
25.359375000000 23.359375000000 8.291000366211 69 69 69
25.312500000000 23.703125000000 8.100997924805 101 101 101
25.281250000000 23.671875000000 8.143997192383 123 123 123
25.296875000000 23.703125000000 8.411987304688 88 88 88
25.234375000000 24.015625000000 8.101989746094 107 107 107
25.218750000000 24.015625000000 8.147994995117 123 123 123
25.250000000000 24.015625000000 8.516998291016 87 87 87
25.187500000000 24.312500000000 8.097991943359 44 44 44
25.187500000000 24.296875000000 8.143997192383 147 147 147
25.187500000000 24.296875000000 8.655990600586 61 61 61
25.156250000000 24.609375000000 8.097991943359 13 13 13
25.125000000000 24.593750000000 8.140991210938 155 155 155
25.125000000000 24.609375000000 8.756988525391 54 54 54
25.125000000000 24.953125000000 8.118988037109 30 30 30
25.093750000000 24.937500000000 8.150985717773 152 152 152
25.062500000000 24.937500000000 8.909988403320 98 98 98
25.046875000000 25.265625000000 8.119995117188 91 91 91
25.031250000000 25.265625000000 8.162994384766 136 136 136
25.031250000000 25.281250000000 9.043991088867 20 20 20
25.000000000000 25.265625000000 9.078994750977 42 42 42
25.000000000000 25.593750000000 8.132995605469 108 108 108
24.984375000000 25.578125000000 8.174987792969 127 127 127
24.968750000000 25.593750000000 9.199996948242 76 76 76
25.000000000000 25.859375000000 3.932998657227 145 145 145
24.984375000000 25.843750000000 3.982986450195 151 151 151
25.000000000000 25.859375000000 4.025985717773 150 150 150
25.000000000000 25.859375000000 4.069000244141 145 145 145
25.000000000000 25.859375000000 4.112991333008 157 157 157
25.000000000000 25.859375000000 4.156997680664 160 160 160
25.000000000000 25.859375000000 4.201995849609 156 156 156
25.000000000000 25.859375000000 4.246994018555 157 157 157
24.984375000000 25.843750000000 4.291000366211 158 158 158
24.984375000000 25.843750000000 4.334991455078 159 159 159
24.968750000000 25.859375000000 4.377990722656 162 162 162
24.968750000000 25.859375000000 4.421997070313 166 166 166
24.984375000000 25.859375000000 4.463989257813 168 168 168
24.968750000000 25.859375000000 4.507995605469 164 164 164
24.968750000000 25.859375000000 4.551986694336 165 165 165
24.984375000000 25.859375000000 4.593994140625 167 167 167
24.968750000000 25.859375000000 4.638992309570 173 173 173
24.984375000000 25.859375000000 4.680999755859 178 178 178
24.984375000000 25.859375000000 4.723999023438 163 163 163
24.984375000000 25.859375000000 4.766998291016 168 168 168
24.984375000000 25.859375000000 4.809997558594 167 167 167
24.968750000000 25.859375000000 4.853988647461 166 166 166
24.984375000000 25.859375000000 4.895996093750 173 173 173
24.984375000000 25.859375000000 4.938995361328 177 177 177
24.984375000000 25.859375000000 4.981994628906 187 187 187
24.968750000000 25.859375000000 5.024993896484 183 183 183
24.968750000000 25.859375000000 5.067993164063 187 187 187
24.968750000000 25.859375000000 5.110992431641 195 195 195
24.968750000000 25.875000000000 5.153991699219 186 186 186
24.968750000000 25.875000000000 5.195999145508 196 196 196
24.968750000000 25.859375000000 5.238998413086 200 200 200
24.968750000000 25.875000000000 5.281997680664 201 201 201
24.968750000000 25.875000000000 5.324996948242 206 206 206
24.968750000000 25.875000000000 5.367996215820 203 203 203
24.968750000000 25.859375000000 5.409988403320 217 217 217
24.968750000000 25.859375000000 5.452987670898 214 214 214
24.968750000000 25.859375000000 5.495986938477 206 206 206
24.968750000000 25.859375000000 5.538986206055 206 206 206
24.968750000000 25.859375000000 5.580993652344 206 206 206
24.968750000000 25.859375000000 5.623992919922 209 209 209
24.968750000000 25.859375000000 5.666992187500 207 207 207
24.968750000000 25.859375000000 5.709991455078 201 201 201
24.968750000000 25.859375000000 5.751998901367 208 208 208
24.953125000000 25.859375000000 5.794998168945 205 205 205
24.953125000000 25.859375000000 5.836990356445 213 213 213
24.953125000000 25.859375000000 5.879989624023 210 210 210
24.953125000000 25.859375000000 5.922988891602 206 206 206
24.937500000000 25.875000000000 5.965988159180 211 211 211
24.937500000000 25.875000000000 6.008987426758 204 204 204
24.937500000000 25.875000000000 6.052993774414 204 204 204
24.937500000000 25.875000000000 6.094985961914 198 198 198
24.937500000000 25.875000000000 6.138000488281 202 202 202
24.937500000000 25.859375000000 6.179992675781 203 203 203
24.937500000000 25.875000000000 6.223999023438 195 195 195
24.937500000000 25.859375000000 6.266998291016 194 194 194
24.937500000000 25.859375000000 6.308990478516 193 193 193
24.937500000000 25.859375000000 6.352996826172 188 188 188
24.937500000000 25.859375000000 6.395996093750 188 188 188
24.937500000000 25.859375000000 6.439987182617 188 188 188
24.937500000000 25.859375000000 6.482986450195 190 190 190
24.937500000000 25.859375000000 6.525985717773 185 185 185
24.937500000000 25.859375000000 6.569992065430 180 180 180
24.937500000000 25.859375000000 6.612991333008 181 181 181
24.937500000000 25.859375000000 6.656997680664 182 182 182
24.937500000000 25.859375000000 6.700988769531 186 186 186
24.937500000000 25.859375000000 6.743988037109 180 180 180
24.921875000000 25.890625000000 6.788986206055 177 177 177
24.921875000000 25.890625000000 6.832992553711 177 177 177
24.906250000000 25.875000000000 6.875000000000 174 174 174
24.921875000000 25.890625000000 6.921997070313 173 173 173
24.921875000000 25.890625000000 6.966995239258 175 175 175
24.921875000000 25.890625000000 7.010986328125 172 172 172
24.921875000000 25.890625000000 7.054992675781 189 189 189
24.921875000000 25.890625000000 7.100997924805 176 176 176
24.906250000000 25.875000000000 7.143997192383 175 175 175
24.921875000000 25.890625000000 7.189987182617 175 175 175
24.906250000000 25.875000000000 7.232986450195 171 171 171
24.906250000000 25.875000000000 7.279998779297 175 175 175
24.906250000000 25.875000000000 7.324996948242 178 178 178
24.906250000000 25.875000000000 7.369995117188 166 166 166
24.906250000000 25.875000000000 7.416000366211 166 166 166
24.906250000000 25.875000000000 7.459991455078 170 170 170
24.906250000000 25.875000000000 7.507995605469 167 167 167
24.906250000000 25.890625000000 7.551986694336 167 167 167
24.906250000000 25.890625000000 7.598999023438 167 167 167
24.890625000000 25.875000000000 7.640991210938 162 162 162
24.906250000000 25.890625000000 7.694000244141 158 158 158
24.906250000000 25.890625000000 7.740997314453 159 159 159
24.906250000000 25.890625000000 7.784988403320 158 158 158
24.890625000000 25.875000000000 7.830993652344 150 150 150
24.890625000000 25.875000000000 7.877990722656 174 174 174
24.906250000000 25.890625000000 7.927993774414 159 159 159
24.906250000000 25.890625000000 7.973999023438 148 148 148
24.906250000000 25.890625000000 8.023986816406 151 151 151
24.906250000000 25.890625000000 8.073989868164 157 157 157
24.906250000000 25.890625000000 8.120986938477 164 164 164
24.875000000000 25.859375000000 8.157989501953 141 141 141
24.890625000000 25.875000000000 8.210998535156 168 168 168
24.890625000000 25.875000000000 8.261993408203 158 158 158
24.890625000000 25.875000000000 8.313995361328 153 153 153
24.906250000000 25.890625000000 8.364990234375 165 165 165
24.875000000000 25.890625000000 8.411987304688 162 162 162
24.875000000000 25.890625000000 8.461990356445 167 167 167
24.875000000000 25.890625000000 8.509994506836 166 166 166
24.875000000000 25.890625000000 8.559997558594 147 147 147
24.875000000000 25.890625000000 8.614990234375 151 151 151
24.875000000000 25.890625000000 8.662994384766 148 148 148
24.875000000000 25.890625000000 8.714996337891 149 149 149
24.875000000000 25.890625000000 8.766998291016 153 153 153
24.875000000000 25.890625000000 8.812988281250 149 149 149
24.875000000000 25.890625000000 8.867996215820 160 160 160
24.875000000000 25.890625000000 8.919998168945 166 166 166
24.875000000000 25.890625000000 8.968994140625 148 148 148
24.875000000000 25.890625000000 9.024993896484 147 147 147
24.875000000000 25.890625000000 9.079986572266 150 150 150
24.875000000000 25.890625000000 9.129989624023 157 157 157
24.875000000000 25.890625000000 9.189987182617 161 161 161
24.875000000000 25.890625000000 9.238998413086 162 162 162
24.859375000000 25.890625000000 9.287994384766 136 136 136
24.859375000000 25.890625000000 9.345993041992 162 162 162
24.875000000000 25.906250000000 9.402999877930 153 153 153
24.875000000000 25.906250000000 9.458999633789 159 159 159
24.875000000000 25.906250000000 9.515991210938 165 165 165
24.875000000000 25.906250000000 9.569000244141 166 166 166
24.843750000000 25.890625000000 9.614990234375 81 81 81
24.937500000000 25.906250000000 3.901992797852 140 140 140
24.875000000000 25.859375000000 3.958999633789 173 173 173
24.890625000000 25.875000000000 4.000991821289 177 177 177
24.890625000000 25.875000000000 4.044998168945 180 180 180
24.875000000000 25.859375000000 4.088989257813 181 181 181
24.890625000000 25.875000000000 4.131988525391 191 191 191
24.875000000000 25.859375000000 4.176986694336 183 183 183
24.875000000000 25.859375000000 4.219985961914 179 179 179
24.875000000000 25.859375000000 4.261993408203 178 178 178
24.890625000000 25.875000000000 4.304992675781 180 180 180
24.875000000000 25.859375000000 4.348999023438 181 181 181
24.890625000000 25.875000000000 4.390991210938 185 185 185
24.875000000000 25.859375000000 4.434997558594 191 191 191
24.890625000000 25.875000000000 4.475997924805 183 183 183
24.875000000000 25.859375000000 4.519989013672 181 181 181
24.875000000000 25.859375000000 4.562988281250 184 184 184
24.875000000000 25.859375000000 4.605987548828 188 188 188
24.875000000000 25.859375000000 4.648986816406 203 203 203
24.875000000000 25.859375000000 4.691986083984 186 186 186
24.875000000000 25.890625000000 4.733993530273 186 186 186
24.875000000000 25.890625000000 4.775985717773 184 184 184
24.875000000000 25.890625000000 4.817993164063 186 186 186
24.875000000000 25.890625000000 4.860992431641 190 190 190
24.875000000000 25.890625000000 4.903991699219 190 190 190
24.875000000000 25.890625000000 4.945999145508 193 193 193
24.875000000000 25.890625000000 4.987991333008 192 192 192
24.875000000000 25.890625000000 5.030990600586 196 196 196
24.875000000000 25.890625000000 5.072998046875 196 196 196
24.875000000000 25.890625000000 5.114990234375 192 192 192
24.875000000000 25.890625000000 5.157989501953 194 194 194
24.875000000000 25.890625000000 5.199996948242 194 194 194
24.875000000000 25.890625000000 5.241989135742 201 201 201
24.875000000000 25.890625000000 5.284988403320 199 199 199
24.875000000000 25.890625000000 5.326995849609 190 190 190
24.875000000000 25.890625000000 5.368988037109 195 195 195
24.875000000000 25.890625000000 5.411987304688 202 202 202
24.875000000000 25.890625000000 5.453994750977 196 196 196
24.875000000000 25.890625000000 5.495986938477 196 196 196
24.875000000000 25.890625000000 5.538986206055 201 201 201
24.875000000000 25.890625000000 5.580993652344 198 198 198
24.875000000000 25.890625000000 5.623992919922 201 201 201
24.875000000000 25.890625000000 5.666000366211 201 201 201
24.875000000000 25.890625000000 5.707992553711 198 198 198
24.875000000000 25.890625000000 5.750991821289 198 198 198
24.875000000000 25.890625000000 5.792999267578 202 202 202
24.875000000000 25.890625000000 5.835998535156 201 201 201
24.875000000000 25.890625000000 5.877990722656 195 195 195
24.875000000000 25.890625000000 5.920989990234 195 195 195
24.875000000000 25.890625000000 5.962997436523 191 191 191
24.875000000000 25.890625000000 6.005996704102 192 192 192
24.875000000000 25.890625000000 6.047988891602 190 190 190
24.875000000000 25.890625000000 6.091995239258 193 193 193
24.875000000000 25.890625000000 6.133987426758 198 198 198
24.875000000000 25.890625000000 6.175994873047 193 193 193
24.843750000000 25.875000000000 6.218994140625 184 184 184
24.843750000000 25.875000000000 6.261993408203 192 192 192
24.843750000000 25.875000000000 6.304992675781 184 184 184
24.875000000000 25.890625000000 6.348999023438 181 181 181
24.843750000000 25.875000000000 6.390991210938 182 182 182
24.843750000000 25.875000000000 6.433990478516 184 184 184
24.875000000000 25.890625000000 6.478988647461 182 182 182
24.875000000000 25.890625000000 6.521987915039 173 173 173
24.843750000000 25.875000000000 6.563995361328 178 178 178
24.843750000000 25.875000000000 6.606994628906 173 173 173
24.875000000000 25.890625000000 6.651992797852 182 182 182
24.843750000000 25.875000000000 6.694992065430 181 181 181
24.843750000000 25.859375000000 6.736999511719 177 177 177
24.843750000000 25.875000000000 6.782989501953 170 170 170
24.843750000000 25.875000000000 6.825988769531 172 172 172
24.843750000000 25.875000000000 6.869995117188 171 171 171
24.843750000000 25.875000000000 6.914993286133 172 172 172
24.843750000000 25.875000000000 6.957992553711 174 174 174
24.843750000000 25.859375000000 7.001998901367 180 180 180
24.843750000000 25.859375000000 7.045989990234 177 177 177
24.843750000000 25.875000000000 7.091995239258 169 169 169
24.843750000000 25.875000000000 7.136993408203 169 169 169
24.843750000000 25.859375000000 7.179992675781 169 169 169
24.843750000000 25.859375000000 7.225997924805 174 174 174
24.843750000000 25.859375000000 7.269989013672 179 179 179
24.843750000000 25.859375000000 7.315994262695 167 167 167
24.843750000000 25.875000000000 7.362991333008 164 164 164
24.843750000000 25.859375000000 7.405990600586 164 164 164
24.843750000000 25.875000000000 7.454986572266 165 165 165
24.843750000000 25.859375000000 7.496994018555 169 169 169
24.843750000000 25.875000000000 7.545989990234 173 173 173
24.843750000000 25.875000000000 7.593994140625 176 176 176
24.843750000000 25.875000000000 7.638992309570 159 159 159
24.843750000000 25.859375000000 7.684997558594 160 160 160
24.843750000000 25.859375000000 7.730987548828 160 160 160
24.843750000000 25.859375000000 7.775985717773 160 160 160
24.843750000000 25.859375000000 7.825988769531 156 156 156
24.843750000000 25.875000000000 7.875000000000 176 176 176
24.843750000000 25.859375000000 7.920989990234 155 155 155
24.843750000000 25.859375000000 7.967987060547 150 150 150
24.843750000000 25.875000000000 8.017990112305 156 156 156
24.843750000000 25.859375000000 8.063995361328 161 161 161
24.843750000000 25.859375000000 8.112991333008 165 165 165
24.812500000000 25.859375000000 8.146987915039 128 128 128
24.843750000000 25.859375000000 8.205993652344 177 177 177
24.843750000000 25.859375000000 8.256988525391 157 157 157
24.843750000000 25.859375000000 8.307998657227 156 156 156
24.843750000000 25.859375000000 8.353988647461 162 162 162
24.828125000000 25.859375000000 8.400985717773 166 166 166
24.843750000000 25.859375000000 8.454986572266 173 173 173
24.843750000000 25.859375000000 8.502990722656 156 156 156
24.828125000000 25.859375000000 8.552993774414 149 149 149
24.828125000000 25.859375000000 8.600997924805 153 153 153
24.828125000000 25.859375000000 8.653991699219 147 147 147
24.828125000000 25.890625000000 8.710998535156 149 149 149
24.828125000000 25.859375000000 8.756988525391 148 148 148
24.812500000000 25.875000000000 8.807998657227 150 150 150
24.812500000000 25.875000000000 8.860000610352 164 164 164
24.812500000000 25.875000000000 8.909988403320 154 154 154
24.812500000000 25.875000000000 8.962997436523 153 153 153
24.812500000000 25.875000000000 9.017990112305 152 152 152
24.812500000000 25.875000000000 9.069992065430 154 154 154
24.812500000000 25.875000000000 9.121994018555 159 159 159
24.812500000000 25.875000000000 9.179992675781 165 165 165
24.812500000000 25.859375000000 9.226989746094 144 144 144
24.812500000000 25.875000000000 9.282989501953 154 154 154
24.812500000000 25.875000000000 9.340988159180 157 157 157
24.812500000000 25.875000000000 9.391998291016 156 156 156
24.812500000000 25.859375000000 9.447998046875 162 162 162
24.812500000000 25.875000000000 9.504989624023 162 162 162
24.812500000000 25.859375000000 9.556991577148 178 178 178
24.781250000000 25.859375000000 9.606994628906 26 26 26
24.906250000000 25.890625000000 3.189987182617 106 106 106
24.937500000000 25.906250000000 3.268997192383 106 106 106
24.937500000000 25.906250000000 3.316986083984 110 110 110
24.937500000000 25.546875000000 8.125991821289 165 165 165
24.921875000000 25.531250000000 8.169998168945 14 14 14
24.906250000000 25.515625000000 9.140991210938 64 64 64
25.000000000000 25.187500000000 8.127990722656 161 161 161
24.968750000000 25.171875000000 8.990997314453 76 76 76
25.062500000000 24.828125000000 8.085998535156 45 45 45
25.031250000000 24.812500000000 8.125991821289 156 156 156
25.062500000000 24.828125000000 8.847991943359 99 99 99
25.125000000000 24.468750000000 8.080993652344 27 27 27
25.093750000000 24.453125000000 8.117996215820 154 154 154
25.093750000000 24.453125000000 8.682998657227 98 98 98
25.171875000000 24.078125000000 8.062988281250 12 12 12
25.171875000000 24.078125000000 8.110992431641 157 157 157
25.171875000000 24.078125000000 8.522994995117 73 73 73
25.218750000000 23.718750000000 8.097991943359 153 153 153
25.250000000000 23.734375000000 8.414993286133 41 41 41
25.281250000000 23.359375000000 7.797988891602 110 110 110
25.281250000000 23.359375000000 7.850997924805 14 14 14
25.281250000000 23.359375000000 8.048995971680 16 16 16
25.281250000000 23.359375000000 8.094985961914 135 135 135
25.312500000000 23.375000000000 8.259994506836 98 98 98
25.343750000000 23.000000000000 7.798995971680 162 162 162
25.343750000000 23.000000000000 7.848999023438 190 190 190
25.375000000000 23.015625000000 7.903991699219 156 156 156
25.375000000000 23.015625000000 7.960998535156 107 107 107
25.375000000000 23.015625000000 8.010986328125 145 145 145
25.375000000000 23.015625000000 8.056991577148 91 91 91
25.343750000000 23.000000000000 8.094985961914 149 149 149
25.375000000000 23.015625000000 8.159988403320 78 78 78
25.406250000000 22.640625000000 7.788986206055 137 137 137
25.406250000000 22.640625000000 7.840988159180 191 191 191
25.421875000000 22.640625000000 7.896987915039 198 198 198
25.437500000000 22.656250000000 7.948989868164 190 190 190
25.421875000000 22.640625000000 8.000000000000 162 162 162
25.390625000000 22.625000000000 8.090988159180 162 162 162
25.468750000000 22.281250000000 7.774993896484 107 107 107
25.468750000000 22.281250000000 7.828994750977 193 193 193
25.500000000000 22.296875000000 7.884994506836 162 162 162
25.484375000000 22.296875000000 7.934997558594 185 185 185
25.500000000000 22.296875000000 7.991989135742 182 182 182
25.500000000000 22.296875000000 8.041992187500 13 13 13
25.453125000000 22.265625000000 8.079986572266 146 146 146
25.453125000000 22.265625000000 8.129989624023 47 47 47
25.531250000000 21.921875000000 7.763000488281 53 53 53
