10.754456520081 14.500362396240 61.213001251221 68 68 68
10.441957473755 14.499471664429 60.802001953125 194 194 194
10.441957473755 14.499471664429 60.874000549316 189 189 189
10.441957473755 14.499471664429 60.936000823975 206 206 206
10.941242218018 14.750898361206 60.866001129150 223 223 223
10.878742218018 14.750719070435 60.943000793457 192 192 192
10.691599845886 14.625185012817 61.217998504639 21 21 21
10.441600799561 14.624471664429 60.803001403809 194 194 194
10.441600799561 14.624471664429 60.874000549316 192 192 192
10.504100799561 14.624649047852 60.929000854492 229 229 229
10.878385543823 14.875719070435 60.873001098633 215 215 215
10.878385543823 14.875719070435 60.948001861572 155 155 155
10.441244125366 14.749471664429 60.802001953125 193 193 193
10.441244125366 14.749471664429 60.873001098633 191 191 191
10.441244125366 14.749471664429 60.926002502441 231 231 231
10.877673149109 15.125717163086 60.878997802734 121 121 121
10.878029823303 15.000717163086 60.951000213623 125 125 125
10.378387451172 14.874294281006 60.802001953125 188 188 188
10.378387451172 14.874294281006 60.873001098633 186 186 186
10.440531730652 14.999469757080 60.936000823975 200 200 200
10.877673149109 15.125717163086 60.880001068115 211 211 211
10.877316474915 15.250717163086 60.951999664307 117 117 117
10.440175056458 15.124469757080 60.805000305176 169 169 169
10.440175056458 15.124469757080 60.871997833252 194 194 194
10.440175056458 15.124469757080 60.933002471924 209 209 209
10.876959800720 15.375717163086 60.881999969482 211 211 211
10.876959800720 15.375717163086 60.956001281738 101 101 101
10.689817428589 15.250183105469 61.152000427246 41 41 41
10.439818382263 15.249469757080 60.802001953125 108 108 108
10.439818382263 15.249469757080 60.871002197266 183 183 183
10.439818382263 15.249469757080 60.937999725342 208 208 208
10.876603126526 15.500715255737 60.888000488281 216 216 216
10.876603126526 15.500715255737 60.961997985840 78 78 78
10.376961708069 15.374292373657 60.803001403809 86 86 86
10.439461708069 15.374469757080 60.870002746582 189 189 189
10.439461708069 15.374469757080 60.937000274658 208 208 208
10.875889778137 15.750715255737 60.890003204346 212 212 212
10.876246452332 15.625715255737 60.961997985840 84 84 84
10.439105033875 15.499467849731 60.798999786377 62 62 62
10.438748359680 15.624467849731 60.867000579834 187 187 187
10.438748359680 15.624467849731 60.935001373291 200 200 200
10.875889778137 15.750715255737 60.892002105713 214 214 214
10.875889778137 15.750715255737 60.963001251221 40 40 40
10.500891685486 15.749645233154 60.794002532959 32 32 32
10.500891685486 15.749645233154 60.868000030518 194 194 194
10.500891685486 15.749645233154 60.936000823975 198 198 198
10.875533103943 15.875715255737 60.899002075195 209 209 209
10.875533103943 15.875715255737 60.965999603271 36 36 36
10.438035011292 15.874467849731 60.864997863770 196 196 196
10.438035011292 15.874467849731 60.936000823975 201 201 201
10.874820709229 16.125713348389 60.902999877930 195 195 195
10.874820709229 16.125713348389 60.968997955322 80 80 80
10.625178337097 16.000000000000 61.089000701904 30 30 30
10.437679290771 15.999465942383 60.864997863770 218 218 218
10.437679290771 15.999465942383 60.933002471924 211 211 211
10.811964035034 16.250534057617 60.906002044678 193 193 193
10.811964035034 16.250534057617 60.972999572754 59 59 59
10.687321662903 16.125179290771 61.088001251221 26 26 26
10.499465942383 16.249643325806 60.862003326416 210 210 210
10.499465942383 16.249643325806 60.934001922607 207 207 207
10.811607360840 16.375534057617 60.909000396729 207 207 207
10.499109268188 16.374643325806 60.863002777100 206 206 206
10.499109268188 16.374643325806 60.932003021240 200 200 200
10.811250686646 16.500534057617 60.912002563477 214 214 214
10.498752593994 16.499641418457 60.855003356934 202 202 202
10.498752593994 16.499641418457 60.926002502441 218 218 218
10.810894012451 16.625534057617 60.916999816895 210 210 210
10.498395919800 16.624641418457 60.856998443604 217 217 217
10.498395919800 16.624641418457 60.927001953125 221 221 221
10.747681617737 16.875354766846 60.923000335693 207 207 207
10.498039245605 16.749641418457 60.855998992920 202 202 202
10.498039245605 16.749641418457 60.929000854492 213 213 213
10.747325897217 17.000354766846 60.927001953125 212 212 212
10.685181617737 16.875175476074 61.018001556396 30 30 30
10.497326850891 16.999641418457 60.855003356934 206 206 206
10.497326850891 16.999641418457 60.927001953125 208 208 208
10.746969223022 17.125354766846 60.933002471924 201 201 201
10.496970176697 17.124641418457 60.854000091553 205 205 205
10.496970176697 17.124641418457 60.925003051758 217 217 217
10.496970176697 17.124641418457 61.016002655029 167 167 167
10.496970176697 17.124641418457 61.083000183105 174 174 174
10.496970176697 17.124641418457 61.135002136230 44 44 44
10.496256828308 17.374639511108 60.854000091553 200 200 200
10.496256828308 17.374639511108 60.927001953125 208 208 208
10.746255874634 17.375352859497 60.934001922607 219 219 219
10.558755874634 17.374816894531 60.849998474121 198 198 198
10.496256828308 17.374639511108 60.923999786377 217 217 217
10.745899200439 17.500350952148 60.937000274658 205 205 205
10.558042526245 17.624816894531 60.847999572754 195 195 195
10.495900154114 17.499637603760 60.922000885010 219 219 219
10.745185852051 17.750350952148 60.940002441406 201 201 201
10.557685852051 17.749816894531 60.848999023438 193 193 193
10.557685852051 17.749816894531 60.920001983643 208 208 208
10.744829177856 17.875350952148 60.944000244141 208 208 208
10.557329177856 17.874816894531 60.848999023438 185 185 185
10.557329177856 17.874816894531 60.921001434326 217 217 217
10.681973457336 18.000171661377 60.946998596191 219 219 219
10.494474411011 17.999637603760 60.850997924805 162 162 162
10.494474411011 17.999637603760 60.922000885010 215 215 215
10.681616783142 18.125171661377 60.951999664307 211 211 211
10.494117736816 18.124637603760 60.854000091553 154 154 154
10.556260108948 18.249813079834 60.919002532959 225 225 225
10.681260108948 18.250171661377 60.956001281738 199 199 199
10.618403434753 18.374992370605 60.847000122070 105 105 105
10.618403434753 18.374992370605 60.920001983643 219 219 219
10.680546760559 18.500169754028 60.958999633789 201 201 201
10.555546760559 18.499813079834 60.855998992920 104 104 104
10.555546760559 18.499813079834 60.921001434326 210 210 210
10.680190086365 18.625167846680 60.963001251221 203 203 203
10.554833412170 18.749813079834 60.855998992920 90 90 90
10.554833412170 18.749813079834 60.923999786377 210 210 210
10.679833412170 18.750167846680 60.965000152588 197 197 197
10.616976737976 18.874988555908 60.845001220703 28 28 28
10.616976737976 18.874988555908 60.919002532959 223 223 223
10.679476737976 18.875167846680 60.972000122070 196 196 196
10.616621017456 18.999988555908 60.923000335693 217 217 217
10.616621017456 18.999988555908 60.971000671387 195 195 195
10.553764343262 19.124809265137 60.922000885010 219 219 219
10.616264343262 19.124988555908 60.973999023438 194 194 194
10.553407669067 19.249809265137 60.923000335693 216 216 216
10.615550994873 19.374988555908 60.975997924805 195 195 195
10.615194320679 19.499988555908 60.839000701904 187 187 187
10.615194320679 19.499988555908 60.923000335693 221 221 221
10.615194320679 19.499988555908 60.985000610352 153 153 153
10.614837646484 19.624986648560 60.923999786377 219 219 219
10.614837646484 19.624986648560 60.984001159668 133 133 133
10.551980972290 19.749809265137 60.928001403809 210 210 210
10.614480972290 19.749986648560 60.987003326416 166 166 166
10.614124298096 19.874984741211 60.923999786377 210 210 210
10.613768577576 19.999984741211 60.993000030518 106 106 106
10.613768577576 19.999984741211 60.923999786377 215 215 215
10.613768577576 19.999984741211 60.995002746582 92 92 92
10.613055229187 20.249984741211 60.928001403809 208 208 208
10.613055229187 20.249984741211 60.996002197266 56 56 56
10.612698554993 20.374984741211 60.929000854492 211 211 211
10.612698554993 20.374984741211 60.993000030518 58 58 58
10.612341880798 20.499982833862 60.930999755859 214 214 214
10.611985206604 20.624982833862 60.994003295898 41 41 41
10.549485206604 20.624805450439 60.934001922607 196 196 196
10.075516700745 11.498414993286 60.934001922607 136 136 136
10.075516700745 11.498414993286 60.867000579834 142 142 142
10.075516700745 11.498414993286 60.798999786377 144 144 144
10.075516700745 11.498414993286 60.736000061035 130 130 130
10.262659072876 11.623950958252 60.944999694824 97 97 97
10.137302398682 11.748592376709 60.932003021240 138 138 138
10.137302398682 11.748592376709 60.864997863770 147 147 147
10.012303352356 11.748235702515 60.818000793457 160 160 160
10.137302398682 11.748592376709 60.736000061035 133 133 133
10.262302398682 11.748949050903 60.945999145508 107 107 107
10.136945724487 11.873592376709 60.912002563477 142 142 142
10.136945724487 11.873592376709 60.847999572754 141 141 141
10.136945724487 11.873592376709 60.779003143311 142 142 142
10.136945724487 11.873592376709 60.716999053955 79 79 79
11.013012886047 11.501089096069 60.864997863770 87 87 87
11.013012886047 11.501089096069 60.788002014160 76 76 76
11.013012886047 11.501089096069 60.713001251221 57 57 57
10.261945724487 11.873949050903 60.881000518799 147 147 147
10.261945724487 11.873949050903 60.815002441406 148 148 148
10.261945724487 11.873949050903 60.752002716064 119 119 119
11.137655258179 11.626445770264 60.919002532959 109 109 109
11.012656211853 11.626089096069 60.866001129150 166 166 166
11.012656211853 11.626089096069 60.787002563477 166 166 166
11.012656211853 11.626089096069 60.709999084473 149 149 149
10.324088096619 11.999126434326 60.875000000000 169 169 169
10.324088096619 11.999126434326 60.805999755859 174 174 174
10.261589050293 11.998949050903 60.744003295898 126 126 126
11.137298583984 11.751443862915 60.926002502441 112 112 112
11.012299537659 11.751087188721 60.869003295898 159 159 159
10.574087142944 11.999839782715 60.929000854492 158 158 158
10.386232376099 12.124303817749 60.908000946045 146 146 146
10.386232376099 12.124303817749 60.852001190186 175 175 175
10.386232376099 12.124303817749 60.784000396729 174 174 174
10.511232376099 12.124658584595 60.671001434326 137 137 137
10.511232376099 12.124658584595 60.593997955322 139 139 139
10.511232376099 12.124658584595 60.518001556396 145 145 145
10.511232376099 12.124658584595 60.450000762939 144 144 144
10.511232376099 12.124658584595 60.373001098633 146 146 146
10.511232376099 12.124658584595 60.303001403809 149 149 149
11.199441909790 11.876623153687 60.902000427246 115 115 115
10.761231422424 12.125371932983 60.952999114990 112 112 112
10.510875701904 12.249658584595 60.944999694824 157 157 157
10.323019027710 12.374124526978 60.923000335693 130 130 130
10.385519027710 12.374303817749 60.853000640869 146 146 146
10.323019027710 12.374124526978 60.787002563477 148 148 148
10.448375701904 12.249481201172 60.673999786377 133 133 133
10.510875701904 12.249658584595 60.596000671387 145 145 145
10.510875701904 12.249658584595 60.520999908447 147 147 147
10.510875701904 12.249658584595 60.450000762939 143 143 143
10.510875701904 12.249658584595 60.373001098633 142 142 142
10.510875701904 12.249658584595 60.304000854492 136 136 136
11.136585235596 12.001443862915 60.918003082275 19 19 19
10.698374748230 12.250194549561 60.968997955322 75 75 75
10.510519027710 12.374658584595 60.949001312256 156 156 156
10.385162353516 12.499303817749 60.921001434326 133 133 133
10.322662353516 12.499124526978 60.855003356934 144 144 144
10.385162353516 12.499303817749 60.784999847412 141 141 141
10.510519027710 12.374658584595 60.666999816895 146 146 146
10.510519027710 12.374658584595 60.596000671387 145 145 145
10.510519027710 12.374658584595 60.527999877930 145 145 145
10.510519027710 12.374658584595 60.453998565674 145 145 145
10.510519027710 12.374658584595 60.381000518799 145 145 145
10.510519027710 12.374658584595 60.309001922607 145 145 145
10.573018074036 12.374837875366 60.184001922607 149 149 149
10.573018074036 12.374837875366 60.105998992920 153 153 153
10.573018074036 12.374837875366 60.029003143311 150 150 150
10.385162353516 12.499303817749 61.246997833252 68 68 68
10.385162353516 12.499303817749 61.183002471924 141 141 141
10.385162353516 12.499303817749 61.117000579834 170 170 170
10.385162353516 12.499303817749 61.048000335693 171 171 171
10.385162353516 12.499303817749 60.972999572754 149 149 149
10.385162353516 12.499303817749 60.919002532959 131 131 131
10.385162353516 12.499303817749 60.853000640869 139 139 139
10.384805679321 12.624301910400 60.784000396729 150 150 150
10.510162353516 12.499658584595 60.655002593994 120 120 120
10.510162353516 12.499658584595 60.581001281738 120 120 120
10.510162353516 12.499658584595 60.510002136230 124 124 124
10.510162353516 12.499658584595 60.440002441406 128 128 128
10.510162353516 12.499658584595 60.368000030518 127 127 127
10.510162353516 12.499658584595 60.295001983643 138 138 138
10.446949005127 12.749479293823 61.179000854492 21 21 21
10.384449005127 12.749301910400 61.113998413086 133 133 133
10.384449005127 12.749301910400 61.047000885010 174 174 174
10.384449005127 12.749301910400 60.980998992920 176 176 176
10.384449005127 12.749301910400 60.923000335693 140 140 140
10.384449005127 12.749301910400 60.856998443604 135 135 135
10.384449005127 12.749301910400 60.784000396729 145 145 145
10.760161399841 12.500371932983 60.569000244141 110 110 110
10.760161399841 12.500371932983 60.494003295898 110 110 110
10.760161399841 12.500371932983 60.421001434326 112 112 112
10.760161399841 12.500371932983 60.342998504639 114 114 114
10.760161399841 12.500371932983 60.258003234863 150 150 150
11.010160446167 12.501085281372 60.960998535156 123 123 123
11.010160446167 12.501085281372 60.883003234863 138 138 138
11.010160446167 12.501085281372 60.809001922607 152 152 152
10.384092330933 12.874301910400 60.927001953125 170 170 170
10.384092330933 12.874301910400 60.853000640869 230 230 230
10.384092330933 12.874301910400 60.784999847412 219 219 219
11.009803771973 12.626083374023 61.335998535156 147 147 147
11.009803771973 12.626083374023 61.260002136230 170 170 170
11.009447097778 12.751083374023 61.187999725342 166 166 166
11.009447097778 12.751083374023 61.114997863770 134 134 134
11.009447097778 12.751083374023 61.041999816895 101 101 101
11.009447097778 12.751083374023 60.885002136230 136 136 136
11.009447097778 12.751083374023 60.810001373291 136 136 136
10.383379936218 13.124300003052 60.926002502441 165 165 165
10.383379936218 13.124300003052 60.860000610352 220 220 220
10.383379936218 13.124300003052 60.784999847412 225 225 225
11.009090423584 12.876083374023 61.338001251221 18 18 18
11.009090423584 12.876083374023 60.887001037598 156 156 156
11.009090423584 12.876083374023 60.810001373291 167 167 167
10.383023262024 13.249300003052 60.926002502441 183 183 183
10.383023262024 13.249300003052 60.855998992920 227 227 227
10.383023262024 13.249300003052 60.783000946045 224 224 224
10.946233749390 13.000905990601 60.888999938965 221 221 221
10.946233749390 13.000905990601 60.812000274658 224 224 224
10.382666587830 13.374300003052 60.926002502441 179 179 179
10.382666587830 13.374300003052 60.855003356934 228 228 228
10.382666587830 13.374300003052 60.787002563477 222 222 222
10.507666587830 13.374654769897 61.298999786377 59 59 59
11.008378028870 13.126081466675 60.891002655029 220 220 220
11.008378028870 13.126081466675 60.815002441406 223 223 223
10.382309913635 13.499300003052 60.927001953125 189 189 189
10.382309913635 13.499300003052 60.853000640869 227 227 227
10.382309913635 13.499300003052 60.786003112793 219 219 219
10.507309913635 13.499654769897 61.298000335693 57 57 57
11.007664680481 13.376081466675 60.892002105713 220 220 220
11.007664680481 13.376081466675 60.812999725342 225 225 225
10.381953239441 13.624298095703 60.926002502441 191 191 191
10.381953239441 13.624298095703 60.854000091553 229 229 229
10.381953239441 13.624298095703 60.786003112793 211 211 211
10.882308006287 13.500724792480 61.296001434326 28 28 28
10.569095611572 13.749832153320 61.297000885010 40 40 40
11.007308006287 13.501081466675 60.892002105713 220 220 220
11.007308006287 13.501081466675 60.816001892090 223 223 223
10.381239891052 13.874298095703 60.928001403809 201 201 201
10.381239891052 13.874298095703 60.855003356934 220 220 220
10.381239891052 13.874298095703 60.786003112793 201 201 201
10.944451332092 13.625902175903 60.895999908447 218 218 218
10.944451332092 13.625902175903 60.819999694824 225 225 225
10.381239891052 13.874298095703 60.928001403809 201 201 201
10.381239891052 13.874298095703 60.855998992920 226 226 226
10.381239891052 13.874298095703 60.787002563477 193 193 193
10.944094657898 13.750902175903 60.900001525879 215 215 215
10.944094657898 13.750902175903 60.820999145508 223 223 223
10.380527496338 14.124296188354 60.927001953125 206 206 206
10.380527496338 14.124296188354 60.853000640869 227 227 227
10.380527496338 14.124296188354 60.788002014160 180 180 180
11.005881309509 14.001079559326 60.902000427246 205 205 205
10.880881309509 14.000722885132 60.845001220703 127 127 127
10.380170822144 14.249296188354 60.926002502441 212 212 212
10.380170822144 14.249296188354 60.853000640869 225 225 225
10.380170822144 14.249296188354 60.788002014160 165 165 165
10.755169868469 14.250364303589 61.251003265381 16 16 16
10.943025588989 14.125900268555 60.909000396729 216 216 216
10.943025588989 14.125900268555 60.831001281738 221 221 221
10.379457473755 14.499294281006 60.928001403809 214 214 214
10.379457473755 14.499294281006 60.859001159668 179 179 179
10.379457473755 14.499294281006 60.784000396729 141 141 141
10.942668914795 14.250900268555 60.913002014160 218 218 218
10.942668914795 14.250900268555 60.834999084473 223 223 223
10.379100799561 14.624294281006 60.927001953125 210 210 210
10.379100799561 14.624294281006 60.862003326416 193 193 193
10.379100799561 14.624294281006 60.789001464844 111 111 111
10.691956520081 14.500185012817 61.196998596191 25 25 25
10.942312240601 14.375900268555 60.916999816895 217 217 217
10.942312240601 14.375900268555 60.838001251221 226 226 226
10.378744125366 14.749294281006 60.927001953125 214 214 214
10.378744125366 14.749294281006 60.859001159668 174 174 174
10.378744125366 14.749294281006 60.786003112793 66 66 66
10.691243171692 14.750185012817 61.201000213623 41 41 41
10.941955566406 14.500898361206 60.920001983643 215 215 215
10.941955566406 14.500898361206 60.842998504639 225 225 225
10.378387451172 14.874294281006 60.928001403809 215 215 215
10.378387451172 14.874294281006 60.856998443604 182 182 182
10.378387451172 14.874294281006 60.781002044678 63 63 63
10.878742218018 14.750719070435 60.925003051758 210 210 210
10.878742218018 14.750719070435 60.848999023438 224 224 224
10.378031730652 14.999292373657 60.926002502441 216 216 216
10.378031730652 14.999292373657 60.856998443604 199 199 199
10.878385543823 14.875719070435 60.930000305176 212 212 212
10.878385543823 14.875719070435 60.850997924805 225 225 225
10.377675056458 15.124292373657 60.926002502441 214 214 214
10.377675056458 15.124292373657 60.856998443604 202 202 202
10.878029823303 15.000717163086 60.935001373291 205 205 205
10.877673149109 15.125717163086 60.871002197266 110 110 110
10.439818382263 15.249469757080 60.927001953125 218 218 218
10.439818382263 15.249469757080 60.857997894287 190 190 190
10.877673149109 15.125717163086 60.937999725342 200 200 200
10.877673149109 15.125717163086 60.861000061035 227 227 227
10.439105033875 15.499467849731 60.927001953125 219 219 219
10.376605033875 15.499290466309 60.859001159668 194 194 194
10.689104080200 15.500181198120 61.142002105713 35 35 35
10.876959800720 15.375717163086 60.942001342773 193 193 193
10.877316474915 15.250717163086 60.863998413086 226 226 226
10.438748359680 15.624467849731 60.928001403809 213 213 213
10.438748359680 15.624467849731 60.859001159668 199 199 199
10.876603126526 15.500715255737 60.946998596191 187 187 187
10.876603126526 15.500715255737 60.869003295898 227 227 227
10.438391685486 15.749467849731 60.928001403809 212 212 212
10.438391685486 15.749467849731 60.856998443604 202 202 202
10.875889778137 15.750715255737 60.951000213623 185 185 185
10.813389778137 15.750537872314 60.876003265381 223 223 223
10.375535011292 15.874290466309 60.927001953125 211 211 211
10.375535011292 15.874290466309 60.856998443604 216 216 216
10.875889778137 15.750715255737 60.953998565674 155 155 155
10.875889778137 15.750715255737 60.878997802734 222 222 222
10.437679290771 15.999465942383 60.925003051758 222 222 222
10.437679290771 15.999465942383 60.855003356934 224 224 224
10.812677383423 16.000535964966 60.961997985840 157 157 157
10.812677383423 16.000535964966 60.890003204346 221 221 221
10.499465942383 16.249643325806 60.925003051758 224 224 224
10.499465942383 16.249643325806 60.853000640869 227 227 227
10.624821662903 16.125000000000 61.081001281738 36 36 36
10.812320709229 16.125535964966 60.964000701904 154 154 154
10.812320709229 16.125535964966 60.897003173828 126 126 126
10.499109268188 16.374643325806 60.923999786377 217 217 217
10.499109268188 16.374643325806 60.855003356934 217 217 217
10.749464988708 16.250356674194 60.967998504639 140 140 140
10.749464988708 16.250356674194 60.899002075195 224 224 224
10.498752593994 16.499641418457 60.919002532959 224 224 224
10.498752593994 16.499641418457 60.847999572754 224 224 224
10.811250686646 16.500534057617 60.966999053955 48 48 48
10.811250686646 16.500534057617 60.901000976563 225 225 225
10.498395919800 16.624641418457 60.919002532959 225 225 225
10.498395919800 16.624641418457 60.846000671387 228 228 228
10.748394966125 16.625354766846 60.908000946045 224 224 224
10.498039245605 16.749641418457 60.919002532959 225 225 225
10.498039245605 16.749641418457 60.846000671387 224 224 224
10.685538291931 16.750175476074 61.013999938965 24 24 24
10.748038291931 16.750354766846 60.911003112793 226 226 226
10.497682571411 16.874641418457 60.923000335693 219 219 219
10.497682571411 16.874641418457 60.847000122070 224 224 224
10.496970176697 17.124641418457 61.141002655029 24 24 24
10.434470176697 17.124462127686 61.082000732422 128 128 128
10.496970176697 17.124641418457 60.993000030518 173 173 173
10.496970176697 17.124641418457 60.926002502441 165 165 165
10.496970176697 17.124641418457 60.847000122070 221 221 221
10.496613502502 17.249639511108 61.066001892090 58 58 58
10.684469223022 17.125175476074 60.928001403809 214 214 214
10.496613502502 17.249639511108 60.923000335693 213 213 213
10.496613502502 17.249639511108 60.847000122070 218 218 218
10.746612548828 17.250352859497 60.928001403809 146 146 146
10.496256828308 17.374639511108 60.923999786377 217 217 217
10.496256828308 17.374639511108 60.848999023438 216 216 216
10.746255874634 17.375352859497 60.935001373291 221 221 221
10.495900154114 17.499637603760 60.921001434326 226 226 226
10.495900154114 17.499637603760 60.850997924805 214 214 214
10.683399200439 17.500173568726 60.938999176025 213 213 213
10.495543479919 17.624637603760 60.920001983643 226 226 226
10.495543479919 17.624637603760 60.848999023438 210 210 210
10.682685852051 17.750171661377 60.944000244141 217 217 217
10.495186805725 17.749637603760 60.920001983643 225 225 225
10.495186805725 17.749637603760 60.850997924805 203 203 203
10.682329177856 17.875171661377 60.946998596191 221 221 221
10.556973457336 17.999814987183 60.920001983643 226 226 226
10.556973457336 17.999814987183 60.848999023438 192 192 192
10.681973457336 18.000171661377 60.949001312256 222 222 222
10.556616783142 18.124814987183 60.921001434326 224 224 224
10.556616783142 18.124814987183 60.850997924805 184 184 184
10.681616783142 18.125171661377 60.951999664307 221 221 221
10.556260108948 18.249813079834 60.918003082275 231 231 231
10.556260108948 18.249813079834 60.849998474121 169 169 169
10.680903434753 18.375169754028 60.957000732422 202 202 202
10.555903434753 18.374813079834 60.922000885010 225 225 225
10.555903434753 18.374813079834 60.849998474121 134 134 134
10.618046760559 18.499992370605 60.961997985840 215 215 215
10.555546760559 18.499813079834 60.919002532959 223 223 223
10.555546760559 18.499813079834 60.847000122070 124 124 124
10.680190086365 18.625167846680 60.963001251221 212 212 212
10.554833412170 18.749813079834 60.923000335693 223 223 223
10.554833412170 18.749813079834 60.850997924805 101 101 101
10.617333412170 18.749990463257 60.967998504639 204 204 204
10.616976737976 18.874988555908 60.921001434326 227 227 227
10.616976737976 18.874988555908 60.847999572754 54 54 54
10.679121017456 19.000167846680 60.972999572754 203 203 203
10.616621017456 18.999988555908 60.923000335693 228 228 228
10.616621017456 18.999988555908 60.850997924805 18 18 18
10.616264343262 19.124988555908 60.974998474121 192 192 192
10.553764343262 19.124809265137 60.923000335693 227 227 227
10.616264343262 19.124988555908 60.843997955322 15 15 15
10.615907669067 19.249988555908 60.978000640869 186 186 186
10.553407669067 19.249809265137 60.923999786377 226 226 226
10.615550994873 19.374988555908 60.982997894287 175 175 175
10.615550994873 19.374988555908 60.923000335693 228 228 228
10.615194320679 19.499988555908 60.988998413086 128 128 128
10.615194320679 19.499988555908 60.928001403809 224 224 224
10.615194320679 19.499988555908 60.841999053955 27 27 27
10.614837646484 19.624986648560 60.988002777100 115 115 115
10.551980972290 19.749809265137 60.930999755859 225 225 225
10.614124298096 19.874984741211 60.989997863770 125 125 125
10.614124298096 19.874984741211 60.932003021240 214 214 214
10.613768577576 19.999984741211 60.992000579834 83 83 83
10.613768577576 19.999984741211 60.926002502441 228 228 228
10.613411903381 20.124984741211 60.992000579834 48 48 48
10.613411903381 20.124984741211 60.928001403809 226 226 226
10.613055229187 20.249984741211 60.994003295898 45 45 45
10.550555229187 20.249805450439 60.933002471924 228 228 228
10.612341880798 20.499982833862 60.932003021240 222 222 222
10.611985206604 20.624982833862 60.934001922607 222 222 222
10.611628532410 20.749980926514 60.907001495361 156 156 156
10.611985206604 20.624982833862 60.907001495361 205 205 205
10.612341880798 20.499982833862 60.908000946045 204 204 204
10.612341880798 20.499982833862 60.902999877930 207 207 207
10.613055229187 20.249984741211 60.902000427246 205 205 205
10.613055229187 20.249984741211 60.900001525879 200 200 200
10.550911903381 20.124805450439 60.901000976563 202 202 202
10.613768577576 19.999984741211 60.902000427246 197 197 197
10.613768577576 19.999984741211 60.902999877930 196 196 196
10.614124298096 19.874984741211 60.906002044678 202 202 202
10.614480972290 19.749986648560 60.909000396729 205 205 205
10.552337646484 19.624809265137 60.909999847412 207 207 207
10.615194320679 19.499988555908 60.912002563477 205 205 205
10.615550994873 19.374988555908 60.909999847412 209 209 209
10.615550994873 19.374988555908 60.909999847412 211 211 211
10.615907669067 19.249988555908 60.906002044678 211 211 211
10.616264343262 19.124988555908 60.902999877930 210 210 210
10.554121017456 18.999811172485 60.904003143311 210 210 210
10.616976737976 18.874988555908 60.901000976563 212 212 212
10.554833412170 18.749813079834 60.904003143311 214 214 214
10.554833412170 18.749813079834 60.907001495361 215 215 215
10.555190086365 18.624813079834 60.908000946045 212 212 212
10.555546760559 18.499813079834 60.907001495361 210 210 210
10.555903434753 18.374813079834 60.909000396729 212 212 212
10.556260108948 18.249813079834 60.909999847412 206 206 206
10.556616783142 18.124814987183 60.909999847412 212 212 212
10.556616783142 18.124814987183 60.907001495361 212 212 212
10.556973457336 17.999814987183 60.907001495361 213 213 213
10.557329177856 17.874816894531 60.902999877930 211 211 211
10.557329177856 17.874816894531 60.902000427246 213 213 213
10.557685852051 17.749816894531 60.901000976563 211 211 211
10.558042526245 17.624816894531 60.904003143311 214 214 214
10.495900154114 17.499637603760 60.905002593994 209 209 209
10.558755874634 17.374816894531 60.905002593994 207 207 207
10.496256828308 17.374639511108 60.905002593994 209 209 209
10.559112548828 17.249816894531 60.904003143311 205 205 205
10.496970176697 17.124641418457 61.039001464844 38 38 38
10.496970176697 17.124641418457 60.904003143311 166 166 166
10.497326850891 16.999641418457 60.904003143311 205 205 205
10.497682571411 16.874641418457 60.902000427246 209 209 209
10.498039245605 16.749641418457 60.902000427246 212 212 212
10.498395919800 16.624641418457 60.901000976563 212 212 212
10.498395919800 16.624641418457 60.905002593994 209 209 209
10.498752593994 16.499641418457 60.906002044678 212 212 212
10.499109268188 16.374643325806 60.909999847412 209 209 209
10.436965942383 16.249465942383 60.911003112793 211 211 211
10.499465942383 16.249643325806 60.909999847412 206 206 206
10.437679290771 15.999465942383 60.909999847412 205 205 205
10.437679290771 15.999465942383 60.909000396729 209 209 209
10.500179290771 15.999643325806 60.907001495361 197 197 197
10.500179290771 15.999643325806 60.777000427246 4 4 4
10.500891685486 15.749645233154 60.907001495361 192 192 192
10.500891685486 15.749645233154 60.906002044678 192 192 192
10.500891685486 15.749645233154 60.775001525879 19 19 19
10.438748359680 15.624467849731 60.906002044678 196 196 196
10.438748359680 15.624467849731 60.777000427246 36 36 36
10.439105033875 15.499467849731 60.904003143311 197 197 197
10.439105033875 15.499467849731 60.775001525879 13 13 13
10.439461708069 15.374469757080 60.905002593994 196 196 196
10.439461708069 15.374469757080 60.775001525879 29 29 29
10.439818382263 15.249469757080 60.906002044678 193 193 193
10.502318382263 15.249647140503 60.776000976563 17 17 17
10.439818382263 15.249469757080 60.906002044678 196 196 196
10.439818382263 15.249469757080 60.776000976563 29 29 29
10.440175056458 15.124469757080 60.906002044678 185 185 185
10.440175056458 15.124469757080 60.773002624512 34 34 34
11.003742218018 14.751075744629 60.951000213623 6 6 6
10.378031730652 14.999292373657 60.905002593994 192 192 192
10.378031730652 14.999292373657 60.776000976563 64 64 64
10.941598892212 14.625898361206 60.951000213623 14 14 14
10.378387451172 14.874294281006 60.905002593994 197 197 197
10.440887451172 14.874471664429 60.775001525879 66 66 66
11.004455566406 14.501075744629 60.944999694824 26 26 26
10.441244125366 14.749471664429 60.901000976563 192 192 192
10.441244125366 14.749471664429 60.772003173828 51 51 51
10.942312240601 14.375900268555 60.944999694824 50 50 50
10.378744125366 14.749294281006 60.900001525879 196 196 196
10.441600799561 14.624471664429 60.770000457764 38 38 38
10.942312240601 14.375900268555 60.944000244141 76 76 76
10.379100799561 14.624294281006 60.898002624512 192 192 192
10.379100799561 14.624294281006 60.768001556396 38 38 38
10.942668914795 14.250900268555 60.940002441406 83 83 83
10.441957473755 14.499471664429 60.894001007080 192 192 192
10.379457473755 14.499294281006 60.766002655029 48 48 48
10.943025588989 14.125900268555 60.937000274658 95 95 95
10.379814147949 14.374296188354 60.894001007080 188 188 188
10.379457473755 14.499294281006 60.765003204346 58 58 58
11.005881309509 14.001079559326 60.934001922607 105 105 105
10.380170822144 14.249296188354 60.891002655029 193 193 193
10.380170822144 14.249296188354 60.763999938965 52 52 52
11.006237983704 13.876079559326 60.930999755859 84 84 84
10.442670822144 14.249473571777 60.890003204346 204 204 204
10.442670822144 14.249473571777 60.763000488281 90 90 90
11.006594657898 13.751079559326 60.925003051758 124 124 124
10.380527496338 14.124296188354 60.888999938965 209 209 209
10.380527496338 14.124296188354 60.758003234863 60 60 60
11.006951332092 13.626079559326 60.925003051758 123 123 123
10.380883216858 13.999298095703 60.888000488281 213 213 213
10.380883216858 13.999298095703 60.759002685547 76 76 76
11.007308006287 13.501081466675 60.920001983643 97 97 97
10.381239891052 13.874298095703 60.887001037598 209 209 209
10.381239891052 13.874298095703 60.760002136230 115 115 115
11.007308006287 13.501081466675 60.923000335693 130 130 130
10.381239891052 13.874298095703 60.888000488281 208 208 208
10.381239891052 13.874298095703 60.759002685547 86 86 86
11.007664680481 13.376081466675 60.920001983643 127 127 127
10.381953239441 13.624298095703 60.886001586914 209 209 209
10.381953239441 13.624298095703 60.756999969482 89 89 89
11.008021354675 13.251081466675 60.919002532959 117 117 117
10.381953239441 13.624298095703 60.885002136230 208 208 208
10.381953239441 13.624298095703 60.759002685547 109 109 109
11.008378028870 13.126081466675 60.916999816895 115 115 115
10.382309913635 13.499300003052 60.886001586914 209 209 209
10.382309913635 13.499300003052 60.759002685547 115 115 115
11.008733749390 13.001083374023 60.920001983643 118 118 118
10.382666587830 13.374300003052 60.887001037598 204 204 204
10.382666587830 13.374300003052 60.756999969482 121 121 121
11.009090423584 12.876083374023 60.915000915527 87 87 87
10.383023262024 13.249300003052 60.885002136230 194 194 194
10.383023262024 13.249300003052 60.758003234863 129 129 129
11.009090423584 12.876083374023 60.914001464844 84 84 84
10.383023262024 13.249300003052 60.884002685547 209 209 209
10.383023262024 13.249300003052 60.755001068115 117 117 117
11.009447097778 12.751083374023 61.318000793457 91 91 91
11.009447097778 12.751083374023 61.184001922607 106 106 106
11.009447097778 12.751083374023 61.052001953125 71 71 71
11.009447097778 12.751083374023 60.912002563477 64 64 64
10.383379936218 13.124300003052 60.883003234863 204 204 204
10.383379936218 13.124300003052 60.756999969482 118 118 118
11.009803771973 12.626083374023 61.182003021240 60 60 60
11.009803771973 12.626083374023 61.047000885010 76 76 76
11.009803771973 12.626083374023 60.908000946045 99 99 99
10.383735656738 12.999301910400 60.880001068115 205 205 205
10.383735656738 12.999301910400 60.752002716064 120 120 120
11.010160446167 12.501085281372 60.905002593994 49 49 49
10.384092330933 12.874301910400 60.880001068115 161 161 161
10.384092330933 12.874301910400 60.753002166748 100 100 100
10.446949005127 12.749479293823 61.251003265381 90 90 90
10.446949005127 12.749479293823 61.126003265381 98 98 98
10.384449005127 12.749301910400 61.002002716064 118 118 118
10.384449005127 12.749301910400 60.878002166748 94 94 94
10.384449005127 12.749301910400 60.746002197266 88 88 88
10.760161399841 12.500371932983 60.546001434326 68 68 68
10.697661399841 12.500194549561 60.415000915527 63 63 63
10.697661399841 12.500194549561 60.282001495361 64 64 64
10.384805679321 12.624301910400 61.383003234863 4 4 4
10.384805679321 12.624301910400 61.256999969482 84 84 84
10.447305679321 12.624479293823 61.127002716064 95 95 95
10.510162353516 12.499658584595 60.981998443604 62 62 62
10.384805679321 12.624301910400 60.880001068115 89 89 89
10.384805679321 12.624301910400 60.746997833252 90 90 90
10.635161399841 12.500015258789 60.578998565674 70 70 70
10.572661399841 12.499837875366 60.450000762939 64 64 64
10.572661399841 12.499837875366 60.319000244141 73 73 73
10.635161399841 12.500015258789 60.038002014160 193 193 193
10.385162353516 12.499303817749 60.878997802734 92 92 92
10.385162353516 12.499303817749 60.746997833252 98 98 98
10.510162353516 12.499658584595 60.598999023438 103 103 103
10.510162353516 12.499658584595 60.467998504639 99 99 99
10.510162353516 12.499658584595 60.338001251221 102 102 102
10.635518074036 12.375015258789 60.172000885010 78 78 78
10.635518074036 12.375015258789 60.034999847412 76 76 76
10.385162353516 12.499303817749 60.881000518799 91 91 91
10.385162353516 12.499303817749 60.748001098633 91 91 91
10.510519027710 12.374658584595 60.597000122070 92 92 92
10.510519027710 12.374658584595 60.465999603271 87 87 87
10.510519027710 12.374658584595 60.338001251221 79 79 79
10.573018074036 12.374837875366 60.186000823975 96 96 96
10.573018074036 12.374837875366 60.051002502441 114 114 114
11.199441909790 11.876623153687 60.878002166748 10 10 10
10.385519027710 12.374303817749 60.881999969482 92 92 92
10.385519027710 12.374303817749 60.750000000000 86 86 86
10.510519027710 12.374658584595 60.597000122070 87 87 87
10.510519027710 12.374658584595 60.466999053955 74 74 74
10.510519027710 12.374658584595 60.339000701904 84 84 84
11.011942863464 11.876087188721 60.898002624512 57 57 57
10.385875701904 12.249303817749 60.874000549316 109 109 109
10.385875701904 12.249303817749 60.749000549316 100 100 100
10.511232376099 12.124658584595 60.595001220703 98 98 98
10.511232376099 12.124658584595 60.465000152588 96 96 96
10.511232376099 12.124658584595 60.334999084473 98 98 98
11.074798583984 11.751266479492 60.899002075195 88 88 88
10.323732376099 12.124124526978 60.881999969482 106 106 106
10.323732376099 12.124124526978 60.756000518799 119 119 119
10.511232376099 12.124658584595 60.595001220703 19 19 19
10.511232376099 12.124658584595 60.467998504639 36 36 36
10.511232376099 12.124658584595 60.334999084473 46 46 46
11.012656211853 11.626089096069 60.898002624512 81 81 81
10.324088096619 11.999126434326 60.887001037598 111 111 111
10.324088096619 11.999126434326 60.760002136230 125 125 125
11.075511932373 11.501268386841 60.895000457764 77 77 77
10.261589050293 11.998949050903 60.887001037598 109 109 109
10.261589050293 11.998949050903 60.766002655029 96 96 96
10.261945724487 11.873949050903 60.888000488281 73 73 73
10.261945724487 11.873949050903 60.759002685547 77 77 77
10.199445724487 11.873769760132 60.895999908447 65 65 65
10.199445724487 11.873769760132 60.770000457764 57 57 57
10.137302398682 11.748592376709 60.905002593994 85 85 85
10.136945724487 11.873592376709 60.782001495361 85 85 85
10.137659072876 11.623594284058 60.902999877930 92 92 92
10.137659072876 11.623594284058 60.782001495361 92 92 92
10.137659072876 11.623594284058 60.902000427246 89 89 89
10.137659072876 11.623594284058 60.780002593994 98 98 98
10.075516700745 11.498414993286 60.904003143311 19 19 19
10.075516700745 11.498414993286 60.786003112793 30 30 30
10.549128532410 20.749803543091 60.928001403809 142 142 142
10.611985206604 20.624982833862 60.927001953125 223 223 223
10.612341880798 20.499982833862 60.927001953125 218 218 218
10.612341880798 20.499982833862 60.927001953125 221 221 221
10.613055229187 20.249984741211 60.925003051758 223 223 223
10.613055229187 20.249984741211 60.923999786377 224 224 224
10.550911903381 20.124805450439 60.922000885010 223 223 223
10.613768577576 19.999984741211 60.920001983643 225 225 225
10.614124298096 19.874984741211 60.922000885010 219 219 219
10.614124298096 19.874984741211 60.923000335693 226 226 226
10.552337646484 19.624809265137 60.925003051758 221 221 221
10.615194320679 19.499988555908 60.928001403809 225 225 225
10.615194320679 19.499988555908 60.930000305176 213 213 213
10.553050994873 19.374809265137 60.930999755859 220 220 220
10.615907669067 19.249988555908 60.932003021240 219 219 219
10.553764343262 19.124809265137 60.932003021240 217 217 217
10.554121017456 18.999811172485 60.930999755859 220 220 220
10.554476737976 18.874811172485 60.933002471924 224 224 224
10.616976737976 18.874988555908 60.930000305176 224 224 224
10.554833412170 18.749813079834 60.927001953125 226 226 226
10.555190086365 18.624813079834 60.926002502441 224 224 224
10.555546760559 18.499813079834 60.925003051758 222 222 222
10.618046760559 18.499992370605 60.925003051758 217 217 217
10.556260108948 18.249813079834 60.925003051758 218 218 218
10.556260108948 18.249813079834 60.923999786377 225 225 225
10.556616783142 18.124814987183 60.797000885010 18 18 18
10.556616783142 18.124814987183 60.923999786377 225 225 225
10.556973457336 17.999814987183 60.796001434326 23 23 23
10.556973457336 17.999814987183 60.926002502441 222 222 222
10.557329177856 17.874816894531 60.797000885010 60 60 60
10.557329177856 17.874816894531 60.925003051758 225 225 225
10.557685852051 17.749816894531 60.798000335693 55 55 55
10.557685852051 17.749816894531 60.926002502441 221 221 221
10.557685852051 17.749816894531 60.798000335693 57 57 57
10.558042526245 17.624816894531 60.923000335693 225 225 225
10.495900154114 17.499637603760 60.796001434326 70 70 70
10.558042526245 17.624816894531 60.922000885010 226 226 226
10.495900154114 17.499637603760 60.796001434326 79 79 79
10.558399200439 17.499816894531 60.920001983643 227 227 227
10.558755874634 17.374816894531 60.793003082275 71 71 71
10.558755874634 17.374816894531 60.921001434326 223 223 223
10.559112548828 17.249816894531 60.791000366211 71 71 71
10.559112548828 17.249816894531 60.919002532959 214 214 214
10.496970176697 17.124641418457 60.790000915527 80 80 80
10.496970176697 17.124641418457 60.923000335693 197 197 197
10.434470176697 17.124462127686 61.059001922607 121 121 121
10.497326850891 16.999641418457 60.790000915527 88 88 88
10.497326850891 16.999641418457 60.920001983643 155 155 155
10.496970176697 17.124641418457 61.047000885010 105 105 105
10.497326850891 16.999641418457 60.789001464844 101 101 101
10.497682571411 16.874641418457 60.918003082275 221 221 221
10.498039245605 16.749641418457 60.787002563477 119 119 119
10.560181617737 16.874820709229 60.916000366211 223 223 223
10.498039245605 16.749641418457 60.791999816895 122 122 122
10.498039245605 16.749641418457 60.916000366211 227 227 227
10.498395919800 16.624641418457 60.791999816895 135 135 135
10.560894966125 16.624820709229 60.916000366211 226 226 226
10.498752593994 16.499641418457 60.794002532959 152 152 152
10.498752593994 16.499641418457 60.916000366211 227 227 227
10.499109268188 16.374643325806 60.797000885010 140 140 140
10.561251640320 16.499820709229 60.914001464844 227 227 227
10.499465942383 16.249643325806 60.798999786377 176 176 176
10.499109268188 16.374643325806 60.919002532959 228 228 228
10.499465942383 16.249643325806 60.798000335693 191 191 191
10.499822616577 16.124643325806 60.919002532959 228 228 228
10.437679290771 15.999465942383 60.798000335693 183 183 183
10.499822616577 16.124643325806 60.922000885010 222 222 222
10.437679290771 15.999465942383 60.798000335693 176 176 176
10.500179290771 15.999643325806 60.923999786377 186 186 186
10.438035011292 15.874467849731 60.795001983643 167 167 167
10.500535011292 15.874645233154 60.912002563477 229 229 229
10.438391685486 15.749467849731 60.794002532959 184 184 184
10.500891685486 15.749645233154 60.911003112793 229 229 229
10.438748359680 15.624467849731 60.793003082275 181 181 181
10.500891685486 15.749645233154 60.911003112793 229 229 229
10.439105033875 15.499467849731 60.795001983643 180 180 180
10.501605033875 15.499645233154 60.912002563477 231 231 231
10.439461708069 15.374469757080 60.794002532959 187 187 187
10.501605033875 15.499645233154 60.912002563477 234 234 234
10.439818382263 15.249469757080 60.794002532959 193 193 193
10.501961708069 15.374647140503 60.908000946045 236 236 236
10.439818382263 15.249469757080 60.798000335693 198 198 198
10.502318382263 15.249647140503 60.914001464844 239 239 239
10.440175056458 15.124469757080 60.797000885010 198 198 198
10.502675056458 15.124647140503 60.912002563477 242 242 242
10.378031730652 14.999292373657 60.797000885010 207 207 207
10.502675056458 15.124647140503 60.911003112793 239 239 239
10.440887451172 14.874471664429 60.794002532959 211 211 211
10.440887451172 14.874471664429 60.916999816895 210 210 210
10.441244125366 14.749471664429 60.793003082275 193 193 193
10.441244125366 14.749471664429 60.920001983643 168 168 168
10.441600799561 14.624471664429 60.791000366211 202 202 202
10.503744125366 14.749649047852 60.909000396729 240 240 240
10.379100799561 14.624294281006 60.788002014160 202 202 202
10.504100799561 14.624649047852 60.905002593994 243 243 243
10.379457473755 14.499294281006 60.787002563477 202 202 202
10.504100799561 14.624649047852 60.905002593994 243 243 243
10.379814147949 14.374296188354 60.786003112793 212 212 212
10.442314147949 14.374473571777 60.902999877930 243 243 243
10.380170822144 14.249296188354 60.784999847412 212 212 212
10.504814147949 14.374650955200 60.902000427246 248 248 248
10.380527496338 14.124296188354 60.787002563477 222 222 222
11.004455566406 14.501075744629 60.829998016357 173 173 173
10.443027496338 14.124473571777 60.784999847412 222 222 222
10.942312240601 14.375900268555 60.827999114990 176 176 176
10.381239891052 13.874298095703 60.786003112793 219 219 219
10.505883216858 13.999652862549 60.901000976563 255 255 255
10.381239891052 13.874298095703 60.786003112793 221 221 221
10.943025588989 14.125900268555 60.825000762939 176 176 176
10.381596565247 13.749298095703 60.784999847412 225 225 225
10.444096565247 13.749475479126 60.904003143311 198 198 198
10.381953239441 13.624298095703 60.783000946045 222 222 222
10.444453239441 13.624475479126 60.909000396729 171 171 171
10.382309913635 13.499300003052 60.782001495361 223 223 223
11.006237983704 13.876079559326 60.817001342773 174 174 174
10.382666587830 13.374300003052 60.779003143311 223 223 223
10.382309913635 13.499300003052 60.904003143311 186 186 186
11.006594657898 13.751079559326 60.810001373291 170 170 170
10.383023262024 13.249300003052 60.776000976563 221 221 221
10.383023262024 13.249300003052 60.900001525879 193 193 193
10.383023262024 13.249300003052 60.773002624512 222 222 222
10.383023262024 13.249300003052 60.897003173828 204 204 204
10.383379936218 13.124300003052 60.772003173828 223 223 223
10.383379936218 13.124300003052 60.898002624512 190 190 190
11.007308006287 13.501081466675 60.802001953125 171 171 171
10.383735656738 12.999301910400 60.770999908447 222 222 222
10.383735656738 12.999301910400 60.895999908447 184 184 184
11.007664680481 13.376081466675 60.800003051758 166 166 166
10.384092330933 12.874301910400 60.770999908447 215 215 215
10.384092330933 12.874301910400 60.898002624512 136 136 136
11.070520401001 13.251260757446 60.798000335693 158 158 158
10.384449005127 12.749301910400 60.770999908447 95 95 95
10.446592330933 12.874479293823 60.888999938965 157 157 157
10.384805679321 12.624301910400 60.776000976563 90 90 90
11.008378028870 13.126081466675 60.798000335693 143 143 143
10.384805679321 12.624301910400 61.023002624512 61 61 61
10.384805679321 12.624301910400 61.149002075195 66 66 66
10.384449005127 12.749301910400 61.279003143311 86 86 86
10.385162353516 12.499303817749 60.774002075195 96 96 96
10.447305679321 12.624479293823 60.893001556396 159 159 159
10.385162353516 12.499303817749 61.025001525879 108 108 108
10.447305679321 12.624479293823 61.148002624512 106 106 106
10.447305679321 12.624479293823 61.274002075195 86 86 86
10.572661399841 12.499837875366 60.086997985840 23 23 23
10.510162353516 12.499658584595 60.238002777100 19 19 19
10.510162353516 12.499658584595 60.366001129150 22 22 22
10.322662353516 12.499124526978 60.777999877930 94 94 94
10.510162353516 12.499658584595 60.887001037598 121 121 121
10.510162353516 12.499658584595 60.232997894287 96 96 96
10.510162353516 12.499658584595 60.362003326416 116 116 116
10.510162353516 12.499658584595 60.493000030518 110 110 110
10.510162353516 12.499658584595 60.626003265381 118 118 118
10.385519027710 12.374303817749 60.774002075195 95 95 95
10.448019027710 12.374481201172 60.893001556396 107 107 107
11.009447097778 12.751083374023 60.938999176025 100 100 100
11.009447097778 12.751083374023 61.074001312256 89 89 89
11.009447097778 12.751083374023 61.210998535156 72 72 72
11.009447097778 12.751083374023 61.340999603271 25 25 25
10.510519027710 12.374658584595 60.227001190186 38 38 38
10.448019027710 12.374481201172 60.361000061035 91 91 91
10.510519027710 12.374658584595 60.492000579834 108 108 108
10.448019027710 12.374481201172 60.626003265381 94 94 94
10.385875701904 12.249303817749 60.770999908447 101 101 101
10.385875701904 12.249303817749 60.891002655029 98 98 98
11.009803771973 12.626083374023 60.940002441406 32 32 32
