16.604375839233 5.529501438141 3.259002685547 142 142 142
16.604375839233 5.529501438141 3.231994628906 146 146 146
16.604375839233 5.529501438141 3.207992553711 147 147 147
16.604375839233 5.529501438141 3.183990478516 144 144 144
16.604375839233 5.529501438141 3.155990600586 151 151 151
16.604375839233 5.529501438141 3.131988525391 127 127 127
16.008493423462 6.312408447266 3.300003051758 205 205 205
16.008493423462 6.312408447266 3.268997192383 196 196 196
16.008493423462 6.312408447266 3.237991333008 216 216 216
16.008493423462 6.312408447266 3.207992553711 216 216 216
16.528581619263 5.965456485748 3.289993286133 226 226 226
16.563346862793 5.961980342865 3.270996093750 209 209 209
16.563346862793 5.961980342865 3.242996215820 211 211 211
16.563346862793 5.961980342865 3.216995239258 212 212 212
16.563346862793 5.961980342865 3.190994262695 208 208 208
16.563346862793 5.961980342865 3.164001464844 209 209 209
16.563346862793 5.961980342865 3.136993408203 71 71 71
16.020309448242 6.711512565613 3.313995361328 188 188 188
16.020309448242 6.711512565613 3.282989501953 172 172 172
16.020309448242 6.711512565613 3.251998901367 153 153 153
16.434713363647 6.431308269501 3.302001953125 206 206 206
16.513978958130 6.381247520447 3.291000366211 208 208 208
16.522321701050 6.394458293915 3.261001586914 209 209 209
16.513978958130 6.381247520447 3.235000610352 208 208 208
16.513978958130 6.381247520447 3.207000732422 208 208 208
16.513978958130 6.381247520447 3.177993774414 210 210 210
16.513978958130 6.381247520447 3.149993896484 72 72 72
16.010572433472 7.105750083923 3.330993652344 59 59 59
16.063415527344 7.072375297546 3.304992675781 204 204 204
16.063415527344 7.072375297546 3.270996093750 214 214 214
16.398551940918 6.842232704163 3.304992675781 230 230 230
16.512584686279 6.788695812225 3.291992187500 206 206 206
16.512584686279 6.788695812225 3.261993408203 198 198 198
16.512584686279 6.788695812225 3.233001708984 204 204 204
16.512584686279 6.788695812225 3.201995849609 207 207 207
16.512584686279 6.788695812225 3.173995971680 184 184 184
16.066888809204 7.458269119263 3.332992553711 178 178 178
16.066888809204 7.458269119263 3.300003051758 198 198 198
16.357526779175 7.274711132050 3.313003540039 220 220 220
16.463214874268 7.207962036133 3.300003051758 206 206 206
16.463214874268 7.207962036133 3.268997192383 205 205 205
16.463214874268 7.207962036133 3.237991333008 204 204 204
16.463214874268 7.207962036133 3.205001831055 209 209 209
16.463214874268 7.207962036133 3.175994873047 114 114 114
16.096784591675 7.827475070953 3.328002929688 206 206 206
16.334579467773 7.677291870117 3.328002929688 209 209 209
16.422185897827 7.640440940857 3.308990478516 206 206 206
16.422185897827 7.640440940857 3.276992797852 203 203 203
16.422185897827 7.640440940857 3.242996215820 208 208 208
16.422185897827 7.640440940857 3.211990356445 204 204 204
16.113470077515 8.205025672913 3.349990844727 174 174 174
16.333185195923 8.084738731384 3.341995239258 190 190 190
16.359607696533 8.068052291870 3.315994262695 205 205 205
16.359607696533 8.068052291870 3.281997680664 205 205 205
16.359607696533 8.068052291870 3.248001098633 202 202 202
16.359607696533 8.068052291870 3.212997436523 186 186 186
16.133628845215 8.617340087891 3.369003295898 35 35 35
16.257394790649 8.520694732666 3.349990844727 203 203 203
16.310235977173 8.487318992615 3.322998046875 202 202 202
16.310235977173 8.487318992615 3.287002563477 207 207 207
16.310235977173 8.487318992615 3.251998901367 202 202 202
16.310235977173 8.487318992615 3.216995239258 153 153 153
16.224710464478 8.966383934021 3.369995117188 129 129 129
16.303976058960 8.916322708130 3.341003417969 205 205 205
16.303976058960 8.916322708130 3.304000854492 208 208 208
16.303976058960 8.916322708130 3.266998291016 204 204 204
16.269210815430 8.919798851013 3.227996826172 174 174 174
16.193418502808 9.355752944946 3.360992431641 188 188 188
16.228183746338 9.352277755737 3.324996948242 201 201 201
16.193418502808 9.355752944946 3.284988403320 206 206 206
16.193418502808 9.355752944946 3.246002197266 181 181 181
16.192026138306 9.763200759888 3.360992431641 191 191 191
16.192026138306 9.763200759888 3.320999145508 199 199 199
16.192026138306 9.763200759888 3.279998779297 203 203 203
16.192026138306 9.763200759888 3.237991333008 29 29 29
16.195499420166 10.149094581604 3.401000976563 129 129 129
16.195499420166 10.149094581604 3.358993530273 195 195 195
16.195499420166 10.149094581604 3.317001342773 202 202 202
16.169076919556 10.165781974792 3.274993896484 179 179 179
16.228176116943 10.405661582947 3.511993408203 12 12 12
16.210098266602 10.435560226440 3.412994384766 68 68 68
16.200361251831 10.478668212891 3.358001708984 99 99 99
16.165597915649 10.482145309448 3.308990478516 105 105 105
16.184375762939 9.897394180298 3.381988525391 144 144 144
16.184375762939 9.897394180298 3.335998535156 159 159 159
16.189243316650 9.875841140747 3.291000366211 153 153 153
16.226099014282 9.261191368103 3.369995117188 157 157 157
16.270601272583 9.214607238770 3.330993652344 165 165 165
16.270601272583 9.214607238770 3.289993286133 161 161 161
16.280332565308 9.171498298645 3.251998901367 109 109 109
16.185775756836 8.787689208984 3.381988525391 106 106 106
16.254610061646 8.633333206177 3.358001708984 178 178 178
16.300502777100 8.530428886414 3.336990356445 160 160 160
16.300502777100 8.530428886414 3.295989990234 160 160 160
16.326925277710 8.513740539551 3.255996704102 160 160 160
16.123897552490 8.309321403503 3.352996826172 166 166 166
16.123897552490 8.309321403503 3.310989379883 179 179 179
16.355436325073 7.885882377625 3.345001220703 163 163 163
16.373516082764 7.855984210968 3.313995361328 160 160 160
16.373516082764 7.855984210968 3.274002075195 159 159 159
16.391592025757 7.826087474823 3.236999511719 161 161 161
16.088439941406 7.814263820648 3.334991455078 177 177 177
16.088439941406 7.814263820648 3.293991088867 183 183 183
16.088439941406 7.814263820648 3.254989624023 184 184 184
16.428449630737 7.211438655853 3.333999633789 178 178 178
16.464605331421 7.151643753052 3.308990478516 165 165 165
16.456260681152 7.138432502747 3.274993896484 164 164 164
16.456260681152 7.138432502747 3.238998413086 163 163 163
16.482685089111 7.121745586395 3.205001831055 153 153 153
16.034904479980 7.349105834961 3.351989746094 56 56 56
16.061326980591 7.332418918610 3.319000244141 174 174 174
16.061326980591 7.332418918610 3.281997680664 184 184 184
16.071062088013 7.289310455322 3.246002197266 186 186 186
16.071062088013 7.289310455322 3.207992553711 171 171 171
16.520931243896 6.450778484344 3.317001342773 162 162 162
16.520931243896 6.450778484344 3.282989501953 167 167 167
16.547349929810 6.434090614319 3.253997802734 169 169 169
16.547349929810 6.434090614319 3.222000122070 164 164 164
16.547349929810 6.434090614319 3.190002441406 166 166 166
16.007791519165 6.867260932922 3.343002319336 20 20 20
16.017528533936 6.824151992798 3.311996459961 173 173 173
16.017528533936 6.824151992798 3.272994995117 134 134 134
16.053684234619 6.764355659485 3.252990722656 131 131 131
16.043949127197 6.807464599609 3.203002929688 174 174 174
16.009183883667 6.810940742493 3.164993286133 37 37 37
16.575864791870 5.806232929230 3.302001953125 168 168 168
16.572385787964 5.771466732025 3.274993896484 174 174 174
16.572385787964 5.771466732025 3.244003295898 176 176 176
16.598810195923 5.754779338837 3.216003417969 177 177 177
16.598810195923 5.754779338837 3.185989379883 178 178 178
16.598810195923 5.754779338837 3.154998779297 178 178 178
16.008493423462 6.312408447266 3.307998657227 173 173 173
16.008493423462 6.312408447266 3.274993896484 173 173 173
16.008493423462 6.312408447266 3.240997314453 185 185 185
16.008493423462 6.312408447266 3.205001831055 184 184 184
16.008493423462 6.312408447266 3.169998168945 164 164 164
16.617589950562 5.170030117035 3.291992187500 133 133 133
16.609243392944 5.156818866730 3.269989013672 132 132 132
16.635665893555 5.140131473541 3.242996215820 133 133 133
16.635665893555 5.140131473541 3.213989257813 135 135 135
16.635665893555 5.140131473541 3.190002441406 133 133 133
16.635665893555 5.140131473541 3.164001464844 133 133 133
16.635665893555 5.140131473541 3.132995605469 128 128 128
15.973035812378 5.817352771759 3.308990478516 151 151 151
15.991113662720 5.787454128265 3.279998779297 171 171 171
15.982769012451 5.774242877960 3.254989624023 146 146 146
16.286624908447 5.231214046478 3.345993041992 147 147 147
16.367279052734 5.124833583832 3.343002319336 137 137 137
16.422903060913 4.978819370270 3.348999023438 128 128 128
16.450716018677 4.905813694000 3.341003417969 155 155 155
16.468795776367 4.875915050507 3.319992065430 162 162 162
16.468795776367 4.875915050507 3.293991088867 163 163 163
16.468795776367 4.875915050507 3.266998291016 167 167 167
16.486873626709 4.846017360687 3.240997314453 166 166 166
16.468795776367 4.875915050507 3.211990356445 168 168 168
16.468795776367 4.875915050507 3.183990478516 166 166 166
16.486873626709 4.846017360687 3.156997680664 167 167 167
16.772647857666 4.332886219025 3.295989990234 162 162 162
16.808803558350 4.273090362549 3.289001464844 160 160 160
16.800460815430 4.259879112244 3.266998291016 162 162 162
16.800460815430 4.259879112244 3.241989135742 162 162 162
16.800460815430 4.259879112244 3.218002319336 157 157 157
16.800460815430 4.259879112244 3.192993164063 159 159 159
16.808803558350 4.273090362549 3.166992187500 162 162 162
16.774038314819 4.276566505432 3.140991210938 163 163 163
16.774038314819 4.276566505432 3.116989135742 161 161 161
16.774038314819 4.276566505432 3.087997436523 160 160 160
16.452106475830 4.849493503571 2.832992553711 156 156 156
16.435420989990 4.823071956635 2.813995361328 169 169 169
16.435420989990 4.823071956635 2.785995483398 168 168 168
16.435420989990 4.823071956635 2.755996704102 163 163 163
16.435420989990 4.823071956635 2.725997924805 167 167 167
16.435420989990 4.823071956635 2.696990966797 163 163 163
16.435420989990 4.823071956635 2.667999267578 161 161 161
16.435420989990 4.823071956635 2.626998901367 162 162 162
16.361717224121 4.998982906342 2.529998779297 188 188 188
16.353374481201 4.985772609711 2.500991821289 188 188 188
16.353374481201 4.985772609711 2.472000122070 190 190 190
16.353374481201 4.985772609711 2.438995361328 192 192 192
16.353374481201 4.985772609711 2.405990600586 193 193 193
16.353374481201 4.985772609711 2.373992919922 193 193 193
16.345029830933 4.972561359406 2.343994140625 187 187 187
16.353374481201 4.985772609711 2.307998657227 167 167 167
16.345029830933 4.972561359406 2.276992797852 162 162 162
15.937578201294 5.322296142578 3.313003540039 28 28 28
16.037704467773 5.129697799683 3.324996948242 122 122 122
16.151041030884 4.928756237030 3.345993041992 132 132 132
16.178853988647 4.855749130249 3.328994750977 157 157 157
16.205274581909 4.839061737061 3.302001953125 161 161 161
16.178853988647 4.855749130249 3.270996093750 163 163 163
16.196929931641 4.825851440430 3.242996215820 162 162 162
16.196929931641 4.825851440430 3.214996337891 162 162 162
16.196929931641 4.825851440430 3.184997558594 166 166 166
16.178853988647 4.855749130249 3.152999877930 166 166 166
16.196929931641 4.825851440430 3.123992919922 166 166 166
16.196929931641 4.825851440430 3.093994140625 163 163 163
16.196929931641 4.825851440430 3.063995361328 166 166 166
16.196929931641 4.825851440430 3.035995483398 165 165 165
16.170509338379 4.842538356781 3.002990722656 165 165 165
16.170509338379 4.842538356781 2.973999023438 165 165 165
16.170509338379 4.842538356781 2.945999145508 163 163 163
16.162166595459 4.829327583313 2.916000366211 165 165 165
16.170509338379 4.842538356781 2.882995605469 166 166 166
16.170509338379 4.842538356781 2.852996826172 163 163 163
16.162166595459 4.829327583313 2.823989868164 164 164 164
16.170509338379 4.842538356781 2.791000366211 164 164 164
16.162166595459 4.829327583313 2.761001586914 164 164 164
16.162166595459 4.829327583313 2.727996826172 162 162 162
16.153823852539 4.816116809845 2.698989868164 161 161 161
16.153823852539 4.816116809845 2.668991088867 159 159 159
16.162166595459 4.829327583313 2.631988525391 166 166 166
15.918809890747 4.853661060333 3.284988403320 130 130 130
15.918809890747 4.853661060333 3.253997802734 148 148 148
15.875699996948 4.843926906586 3.222991943359 145 145 145
15.875699996948 4.843926906586 3.190994262695 148 148 148
15.875699996948 4.843926906586 3.160995483398 146 146 146
15.875699996948 4.843926906586 3.126998901367 147 147 147
15.811040878296 4.478197097778 3.302993774414 129 129 129
15.820774078369 4.435087680817 3.289001464844 142 142 142
15.830511093140 4.391979217529 3.263992309570 127 127 127
15.840244293213 4.348870277405 3.248001098633 119 119 119
15.866666793823 4.332183837891 3.220001220703 121 121 121
15.866666793823 4.332183837891 3.192001342773 132 132 132
15.866666793823 4.332183837891 3.164993286133 136 136 136
15.858322143555 4.318973541260 3.134002685547 131 131 131
15.866666793823 4.332183837891 3.102996826172 142 142 142
16.200361251831 10.478668212891 3.395996093750 171 171 171
16.165597915649 10.482145309448 3.351989746094 185 185 185
16.165597915649 10.482145309448 3.309997558594 183 183 183
16.196889877319 10.092775344849 3.405990600586 156 156 156
16.196889877319 10.092775344849 3.364990234375 200 200 200
16.196889877319 10.092775344849 3.323989868164 198 198 198
16.196889877319 10.092775344849 3.282989501953 171 171 171
16.201761245728 9.720091819763 3.376998901367 193 193 193
16.201761245728 9.720091819763 3.337997436523 205 205 205
16.201761245728 9.720091819763 3.296997070313 199 199 199
16.201761245728 9.720091819763 3.256988525391 79 79 79
16.193418502808 9.355752944946 3.382995605469 182 182 182
16.228183746338 9.352277755737 3.345001220703 202 202 202
16.228183746338 9.352277755737 3.306991577148 205 205 205
16.193418502808 9.355752944946 3.267990112305 192 192 192
16.206630706787 8.996282577515 3.386001586914 119 119 119
16.285896301270 8.946219444275 3.358001708984 203 203 203
16.285896301270 8.946219444275 3.320999145508 204 204 204
16.285896301270 8.946219444275 3.283996582031 203 203 203
16.285896301270 8.946219444275 3.246002197266 172 172 172
16.140581130981 8.686869621277 3.380996704102 76 76 76
16.290765762329 8.573537826538 3.365997314453 197 197 197
16.317190170288 8.556851387024 3.333999633789 199 199 199
16.317190170288 8.556851387024 3.297988891602 208 208 208
16.317190170288 8.556851387024 3.261001586914 206 206 206
16.317190170288 8.556851387024 3.225997924805 117 117 117
16.132240295410 8.322531700134 3.356002807617 197 197 197
16.343614578247 8.189034461975 3.350997924805 200 200 200
16.343614578247 8.189034461975 3.315994262695 204 204 204
16.343614578247 8.189034461975 3.281997680664 202 202 202
16.343614578247 8.189034461975 3.248001098633 204 204 204
16.343614578247 8.189034461975 3.213989257813 91 91 91
16.110689163208 7.966535568237 3.360992431641 145 145 145
16.145452499390 7.963059902191 3.330993652344 195 195 195
16.401325225830 7.782978534698 3.335998535156 206 206 206
16.401325225830 7.782978534698 3.304000854492 203 203 203
16.401325225830 7.782978534698 3.270996093750 205 205 205
16.392984390259 7.769767761230 3.237991333008 204 204 204
16.401325225830 7.782978534698 3.203002929688 103 103 103
16.123903274536 7.607063770294 3.333999633789 188 188 188
16.168401718140 7.560479640961 3.313995361328 212 212 212
16.440963745117 7.406819820404 3.323989868164 205 205 205
16.440963745117 7.406819820404 3.291992187500 210 210 210
16.432619094849 7.393608570099 3.261001586914 204 204 204
16.432619094849 7.393608570099 3.229995727539 206 206 206
16.467386245728 7.390132427216 3.199996948242 125 125 125
16.054374694824 7.262887954712 3.336990356445 197 197 197
16.062719345093 7.276098728180 3.304992675781 197 197 197
16.353357315063 7.092541217804 3.321990966797 224 224 224
16.459041595459 7.025793552399 3.313003540039 209 209 209
16.459041595459 7.025793552399 3.284988403320 205 205 205
16.459041595459 7.025793552399 3.252990722656 205 205 205
16.459041595459 7.025793552399 3.223999023438 203 203 203
16.459041595459 7.025793552399 3.192993164063 163 163 163
16.031433105469 6.963212966919 3.341995239258 109 109 109
16.057855606079 6.946525573730 3.311996459961 193 193 193
16.057855606079 6.946525573730 3.278991699219 214 214 214
16.057855606079 6.946525573730 3.246994018555 203 203 203
16.525100708008 6.632947444916 3.307998657227 207 207 207
16.525100708008 6.632947444916 3.279998779297 205 205 205
16.525100708008 6.632947444916 3.250000000000 205 205 205
16.525100708008 6.632947444916 3.220001220703 207 207 207
16.525100708008 6.632947444916 3.190994262695 201 201 201
16.019615173340 6.564108371735 3.323989868164 188 188 188
16.027959823608 6.577319145203 3.294998168945 185 185 185
16.027959823608 6.577319145203 3.261993408203 215 215 215
16.019615173340 6.564108371735 3.229995727539 215 215 215
16.556392669678 6.243577957153 3.306991577148 208 208 208
16.556392669678 6.243577957153 3.281997680664 208 208 208
16.556392669678 6.243577957153 3.251998901367 207 207 207
16.556392669678 6.243577957153 3.224990844727 208 208 208
16.556392669678 6.243577957153 3.195999145508 207 207 207
16.556392669678 6.243577957153 3.168991088867 176 176 176
15.993196487427 6.229667186737 3.308990478516 202 202 202
15.993196487427 6.229667186737 3.277999877930 198 198 198
15.993196487427 6.229667186737 3.248992919922 216 216 216
15.993196487427 6.229667186737 3.218002319336 215 215 215
15.993196487427 6.229667186737 3.186996459961 181 181 181
16.582815170288 5.875761985779 3.284988403320 211 211 211
16.582815170288 5.875761985779 3.259994506836 207 207 207
16.582815170288 5.875761985779 3.233001708984 211 211 211
16.582815170288 5.875761985779 3.207000732422 210 210 210
16.582815170288 5.875761985779 3.179992675781 211 211 211
16.582815170288 5.875761985779 3.153991699219 159 159 159
15.945224761963 5.890359401703 3.320999145508 43 43 43
16.006410598755 5.870195388794 3.297988891602 207 207 207
16.006410598755 5.870195388794 3.267990112305 210 210 210
16.006410598755 5.870195388794 3.237991333008 196 196 196
15.979990005493 5.886882781982 3.207000732422 215 215 215
15.945224761963 5.890359401703 3.170989990234 190 190 190
16.614109039307 5.486392498016 3.292999267578 155 155 155
16.614109039307 5.486392498016 3.267990112305 148 148 148
16.614109039307 5.486392498016 3.244995117188 149 149 149
16.614109039307 5.486392498016 3.218994140625 148 148 148
16.614109039307 5.486392498016 3.194000244141 148 148 148
16.614109039307 5.486392498016 3.170989990234 147 147 147
16.614109039307 5.486392498016 3.143997192383 134 134 134
15.984859466553 5.514199733734 3.313995361328 97 97 97
15.984859466553 5.514199733734 3.285995483398 149 149 149
16.381185531616 5.263893604279 3.347991943359 147 147 147
16.460449218750 5.213832855225 3.339996337891 160 160 160
16.486869812012 5.197145462036 3.317001342773 162 162 162
16.513292312622 5.180458068848 3.297988891602 158 158 158
16.618978500366 5.113710403442 3.296997070313 150 150 150
16.618978500366 5.113710403442 3.279998779297 154 154 154
16.618978500366 5.113710403442 3.254989624023 156 156 156
16.618978500366 5.113710403442 3.233001708984 158 158 158
16.618978500366 5.113710403442 3.207000732422 157 157 157
16.618978500366 5.113710403442 3.182998657227 157 157 157
16.618978500366 5.113710403442 3.157989501953 157 157 157
16.618978500366 5.113710403442 3.132995605469 147 147 147
16.478525161743 5.183935165405 3.067993164063 143 143 143
16.478525161743 5.183935165405 3.041000366211 142 142 142
16.478525161743 5.183935165405 3.014999389648 148 148 148
16.478525161743 5.183935165405 2.990997314453 143 143 143
16.478525161743 5.183935165405 2.964996337891 146 146 146
16.513292312622 5.180458068848 2.940994262695 145 145 145
16.478525161743 5.183935165405 2.912994384766 143 143 143
16.478525161743 5.183935165405 2.886993408203 146 146 146
16.478525161743 5.183935165405 2.862991333008 144 144 144
16.496604919434 5.154036998749 2.836990356445 143 143 143
16.513292312622 5.180458068848 2.811996459961 140 140 140
16.478525161743 5.183935165405 2.782989501953 137 137 137
16.496604919434 5.154036998749 2.756988525391 140 140 140
16.496604919434 5.154036998749 2.733001708984 111 111 111
16.496604919434 5.154036998749 2.707000732422 113 113 113
16.496604919434 5.154036998749 2.677993774414 110 110 110
16.496604919434 5.154036998749 2.649002075195 113 113 113
16.169813156128 5.046262264252 3.345001220703 127 127 127
16.267156600952 4.966303348541 3.345001220703 132 132 132
16.407608032227 4.896079063416 3.348999023438 136 136 136
16.452106475830 4.849493503571 3.335998535156 153 153 153
16.452106475830 4.849493503571 3.315002441406 162 162 162
16.452106475830 4.849493503571 3.291000366211 160 160 160
16.452106475830 4.849493503571 3.266998291016 162 162 162
16.452106475830 4.849493503571 3.241989135742 163 163 163
16.539714813232 4.812642574310 3.238998413086 159 159 159
16.716325759888 4.682622909546 3.268997192383 161 161 161
16.751091003418 4.679146766663 3.254989624023 157 157 157
16.769166946411 4.649248600006 3.235000610352 151 151 151
16.777509689331 4.662459850311 3.218002319336 150 150 150
16.795589447021 4.632561206818 3.198989868164 147 147 147
16.795589447021 4.632561206818 3.175003051758 156 156 156
16.795589447021 4.632561206818 3.153991699219 159 159 159
16.795589447021 4.632561206818 3.138000488281 156 156 156
16.769166946411 4.649248600006 3.104995727539 191 191 191
16.760824203491 4.636037826538 3.082992553711 181 181 181
16.592559814453 4.779269695282 2.987991333008 175 175 175
16.486873626709 4.846017360687 2.925003051758 164 164 164
16.486873626709 4.846017360687 2.899993896484 162 162 162
16.486873626709 4.846017360687 2.875991821289 165 165 165
16.486873626709 4.846017360687 2.850997924805 165 165 165
16.486873626709 4.846017360687 2.825988769531 164 164 164
16.486873626709 4.846017360687 2.800994873047 163 163 163
16.486873626709 4.846017360687 2.772994995117 165 165 165
16.486873626709 4.846017360687 2.748992919922 164 164 164
16.470186233521 4.819595813751 2.725997924805 156 156 156
16.486873626709 4.846017360687 2.697998046875 162 162 162
16.470186233521 4.819595813751 2.673995971680 159 159 159
16.486873626709 4.846017360687 2.644989013672 149 149 149
16.267156600952 4.966303348541 2.494003295898 88 88 88
16.205968856812 4.986466884613 2.421997070313 84 84 84
16.205968856812 4.986466884613 2.392990112305 92 92 92
16.187892913818 5.016364097595 2.347991943359 105 105 105
16.153125762939 5.019840717316 2.306991577148 197 197 197
16.171203613281 4.989943027496 2.285995483398 145 145 145
16.232391357422 4.969779014587 2.289993286133 144 144 144
15.884044647217 4.857138156891 3.280990600586 154 154 154
15.884044647217 4.857138156891 3.254989624023 164 164 164
15.918809890747 4.853661060333 3.229995727539 163 163 163
15.884044647217 4.857138156891 3.198989868164 165 165 165
15.918809890747 4.853661060333 3.175003051758 163 163 163
15.884044647217 4.857138156891 3.145996093750 161 161 161
15.884044647217 4.857138156891 3.117996215820 123 123 123
16.817146301270 4.286300659180 3.302001953125 147 147 147
16.808803558350 4.273090362549 3.285995483398 150 150 150
16.843568801880 4.269613742828 3.268997192383 141 141 141
16.843568801880 4.269613742828 3.246994018555 133 133 133
16.808803558350 4.273090362549 3.223999023438 131 131 131
16.808803558350 4.273090362549 3.203002929688 120 120 120
16.843568801880 4.269613742828 3.182998657227 112 112 112
16.808803558350 4.273090362549 3.159988403320 113 113 113
16.808803558350 4.273090362549 3.138992309570 117 117 117
16.808803558350 4.273090362549 3.116989135742 123 123 123
16.817146301270 4.286300659180 3.093994140625 133 133 133
16.737880706787 4.336362361908 3.041992187500 231 231 231
15.791572570801 4.564414501190 3.311996459961 104 104 104
15.817993164063 4.547727108002 3.289001464844 161 161 161
15.844415664673 4.531039714813 3.270996093750 138 138 138
15.870838165283 4.514352798462 3.246002197266 145 145 145
15.870838165283 4.514352798462 3.222000122070 151 151 151
15.870838165283 4.514352798462 3.194000244141 150 150 150
15.870838165283 4.514352798462 3.169998168945 150 150 150
15.870838165283 4.514352798462 3.142990112305 153 153 153
15.870838165283 4.514352798462 3.116989135742 143 143 143
15.817993164063 4.547727108002 3.078002929688 157 157 157
16.174636840820 10.291631698608 3.283996582031 196 196 196
16.182981491089 10.304841995239 3.332992553711 221 221 221
16.182981491089 10.304841995239 3.381988525391 212 212 212
16.209402084351 10.288156509399 3.431991577148 161 161 161
16.235824584961 10.271469116211 3.481002807617 152 152 152
16.244167327881 10.284679412842 3.529998779297 137 137 137
16.171861648560 10.053141593933 3.276992797852 196 196 196
16.171861648560 10.053141593933 3.323989868164 223 223 223
16.171861648560 10.053141593933 3.371994018555 208 208 208
16.192026138306 9.763200759888 3.272994995117 215 215 215
16.208711624146 9.789623260498 3.319992065430 223 223 223
16.208711624146 9.789623260498 3.366989135742 208 208 208
16.180902481079 9.511500358582 3.233993530273 11 11 11
16.215667724609 9.508025169373 3.279998779297 223 223 223
16.215667724609 9.508025169373 3.325988769531 225 225 225
16.215667724609 9.508025169373 3.371002197266 209 209 209
16.209411621094 9.234770774841 3.246002197266 182 182 182
16.209411621094 9.234770774841 3.289993286133 223 223 223
16.209411621094 9.234770774841 3.334991455078 227 227 227
16.209411621094 9.234770774841 3.377990722656 165 165 165
16.294242858887 8.959430694580 3.259994506836 226 226 226
16.294242858887 8.959430694580 3.302001953125 227 227 227
16.294242858887 8.959430694580 3.347000122070 223 223 223
16.233055114746 8.979595184326 3.381988525391 102 102 102
16.291461944580 8.720942497253 3.220993041992 126 126 126
16.291461944580 8.720942497253 3.263000488281 226 226 226
16.296329498291 8.699388504028 3.304992675781 226 226 226
16.317882537842 8.704255104065 3.347991943359 221 221 221
16.192035675049 8.709815979004 3.375000000000 97 97 97
16.319971084595 8.444211959839 3.227996826172 201 201 201
16.319971084595 8.444211959839 3.267990112305 225 225 225
16.319971084595 8.444211959839 3.308990478516 226 226 226
16.319971084595 8.444211959839 3.348999023438 223 223 223
16.164222717285 8.431694030762 3.369003295898 131 131 131
16.343614578247 8.189034461975 3.201995849609 91 91 91
16.343614578247 8.189034461975 3.242996215820 227 227 227
16.343614578247 8.189034461975 3.282989501953 227 227 227
16.343614578247 8.189034461975 3.322998046875 223 223 223
16.244186401367 8.177908897400 3.343994140625 216 216 216
16.363779067993 7.899093627930 3.223999023438 223 223 223
16.398544311523 7.895617008209 3.263992309570 221 221 221
16.398544311523 7.895617008209 3.302993774414 221 221 221
16.363779067993 7.899093627930 3.339996337891 222 222 222
16.120422363281 7.923427104950 3.343002319336 201 201 201
16.422185897827 7.640440940857 3.205001831055 203 203 203
16.422185897827 7.640440940857 3.244003295898 223 223 223
16.422185897827 7.640440940857 3.280990600586 226 226 226
16.422185897827 7.640440940857 3.319992065430 224 224 224
16.175354003906 7.630009651184 3.321990966797 216 216 216
16.079404830933 7.653649330139 3.348999023438 158 158 158
16.424276351929 7.380398273468 3.177993774414 68 68 68
16.450696945190 7.363710880280 3.220001220703 226 226 226
16.450696945190 7.363710880280 3.255996704102 224 224 224
16.450696945190 7.363710880280 3.292999267578 225 225 225
16.424276351929 7.380398273468 3.328002929688 228 228 228
16.094701766968 7.385262012482 3.311996459961 213 213 213
16.059936523438 7.388738632202 3.349990844727 114 114 114
16.474338531494 7.108534336090 3.198989868164 217 217 217
16.474338531494 7.108534336090 3.235000610352 226 226 226
16.474338531494 7.108534336090 3.269989013672 227 227 227
16.439575195313 7.112011432648 3.304992675781 226 226 226
16.222639083862 7.119657993317 3.304000854492 232 232 232
16.053680419922 7.115484237671 3.313003540039 214 214 214
16.053680419922 7.115484237671 3.349990844727 16 16 16
16.494504928589 6.818592548370 3.184997558594 204 204 204
16.476428985596 6.848491191864 3.218994140625 224 224 224
16.494504928589 6.818592548370 3.253997802734 225 225 225
16.494504928589 6.818592548370 3.287002563477 225 225 225
16.468084335327 6.835279941559 3.317001342773 230 230 230
16.050901412964 6.876995563507 3.281997680664 226 226 226
16.050901412964 6.876995563507 3.319000244141 215 215 215
16.526491165161 6.576627731323 3.177993774414 208 208 208
16.526491165161 6.576627731323 3.211990356445 224 224 224
16.526491165161 6.576627731323 3.244995117188 223 223 223
16.526491165161 6.576627731323 3.277999877930 225 225 225
16.518150329590 6.563416481018 3.308990478516 226 226 226
16.036304473877 6.590529441833 3.257995605469 230 230 230
16.036304473877 6.590529441833 3.294998168945 217 217 217
16.036304473877 6.590529441833 3.328994750977 111 111 111
16.563344955444 6.313108444214 3.172988891602 215 215 215
16.563344955444 6.313108444214 3.205001831055 224 224 224
16.563344955444 6.313108444214 3.236999511719 223 223 223
16.563344955444 6.313108444214 3.269989013672 225 225 225
16.563344955444 6.313108444214 3.302001953125 224 224 224
16.025178909302 6.338829994202 3.237991333008 228 228 228
16.025178909302 6.338829994202 3.272003173828 217 217 217
15.990413665771 6.342306137085 3.306991577148 216 216 216
16.570301055908 6.031510353088 3.167999267578 219 219 219
16.570301055908 6.031510353088 3.200988769531 224 224 224
16.570301055908 6.031510353088 3.231002807617 224 224 224
16.570301055908 6.031510353088 3.263000488281 226 226 226
16.570301055908 6.031510353088 3.293991088867 224 224 224
16.010580062866 6.052364826202 3.216995239258 210 210 210
15.984159469604 6.069052219391 3.250991821289 227 227 227
16.010580062866 6.052364826202 3.287002563477 211 211 211
15.967472076416 6.042630195618 3.315994262695 99 99 99
16.602285385132 5.789545536041 3.140991210938 99 99 99
16.602285385132 5.789545536041 3.168991088867 222 222 222
16.602285385132 5.789545536041 3.198989868164 224 224 224
16.572385787964 5.771466732025 3.228988647461 224 224 224
16.572385787964 5.771466732025 3.259994506836 223 223 223
16.572385787964 5.771466732025 3.289993286133 222 222 222
15.981380462646 5.830563068390 3.201995849609 223 223 223
15.981380462646 5.830563068390 3.233993530273 217 217 217
15.981380462646 5.830563068390 3.266998291016 213 213 213
15.964691162109 5.804141521454 3.300003051758 203 203 203
16.604375839233 5.529501438141 3.142990112305 150 150 150
16.604375839233 5.529501438141 3.171997070313 166 166 166
16.604375839233 5.529501438141 3.199996948242 161 161 161
16.604375839233 5.529501438141 3.229995727539 166 166 166
16.596029281616 5.516290664673 3.257995605469 161 161 161
16.604375839233 5.529501438141 3.289993286133 163 163 163
15.940359115601 5.560785293579 3.179992675781 157 157 157
15.993204116821 5.527410507202 3.222000122070 181 181 181
15.966779708862 5.544097423553 3.251998901367 171 171 171
15.966779708862 5.544097423553 3.284988403320 181 181 181
15.958435058594 5.530886650085 3.313995361328 27 27 27
16.493822097778 5.266676425934 2.653991699219 149 149 149
16.493822097778 5.266676425934 2.684997558594 156 156 156
16.493822097778 5.266676425934 2.716003417969 155 155 155
16.493822097778 5.266676425934 2.744995117188 156 156 156
16.493822097778 5.266676425934 2.777999877930 157 157 157
16.493822097778 5.266676425934 2.808990478516 158 158 158
16.493822097778 5.266676425934 2.841003417969 159 159 159
16.493822097778 5.266676425934 2.869995117188 161 161 161
16.493822097778 5.266676425934 2.901000976563 164 164 164
16.493822097778 5.266676425934 2.930999755859 159 159 159
16.493822097778 5.266676425934 2.963989257813 161 161 161
16.493822097778 5.266676425934 2.992996215820 158 158 158
16.493822097778 5.266676425934 3.018997192383 158 158 158
16.493822097778 5.266676425934 3.050994873047 159 159 159
16.520244598389 5.249989032745 3.095001220703 160 160 160
16.619672775269 5.261114597321 3.142990112305 173 173 173
16.619672775269 5.261114597321 3.172988891602 163 163 163
16.619672775269 5.261114597321 3.203002929688 172 172 172
16.619672775269 5.261114597321 3.231002807617 172 172 172
16.619672775269 5.261114597321 3.259002685547 168 168 168
16.602985382080 5.234692573547 3.289001464844 167 167 167
16.485479354858 5.253465175629 3.287002563477 164 164 164
16.485479354858 5.253465175629 3.315994262695 167 167 167
16.450714111328 5.256941318512 3.336990356445 153 153 153
16.338075637817 5.254159450531 3.341995239258 112 112 112
16.121139526367 5.261805534363 3.335998535156 90 90 90
16.378404617310 5.025405406952 2.278991699219 169 169 169
16.378404617310 5.025405406952 2.315002441406 191 191 191
16.378404617310 5.025405406952 2.343994140625 196 196 196
16.378404617310 5.025405406952 2.377990722656 196 196 196
16.378404617310 5.025405406952 2.409988403320 200 200 200
16.378404617310 5.025405406952 2.440002441406 202 202 202
16.378404617310 5.025405406952 2.473999023438 196 196 196
16.378404617310 5.025405406952 2.505996704102 194 194 194
16.378404617310 5.025405406952 2.535995483398 188 188 188
16.370059967041 5.012193679810 2.567993164063 174 174 174
16.482700347900 5.014976501465 2.636001586914 150 150 150
16.509122848511 4.998289585114 2.669998168945 148 148 148
16.482700347900 5.014976501465 2.696990966797 152 152 152
16.482700347900 5.014976501465 2.728988647461 150 150 150
16.509122848511 4.998289585114 2.759994506836 152 152 152
16.482700347900 5.014976501465 2.787002563477 154 154 154
16.482700347900 5.014976501465 2.817993164063 157 157 157
16.474355697632 5.001765727997 2.848999023438 154 154 154
16.474355697632 5.001765727997 2.877990722656 155 155 155
16.474355697632 5.001765727997 2.907989501953 155 155 155
16.474355697632 5.001765727997 2.935989379883 157 157 157
16.474355697632 5.001765727997 2.966995239258 155 155 155
16.474355697632 5.001765727997 2.994995117188 158 158 158
16.474355697632 5.001765727997 3.024002075195 155 155 155
16.509122848511 4.998289585114 3.055999755859 155 155 155
16.656526565552 4.997594356537 3.128997802734 162 162 162
16.682947158813 4.980908393860 3.159988403320 157 157 157
16.682947158813 4.980908393860 3.184997558594 160 160 160
16.682947158813 4.980908393860 3.212997436523 159 159 159
16.682947158813 4.980908393860 3.239990234375 160 160 160
16.682947158813 4.980908393860 3.266998291016 160 160 160
16.613418579102 4.987860202789 3.287002563477 152 152 152
16.474355697632 5.001765727997 3.283996582031 166 166 166
16.474355697632 5.001765727997 3.311996459961 180 180 180
16.466012954712 4.988554954529 3.333999633789 165 165 165
16.379795074463 4.969085216522 3.343002319336 132 132 132
16.214313507080 4.999677181244 3.341995239258 132 132 132
16.741353988647 4.722255706787 3.106002807617 143 143 143
16.714935302734 4.738942623138 3.126998901367 173 173 173
16.714935302734 4.738942623138 3.152999877930 169 169 169
16.714935302734 4.738942623138 3.179000854492 166 166 166
16.714935302734 4.738942623138 3.205001831055 160 160 160
16.714935302734 4.738942623138 3.235000610352 169 169 169
16.714935302734 4.738942623138 3.261001586914 173 173 173
16.741353988647 4.722255706787 3.291000366211 58 58 58
15.852062225342 4.747974872589 3.098999023438 74 74 74
15.852062225342 4.747974872589 3.129989624023 169 169 169
15.852062225342 4.747974872589 3.160995483398 172 172 172
15.860404968262 4.761185646057 3.194000244141 163 163 163
15.852062225342 4.747974872589 3.223999023438 171 171 171
15.852062225342 4.747974872589 3.254989624023 172 172 172
15.852062225342 4.747974872589 3.280990600586 81 81 81
16.847738265991 4.451783657074 3.069000244141 164 164 164
16.856082916260 4.464994907379 3.097000122070 177 177 177
16.856082916260 4.464994907379 3.123001098633 179 179 179
16.856082916260 4.464994907379 3.149002075195 179 179 179
16.856082916260 4.464994907379 3.172988891602 176 176 176
16.856082916260 4.464994907379 3.195999145508 173 173 173
16.856082916260 4.464994907379 3.222991943359 178 178 178
16.856082916260 4.464994907379 3.248001098633 173 173 173
16.847738265991 4.451783657074 3.269989013672 173 173 173
16.856082916260 4.464994907379 3.296997070313 167 167 167
16.743444442749 4.462211608887 3.295989990234 163 163 163
15.854150772095 4.487931251526 3.093002319336 163 163 163
15.854150772095 4.487931251526 3.125991821289 174 174 174
15.880573272705 4.471243858337 3.157989501953 168 168 168
15.854150772095 4.487931251526 3.188003540039 167 167 167
15.854150772095 4.487931251526 3.216995239258 164 164 164
15.854150772095 4.487931251526 3.246002197266 163 163 163
15.827728271484 4.504618167877 3.270996093750 169 169 169
15.811040878296 4.478197097778 3.296997070313 152 152 152
15.808258056641 4.590836048126 3.088989257813 110 110 110
15.861103057861 4.557461738586 3.123992919922 136 136 136
15.861103057861 4.557461738586 3.152999877930 149 149 149
15.861103057861 4.557461738586 3.177001953125 148 148 148
15.861103057861 4.557461738586 3.203994750977 150 150 150
15.861103057861 4.557461738586 3.231002807617 151 151 151
15.834682464600 4.574149131775 3.253997802734 150 150 150
15.834682464600 4.574149131775 3.281997680664 145 145 145
15.808258056641 4.590836048126 3.302001953125 92 92 92
16.110713958740 4.806382656097 2.655990600586 147 147 147
16.110713958740 4.806382656097 2.685989379883 152 152 152
16.110713958740 4.806382656097 2.711990356445 154 154 154
16.110713958740 4.806382656097 2.737991333008 158 158 158
16.110713958740 4.806382656097 2.763992309570 159 159 159
16.110713958740 4.806382656097 2.791000366211 160 160 160
16.797677993774 4.372518539429 3.073989868164 163 163 163
16.824098587036 4.355831623077 3.103988647461 159 159 159
16.824098587036 4.355831623077 3.125991821289 157 157 157
16.824098587036 4.355831623077 3.147003173828 159 159 159
16.824098587036 4.355831623077 3.168991088867 160 160 160
16.824098587036 4.355831623077 3.188003540039 143 143 143
16.824098587036 4.355831623077 3.207000732422 149 149 149
16.824098587036 4.355831623077 3.231002807617 155 155 155
16.824098587036 4.355831623077 3.250991821289 155 155 155
16.824098587036 4.355831623077 3.269989013672 151 151 151
16.824098587036 4.355831623077 3.291000366211 152 152 152
16.824098587036 4.355831623077 3.310989379883 148 148 148
16.771255493164 4.389205932617 3.315994262695 142 142 142
16.084291458130 4.823069572449 3.152999877930 143 143 143
16.084291458130 4.823069572449 3.177001953125 151 151 151
16.084291458130 4.823069572449 3.198989868164 160 160 160
16.074558258057 4.866177558899 3.222000122070 165 165 165
16.057872772217 4.839755535126 3.246002197266 164 164 164
16.057872772217 4.839755535126 3.270996093750 166 166 166
16.066213607788 4.852966785431 3.294998168945 167 167 167
16.048135757446 4.882864475250 3.317001342773 155 155 155
16.413169860840 5.021928310394 2.279998779297 145 145 145
16.386747360229 5.038615703583 2.297988891602 154 154 154
16.360328674316 5.055302619934 2.317001342773 152 152 152
16.360328674316 5.055302619934 2.343002319336 163 163 163
16.360328674316 5.055302619934 2.373001098633 172 172 172
16.360328674316 5.055302619934 2.399993896484 175 175 175
16.360328674316 5.055302619934 2.427993774414 167 167 167
16.377014160156 5.081724643707 2.455001831055 171 171 171
16.360328674316 5.055302619934 2.483993530273 165 165 165
16.377014160156 5.081724643707 2.509994506836 171 171 171
16.377014160156 5.081724643707 2.539001464844 176 176 176
16.377014160156 5.081724643707 2.563003540039 168 168 168
16.377014160156 5.081724643707 2.593994140625 175 175 175
16.466012954712 4.988554954529 2.660995483398 144 144 144
16.466012954712 4.988554954529 2.688003540039 140 140 140
16.466012954712 4.988554954529 2.710998535156 131 131 131
16.466012954712 4.988554954529 2.739990234375 130 130 130
16.466012954712 4.988554954529 2.763000488281 139 139 139
16.466012954712 4.988554954529 2.787994384766 138 138 138
16.466012954712 4.988554954529 2.815994262695 141 141 141
16.466012954712 4.988554954529 2.841003417969 144 144 144
16.466012954712 4.988554954529 2.865997314453 144 144 144
16.466012954712 4.988554954529 2.890991210938 143 143 143
16.456279754639 5.031662940979 2.914993286133 142 142 142
16.466012954712 4.988554954529 2.942001342773 142 142 142
16.456279754639 5.031662940979 2.966003417969 142 142 142
16.456279754639 5.031662940979 2.989990234375 142 142 142
16.456279754639 5.031662940979 3.013992309570 139 139 139
16.561965942383 4.964914798737 3.067993164063 141 141 141
16.659309387207 4.884955883026 3.127990722656 129 129 129
16.632884979248 4.901643276215 3.143997192383 141 141 141
16.632884979248 4.901643276215 3.166000366211 139 139 139
16.632884979248 4.901643276215 3.188995361328 130 130 130
16.632884979248 4.901643276215 3.210998535156 130 130 130
16.632884979248 4.901643276215 3.233993530273 131 131 131
16.632884979248 4.901643276215 3.256988525391 142 142 142
16.659309387207 4.884955883026 3.284988403320 143 143 143
16.588384628296 4.948227882385 3.289001464844 137 137 137
16.456279754639 5.031662940979 3.284988403320 158 158 158
16.456279754639 5.031662940979 3.310989379883 151 151 151
16.456279754639 5.031662940979 3.334991455078 158 158 158
16.456279754639 5.031662940979 3.353988647461 151 151 151
16.350591659546 5.098412036896 3.356994628906 135 135 135
16.244905471802 5.165160179138 3.356994628906 135 135 135
16.059953689575 5.281970024109 3.345001220703 82 82 82
16.608549118042 5.360543251038 3.138000488281 50 50 50
16.573780059814 5.364018917084 3.158996582031 145 145 145
16.573780059814 5.364018917084 3.183990478516 149 149 149
16.573780059814 5.364018917084 3.208999633789 149 149 149
16.590469360352 5.390439987183 3.231002807617 154 154 154
16.590469360352 5.390439987183 3.255996704102 150 150 150
16.590469360352 5.390439987183 3.281997680664 152 152 152
16.590469360352 5.390439987183 3.306991577148 148 148 148
15.938270568848 5.820828914642 3.177993774414 199 199 199
15.964691162109 5.804141521454 3.214996337891 197 197 197
15.982769012451 5.774242877960 3.246002197266 180 180 180
15.964691162109 5.804141521454 3.272003173828 186 186 186
15.956348419189 5.790930271149 3.300003051758 208 208 208
15.964691162109 5.804141521454 3.326995849609 115 115 115
16.557786941528 5.836129665375 3.164001464844 148 148 148
16.557786941528 5.836129665375 3.186996459961 210 210 210
16.557786941528 5.836129665375 3.213989257813 211 211 211
16.557786941528 5.836129665375 3.240997314453 211 211 211
16.557786941528 5.836129665375 3.265991210938 210 210 210
16.557786941528 5.836129665375 3.292999267578 209 209 209
16.539709091187 5.866027355194 3.311996459961 228 228 228
15.976509094238 6.203245162964 3.220001220703 215 215 215
15.976509094238 6.203245162964 3.250000000000 216 216 216
15.976509094238 6.203245162964 3.280990600586 212 212 212
15.984853744507 6.216456413269 3.311996459961 201 201 201
15.984853744507 6.216456413269 3.341003417969 86 86 86
16.546657562256 6.286686897278 3.171997070313 91 91 91
16.546657562256 6.286686897278 3.199996948242 208 208 208
16.511894226074 6.290163040161 3.225997924805 211 211 211
16.546657562256 6.286686897278 3.254989624023 210 210 210
16.546657562256 6.286686897278 3.282989501953 211 211 211
16.546657562256 6.286686897278 3.310989379883 210 210 210
15.991804122925 6.637115001678 3.229995727539 199 199 199
16.018224716187 6.620427608490 3.263000488281 214 214 214
16.018224716187 6.620427608490 3.293991088867 214 214 214
16.026569366455 6.633638858795 3.324996948242 200 200 200
16.495897293091 6.762273788452 3.185989379883 119 119 119
16.487552642822 6.749063491821 3.216003417969 212 212 212
16.495897293091 6.762273788452 3.244995117188 210 210 210
16.495897293091 6.762273788452 3.274993896484 209 209 209
16.487552642822 6.749063491821 3.304000854492 208 208 208
16.495897293091 6.762273788452 3.330993652344 212 212 212
16.038385391235 7.032742977142 3.279998779297 216 216 216
16.038385391235 7.032742977142 3.310989379883 197 197 197
16.038385391235 7.032742977142 3.343002319336 194 194 194
16.436792373657 7.224649429321 3.208999633789 182 182 182
16.436792373657 7.224649429321 3.240997314453 206 206 206
16.436792373657 7.224649429321 3.270996093750 209 209 209
16.436792373657 7.224649429321 3.302001953125 207 207 207
16.436792373657 7.224649429321 3.332992553711 209 209 209
16.084964752197 7.428370952606 3.305999755859 216 216 216
16.075233459473 7.471479892731 3.332992553711 194 194 194
16.048809051514 7.488166332245 3.364990234375 98 98 98
16.369344711304 7.673815250397 3.208999633789 112 112 112
16.369344711304 7.673815250397 3.241989135742 207 207 207
16.377689361572 7.687026023865 3.274002075195 207 207 207
16.377689361572 7.687026023865 3.306991577148 207 207 207
16.377689361572 7.687026023865 3.338989257813 206 206 206
16.166315078735 7.820522785187 3.334991455078 194 194 194
16.087051391602 7.870584011078 3.358001708984 185 185 185
16.326927185059 8.162613868713 3.246994018555 209 209 209
16.326927185059 8.162613868713 3.282989501953 208 208 208
16.326927185059 8.162613868713 3.315994262695 208 208 208
16.326927185059 8.162613868713 3.350997924805 207 207 207
16.141975402832 8.279423713684 3.354995727539 196 196 196
16.089134216309 8.312797546387 3.384994506836 24 24 24
16.281034469604 8.616645812988 3.259002685547 201 201 201
16.281034469604 8.616645812988 3.294998168945 208 208 208
16.281034469604 8.616645812988 3.330993652344 205 205 205
16.281034469604 8.616645812988 3.365997314453 203 203 203
16.183689117432 8.696604728699 3.386001586914 119 119 119
16.246959686279 9.118654251099 3.272994995117 203 203 203
16.256692886353 9.075546264648 3.313003540039 206 206 206
16.265037536621 9.088757514954 3.349990844727 205 205 205
16.246959686279 9.118654251099 3.384994506836 184 184 184
16.187854766846 9.581031799316 3.289993286133 205 205 205
16.187854766846 9.581031799316 3.328994750977 207 207 207
16.187854766846 9.581031799316 3.367996215820 196 196 196
16.187854766846 9.581031799316 3.406997680664 119 119 119
16.146829605103 10.013510704041 3.277999877930 109 109 109
16.146829605103 10.013510704041 3.317001342773 204 204 204
16.146829605103 10.013510704041 3.358001708984 204 204 204
16.146829605103 10.013510704041 3.399002075195 182 182 182
16.130832672119 10.485620498657 3.304992675781 164 164 164
16.130832672119 10.485620498657 3.347000122070 182 182 182
16.148910522461 10.455721855164 3.390991210938 182 182 182
16.130832672119 10.485620498657 3.430999755859 61 61 61
15.730387687683 4.233449459076 3.095001220703 40 40 40
15.756809234619 4.216762065887 3.125991821289 40 40 40
15.730387687683 4.233449459076 3.151992797852 49 49 49
15.756809234619 4.216762065887 3.185989379883 60 60 60
15.756809234619 4.216762065887 3.216003417969 62 62 62
15.756809234619 4.216762065887 3.244995117188 63 63 63
15.756809234619 4.216762065887 3.274002075195 72 72 72
16.794895172119 4.485157012939 3.073989868164 128 128 128
16.794895172119 4.485157012939 3.097000122070 171 171 171
16.838005065918 4.494892120361 3.125000000000 169 169 169
16.838005065918 4.494892120361 3.151000976563 175 175 175
16.794895172119 4.485157012939 3.171997070313 174 174 174
16.794895172119 4.485157012939 3.196990966797 169 169 169
16.838005065918 4.494892120361 3.223999023438 169 169 169
16.794895172119 4.485157012939 3.246002197266 170 170 170
16.838005065918 4.494892120361 3.272003173828 170 170 170
16.794895172119 4.485157012939 3.294998168945 171 171 171
16.794895172119 4.485157012939 3.313995361328 145 145 145
15.791572570801 4.564414501190 3.072998046875 127 127 127
15.844415664673 4.531039714813 3.114990234375 160 160 160
15.844415664673 4.531039714813 3.147003173828 168 168 168
15.844415664673 4.531039714813 3.175994873047 164 164 164
15.844415664673 4.531039714813 3.205993652344 165 165 165
15.844415664673 4.531039714813 3.235000610352 169 169 169
15.844415664673 4.531039714813 3.265991210938 168 168 168
