18.616868972778 19.975635528564 63.561004638672 143 143 143
18.616270065308 19.967847824097 63.595001220703 223 223 223
18.616868972778 19.975635528564 63.632995605469 218 218 218
18.616868972778 19.975635528564 63.667999267578 221 221 221
18.584514617920 19.962455749512 63.697006225586 66 66 66
18.610284805298 20.297403335571 63.566009521484 180 180 180
18.610883712769 20.305192947388 63.602996826172 220 220 220
18.610883712769 20.305192947388 63.638000488281 219 219 219
18.610284805298 20.297403335571 63.673004150391 212 212 212
18.605497360229 20.642538070679 63.570999145508 206 206 206
18.606096267700 20.650325775146 63.608001708984 221 221 221
18.636056900024 20.632350921631 63.645004272461 219 219 219
18.604898452759 20.634748458862 63.676010131836 188 188 188
18.613891601563 20.955314636230 63.576995849609 218 218 218
18.630668640137 20.969696044922 63.613998413086 219 219 219
18.630668640137 20.969696044922 63.651000976563 221 221 221
18.598911285400 20.964303970337 63.680007934570 91 91 91
18.083475112915 13.450450897217 63.777999877930 58 58 58
18.172752380371 13.388732910156 63.766006469727 149 149 149
18.217092514038 13.353979110718 63.740005493164 140 140 140
18.217092514038 13.353979110718 63.706008911133 150 150 150
18.217092514038 13.353979110718 63.669998168945 143 143 143
18.232070922852 13.344991683960 63.634002685547 149 149 149
18.217092514038 13.353979110718 63.597000122070 150 150 150
18.202114105225 13.362966537476 63.555007934570 149 149 149
18.198524475098 13.723680496216 63.748001098633 42 42 42
18.212903976440 13.706901550293 63.714996337891 152 152 152
18.227884292603 13.697914123535 63.680007934570 153 153 153
18.227884292603 13.697914123535 63.643997192383 153 153 153
18.227884292603 13.697914123535 63.607009887695 154 154 154
18.196725845337 13.700311660767 63.569000244141 140 140 140
18.522687911987 13.863286972046 63.800003051758 93 93 93
18.627546310425 13.800369262695 63.794006347656 134 134 134
18.671886444092 13.765615463257 63.770996093750 141 141 141
18.671886444092 13.765615463257 63.740997314453 141 141 141
18.671886444092 13.765615463257 63.707000732422 144 144 144
18.671886444092 13.765615463257 63.673004150391 144 144 144
19.015218734741 13.543308258057 63.736999511719 161 161 161
19.179395675659 13.436651229858 63.757003784180 130 130 130
19.224332809448 13.409685134888 63.738998413086 170 170 170
19.239313125610 13.400697708130 63.710998535156 171 171 171
19.239313125610 13.400697708130 63.680999755859 170 170 170
19.239313125610 13.400697708130 63.652008056641 169 169 169
19.239313125610 13.400697708130 63.622009277344 168 168 168
19.239313125610 13.400697708130 63.594009399414 171 171 171
19.223733901978 13.401895523071 63.561996459961 171 171 171
19.223733901978 13.401895523071 63.531997680664 167 167 167
18.669488906860 13.734457015991 63.307998657227 151 151 151
18.669488906860 13.734457015991 63.273010253906 145 145 145
18.669488906860 13.734457015991 63.240005493164 144 144 144
18.683870315552 13.717679977417 63.208007812500 148 148 148
18.683870315552 13.717679977417 63.173004150391 146 146 146
18.683870315552 13.717679977417 63.138000488281 143 143 143
18.683870315552 13.717679977417 63.104995727539 151 151 151
18.518499374390 14.216209411621 63.776000976563 137 137 137
18.727615356445 14.082586288452 63.794006347656 114 114 114
18.847452163696 14.010681152344 63.790008544922 156 156 156
18.846254348755 13.995101928711 63.763000488281 167 167 167
18.847452163696 14.010681152344 63.729003906250 169 169 169
18.981071472168 13.914209365845 63.734008789063 133 133 133
18.996051788330 13.905220031738 63.710006713867 136 136 136
18.995450973511 13.897432327271 63.676010131836 140 140 140
18.981071472168 13.914209365845 63.643005371094 141 141 141
19.011030197144 13.896232604980 63.619003295898 127 127 127
19.011030197144 13.896232604980 63.587997436523 129 129 129
18.875614166260 13.969335556030 63.514999389648 164 164 164
18.845655441284 13.987312316895 63.473007202148 175 175 175
18.845655441284 13.987312316895 63.438995361328 180 180 180
18.845655441284 13.987312316895 63.406997680664 178 178 178
18.845655441284 13.987312316895 63.374008178711 181 181 181
18.845056533813 13.979522705078 63.341995239258 181 181 181
18.845056533813 13.979522705078 63.309005737305 177 177 177
18.845056533813 13.979522705078 63.279006958008 177 177 177
18.845056533813 13.979522705078 63.242004394531 176 176 176
18.845056533813 13.979522705078 63.208007812500 180 180 180
18.845056533813 13.979522705078 63.177001953125 177 177 177
18.845056533813 13.979522705078 63.143005371094 164 164 164
18.845056533813 13.979522705078 63.107009887695 155 155 155
18.813299179077 13.974130630493 63.065002441406 173 173 173
18.634141921997 14.089778900146 62.837005615234 177 177 177
18.365715026855 14.674592971802 63.740005493164 126 126 126
18.364517211914 14.659015655518 63.707000732422 166 166 166
18.394475936890 14.641038894653 63.680007934570 204 204 204
18.394475936890 14.641038894653 63.645004272461 207 207 207
18.363916397095 14.651226043701 63.604003906250 181 181 181
18.978080749512 14.282712936401 63.735000610352 148 148 148
18.961902618408 14.276121139526 63.703002929688 148 148 148
18.961902618408 14.276121139526 63.671997070313 147 147 147
18.961902618408 14.276121139526 63.639007568359 149 149 149
18.976284027100 14.259344100952 63.611007690430 148 148 148
18.976284027100 14.259344100952 63.580001831055 136 136 136
18.375907897949 15.010740280151 63.718002319336 187 187 187
18.390287399292 14.993963241577 63.684005737305 209 209 209
18.390287399292 14.993963241577 63.648010253906 209 209 209
18.390287399292 14.993963241577 63.613998413086 201 201 201
18.958913803101 14.644622802734 63.734008789063 204 204 204
18.958913803101 14.644622802734 63.703002929688 212 212 212
18.958913803101 14.644622802734 63.671997070313 213 213 213
18.957715988159 14.629043579102 63.641006469727 212 212 212
18.958913803101 14.644622802734 63.608001708984 212 212 212
18.957715988159 14.629043579102 63.579010009766 125 125 125
18.385499954224 15.339097976685 63.733001708984 149 149 149
18.385499954224 15.339097976685 63.697998046875 184 184 184
18.385499954224 15.339097976685 63.663009643555 209 209 209
18.416059494019 15.328910827637 63.628997802734 214 214 214
18.924167633057 15.007734298706 63.733001708984 212 212 212
18.923566818237 14.999944686890 63.705001831055 213 213 213
18.923566818237 14.999944686890 63.673004150391 208 208 208
18.938547134399 14.990957260132 63.643005371094 212 212 212
18.938547134399 14.990957260132 63.611007690430 212 212 212
18.938547134399 14.990957260132 63.580001831055 114 114 114
18.426849365234 15.672845840454 63.718002319336 183 183 183
18.426849365234 15.672845840454 63.682998657227 157 157 157
18.441829681396 15.663858413696 63.654006958008 133 133 133
18.905000686646 15.369646072388 63.740005493164 188 188 188
18.919981002808 15.360658645630 63.710998535156 215 215 215
18.919981002808 15.360658645630 63.679000854492 210 210 210
18.919981002808 15.360658645630 63.648010253906 211 211 211
18.919981002808 15.360658645630 63.615997314453 213 213 213
18.918781280518 15.345079421997 63.587005615234 130 130 130
18.438240051270 16.024570465088 63.731002807617 102 102 102
18.452621459961 16.007793426514 63.699996948242 185 185 185
18.452621459961 16.007793426514 63.664001464844 209 209 209
18.780975341797 15.794475555420 63.714996337891 226 226 226
18.885831832886 15.731557846069 63.710998535156 207 207 207
18.900812149048 15.722570419312 63.680007934570 193 193 193
18.900812149048 15.722570419312 63.649002075195 197 197 197
18.885232925415 15.723768234253 63.613998413086 211 211 211
18.915191650391 15.705791473389 63.589004516602 151 151 151
18.478391647339 16.342741012573 63.710006713867 195 195 195
18.478391647339 16.342741012573 63.676010131836 212 212 212
18.791765213013 16.138410568237 63.723007202148 223 223 223
18.852285385132 16.110248565674 63.707000732422 201 201 201
18.866664886475 16.093469619751 63.675003051758 180 180 180
18.866664886475 16.093469619751 63.643005371094 201 201 201
18.866664886475 16.093469619751 63.611007690430 209 209 209
18.821725845337 16.120435714722 63.567001342773 46 46 46
18.489782333374 16.694465637207 63.719009399414 182 182 182
18.520341873169 16.684278488159 63.686996459961 195 195 195
18.803155899048 16.490137100220 63.725006103516 211 211 211
18.818136215210 16.481147766113 63.701995849609 208 208 208
18.817537307739 16.473358154297 63.667999267578 199 199 199
18.817537307739 16.473358154297 63.636001586914 210 210 210
18.817537307739 16.473358154297 63.602005004883 202 202 202
18.501174926758 17.046192169189 63.729003906250 32 32 32
18.531133651733 17.028215408325 63.701004028320 187 187 187
18.739648818970 16.886802673340 63.719009399414 215 215 215
18.784589767456 16.859836578369 63.699005126953 204 204 204
18.783988952637 16.852046966553 63.665008544922 197 197 197
18.798969268799 16.843059539795 63.635009765625 209 209 209
18.798969268799 16.843059539795 63.600997924805 200 200 200
18.541324615479 17.364360809326 63.719009399414 149 149 149
18.630605697632 17.302640914917 63.706008911133 193 193 193
18.765420913696 17.221750259399 63.706008911133 204 204 204
18.779800415039 17.204971313477 63.673004150391 180 180 180
18.779800415039 17.204971313477 63.639999389648 179 179 179
18.749242782593 17.215158462524 63.602005004883 203 203 203
18.657575607300 17.653169631958 63.822998046875 133 133 133
18.656375885010 17.637590408325 63.790008544922 101 101 101
18.656375885010 17.637590408325 63.755996704102 141 141 141
18.686334609985 17.619615554810 63.729003906250 157 157 157
18.746253967285 17.583662033081 63.706008911133 204 204 204
18.745655059814 17.575872421265 63.673995971680 188 188 188
18.745655059814 17.575872421265 63.641006469727 193 193 193
18.745655059814 17.575872421265 63.606002807617 204 204 204
18.621627807617 18.000701904297 63.718002319336 132 132 132
18.711505889893 17.946773529053 63.705001831055 210 210 210
18.712705612183 17.962350845337 63.669006347656 210 210 210
18.711505889893 17.946773529053 63.637008666992 206 206 206
18.711505889893 17.946773529053 63.602005004883 214 214 214
18.697126388550 17.963548660278 63.563995361328 90 90 90
18.634218215942 18.368005752563 63.723999023438 72 72 72
18.647998809814 18.343437194824 63.695007324219 212 212 212
18.647998809814 18.343437194824 63.660995483398 212 212 212
18.647399902344 18.335647583008 63.625000000000 212 212 212
18.647399902344 18.335647583008 63.589996337891 203 203 203
18.644409179688 18.704151153564 63.699996948242 202 202 202
18.643810272217 18.696361541748 63.667007446289 209 209 209
18.643810272217 18.696361541748 63.632003784180 213 213 213
18.643810272217 18.696361541748 63.597000122070 213 213 213
18.640222549438 19.057075500488 63.706008911133 148 148 148
18.655801773071 19.055877685547 63.675003051758 208 208 208
18.655801773071 19.055877685547 63.641006469727 211 211 211
18.655801773071 19.055877685547 63.607009887695 211 211 211
18.639623641968 19.049285888672 63.570999145508 140 140 140
18.651014328003 19.401012420654 63.684997558594 209 209 209
18.651014328003 19.401012420654 63.650009155273 209 209 209
18.665395736694 19.384233474731 63.617004394531 213 213 213
18.665395736694 19.384233474731 63.583007812500 195 195 195
18.646825790405 19.753934860229 63.694000244141 161 161 161
18.661806106567 19.744947433472 63.660995483398 213 213 213
18.661806106567 19.744947433472 63.626007080078 210 210 210
18.661806106567 19.744947433472 63.589004516602 212 212 212
18.627656936646 20.115846633911 63.699005126953 96 96 96
18.658216476440 20.105659484863 63.667999267578 208 208 208
18.657617568970 20.097869873047 63.632995605469 208 208 208
18.642038345337 20.099067687988 63.597000122070 208 208 208
18.642038345337 20.099067687988 63.559997558594 110 110 110
18.654027938843 20.458583831787 63.677001953125 198 198 198
18.653429031372 20.450794219971 63.641998291016 212 212 212
18.654027938843 20.458583831787 63.606002807617 209 209 209
18.653429031372 20.450794219971 63.570999145508 179 179 179
18.650440216064 20.819297790527 63.680999755859 165 165 165
18.650440216064 20.819297790527 63.647003173828 208 208 208
18.650440216064 20.819297790527 63.610000610352 210 210 210
18.650440216064 20.819297790527 63.574005126953 196 196 196
18.648042678833 20.788139343262 63.733001708984 79 79 79
18.631864547729 20.781547546387 63.701004028320 220 220 220
18.631864547729 20.781547546387 63.671005249023 220 220 220
18.631864547729 20.781547546387 63.639007568359 218 218 218
18.648042678833 20.788139343262 63.611007690430 183 183 183
18.609689712524 20.493337631226 63.733001708984 79 79 79
18.625268936157 20.492139816284 63.706008911133 218 218 218
18.625268936157 20.492139816284 63.676010131836 217 217 217
18.625268936157 20.492139816284 63.643997192383 221 221 221
18.625268936157 20.492139816284 63.613006591797 201 201 201
18.618072509766 20.194940567017 63.740997314453 31 31 31
18.633050918579 20.185953140259 63.714004516602 215 215 215
18.633050918579 20.185953140259 63.682006835938 217 217 217
18.633050918579 20.185953140259 63.651000976563 221 221 221
18.633050918579 20.185953140259 63.620010375977 218 218 218
18.627054214478 19.904331207275 63.738998413086 143 143 143
18.627054214478 19.904331207275 63.710998535156 219 219 219
18.627054214478 19.904331207275 63.678009033203 221 221 221
18.627054214478 19.904331207275 63.649002075195 218 218 218
18.627054214478 19.904331207275 63.617996215820 199 199 199
18.621656417847 19.630502700806 63.751998901367 91 91 91
18.622257232666 19.638292312622 63.723007202148 219 219 219
18.621656417847 19.630502700806 63.692001342773 218 218 218
18.621656417847 19.630502700806 63.662002563477 217 217 217
18.622257232666 19.638292312622 63.632995605469 212 212 212
18.631839752197 19.355472564697 63.734008789063 214 214 214
18.616859436035 19.364461898804 63.701004028320 224 224 224
18.631839752197 19.355472564697 63.671005249023 221 221 221
18.616859436035 19.364461898804 63.639999389648 219 219 219
18.648017883301 19.362064361572 63.613998413086 99 99 99
18.610862731934 19.082841873169 63.750000000000 121 121 121
18.626441955566 19.081644058228 63.720001220703 223 223 223
18.640821456909 19.064865112305 63.691009521484 221 221 221
18.641422271729 19.072654724121 63.663009643555 218 218 218
18.641422271729 19.072654724121 63.632003784180 215 215 215
18.619245529175 18.784442901611 63.751998901367 110 110 110
18.634225845337 18.775455474854 63.723999023438 218 218 218
18.619245529175 18.784442901611 63.693008422852 223 223 223
18.634225845337 18.775455474854 63.664001464844 221 221 221
18.634225845337 18.775455474854 63.632995605469 220 220 220
18.649803161621 18.774255752563 63.608001708984 74 74 74
18.628227233887 18.493835449219 63.757003784180 137 137 137
18.627628326416 18.486045837402 63.725997924805 221 221 221
18.627628326416 18.486045837402 63.695007324219 223 223 223
18.642608642578 18.477058410645 63.666000366211 219 219 219
18.626430511475 18.470466613770 63.636001586914 223 223 223
18.658786773682 18.483650207520 63.613006591797 78 78 78
18.636013031006 18.187648773193 63.747009277344 212 212 212
18.636013031006 18.187648773193 63.716995239258 223 223 223
18.620433807373 18.188848495483 63.686004638672 222 222 222
18.636611938477 18.195438385010 63.658996582031 218 218 218
18.636611938477 18.195438385010 63.630004882813 208 208 208
18.678550720215 17.925802230835 63.766006469727 178 178 178
18.678550720215 17.925802230835 63.736999511719 219 219 219
18.692930221558 17.909023284912 63.708999633789 216 216 216
18.692930221558 17.909023284912 63.680007934570 212 212 212
18.662372589111 17.919210433960 63.647003173828 224 224 224
18.709108352661 17.915615081787 63.624008178711 137 137 137
18.625816345215 17.647777557373 63.766998291016 168 168 168
18.704311370850 17.649572372437 63.753005981445 213 213 213
18.704311370850 17.649572372437 63.723999023438 209 209 209
18.704311370850 17.649572372437 63.695007324219 213 213 213
18.718690872192 17.632795333862 63.666000366211 208 208 208
18.704311370850 17.649572372437 63.635009765625 205 205 205
18.573083877563 17.369752883911 63.748001098633 200 200 200
18.728872299194 17.357767105103 63.749008178711 217 217 217
18.760030746460 17.355369567871 63.723007202148 198 198 198
18.760030746460 17.355369567871 63.694000244141 199 199 199
18.728872299194 17.357767105103 63.660995483398 218 218 218
18.728872299194 17.357767105103 63.632003784180 202 202 202
18.519149780273 17.076150894165 63.740997314453 197 197 197
18.737255096436 17.059370040894 63.753997802734 214 214 214
18.769012451172 17.064762115479 63.727996826172 218 218 218
18.768413543701 17.056972503662 63.701004028320 203 203 203
18.768413543701 17.056972503662 63.669998168945 212 212 212
18.752834320068 17.058172225952 63.639999389648 215 215 215
18.769012451172 17.064762115479 63.615997314453 56 56 56
18.496974945068 16.787939071655 63.768005371094 139 139 139
18.527534484863 16.777751922607 63.742004394531 187 187 187
18.776798248291 16.758573532104 63.760009765625 213 213 213
18.777397155762 16.766363143921 63.734008789063 212 212 212
18.776798248291 16.758573532104 63.703002929688 167 167 167
18.776798248291 16.758573532104 63.675003051758 214 214 214
18.776798248291 16.758573532104 63.645004272461 216 216 216
18.776197433472 16.750783920288 63.613998413086 67 67 67
18.474800109863 16.499729156494 63.781997680664 60 60 60
18.459222793579 16.500928878784 63.751007080078 203 203 203
18.661748886108 16.485345840454 63.757995605469 216 216 216
18.802556991577 16.482347488403 63.755004882813 216 216 216
18.818136215210 16.481147766113 63.727996826172 213 213 213
18.816938400269 16.465568542480 63.699996948242 212 212 212
18.802556991577 16.482347488403 63.669998168945 219 219 219
18.802556991577 16.482347488403 63.641006469727 206 206 206
18.438245773315 16.228296279907 63.757003784180 207 207 207
18.485580444336 16.232488632202 63.732009887695 215 215 215
18.812738418579 16.207317352295 63.768997192383 216 216 216
18.827718734741 16.198329925537 63.742996215820 208 208 208
18.843896865845 16.204919815063 63.716003417969 201 201 201
18.827718734741 16.198329925537 63.684997558594 216 216 216
18.827718734741 16.198329925537 63.656997680664 219 219 219
18.827718734741 16.198329925537 63.630004882813 120 120 120
18.416669845581 15.947875976563 63.766998291016 189 189 189
18.432846069336 15.954465866089 63.738998413086 199 199 199
18.682109832764 15.935287475586 63.757995605469 229 229 229
18.837900161743 15.923299789429 63.759002685547 218 218 218
18.854078292847 15.929891586304 63.732009887695 218 218 218
18.837900161743 15.923299789429 63.703002929688 218 218 218
18.869056701660 15.920902252197 63.676010131836 216 216 216
18.869056701660 15.920902252197 63.648010253906 218 218 218
18.410072326660 15.658466339111 63.757003784180 197 197 197
18.410671234131 15.666255950928 63.729003906250 181 181 181
18.831903457642 15.641679763794 63.779998779297 202 202 202
18.878040313721 15.630294799805 63.761001586914 218 218 218
18.847480773926 15.640481948853 63.729003906250 223 223 223
18.877441406250 15.622505187988 63.703002929688 217 217 217
18.878040313721 15.630294799805 63.677001953125 215 215 215
18.878040313721 15.630294799805 63.649002075195 217 217 217
18.878040313721 15.630294799805 63.622009277344 71 71 71
18.387296676636 15.362464904785 63.755996704102 202 202 202
18.387296676636 15.362464904785 63.725006103516 214 214 214
18.402875900269 15.361267089844 63.699005126953 212 212 212
18.887023925781 15.339687347412 63.764007568359 223 223 223
18.887023925781 15.339687347412 63.736999511719 224 224 224
18.885824203491 15.324108123779 63.712005615234 218 218 218
18.887023925781 15.339687347412 63.680999755859 222 222 222
18.885824203491 15.324108123779 63.656997680664 220 220 220
18.902004241943 15.330699920654 63.630004882813 180 180 180
18.348346710205 15.059875488281 63.781005859375 72 72 72
18.364522933960 15.066465377808 63.751998901367 197 197 197
18.365121841431 15.074254989624 63.723007202148 213 213 213
18.380102157593 15.065265655518 63.694000244141 202 202 202
18.894807815552 15.033500671387 63.768997192383 217 217 217
18.910985946655 15.040090560913 63.742996215820 220 220 220
18.910985946655 15.040090560913 63.716003417969 220 220 220
18.894807815552 15.033500671387 63.686004638672 223 223 223
18.910985946655 15.040090560913 63.660003662109 219 219 219
18.910985946655 15.040090560913 63.632995605469 209 209 209
18.342947006226 14.786043167114 63.768997192383 183 183 183
18.342947006226 14.786043167114 63.738998413086 193 193 193
18.342947006226 14.786043167114 63.707000732422 217 217 217
18.311191558838 14.780652999878 63.671005249023 206 206 206
18.936147689819 14.756072998047 63.766006469727 217 217 217
18.936147689819 14.756072998047 63.738006591797 223 223 223
18.936147689819 14.756072998047 63.710998535156 218 218 218
18.936147689819 14.756072998047 63.682998657227 220 220 220
18.936147689819 14.756072998047 63.656997680664 221 221 221
18.936147689819 14.756072998047 63.628005981445 198 198 198
18.321969985962 14.513412475586 63.777999877930 161 161 161
18.321969985962 14.513412475586 63.748001098633 171 171 171
18.321969985962 14.513412475586 63.716995239258 173 173 173
18.321969985962 14.513412475586 63.686996459961 171 171 171
18.946928024292 14.488834381104 63.781997680664 168 168 168
18.946329116821 14.481044769287 63.753997802734 167 167 167
18.946329116821 14.481044769287 63.725997924805 174 174 174
18.946329116821 14.481044769287 63.699005126953 169 169 169
18.946329116821 14.481044769287 63.673004150391 173 173 173
18.946329116821 14.481044769287 63.645004272461 175 175 175
18.961309432983 14.472057342529 63.617996215820 119 119 119
18.300994873047 14.240779876709 63.789001464844 83 83 83
18.316574096680 14.239582061768 63.761001586914 177 177 177
18.332752227783 14.246171951294 63.731002807617 171 171 171
18.331552505493 14.230592727661 63.699996948242 180 180 180
18.286016464233 14.249769210815 63.662002563477 181 181 181
18.971488952637 14.197027206421 63.772003173828 176 176 176
18.957107543945 14.213806152344 63.742996215820 177 177 177
18.955909729004 14.198226928711 63.716003417969 168 168 168
18.955909729004 14.198226928711 63.688995361328 167 167 167
18.955909729004 14.198226928711 63.662002563477 174 174 174
18.955909729004 14.198226928711 63.635009765625 169 169 169
18.971488952637 14.197027206421 63.609008789063 116 116 116
18.830080032349 14.192235946655 63.514999389648 52 52 52
18.830080032349 14.192235946655 63.486007690430 73 73 73
18.800121307373 14.210212707520 63.455001831055 105 105 105
18.830080032349 14.192235946655 63.429000854492 113 113 113
18.800121307373 14.210212707520 63.398010253906 121 121 121
18.799522399902 14.202423095703 63.367996215820 132 132 132
18.830080032349 14.192235946655 63.343002319336 133 133 133
18.799522399902 14.202423095703 63.304000854492 188 188 188
18.814500808716 14.193435668945 63.281997680664 172 172 172
18.813901901245 14.185646057129 63.251007080078 167 167 167
18.830080032349 14.192235946655 63.225997924805 161 161 161
18.814500808716 14.193435668945 63.194000244141 159 159 159
18.830080032349 14.192235946655 63.171005249023 161 161 161
18.830080032349 14.192235946655 63.137008666992 163 163 163
18.813901901245 14.185646057129 63.098999023438 120 120 120
18.590999603271 13.936386108398 63.835006713867 103 103 103
18.715629577637 13.926795959473 63.832000732422 110 110 110
18.825281143188 13.926195144653 63.824005126953 162 162 162
18.839662551880 13.909418106079 63.798995971680 176 176 176
18.840860366821 13.924997329712 63.770996093750 178 178 178
18.964893341064 13.907617568970 63.770996093750 152 152 152
18.996650695801 13.913009643555 63.748001098633 161 161 161
18.981071472168 13.914209365845 63.720001220703 155 155 155
18.965492248535 13.915407180786 63.688995361328 174 174 174
18.981071472168 13.914209365845 63.666000366211 158 158 158
18.995450973511 13.897432327271 63.641006469727 154 154 154
18.964292526245 13.899829864502 63.608001708984 158 158 158
18.839662551880 13.909418106079 63.548004150391 181 181 181
18.839662551880 13.909418106079 63.516998291016 180 180 180
18.839662551880 13.909418106079 63.490005493164 179 179 179
18.823482513428 13.902828216553 63.460006713867 180 180 180
18.839662551880 13.909418106079 63.432006835938 179 179 179
18.839662551880 13.909418106079 63.404998779297 180 180 180
18.839662551880 13.909418106079 63.374008178711 182 182 182
18.839662551880 13.909418106079 63.348999023438 178 178 178
18.839662551880 13.909418106079 63.317001342773 179 179 179
18.823482513428 13.902828216553 63.285995483398 179 179 179
18.839662551880 13.909418106079 63.260009765625 176 176 176
18.839662551880 13.909418106079 63.229995727539 176 176 176
18.823482513428 13.902828216553 63.199005126953 178 178 178
18.839662551880 13.909418106079 63.171005249023 177 177 177
18.823482513428 13.902828216553 63.139999389648 179 179 179
18.807905197144 13.904026031494 63.100006103516 168 168 168
18.713830947876 13.903429031372 63.040008544922 150 150 150
18.713830947876 13.903429031372 63.009002685547 147 147 147
18.729410171509 13.902229309082 62.981002807617 151 151 151
18.713830947876 13.903429031372 62.945999145508 150 150 150
18.713830947876 13.903429031372 62.914001464844 151 151 151
18.713830947876 13.903429031372 62.884002685547 146 146 146
18.713830947876 13.903429031372 62.854003906250 148 148 148
18.193729400635 13.661363601685 63.770996093750 157 157 157
18.193729400635 13.661363601685 63.740005493164 179 179 179
18.193729400635 13.661363601685 63.708999633789 178 178 178
18.193130493164 13.653573989868 63.679000854492 179 179 179
18.193130493164 13.653573989868 63.647003173828 179 179 179
18.193130493164 13.653573989868 63.615005493164 166 166 166
19.067949295044 13.617607116699 63.773010253906 126 126 126
19.067350387573 13.609819412231 63.744003295898 170 170 170
19.067350387573 13.609819412231 63.716995239258 179 179 179
19.067350387573 13.609819412231 63.690002441406 174 174 174
19.051170349121 13.603227615356 63.662002563477 174 174 174
19.067350387573 13.609819412231 63.637008666992 175 175 175
19.067350387573 13.609819412231 63.611007690430 173 173 173
19.097908020020 13.599632263184 63.593002319336 94 94 94
18.092462539673 13.363567352295 63.815002441406 119 119 119
18.139797210693 13.367761611938 63.794006347656 173 173 173
18.202114105225 13.362966537476 63.772003173828 171 171 171
18.202114105225 13.362966537476 63.742004394531 183 183 183
18.202114105225 13.362966537476 63.708999633789 184 184 184
18.200914382935 13.347389221191 63.680007934570 181 181 181
18.200914382935 13.347389221191 63.649002075195 187 187 187
18.154176712036 13.350984573364 63.606002807617 142 142 142
19.169206619263 13.304229736328 63.796997070313 134 134 134
19.201564788818 13.317411422729 63.781997680664 175 175 175
19.201564788818 13.317411422729 63.755996704102 179 179 179
19.201564788818 13.317411422729 63.729995727539 183 183 183
19.215942382813 13.300632476807 63.706008911133 179 179 179
19.201564788818 13.317411422729 63.676010131836 184 184 184
19.201564788818 13.317411422729 63.652008056641 181 181 181
19.201564788818 13.317411422729 63.626007080078 185 185 185
19.215942382813 13.300632476807 63.602005004883 179 179 179
19.215942382813 13.300632476807 63.574005126953 180 180 180
19.200963973999 13.309621810913 63.544006347656 37 37 37
18.628271102905 20.938537597656 63.695999145508 208 208 208
18.627672195435 20.930747985840 63.658004760742 210 210 210
18.627672195435 20.930747985840 63.622009277344 206 206 206
18.636056900024 20.632350921631 63.723007202148 182 182 182
18.636056900024 20.632350921631 63.686996459961 210 210 210
18.636056900024 20.632350921631 63.650009155273 211 211 211
18.636056900024 20.632350921631 63.615005493164 188 188 188
18.615678787231 20.367507934570 63.732009887695 159 159 159
18.630659103394 20.358518600464 63.697998046875 209 209 209
18.630659103394 20.358518600464 63.663009643555 207 207 207
18.630659103394 20.358518600464 63.628005981445 207 207 207
18.625259399414 20.084690093994 63.740997314453 105 105 105
18.625259399414 20.084690093994 63.710006713867 209 209 209
18.625259399414 20.084690093994 63.675003051758 208 208 208
18.625259399414 20.084690093994 63.639999389648 207 207 207
18.624660491943 20.076900482178 63.602996826172 92 92 92
18.634243011475 19.794080734253 63.733001708984 163 163 163
18.633045196533 19.778501510620 63.701004028320 211 211 211
18.633045196533 19.778501510620 63.667007446289 211 211 211
18.633045196533 19.778501510620 63.630004882813 210 210 210
18.641427993774 19.480104446411 63.735000610352 171 171 171
18.640829086304 19.472314834595 63.703002929688 211 211 211
18.641427993774 19.480104446411 63.666000366211 210 210 210
18.640230178833 19.464525222778 63.632995605469 211 211 211
18.610868453979 19.490291595459 63.589004516602 21 21 21
18.633033752441 19.167327880859 63.736999511719 195 195 195
18.633033752441 19.167327880859 63.701995849609 213 213 213
18.647415161133 19.150548934937 63.669006347656 206 206 206
18.633033752441 19.167327880859 63.632995605469 210 210 210
18.612058639526 18.894695281982 63.753997802734 132 132 132
18.625839233398 18.870126724243 63.723007202148 210 210 210
18.625839233398 18.870126724243 63.688995361328 209 209 209
18.625839233398 18.870126724243 63.656005859375 202 202 202
18.625839233398 18.870126724243 63.621002197266 175 175 175
18.620441436768 18.596298217773 63.736999511719 210 210 210
18.620441436768 18.596298217773 63.703002929688 209 209 209
18.620441436768 18.596298217773 63.667999267578 213 213 213
18.635419845581 18.587308883667 63.635009765625 203 203 203
18.615041732788 18.322465896606 63.751998901367 179 179 179
18.645601272583 18.312278747559 63.722000122070 213 213 213
18.615041732788 18.322465896606 63.684005737305 211 211 211
18.645601272583 18.312278747559 63.651000976563 210 210 210
18.629423141479 18.305688858032 63.615005493164 149 149 149
18.594665527344 18.057624816895 63.768997192383 30 30 30
18.683944702148 17.995906829834 63.755004882813 179 179 179
18.683345794678 17.988117218018 63.723007202148 208 208 208
18.683345794678 17.988117218018 63.690002441406 210 210 210
18.697725296021 17.971338272095 63.658996582031 211 211 211
18.697725296021 17.971338272095 63.624008178711 187 187 187
18.571290969849 17.753833770752 63.762008666992 42 42 42
18.675550460815 17.683128356934 63.757003784180 184 184 184
18.720489501953 17.656164169312 63.733001708984 188 188 188
18.720489501953 17.656164169312 63.697006225586 204 204 204
18.720489501953 17.656164169312 63.663009643555 201 201 201
18.720489501953 17.656164169312 63.630004882813 193 193 193
18.518558502197 17.475811004639 63.788009643555 56 56 56
18.548517227173 17.457834243774 63.757995605469 150 150 150
18.636598587036 17.380537033081 63.749008178711 199 199 199
18.742654800415 17.333198547363 63.738006591797 206 206 206
18.742654800415 17.333198547363 63.706008911133 186 186 186
18.742654800415 17.333198547363 63.673004150391 191 191 191
18.726476669312 17.326608657837 63.635009765625 201 201 201
18.526342391968 17.169624328613 63.745010375977 192 192 192
18.721677780151 17.060567855835 63.760009765625 209 209 209
18.750436782837 17.027013778687 63.736999511719 211 211 211
18.765417098999 17.018024444580 63.705001831055 164 164 164
18.764818191528 17.010234832764 63.671997070313 209 209 209
18.750436782837 17.027013778687 63.636001586914 195 195 195
18.507164001465 16.920360565186 63.755996704102 185 185 185
18.535924911499 16.886804580688 63.733001708984 209 209 209
18.776197433472 16.750783920288 63.757003784180 202 202 202
18.790578842163 16.734006881714 63.725997924805 186 186 186
18.790578842163 16.734006881714 63.692001342773 180 180 180
18.774400711060 16.727416992188 63.658996582031 206 206 206
18.775598526001 16.742994308472 63.624008178711 122 122 122
18.486785888672 16.655517578125 63.764999389648 152 152 152
18.485588073730 16.639940261841 63.732009887695 185 185 185
18.725860595703 16.503919601440 63.757003784180 220 220 220
18.814540863037 16.434410095215 63.748001098633 208 208 208
18.815738677979 16.449989318848 63.712997436523 160 160 160
18.814540863037 16.434410095215 63.684005737305 204 204 204
18.814540863037 16.434410095215 63.648010253906 206 206 206
18.464611053467 16.367307662964 63.753005981445 190 190 190
18.464012145996 16.359518051147 63.719009399414 205 205 205
18.718067169189 16.198930740356 63.748001098633 224 224 224
18.852285385132 16.110248565674 63.749008178711 201 201 201
18.852285385132 16.110248565674 63.718002319336 196 196 196
18.852285385132 16.110248565674 63.684005737305 191 191 191
18.836105346680 16.103656768799 63.650009155273 202 202 202
18.836105346680 16.103656768799 63.617004394531 110 110 110
18.425659179688 16.064716339111 63.751998901367 196 196 196
18.425659179688 16.064716339111 63.716995239258 205 205 205
18.470598220825 16.037752151489 63.690002441406 219 219 219
18.859468460083 15.796272277832 63.761001586914 211 211 211
18.858869552612 15.788482666016 63.727996826172 213 213 213
18.873249053955 15.771703720093 63.697998046875 210 210 210
18.873249053955 15.771703720093 63.667007446289 210 210 210
18.888828277588 15.770505905151 63.637008666992 202 202 202
18.418462753296 15.767518997192 63.751998901367 188 188 188
18.403484344482 15.776506423950 63.716003417969 214 214 214
18.432844161987 15.750740051270 63.684997558594 218 218 218
18.881032943726 15.465517044067 63.770004272461 206 206 206
18.897212982178 15.472106933594 63.740997314453 214 214 214
18.897212982178 15.472106933594 63.708999633789 210 210 210
18.896013259888 15.456529617310 63.678009033203 209 209 209
18.896013259888 15.456529617310 63.647003173828 210 210 210
18.381908416748 15.496086120605 63.770004272461 169 169 169
18.381908416748 15.496086120605 63.735000610352 194 194 194
18.396886825562 15.487096786499 63.701004028320 212 212 212
18.396886825562 15.487096786499 63.667007446289 215 215 215
18.904996871948 15.165922164917 63.768005371094 209 209 209
18.904996871948 15.165922164917 63.736007690430 212 212 212
18.904996871948 15.165922164917 63.706008911133 211 211 211
18.904996871948 15.165922164917 63.673995971680 212 212 212
18.904397964478 15.158132553101 63.641998291016 209 209 209
18.362730026245 15.246822357178 63.777008056641 142 142 142
18.377109527588 15.230043411255 63.742004394531 188 188 188
18.377109527588 15.230043411255 63.707000732422 210 210 210
18.377109527588 15.230043411255 63.673004150391 211 211 211
18.870239257813 14.917856216431 63.770996093750 231 231 231
18.930156707764 14.881904602051 63.753997802734 212 212 212
18.914577484131 14.883102416992 63.721008300781 208 208 208
18.944538116455 14.865125656128 63.693008422852 213 213 213
18.928958892822 14.866325378418 63.660003662109 211 211 211
18.928958892822 14.866325378418 63.628005981445 175 175 175
18.356132507324 14.957412719727 63.755004882813 184 184 184
18.356132507324 14.957412719727 63.721008300781 210 210 210
18.356132507324 14.957412719727 63.684997558594 191 191 191
18.370513916016 14.940635681152 63.651000976563 209 209 209
18.922962188721 14.584705352783 63.772003173828 209 209 209
18.939140319824 14.591295242310 63.742004394531 210 210 210
18.922962188721 14.584705352783 63.710006713867 211 211 211
18.937940597534 14.575716018677 63.679000854492 213 213 213
18.937940597534 14.575716018677 63.647003173828 209 209 209
18.937940597534 14.575716018677 63.619003295898 135 135 135
18.335155487061 14.684780120850 63.779998779297 57 57 57
18.348337173462 14.652423858643 63.749008178711 175 175 175
18.378297805786 14.634447097778 63.721008300781 197 197 197
18.378297805786 14.634447097778 63.686004638672 208 208 208
18.363317489624 14.643436431885 63.645004272461 183 183 183
18.961902618408 14.276121139526 63.776000976563 139 139 139
18.961902618408 14.276121139526 63.747009277344 147 147 147
18.961303710938 14.268331527710 63.712997436523 146 146 146
18.961303710938 14.268331527710 63.682006835938 147 147 147
18.961303710938 14.268331527710 63.652008056641 148 148 148
18.961303710938 14.268331527710 63.619003295898 139 139 139
18.311182022095 14.373201370239 63.783004760742 70 70 70
18.550857543945 14.229391098022 63.805999755859 148 148 148
18.789932250977 14.077791213989 63.832000732422 119 119 119
18.849849700928 14.041839599609 63.813995361328 167 167 167
18.849849700928 14.041839599609 63.781005859375 171 171 171
18.938528060913 13.972332000732 63.776000976563 140 140 140
18.967889785767 13.946565628052 63.757003784180 149 149 149
18.968488693237 13.954355239868 63.723007202148 153 153 153
18.968488693237 13.954355239868 63.690002441406 152 152 152
18.968488693237 13.954355239868 63.658996582031 151 151 151
18.967290878296 13.938776016235 63.630004882813 157 157 157
18.937330245972 13.956752777100 63.589996337891 157 157 157
18.848052978516 14.018470764160 63.531997680664 153 153 153
18.848651885986 14.026260375977 63.494003295898 165 165 165
18.848651885986 14.026260375977 63.460998535156 176 176 176
18.848651885986 14.026260375977 63.427001953125 174 174 174
18.832473754883 14.019670486450 63.391006469727 183 183 183
18.832473754883 14.019670486450 63.361007690430 179 179 179
18.846853256226 14.002891540527 63.330001831055 177 177 177
18.846853256226 14.002891540527 63.296005249023 177 177 177
18.816896438599 14.020868301392 63.259002685547 179 179 179
18.831274032593 14.004091262817 63.229995727539 183 183 183
18.831274032593 14.004091262817 63.197006225586 162 162 162
18.831274032593 14.004091262817 63.160003662109 156 156 156
18.815097808838 13.997499465942 63.126007080078 153 153 153
18.528081893921 13.933391571045 63.833999633789 108 108 108
18.692859649658 13.834522247314 63.839996337891 109 109 109
18.767158508301 13.781791687012 63.831008911133 140 140 140
18.812694549561 13.762617111206 63.805999755859 157 157 157
18.812694549561 13.762617111206 63.775009155273 155 155 155
18.796518325806 13.756025314331 63.742996215820 156 156 156
18.841455459595 13.729061126709 63.723007202148 152 152 152
19.081130981445 13.585250854492 63.757003784180 154 154 154
19.185987472534 13.522335052490 63.760009765625 164 164 164
19.185987472534 13.522335052490 63.729995727539 162 162 162
19.184789657593 13.506755828857 63.701995849609 162 162 162
19.184789657593 13.506755828857 63.673995971680 164 164 164
19.214748382568 13.488779067993 63.650009155273 161 161 161
19.214748382568 13.488779067993 63.620010375977 165 165 165
19.214748382568 13.488779067993 63.589996337891 166 166 166
19.154829025269 13.524732589722 63.542999267578 162 162 162
18.794719696045 13.732658386230 63.382995605469 155 155 155
18.794120788574 13.724868774414 63.352005004883 157 157 157
18.794719696045 13.732658386230 63.317001342773 155 155 155
18.794120788574 13.724868774414 63.287002563477 158 158 158
18.794120788574 13.724868774414 63.253997802734 157 157 157
18.794120788574 13.724868774414 63.216995239258 156 156 156
18.794120788574 13.724868774414 63.186004638672 157 157 157
18.794120788574 13.724868774414 63.150009155273 156 156 156
18.808500289917 13.708089828491 63.120010375977 137 137 137
18.253652572632 13.829137802124 63.783004760742 136 136 136
18.267431259155 13.804569244385 63.751007080078 180 180 180
18.268630981445 13.820148468018 63.712997436523 175 175 175
18.268630981445 13.820148468018 63.678009033203 175 175 175
18.267431259155 13.804569244385 63.643997192383 176 176 176
18.252454757690 13.813558578491 63.604995727539 90 90 90
19.090114593506 13.294643402100 63.805999755859 74 74 74
19.150032043457 13.258691787720 63.794998168945 131 131 131
19.209949493408 13.222738265991 63.781997680664 162 162 162
19.209949493408 13.222738265991 63.753005981445 165 165 165
19.193773269653 13.216148376465 63.720001220703 169 169 169
19.224328994751 13.205961227417 63.693008422852 162 162 162
19.193773269653 13.216148376465 63.662002563477 162 162 162
19.208150863647 13.199369430542 63.635009765625 167 167 167
19.208150863647 13.199369430542 63.604003906250 170 170 170
19.208150863647 13.199369430542 63.572998046875 162 162 162
18.187736511230 13.583469390869 63.775009155273 136 136 136
18.188335418701 13.591259002686 63.740997314453 146 146 146
18.187736511230 13.583469390869 63.705001831055 140 140 140
18.187736511230 13.583469390869 63.669006347656 142 142 142
18.186536788940 13.567890167236 63.632995605469 141 141 141
18.187137603760 13.575679779053 63.594009399414 20 20 20
18.092462539673 13.363567352295 63.805007934570 125 125 125
18.167358398438 13.318626403809 63.785995483398 149 149 149
18.181739807129 13.301849365234 63.757003784180 144 144 144
18.196720123291 13.292861938477 63.723999023438 146 146 146
18.196720123291 13.292861938477 63.686996459961 147 147 147
18.196720123291 13.292861938477 63.651000976563 147 147 147
18.196720123291 13.292861938477 63.615997314453 146 146 146
18.166160583496 13.303047180176 63.568008422852 120 120 120
18.613288879395 20.743801116943 63.617004394531 216 216 216
18.613288879395 20.743801116943 63.652008056641 221 221 221
18.613288879395 20.743801116943 63.688995361328 223 223 223
18.596509933472 20.729419708252 63.719009399414 129 129 129
18.621671676636 20.445402145386 63.615005493164 214 214 214
18.637250900269 20.444202423096 63.652008056641 220 220 220
18.621671676636 20.445402145386 63.686996459961 220 220 220
18.621671676636 20.445402145386 63.722000122070 184 184 184
18.631853103638 20.170373916626 63.610000610352 197 197 197
18.631853103638 20.170373916626 63.645996093750 222 222 222
18.631853103638 20.170373916626 63.682006835938 217 217 217
18.631853103638 20.170373916626 63.718002319336 208 208 208
18.627054214478 19.904331207275 63.632995605469 220 220 220
18.627054214478 19.904331207275 63.669006347656 216 216 216
18.642034530640 19.895343780518 63.704010009766 219 219 219
18.610876083374 19.897741317749 63.736999511719 147 147 147
18.637836456299 19.637094497681 63.613998413086 184 184 184
18.622257232666 19.638292312622 63.649002075195 222 222 222
18.637836456299 19.637094497681 63.684997558594 218 218 218
18.637836456299 19.637094497681 63.720001220703 218 218 218
18.621057510376 19.622713088989 63.750000000000 21 21 21
18.633037567139 19.371051788330 63.600997924805 80 80 80
18.633037567139 19.371051788330 63.637008666992 221 221 221
18.633037567139 19.371051788330 63.671005249023 220 220 220
18.632438659668 19.363262176514 63.705001831055 219 219 219
18.632438659668 19.363262176514 63.740005493164 162 162 162
18.626441955566 19.081644058228 63.594009399414 43 43 43
18.643218994141 19.096021652222 63.632995605469 219 219 219
18.643218994141 19.096021652222 63.669006347656 217 217 217
18.643218994141 19.096021652222 63.703002929688 221 221 221
18.627040863037 19.089431762695 63.736007690430 188 188 188
18.619245529175 18.784442901611 63.593002319336 38 38 38
18.635425567627 18.791034698486 63.634002685547 220 220 220
18.619245529175 18.784442901611 63.666000366211 220 220 220
18.619846343994 18.792232513428 63.703002929688 221 221 221
18.619846343994 18.792232513428 63.738006591797 198 198 198
18.629426956177 18.509414672852 63.630004882813 219 219 219
18.630025863647 18.517204284668 63.665008544922 220 220 220
18.629426956177 18.509414672852 63.699005126953 220 220 220
18.629426956177 18.509414672852 63.733001708984 218 218 218
18.625226974487 18.251163482666 63.611999511719 153 153 153
18.625226974487 18.251163482666 63.648010253906 220 220 220
18.625226974487 18.251163482666 63.682998657227 221 221 221
18.625226974487 18.251163482666 63.716995239258 221 221 221
18.624628067017 18.243373870850 63.751007080078 188 188 188
18.700721740723 18.010286331177 63.611007690430 100 100 100
18.685144424438 18.011486053467 63.643005371094 209 209 209
18.684545516968 18.003696441650 63.677001953125 220 220 220
18.685144424438 18.011486053467 63.712005615234 218 218 218
18.684545516968 18.003696441650 63.745010375977 212 212 212
18.588071823120 17.971939086914 63.761001586914 112 112 112
18.696523666382 17.752035140991 63.635009765625 221 221 221
18.696523666382 17.752035140991 63.667999267578 219 219 219
18.696523666382 17.752035140991 63.703002929688 220 220 220
18.695323944092 17.736457824707 63.736999511719 221 221 221
18.630611419678 17.710094451904 63.755004882813 175 175 175
18.722284317017 17.475807189941 63.639007568359 218 218 218
18.738462448120 17.482398986816 63.673995971680 205 205 205
18.738462448120 17.482398986816 63.708999633789 195 195 195
18.722284317017 17.475807189941 63.740997314453 217 217 217
18.574281692505 17.385332107544 63.740005493164 191 191 191
18.732465744019 17.200777053833 63.610000610352 82 82 82
18.748641967773 17.207368850708 63.647003173828 218 218 218
18.747444152832 17.191789627075 63.680999755859 182 182 182
18.747444152832 17.191789627075 63.714004516602 198 198 198
18.747444152832 17.191789627075 63.747009277344 220 220 220
18.535327911377 17.082742691040 63.735000610352 191 191 191
18.519149780273 17.076150894165 63.764999389648 84 84 84
18.742046356201 16.917961120605 63.607009887695 79 79 79
18.757625579834 16.916761398315 63.648010253906 219 219 219
18.773803710938 16.923353195190 63.682998657227 213 213 213
18.757625579834 16.916761398315 63.714004516602 206 206 206
18.757625579834 16.916761398315 63.748001098633 217 217 217
18.562887191772 16.829881668091 63.738006591797 197 197 197
18.496974945068 16.787939071655 63.755004882813 181 181 181
18.785783767700 16.671691894531 63.638000488281 215 215 215
18.785783767700 16.671691894531 63.673004150391 216 216 216
18.800764083862 16.662702560425 63.707000732422 186 186 186
18.800764083862 16.662702560425 63.738006591797 219 219 219
18.736648559570 16.644128799438 63.762008666992 224 224 224
18.474800109863 16.499729156494 63.736007690430 194 194 194
18.459222793579 16.500928878784 63.768997192383 117 117 117
18.813341140747 16.418830871582 63.628997802734 144 144 144
18.812143325806 16.403251647949 63.658996582031 220 220 220
18.812143325806 16.403251647949 63.693008422852 183 183 183
18.812742233276 16.411041259766 63.727005004883 189 189 189
18.812143325806 16.403251647949 63.759002685547 219 219 219
18.503557205200 16.262449264526 63.723999023438 219 219 219
18.453823089600 16.227096557617 63.746002197266 195 195 195
18.422067642212 16.221704483032 63.777008056641 66 66 66
18.840900421143 16.165973663330 63.622009277344 123 123 123
18.824722290039 16.159383773804 63.654006958008 219 219 219
18.855880737305 16.156986236572 63.688003540039 220 220 220
18.839702606201 16.150394439697 63.719009399414 192 192 192
18.824123382568 16.151594161987 63.751007080078 219 219 219
18.644365310669 16.055725097656 63.740997314453 228 228 228
18.432846069336 15.954465866089 63.727005004883 201 201 201
18.416669845581 15.947875976563 63.761001586914 188 188 188
18.866659164429 15.889745712280 63.624008178711 172 172 172
18.850482940674 15.883153915405 63.656005859375 221 221 221
18.850482940674 15.883153915405 63.688003540039 222 222 222
18.850482940674 15.883153915405 63.721008300781 222 222 222
18.850482940674 15.883153915405 63.753005981445 222 222 222
18.768991470337 15.842411041260 63.766006469727 158 158 158
18.409473419189 15.650676727295 63.716003417969 162 162 162
18.393896102905 15.651874542236 63.750000000000 197 197 197
18.876842498779 15.614715576172 63.628005981445 190 190 190
18.876842498779 15.614715576172 63.660003662109 216 216 216
18.876842498779 15.614715576172 63.693008422852 218 218 218
18.876842498779 15.614715576172 63.725006103516 206 206 206
18.875642776489 15.599136352539 63.757003784180 220 220 220
18.386098861694 15.346885681152 63.673004150391 213 213 213
18.386098861694 15.346885681152 63.708999633789 213 213 213
18.386098861694 15.346885681152 63.745010375977 195 195 195
18.885824203491 15.324108123779 63.626007080078 188 188 188
18.885824203491 15.324108123779 63.658996582031 221 221 221
18.885824203491 15.324108123779 63.692001342773 220 220 220
