23.657587051392 12.655252456665 3.395999908447 179 179 179
23.720285415649 12.686105728149 3.455997467041 196 196 196
23.782981872559 12.716958999634 3.620998382568 205 205 205
23.971073150635 12.809516906738 3.706996917725 211 211 211
23.939725875854 12.794090270996 3.735000610352 214 214 214
23.735910415649 12.686006546021 3.708999633789 202 202 202
23.782981872559 12.716958999634 3.761997222900 206 206 206
23.798606872559 12.716859817505 3.798000335693 158 158 158
23.798606872559 12.716859817505 3.834999084473 155 155 155
23.798606872559 12.716859817505 3.867000579834 156 156 156
23.798606872559 12.716859817505 3.902000427246 157 157 157
23.798606872559 12.716859817505 3.934001922607 151 151 151
23.735910415649 12.686006546021 3.952999114990 172 172 172
23.673110961914 12.639528274536 3.969997406006 190 190 190
23.641862869263 12.639726638794 3.998996734619 154 154 154
23.516368865967 12.562397003174 4.003002166748 116 116 116
23.343902587891 12.469739913940 4.004001617432 70 70 70
23.718399047852 12.389236450195 3.363998413086 181 181 181
23.702674865723 12.373710632324 3.398998260498 182 182 182
23.718399047852 12.389236450195 3.435997009277 181 181 181
23.702674865723 12.373710632324 3.541000366211 183 183 183
23.702674865723 12.373710632324 3.574996948242 182 182 182
23.702674865723 12.373710632324 3.614997863770 177 177 177
23.687049865723 12.373809814453 3.645999908447 180 180 180
23.702674865723 12.373710632324 3.683998107910 180 180 180
23.687049865723 12.373809814453 3.716999053955 178 178 178
23.796819686890 12.435615539551 3.785999298096 148 148 148
23.796819686890 12.435615539551 3.821998596191 157 157 157
23.796819686890 12.435615539551 3.854999542236 155 155 155
23.812444686890 12.435516357422 3.888999938965 154 154 154
23.796819686890 12.435615539551 3.923999786377 157 157 157
23.765371322632 12.404563903809 3.947002410889 160 160 160
23.686950683594 12.358184814453 3.959995269775 183 183 183
23.655603408813 12.342760086060 3.989002227783 178 178 178
23.467512130737 12.250202178955 3.980998992920 153 153 153
23.044057846069 12.002883911133 3.917995452881 136 136 136
22.981361389160 11.972032546997 3.945995330811 129 129 129
23.888980865479 12.185024261475 3.761997222900 150 150 150
23.904705047607 12.200550079346 3.802997589111 163 163 163
23.904705047607 12.200550079346 3.833999633789 171 171 171
23.904705047607 12.200550079346 3.868999481201 176 176 176
23.904705047607 12.200550079346 3.900997161865 170 170 170
23.904705047607 12.200550079346 3.937000274658 171 171 171
22.979576110840 11.690788269043 3.729000091553 128 128 128
23.042272567749 11.721639633179 3.786998748779 146 146 146
23.042272567749 11.721639633179 3.826000213623 122 122 122
23.042272567749 11.721639633179 3.862998962402 143 143 143
23.042272567749 11.721639633179 3.902999877930 146 146 146
23.010824203491 11.690589904785 3.931995391846 152 152 152
22.963851928711 11.675264358521 3.961002349854 20 20 20
24.012689590454 11.981109619141 3.745998382568 166 166 166
24.028314590454 11.981010437012 3.784999847412 164 164 164
24.028314590454 11.981010437012 3.819000244141 163 163 163
24.028314590454 11.981010437012 3.849998474121 164 164 164
24.044036865234 11.996536254883 3.883998870850 161 161 161
24.028314590454 11.981010437012 3.915996551514 161 161 161
24.028314590454 11.981010437012 3.947002410889 165 165 165
24.028314590454 11.981010437012 3.980998992920 144 144 144
24.042152404785 11.699666976929 3.767997741699 160 160 160
24.042152404785 11.699666976929 3.801998138428 171 171 171
24.042152404785 11.699666976929 3.835998535156 167 167 167
24.057876586914 11.715192794800 3.872997283936 154 154 154
24.026529312134 11.699766159058 3.897998809814 170 170 170
24.042152404785 11.699666976929 3.930995941162 157 157 157
24.026529312134 11.699766159058 3.962001800537 152 152 152
24.010805130005 11.684240341187 3.991001129150 78 78 78
23.426486968994 18.094329833984 3.949001312256 200 200 200
23.442111968994 18.094230651855 3.914997100830 200 200 200
23.426486968994 18.094329833984 3.875999450684 198 198 198
23.426486968994 18.094329833984 3.837997436523 202 202 202
23.409078598022 17.813186645508 3.965000152588 25 25 25
23.440326690674 17.812988281250 3.936000823975 217 217 217
23.455852508545 17.797264099121 3.898998260498 199 199 199
23.455852508545 17.797264099121 3.861999511719 209 209 209
23.440326690674 17.812988281250 3.823997497559 126 126 126
23.422817230225 17.516216278076 3.956996917725 190 190 190
23.453968048096 17.500392913818 3.922000885010 221 221 221
23.453968048096 17.500392913818 3.886997222900 205 205 205
23.453968048096 17.500392913818 3.848999023438 221 221 221
23.452180862427 17.219150543213 3.945995330811 224 224 224
23.452081680298 17.203525543213 3.910999298096 196 196 196
23.452180862427 17.219150543213 3.874000549316 195 195 195
23.452180862427 17.219150543213 3.834999084473 197 197 197
23.450197219849 16.906656265259 3.962001800537 195 195 195
23.481447219849 16.906457901001 3.930995941162 221 221 221
23.481447219849 16.906457901001 3.892997741699 189 189 189
23.481447219849 16.906457901001 3.855998992920 220 220 220
23.432786941528 16.625511169434 3.972995758057 38 38 38
23.463937759399 16.609687805176 3.940998077393 213 213 213
23.463937759399 16.609687805176 3.904998779297 177 177 177
23.463937759399 16.609687805176 3.868000030518 199 199 199
23.479661941528 16.625213623047 3.830997467041 195 195 195
23.477678298950 16.312719345093 3.965000152588 190 190 190
23.524452209473 16.296798706055 3.937999725342 227 227 227
23.524353027344 16.281173706055 3.902999877930 221 221 221
23.524353027344 16.281173706055 3.865997314453 218 218 218
23.524353027344 16.281173706055 3.830997467041 213 213 213
23.398067474365 16.078845977783 3.967998504639 174 174 174
23.522468566895 15.984303474426 3.963001251221 209 209 209
23.537994384766 15.968579292297 3.929996490479 228 228 228
23.537994384766 15.968579292297 3.892997741699 227 227 227
23.538093566895 15.984204292297 3.855998992920 230 230 230
23.537994384766 15.968579292297 3.820999145508 161 161 161
23.505256652832 15.734407424927 4.153995513916 71 71 71
23.536308288574 15.702960014343 4.128002166748 115 115 115
23.567359924316 15.671512603760 4.101001739502 98 98 98
23.567359924316 15.671512603760 4.065998077393 120 120 120
23.567359924316 15.671512603760 4.028995513916 128 128 128
23.551834106445 15.687235832214 3.989002227783 142 142 142
23.567459106445 15.687136650085 3.953998565674 225 225 225
23.567359924316 15.671512603760 3.921001434326 227 227 227
23.567359924316 15.671512603760 3.884998321533 226 226 226
23.567359924316 15.671512603760 3.848999023438 224 224 224
23.363246917725 15.516554832458 3.961002349854 208 208 208
23.440973281860 15.453559875488 3.942996978760 230 230 230
23.612249374390 15.358719825745 3.943996429443 231 231 231
23.612348556519 15.374344825745 3.905998229980 230 230 230
23.612249374390 15.358719825745 3.871997833252 229 229 229
23.612249374390 15.358719825745 3.836997985840 220 220 220
23.330211639404 15.235508918762 3.967998504639 195 195 195
23.345737457275 15.219784736633 3.931995391846 228 228 228
23.625989913940 15.061752319336 3.964000701904 225 225 225
23.625989913940 15.061752319336 3.927997589111 230 230 230
23.641614913940 15.061653137207 3.893997192383 227 227 227
23.641614913940 15.061653137207 3.856998443604 228 228 228
23.641614913940 15.061653137207 3.820999145508 168 168 168
23.328424453735 14.954264640808 3.979999542236 135 135 135
23.328424453735 14.954264640808 3.942996978760 217 217 217
23.359575271606 14.938441276550 3.913997650146 233 233 233
23.655254364014 14.749059677124 3.949001312256 230 230 230
23.655155181885 14.733435630798 3.915996551514 230 230 230
23.655155181885 14.733435630798 3.879997253418 230 230 230
23.686403274536 14.733237266541 3.845996856689 227 227 227
23.279766082764 14.673317909241 3.957996368408 216 216 216
23.311014175415 14.673119544983 3.922000885010 232 232 232
23.513341903687 14.546832084656 3.937999725342 238 238 238
23.684518814087 14.436367988586 3.943996429443 228 228 228
23.700143814087 14.436268806458 3.909999847412 231 231 231
23.700143814087 14.436268806458 3.874000549316 229 229 229
23.700143814087 14.436268806458 3.838996887207 227 227 227
23.262454986572 14.407796859741 3.977001190186 174 174 174
23.262454986572 14.407796859741 3.938999176025 217 217 217
23.262454986572 14.407796859741 3.902999877930 230 230 230
23.682733535767 14.155123710632 3.965999603271 238 238 238
23.713884353638 14.139300346375 3.936000823975 231 231 231
23.713884353638 14.139300346375 3.900997161865 230 230 230
23.713884353638 14.139300346375 3.865997314453 229 229 229
23.729410171509 14.123576164246 3.833999633789 218 218 218
23.245044708252 14.126651763916 3.952999114990 203 203 203
23.245044708252 14.126651763916 3.914997100830 165 165 165
23.727525711060 13.826707839966 3.959995269775 230 230 230
23.727525711060 13.826707839966 3.923999786377 232 232 232
23.727525711060 13.826707839966 3.888999938965 229 229 229
23.727525711060 13.826707839966 3.854000091553 229 229 229
23.743150711060 13.826608657837 3.822998046875 170 170 170
23.227634429932 13.845506668091 3.966999053955 206 206 206
23.227634429932 13.845506668091 3.926998138428 226 226 226
23.227634429932 13.845506668091 3.888999938965 227 227 227
23.663440704346 13.577108383179 3.958995819092 19 19 19
23.772514343262 13.529541015625 3.947002410889 230 230 230
23.772514343262 13.529541015625 3.910999298096 230 230 230
23.772514343262 13.529541015625 3.875000000000 230 230 230
23.772514343262 13.529541015625 3.842998504639 227 227 227
23.194700241089 13.580083847046 3.977001190186 103 103 103
23.210224151611 13.564361572266 3.940998077393 210 210 210
23.210224151611 13.564361572266 3.902999877930 231 231 231
23.210224151611 13.564361572266 3.864997863770 229 229 229
23.770629882813 13.232671737671 3.965999603271 228 228 228
23.786155700684 13.216947555542 3.935001373291 227 227 227
23.786155700684 13.216947555542 3.898998260498 227 227 227
23.786155700684 13.216947555542 3.862998962402 231 231 231
23.786155700684 13.216947555542 3.830997467041 222 222 222
23.957332611084 13.106483459473 3.680000305176 28 28 28
23.177190780640 13.283315658569 3.957996368408 205 205 205
23.192815780640 13.283216476440 3.921001434326 227 227 227
23.177190780640 13.283315658569 3.881000518799 230 230 230
23.753221511841 12.951526641846 3.979999542236 142 142 142
23.799797058105 12.904356002808 3.957996368408 155 155 155
23.799797058105 12.904356002808 3.923999786377 152 152 152
23.799797058105 12.904356002808 3.888999938965 153 153 153
23.799797058105 12.904356002808 3.854000091553 149 149 149
23.799797058105 12.904356002808 3.819999694824 149 149 149
23.519742965698 13.093637466431 3.702999114990 157 157 157
23.550893783569 13.077814102173 3.670997619629 169 169 169
23.893346786499 12.872510910034 3.739997863770 186 186 186
23.893346786499 12.872510910034 3.704998016357 170 170 170
23.862195968628 12.888334274292 3.659000396729 168 168 168
23.831047058105 12.904157638550 3.617000579834 143 143 143
23.161664962769 13.299037933350 3.836997985840 172 172 172
23.191030502319 13.001972198486 3.979000091553 89 89 89
23.191030502319 13.001972198486 3.940998077393 164 164 164
23.191030502319 13.001972198486 3.904998779297 160 160 160
23.191030502319 13.001972198486 3.868000030518 172 172 172
23.798009872437 12.623111724854 3.979999542236 150 150 150
23.813634872437 12.623012542725 3.949001312256 158 158 158
23.813634872437 12.623012542725 3.914997100830 161 161 161
23.813634872437 12.623012542725 3.877998352051 160 160 160
23.813634872437 12.623012542725 3.845996856689 158 158 158
23.813634872437 12.623012542725 3.810997009277 151 151 151
23.346681594849 12.907232284546 3.636997222900 151 151 151
23.315431594849 12.907430648804 3.594997406006 159 159 159
23.580158233643 12.765121459961 3.595996856689 171 171 171
23.657985687256 12.717752456665 3.580997467041 175 175 175
23.642360687256 12.717851638794 3.541000366211 210 210 210
23.938137054443 12.544094085693 3.606998443604 185 185 185
23.469396591187 12.547069549561 4.024997711182 110 110 110
23.625047683716 12.452329635620 4.025997161865 143 143 143
23.687248229980 12.405059814453 4.004001617432 189 189 189
23.687248229980 12.405059814453 3.970996856689 190 190 190
23.764974594116 12.342065811157 3.956996917725 163 163 163
23.858524322510 12.310220718384 3.947002410889 136 136 136
23.858425140381 12.294595718384 3.912998199463 136 136 136
23.858425140381 12.294595718384 3.879997253418 135 135 135
23.858425140381 12.294595718384 3.845996856689 136 136 136
23.858425140381 12.294595718384 3.812000274658 133 133 133
23.765073776245 12.357688903809 3.740997314453 181 181 181
23.702873229980 12.404960632324 3.687000274658 188 188 188
23.702873229980 12.404960632324 3.652000427246 184 184 184
23.702774047852 12.389335632324 3.617000579834 186 186 186
23.718498229980 12.404861450195 3.581996917725 190 190 190
23.702774047852 12.389335632324 3.544998168945 193 193 193
23.718399047852 12.389236450195 3.511997222900 192 192 192
23.718399047852 12.389236450195 3.479000091553 191 191 191
23.718498229980 12.404861450195 3.250999450684 154 154 154
23.389783859253 12.313196182251 4.024997711182 98 98 98
23.436262130737 12.250400543213 4.004001617432 169 169 169
23.467512130737 12.250202178955 3.975002288818 174 174 174
23.467412948608 12.234577178955 3.939998626709 174 174 174
23.467412948608 12.234577178955 3.903999328613 176 176 176
24.012193679810 11.902986526489 4.004001617432 138 138 138
24.027818679810 11.902887344360 3.977001190186 172 172 172
24.027818679810 11.902887344360 3.941997528076 169 169 169
24.027818679810 11.902887344360 3.909000396729 177 177 177
24.027818679810 11.902887344360 3.876998901367 177 177 177
24.027818679810 11.902887344360 3.842998504639 177 177 177
24.027818679810 11.902887344360 3.810997009277 173 173 173
24.027818679810 11.902887344360 3.777000427246 163 163 163
23.483036041260 12.234477996826 3.570999145508 174 174 174
23.483036041260 12.234477996826 3.534999847412 175 175 175
23.482936859131 12.218852996826 3.499000549316 174 174 174
23.482936859131 12.218852996826 3.461997985840 175 175 175
23.482936859131 12.218852996826 3.423999786377 173 173 173
23.576486587524 12.187007904053 3.409999847412 182 182 182
23.545238494873 12.187206268311 3.368999481201 178 178 178
23.592012405396 12.171283721924 3.343997955322 178 178 178
23.669837951660 12.123914718628 3.335998535156 154 154 154
23.654314041138 12.139638900757 3.289997100830 250 250 250
23.669837951660 12.123914718628 3.257999420166 223 223 223
23.700889587402 12.092466354370 3.233997344971 223 223 223
23.732139587402 12.092267990112 3.208000183105 217 217 217
23.076597213745 12.205806732178 3.939998626709 188 188 188
23.076597213745 12.205806732178 3.900997161865 194 194 194
23.076597213745 12.205806732178 3.861000061035 191 191 191
23.076597213745 12.205806732178 3.820999145508 185 185 185
23.045347213745 12.206005096436 3.777999877930 171 171 171
22.996788024902 11.940685272217 3.985996246338 108 108 108
23.027936935425 11.924860000610 3.954998016357 144 144 144
23.059087753296 11.909036636353 3.920001983643 154 154 154
23.059087753296 11.909036636353 3.881000518799 149 149 149
23.059087753296 11.909036636353 3.840999603271 156 156 156
23.059087753296 11.909036636353 3.800998687744 152 152 152
23.012411117554 11.940586090088 3.750999450684 158 158 158
22.979476928711 11.675165176392 3.965999603271 138 138 138
22.995002746582 11.659440994263 3.926998138428 146 146 146
22.995002746582 11.659440994263 3.886997222900 145 145 145
22.995002746582 11.659440994263 3.847999572754 136 136 136
22.995002746582 11.659440994263 3.806999206543 129 129 129
22.995002746582 11.659440994263 3.768997192383 132 132 132
23.135028839111 11.564798355103 3.606998443604 25 25 25
23.072828292847 11.612068176270 3.549999237061 26 26 26
23.426883697510 18.156829833984 3.835998535156 216 216 216
23.426883697510 18.156829833984 3.868000030518 195 195 195
23.426883697510 18.156829833984 3.899997711182 194 194 194
23.442607879639 18.172355651855 3.933002471924 204 204 204
23.440723419189 17.875484466553 3.830997467041 204 204 204
23.440723419189 17.875484466553 3.863998413086 205 205 205
23.440723419189 17.875484466553 3.895000457764 202 202 202
23.440723419189 17.875484466553 3.925998687744 217 217 217
23.362600326538 17.875980377197 3.945995330811 74 74 74
23.438838958740 17.578617095947 3.822998046875 190 190 190
23.438838958740 17.578617095947 3.855998992920 215 215 215
23.438838958740 17.578617095947 3.888000488281 190 190 190
23.438838958740 17.578617095947 3.919002532959 216 216 216
23.423313140869 17.594341278076 3.948001861572 167 167 167
23.437053680420 17.297370910645 3.812000274658 150 150 150
23.452579498291 17.281648635864 3.844997406006 217 217 217
23.452579498291 17.281648635864 3.876998901367 177 177 177
23.452579498291 17.281648635864 3.909000396729 216 216 216
23.437053680420 17.297370910645 3.938999176025 211 211 211
23.482042312622 17.000205993652 3.833999633789 211 211 211
23.482042312622 17.000205993652 3.867000579834 217 217 217
23.482042312622 17.000205993652 3.898998260498 218 218 218
23.466417312622 17.000305175781 3.926998138428 221 221 221
23.450792312622 17.000404357910 3.954998016357 124 124 124
23.448907852173 16.703535079956 3.813999176025 177 177 177
23.464532852173 16.703435897827 3.848999023438 219 219 219
23.464532852173 16.703435897827 3.879997253418 214 214 214
23.480157852173 16.703336715698 3.912998199463 218 218 218
23.464532852173 16.703435897827 3.942996978760 211 211 211
23.525146484375 16.406169891357 3.812999725342 191 191 191
23.509521484375 16.406269073486 3.842998504639 229 229 229
23.525146484375 16.406169891357 3.876998901367 227 227 227
23.525146484375 16.406169891357 3.906997680664 230 230 230
23.509521484375 16.406269073486 3.936000823975 231 231 231
23.447122573853 16.422290802002 3.956996917725 146 146 146
23.523361206055 16.124925613403 3.802997589111 125 125 125
23.538986206055 16.124826431274 3.837997436523 222 222 222
23.538986206055 16.124826431274 3.867000579834 228 228 228
23.523361206055 16.124925613403 3.895999908447 237 237 237
23.523361206055 16.124925613403 3.927997589111 230 230 230
23.476488113403 16.125223159790 3.951000213623 201 201 201
23.552825927734 15.843482971191 3.826999664307 224 224 224
23.552825927734 15.843482971191 3.858997344971 227 227 227
23.537101745605 15.827957153320 3.888999938965 233 233 233
23.552825927734 15.843482971191 3.921001434326 231 231 231
23.537101745605 15.827957153320 3.951999664307 202 202 202
23.474702835083 15.843978881836 3.968997955322 190 190 190
23.552726745605 15.827857971191 4.015995025635 138 138 138
23.552726745605 15.827857971191 4.047000885010 135 135 135
23.568351745605 15.827758789063 4.077999114990 109 109 109
23.566566467285 15.546514511108 3.819000244141 207 207 207
23.566566467285 15.546514511108 3.850997924805 228 228 228
23.566566467285 15.546514511108 3.881999969482 226 226 226
23.566566467285 15.546514511108 3.911998748779 231 231 231
23.566566467285 15.546514511108 3.944995880127 224 224 224
23.363445281982 15.547803878784 3.934001922607 207 207 207
23.363445281982 15.547803878784 3.965999603271 114 114 114
23.627180099487 15.249248504639 3.812999725342 163 163 163
23.611555099487 15.249347686768 3.840000152588 230 230 230
23.611555099487 15.249347686768 3.869998931885 236 236 236
23.611555099487 15.249347686768 3.902999877930 234 234 234
23.611555099487 15.249347686768 3.933002471924 234 234 234
23.470933914185 15.250241279602 3.937000274658 227 227 227
23.345935821533 15.251034736633 3.947002410889 199 199 199
23.640918731689 14.952280044556 3.831996917725 229 229 229
23.640918731689 14.952280044556 3.863998413086 227 227 227
23.640918731689 14.952280044556 3.893997192383 231 231 231
23.640918731689 14.952280044556 3.923000335693 234 234 234
23.609668731689 14.952478408813 3.950000762939 228 228 228
23.312900543213 14.969988822937 3.923999786377 228 228 228
23.312900543213 14.969988822937 3.955997467041 187 187 187
23.670284271240 14.655212402344 3.824996948242 221 221 221
23.654758453369 14.670936584473 3.851997375488 237 237 237
23.670284271240 14.655212402344 3.884998321533 231 231 231
23.686006546021 14.670738220215 3.916996002197 226 226 226
23.670284271240 14.655212402344 3.944995880127 235 235 235
23.311014175415 14.673119544983 3.904998779297 242 242 242
23.295391082764 14.673218727112 3.936000823975 206 206 206
23.279666900635 14.657692909241 3.965000152588 114 114 114
23.699747085571 14.373769760132 3.817996978760 195 195 195
23.684122085571 14.373868942261 3.845996856689 236 236 236
23.699747085571 14.373769760132 3.876998901367 234 234 234
23.699747085571 14.373769760132 3.907997131348 232 232 232
23.699747085571 14.373769760132 3.937999725342 232 232 232
23.559125900269 14.374663352966 3.942996978760 245 245 245
23.277881622314 14.376448631287 3.917995452881 227 227 227
23.262355804443 14.392172813416 3.948001861572 215 215 215
23.744836807251 14.092227935791 3.809997558594 127 127 127
23.697961807251 14.092525482178 3.834999084473 234 234 234
23.713586807251 14.092426300049 3.868000030518 214 214 214
23.713586807251 14.092426300049 3.897998809814 228 228 228
23.713586807251 14.092426300049 3.928997039795 220 220 220
23.697961807251 14.092525482178 3.956996917725 227 227 227
23.260471343994 14.095303535461 3.898998260498 184 184 184
23.244846343994 14.095402717590 3.928997039795 202 202 202
23.244846343994 14.095402717590 3.961002349854 180 180 180
23.742952346802 13.795358657837 3.826000213623 225 225 225
23.727228164673 13.779832839966 3.854999542236 236 236 236
23.727327346802 13.795457839966 3.882999420166 240 240 240
23.727327346802 13.795457839966 3.913997650146 238 238 238
23.742952346802 13.795358657837 3.945995330811 232 232 232
23.258686065674 13.814059257507 3.879997253418 221 221 221
23.227436065674 13.814257621765 3.904998779297 230 230 230
23.227436065674 13.814257621765 3.939998626709 205 205 205
23.180562973022 13.814555168152 3.965000152588 49 49 49
23.772315979004 13.498291015625 3.815998077393 190 190 190
23.772315979004 13.498291015625 3.844997406006 228 228 228
23.756692886353 13.498390197754 3.870998382568 230 230 230
23.756692886353 13.498390197754 3.902999877930 232 232 232
23.756692886353 13.498390197754 3.933002471924 228 228 228
23.725442886353 13.498588562012 3.954998016357 245 245 245
23.194204330444 13.501960754395 3.884998321533 227 227 227
23.194204330444 13.501960754395 3.916996002197 218 218 218
23.194204330444 13.501960754395 3.950000762939 198 198 198
23.676782608032 13.217641830444 3.590000152588 143 143 143
23.489286422729 13.218832015991 3.600997924805 139 139 139
23.504911422729 13.218732833862 3.702999114990 97 97 97
23.739282608032 13.217245101929 3.792999267578 125 125 125
23.770530700684 13.217046737671 3.830997467041 234 234 234
23.770530700684 13.217046737671 3.861999511719 228 228 228
23.770530700684 13.217046737671 3.890998840332 231 231 231
23.770530700684 13.217046737671 3.921001434326 230 230 230
23.770530700684 13.217046737671 3.950000762939 235 235 235
23.161169052124 13.220914840698 3.858997344971 223 223 223
23.176794052124 13.220815658569 3.895999908447 227 227 227
23.176794052124 13.220815658569 3.930995941162 208 208 208
23.161169052124 13.220914840698 3.959995269775 125 125 125
23.924894332886 12.919185638428 3.646999359131 134 134 134
23.815521240234 12.919879913330 3.645000457764 114 114 114
23.846771240234 12.919681549072 3.681999206543 182 182 182
23.924894332886 12.919185638428 3.733997344971 208 208 208
23.987392425537 12.918788909912 3.777999877930 178 178 178
23.206256866455 12.939373016357 3.615997314453 162 162 162
23.643650054932 12.920970916748 3.754997253418 184 184 184
23.799797058105 12.904356002808 3.820999145508 182 182 182
23.815521240234 12.919879913330 3.851997375488 169 169 169
23.799797058105 12.904356002808 3.881999969482 180 180 180
23.799797058105 12.904356002808 3.910999298096 185 185 185
23.799797058105 12.904356002808 3.939998626709 169 169 169
23.799797058105 12.904356002808 3.969997406006 173 173 173
23.190534591675 12.923847198486 3.878997802734 183 183 183
23.174909591675 12.923946380615 3.910999298096 181 181 181
23.190534591675 12.923847198486 3.945995330811 185 185 185
23.673110961914 12.639528274536 3.342998504639 186 186 186
23.735610961914 12.639131546021 3.389999389648 192 192 192
23.688735961914 12.639429092407 3.566997528076 191 191 191
23.673011779785 12.623905181885 3.595996856689 193 193 193
23.688735961914 12.639429092407 3.627998352051 193 193 193
23.688735961914 12.639429092407 3.659000396729 194 194 194
23.688735961914 12.639429092407 3.689998626709 196 196 196
23.673011779785 12.623905181885 3.719997406006 195 195 195
23.673011779785 12.623905181885 3.750000000000 193 193 193
23.813634872437 12.623012542725 3.812000274658 176 176 176
23.829359054565 12.638536453247 3.842998504639 176 176 176
23.813634872437 12.623012542725 3.870998382568 178 178 178
23.829359054565 12.638536453247 3.902000427246 184 184 184
23.813634872437 12.623012542725 3.929996490479 176 176 176
23.813634872437 12.623012542725 3.958995819092 175 175 175
23.688735961914 12.639429092407 3.964000701904 188 188 188
23.673011779785 12.623905181885 3.991001129150 186 186 186
23.641862869263 12.639726638794 4.011997222900 110 110 110
23.391767501831 12.625690460205 3.999996185303 75 75 75
23.702476501465 12.342462539673 3.328998565674 186 186 186
23.718101501465 12.342363357544 3.461997985840 188 188 188
23.718101501465 12.342363357544 3.493000030518 187 187 187
23.702476501465 12.342462539673 3.520999908447 192 192 192
23.702476501465 12.342462539673 3.549999237061 192 192 192
23.702476501465 12.342462539673 3.581996917725 188 188 188
23.702476501465 12.342462539673 3.614997863770 190 190 190
23.702476501465 12.342462539673 3.645999908447 192 192 192
23.702476501465 12.342462539673 3.674999237061 190 190 190
23.702476501465 12.342462539673 3.705997467041 191 191 191
23.718101501465 12.342363357544 3.738998413086 188 188 188
23.827474594116 12.341669082642 3.802997589111 141 141 141
23.827474594116 12.341669082642 3.830997467041 151 151 151
23.827474594116 12.341669082642 3.860000610352 158 158 158
23.827474594116 12.341669082642 3.888999938965 161 161 161
23.827474594116 12.341669082642 3.917995452881 159 159 159
23.827474594116 12.341669082642 3.948001861572 157 157 157
23.702476501465 12.342462539673 3.950000762939 186 186 186
23.702476501465 12.342462539673 3.978000640869 189 189 189
23.671226501465 12.342660903931 4.004001617432 179 179 179
23.561855316162 12.343355178833 4.013996124268 101 101 101
23.358734130859 12.344644546509 4.008998870850 65 65 65
23.934963226318 12.044105529785 3.782997131348 112 112 112
23.919338226318 12.044204711914 3.806999206543 172 172 172
23.919338226318 12.044204711914 3.838996887207 172 172 172
23.919338226318 12.044204711914 3.865997314453 177 177 177
23.919338226318 12.044204711914 3.895999908447 174 174 174
23.919338226318 12.044204711914 3.923999786377 175 175 175
23.919338226318 12.044204711914 3.953998565674 171 171 171
23.044454574585 12.065382003784 3.801998138428 178 178 178
23.060079574585 12.065282821655 3.836997985840 183 183 183
23.044454574585 12.065382003784 3.869998931885 188 188 188
23.044454574585 12.065382003784 3.903999328613 187 187 187
23.044454574585 12.065382003784 3.937000274658 172 172 172
24.026826858521 11.746641159058 3.758998870850 156 156 156
24.042449951172 11.746541976929 3.789997100830 175 175 175
24.042449951172 11.746541976929 3.819000244141 180 180 180
24.042449951172 11.746541976929 3.847000122070 178 178 178
24.042449951172 11.746541976929 3.877998352051 168 168 168
24.042449951172 11.746541976929 3.903999328613 183 183 183
24.042449951172 11.746541976929 3.931995391846 172 172 172
24.042449951172 11.746541976929 3.959995269775 178 178 178
24.026826858521 11.746641159058 3.986995697021 171 171 171
23.011320114136 11.768714904785 3.807998657227 161 161 161
23.042570114136 11.768514633179 3.849998474121 173 173 173
23.042570114136 11.768514633179 3.882999420166 172 172 172
23.042470932007 11.752889633179 3.917995452881 183 183 183
23.011320114136 11.768714904785 3.945995330811 168 168 168
22.995597839355 11.753189086914 3.977001190186 97 97 97
22.948326110840 11.690986633301 3.805000305176 150 150 150
23.010725021362 11.674964904785 3.777000427246 135 135 135
23.026250839233 11.659240722656 3.743000030518 148 148 148
23.010725021362 11.674964904785 3.703998565674 132 132 132
23.010725021362 11.674964904785 3.666999816895 138 138 138
23.010725021362 11.674964904785 3.627998352051 149 149 149
22.963951110840 11.690887451172 3.580997467041 165 165 165
22.949714660645 11.909732818604 3.822998046875 95 95 95
22.980865478516 11.893909454346 3.788997650146 156 156 156
23.012014389038 11.878086090088 3.759998321533 160 160 160
23.012014389038 11.878086090088 3.722999572754 156 156 156
23.012014389038 11.878086090088 3.687000274658 147 147 147
23.012014389038 11.878086090088 3.649997711182 162 162 162
23.012113571167 11.893711090088 3.607997894287 152 152 152
23.013303756714 12.081207275391 3.771999359131 155 155 155
22.997680664063 12.081306457520 3.733997344971 151 151 151
23.013303756714 12.081207275391 3.698997497559 153 153 153
23.028928756714 12.081106185913 3.662998199463 162 162 162
22.997680664063 12.081306457520 3.621997833252 163 163 163
23.729759216309 11.717275619507 3.645000457764 15 15 15
23.729759216309 11.717275619507 3.608997344971 15 15 15
23.714233398438 11.732999801636 3.570999145508 15 15 15
23.030218124390 12.284227371216 3.791999816895 143 143 143
23.076894760132 12.252681732178 3.767997741699 176 176 176
23.076894760132 12.252681732178 3.729999542236 171 171 171
23.092519760132 12.252582550049 3.695999145508 170 170 170
23.076894760132 12.252681732178 3.657997131348 175 175 175
23.014593124390 12.284328460693 3.600997924805 137 137 137
23.995775222778 11.778087615967 3.828998565674 170 170 170
23.995775222778 11.778087615967 3.796997070313 167 167 167
24.011400222778 11.777988433838 3.768997192383 159 159 159
23.995775222778 11.778087615967 3.736000061035 174 174 174
23.995775222778 11.778087615967 3.703998565674 175 175 175
23.995775222778 11.778087615967 3.673999786377 176 176 176
23.995874404907 11.793712615967 3.640998840332 180 180 180
23.995874404907 11.793712615967 3.607997894287 174 174 174
23.404020309448 12.094350814819 3.237998962402 203 203 203
23.358634948730 12.329019546509 3.854999542236 106 106 106
23.498760223389 12.250003814697 3.855998992920 135 135 135
23.576684951782 12.218257904053 3.840999603271 169 169 169
23.623361587524 12.186710357666 3.816997528076 186 186 186
23.623361587524 12.186710357666 3.784000396729 190 190 190
23.654512405396 12.170886993408 3.758998870850 186 186 186
23.888187408447 12.060026168823 3.788997650146 169 169 169
23.888187408447 12.060026168823 3.756000518799 172 172 172
23.888187408447 12.060026168823 3.723999023438 173 173 173
23.888187408447 12.060026168823 3.692996978760 166 166 166
23.903812408447 12.059926986694 3.664997100830 170 170 170
23.857036590576 12.075849533081 3.620998382568 172 172 172
23.638986587524 12.186611175537 3.520000457764 196 196 196
23.638986587524 12.186611175537 3.486999511719 193 193 193
23.638986587524 12.186611175537 3.451999664307 196 196 196
23.654611587524 12.186511993408 3.418998718262 195 195 195
23.638986587524 12.186611175537 3.382999420166 198 198 198
23.654611587524 12.186511993408 3.353000640869 199 199 199
23.670234680176 12.186412811279 3.322998046875 200 200 200
23.716812133789 12.139242172241 3.306999206543 201 201 201
23.701286315918 12.154964447021 3.263000488281 203 203 203
23.406797409058 12.531843185425 3.857997894287 113 113 113
23.562450408936 12.437103271484 3.861000061035 130 130 130
23.640375137329 12.405357360840 3.847000122070 189 189 189
23.656000137329 12.405258178711 3.815998077393 195 195 195
23.702674865723 12.373710632324 3.795997619629 168 168 168
23.764974594116 12.342065811157 3.779998779297 151 151 151
23.764974594116 12.342065811157 3.746997833252 148 148 148
23.764974594116 12.342065811157 3.716999053955 142 142 142
23.764974594116 12.342065811157 3.681999206543 146 146 146
23.764974594116 12.342065811157 3.652000427246 148 148 148
23.764974594116 12.342065811157 3.611999511719 156 156 156
23.656000137329 12.405258178711 3.549999237061 172 172 172
23.656000137329 12.405258178711 3.515998840332 169 169 169
23.656000137329 12.405258178711 3.482997894287 176 176 176
23.718299865723 12.373611450195 3.465999603271 182 182 182
23.671623229980 12.405158996582 3.348999023438 182 182 182
23.671623229980 12.405158996582 3.313999176025 178 178 178
23.671623229980 12.405158996582 3.278999328613 180 180 180
23.718299865723 12.373611450195 3.195999145508 176 176 176
23.671623229980 12.405158996582 3.139999389648 184 184 184
23.687149047852 12.389434814453 3.110000610352 200 200 200
23.127737045288 12.877370834351 3.816997528076 49 49 49
23.143362045288 12.877271652222 3.782997131348 170 170 170
23.158987045288 12.877172470093 3.749000549316 163 163 163
23.205661773682 12.845624923706 3.722999572754 181 181 181
23.641763687134 12.624103546143 3.798999786377 169 169 169
23.766263961792 12.545185089111 3.805000305176 164 164 164
23.766263961792 12.545185089111 3.773998260498 167 167 167
23.766263961792 12.545185089111 3.740997314453 165 165 165
23.766263961792 12.545185089111 3.708000183105 171 171 171
23.781888961792 12.545085906982 3.676998138428 167 167 167
23.750740051270 12.560909271240 3.632999420166 164 164 164
23.673011779785 12.623905181885 3.572998046875 180 180 180
23.673011779785 12.623905181885 3.537998199463 186 186 186
23.673011779785 12.623905181885 3.504997253418 188 188 188
23.672912597656 12.608280181885 3.472999572754 188 188 188
23.673011779785 12.623905181885 3.437000274658 193 193 193
23.673011779785 12.623905181885 3.402999877930 194 194 194
23.735214233398 12.576633453369 3.357997894287 200 200 200
23.175802230835 13.064569473267 3.803997039795 177 177 177
23.175802230835 13.064569473267 3.766998291016 202 202 202
23.175802230835 13.064569473267 3.735000610352 178 178 178
23.175802230835 13.064569473267 3.695999145508 191 191 191
23.783180236816 12.748207092285 3.817996978760 156 156 156
23.767654418945 12.763931274414 3.784999847412 163 163 163
23.767654418945 12.763931274414 3.751998901367 164 164 164
23.783180236816 12.748207092285 3.722000122070 163 163 163
23.783180236816 12.748207092285 3.689998626709 165 165 165
23.767654418945 12.763931274414 3.655998229980 155 155 155
23.130315780640 13.283613204956 3.812999725342 74 74 74
23.161466598511 13.267789840698 3.781997680664 210 210 210
23.161466598511 13.267789840698 3.746997833252 229 229 229
23.161466598511 13.267789840698 3.709999084473 230 230 230
23.130315780640 13.283613204956 3.666000366211 166 166 166
23.768943786621 12.967052459717 3.795997619629 156 156 156
23.768943786621 12.967052459717 3.763000488281 159 159 159
23.753320693970 12.967151641846 3.729000091553 169 169 169
23.768943786621 12.967052459717 3.699996948242 155 155 155
23.768943786621 12.967052459717 3.664997100830 166 166 166
23.877920150757 12.903860092163 3.636997222900 156 156 156
23.893545150757 12.903760910034 3.608997344971 190 190 190
23.162755966187 13.470911026001 3.801998138428 190 190 190
23.178380966187 13.470811843872 3.768997192383 218 218 218
23.162755966187 13.470911026001 3.731998443604 232 232 232
23.178380966187 13.470811843872 3.696998596191 228 228 228
23.708032608032 13.217443466187 3.798999786377 250 250 250
23.739084243774 13.185997009277 3.773998260498 237 237 237
23.754709243774 13.185897827148 3.744998931885 234 234 234
23.770233154297 13.170173645020 3.719997406006 237 237 237
23.832633972168 13.154151916504 3.698997497559 237 237 237
23.195394515991 13.689457893372 3.798999786377 199 199 199
23.195394515991 13.689457893372 3.760997772217 226 226 226
23.195394515991 13.689457893372 3.725997924805 233 233 233
23.195394515991 13.689457893372 3.691997528076 230 230 230
23.740472793579 13.404741287231 3.795997619629 234 234 234
23.740472793579 13.404741287231 3.763000488281 236 236 236
23.740472793579 13.404741287231 3.731998443604 235 235 235
23.740472793579 13.404741287231 3.698997497559 234 234 234
23.756196975708 13.420267105103 3.668998718262 226 226 226
23.212306976318 13.892479896545 3.796997070313 218 218 218
23.196783065796 13.908204078674 3.759998321533 234 234 234
23.212406158447 13.908104896545 3.724998474121 232 232 232
23.196783065796 13.908204078674 3.687000274658 222 222 222
23.710710525513 13.639310836792 3.788997650146 232 232 232
23.710710525513 13.639310836792 3.756000518799 232 232 232
23.741960525513 13.639112472534 3.724998474121 233 233 233
23.710809707642 13.654935836792 3.688999176025 240 240 240
23.741960525513 13.639112472534 3.660999298096 189 189 189
23.213596343994 14.095601081848 3.788997650146 209 209 209
23.229320526123 14.111126899719 3.756000518799 169 169 169
23.260372161865 14.079678535461 3.730998992920 126 126 126
23.680849075317 13.858254432678 3.807998657227 219 219 219
23.696474075317 13.858155250549 3.775997161865 231 231 231
23.680849075317 13.858254432678 3.743000030518 235 235 235
23.680849075317 13.858254432678 3.708999633789 235 235 235
23.696474075317 13.858155250549 3.678997039795 229 229 229
23.230609893799 14.314247131348 3.810997009277 192 192 192
23.230609893799 14.314247131348 3.775997161865 219 219 219
23.230510711670 14.298623085022 3.742000579834 235 235 235
23.526487350464 14.156116485596 3.777999877930 5 5 5
23.682237625122 14.076999664307 3.787998199463 238 238 238
23.682237625122 14.076999664307 3.757999420166 232 232 232
23.682237625122 14.076999664307 3.723999023438 233 233 233
23.682237625122 14.076999664307 3.691997528076 233 233 233
23.697763442993 14.061276435852 3.661998748779 177 177 177
23.247425079346 14.501644134521 3.796997070313 222 222 222
23.231800079346 14.501743316650 3.758998870850 239 239 239
23.263050079346 14.501544952393 3.729999542236 238 238 238
23.652278900146 14.280319213867 3.799999237061 232 232 232
23.652278900146 14.280319213867 3.766998291016 235 235 235
23.652278900146 14.280319213867 3.735000610352 236 236 236
23.652278900146 14.280319213867 3.701999664307 232 232 232
23.683526992798 14.280120849609 3.671997070313 218 218 218
23.233188629150 14.720489501953 3.812999725342 52 52 52
23.264240264893 14.689042091370 3.786998748779 214 214 214
23.264240264893 14.689042091370 3.750000000000 242 242 242
23.482292175293 14.578280448914 3.777000427246 255 255 255
23.653667449951 14.499064445496 3.781997680664 235 235 235
23.638042449951 14.499163627625 3.747997283936 236 236 236
23.653667449951 14.499064445496 3.717998504639 236 236 236
23.638042449951 14.499163627625 3.681999206543 242 242 242
23.669292449951 14.498965263367 3.657997131348 111 111 111
23.265727996826 14.923412322998 3.812000274658 79 79 79
23.281253814697 14.907688140869 3.784999847412 212 212 212
23.281253814697 14.907688140869 3.750000000000 233 233 233
23.608379364014 14.749357223511 3.795997619629 233 233 233
23.623905181885 14.733633995056 3.770999908447 233 233 233
23.623805999756 14.718008995056 3.739997863770 226 226 226
23.623905181885 14.733633995056 3.705997467041 230 230 230
23.623805999756 14.718008995056 3.673999786377 224 224 224
23.313892364502 15.126235008240 3.813999176025 131 131 131
23.313793182373 15.110610961914 3.782997131348 217 217 217
23.329319000244 15.094886779785 3.753997802734 226 226 226
23.609769821167 14.968103408813 3.791000366211 232 232 232
23.609769821167 14.968103408813 3.756999969482 238 238 238
23.609769821167 14.968103408813 3.725997924805 235 235 235
23.609769821167 14.968103408813 3.691997528076 235 235 235
23.625394821167 14.968004226685 3.662998199463 184 184 184
23.315082550049 15.313731193542 3.808998107910 187 187 187
23.330707550049 15.313632011414 3.775997161865 223 223 223
23.564384460449 15.202772140503 3.798000335693 227 227 227
23.595533370972 15.186948776245 3.773998260498 236 236 236
23.579910278320 15.187047958374 3.739997863770 239 239 239
23.595533370972 15.186948776245 3.708999633789 232 232 232
23.595533370972 15.186948776245 3.677997589111 224 224 224
23.347621917725 15.516654014587 3.793998718262 211 211 211
23.425447463989 15.469284057617 3.778999328613 236 236 236
23.565673828125 15.405892372131 3.781997680664 237 237 237
23.565673828125 15.405892372131 3.750999450684 237 237 237
23.565673828125 15.405892372131 3.716999053955 233 233 233
23.581298828125 15.405793190002 3.685997009277 234 234 234
23.565673828125 15.405892372131 3.652000427246 54 54 54
23.473413467407 15.640857696533 3.970996856689 87 87 87
23.504562377930 15.625035285950 3.943996429443 61 61 61
23.520187377930 15.624936103821 3.914997100830 66 66 66
23.520187377930 15.624936103821 3.882999420166 42 42 42
23.504562377930 15.625035285950 3.845996856689 48 48 48
23.380062103271 15.703951835632 3.780998229980 201 201 201
23.535713195801 15.609211921692 3.791000366211 234 234 234
23.535713195801 15.609211921692 3.758998870850 231 231 231
23.535713195801 15.609211921692 3.726997375488 233 233 233
23.535614013672 15.593586921692 3.694999694824 232 232 232
23.551338195801 15.609112739563 3.662998199463 175 175 175
23.381351470947 15.907073020935 3.800998687744 146 146 146
23.443651199341 15.875426292419 3.784999847412 220 220 220
23.521476745605 15.828056335449 3.774997711182 233 233 233
23.521476745605 15.828056335449 3.743000030518 234 234 234
23.521476745605 15.828056335449 3.709999084473 235 235 235
23.521476745605 15.828056335449 3.677997589111 226 226 226
23.382640838623 16.110193252563 3.802997589111 150 150 150
23.507240295410 16.046901702881 3.799999237061 219 219 219
23.507339477539 16.062526702881 3.764999389648 234 234 234
23.507339477539 16.062526702881 3.729999542236 239 239 239
23.507339477539 16.062526702881 3.696998596191 235 235 235
23.507240295410 16.046901702881 3.666999816895 215 215 215
23.430803298950 16.313016891479 3.801998138428 186 186 186
23.493104934692 16.281372070313 3.786998748779 234 234 234
23.493104934692 16.281372070313 3.753997802734 235 235 235
23.493104934692 16.281372070313 3.722000122070 231 231 231
23.493104934692 16.281372070313 3.687999725342 233 233 233
23.508728027344 16.281272888184 3.657997131348 151 151 151
23.385417938232 16.547683715820 3.812000274658 35 35 35
23.478868484497 16.500215530396 3.802997589111 212 212 212
23.494493484497 16.500116348267 3.770999908447 232 232 232
23.478868484497 16.500215530396 3.736000061035 237 237 237
23.494493484497 16.500116348267 3.704998016357 228 228 228
23.494493484497 16.500116348267 3.673000335693 215 215 215
23.449007034302 16.719160079956 3.801998138428 205 205 205
23.449007034302 16.719160079956 3.770000457764 215 215 215
23.449007034302 16.719160079956 3.736999511719 181 181 181
23.449007034302 16.719160079956 3.704998016357 215 215 215
23.449007034302 16.719160079956 3.669998168945 182 182 182
23.419145584106 16.938102722168 3.806999206543 103 103 103
23.434671401978 16.922378540039 3.779998779297 226 226 226
23.450197219849 16.906656265259 3.752998352051 200 200 200
23.450197219849 16.906656265259 3.717998504639 177 177 177
23.450197219849 16.906656265259 3.684997558594 215 215 215
23.436059951782 17.141124725342 3.796997070313 199 199 199
23.451585769653 17.125400543213 3.770000457764 221 221 221
23.435960769653 17.125499725342 3.735000610352 199 199 199
23.435960769653 17.125499725342 3.701999664307 215 215 215
23.436059951782 17.141124725342 3.667999267578 175 175 175
23.406202316284 17.360069274902 3.791000366211 208 208 208
23.421825408936 17.359970092773 3.759998321533 217 217 217
23.421825408936 17.359970092773 3.729000091553 218 218 218
23.421825408936 17.359970092773 3.694000244141 221 221 221
23.421825408936 17.359970092773 3.660999298096 91 91 91
23.423313140869 17.594341278076 3.784999847412 222 222 222
23.423213958740 17.578716278076 3.754997253418 217 217 217
23.423213958740 17.578716278076 3.722000122070 202 202 202
23.423213958740 17.578716278076 3.688999176025 219 219 219
23.408979415894 17.797561645508 3.800998687744 189 189 189
23.408979415894 17.797561645508 3.770000457764 223 223 223
23.424602508545 17.797462463379 3.737998962402 204 204 204
23.424602508545 17.797462463379 3.705997467041 209 209 209
23.424602508545 17.797462463379 3.671997070313 138 138 138
23.394643783569 18.000782012939 3.805000305176 117 117 117
23.425891876221 18.000583648682 3.777999877930 219 219 219
23.425891876221 18.000583648682 3.744998931885 190 190 190
23.425891876221 18.000583648682 3.711997985840 212 212 212
23.425891876221 18.000583648682 3.678997039795 193 193 193
23.411458969116 18.188179016113 3.785999298096 221 221 221
23.395833969116 18.188278198242 3.750999450684 235 235 235
23.395833969116 18.188278198242 3.718997955322 231 231 231
23.411458969116 18.188179016113 3.688999176025 219 219 219
24.011102676392 11.731115341187 3.624000549316 159 159 159
24.011102676392 11.731115341187 3.653999328613 162 162 162
24.011102676392 11.731115341187 3.685997009277 160 160 160
24.011102676392 11.731115341187 3.717998504639 162 162 162
24.011102676392 11.731115341187 3.749000549316 161 161 161
23.995477676392 11.731214523315 3.777999877930 151 151 151
24.011102676392 11.731115341187 3.812999725342 162 162 162
23.979753494263 11.715688705444 3.836997985840 124 124 124
23.996767044067 11.934335708618 3.599998474121 106 106 106
24.012590408325 11.965484619141 3.634998321533 158 158 158
24.012590408325 11.965484619141 3.668998718262 156 156 156
24.012590408325 11.965484619141 3.699996948242 155 155 155
24.012590408325 11.965484619141 3.729999542236 157 157 157
23.996767044067 11.934335708618 3.759998321533 156 156 156
23.996767044067 11.934335708618 3.792999267578 160 160 160
23.996767044067 11.934335708618 3.822998046875 149 149 149
23.981142044067 11.934434890747 3.844997406006 95 95 95
23.919834136963 12.122327804565 3.629997253418 123 123 123
23.904209136963 12.122426986694 3.659999847412 158 158 158
23.919834136963 12.122327804565 3.692996978760 159 159 159
23.904109954834 12.106801986694 3.722000122070 164 164 164
23.904109954834 12.106801986694 3.754997253418 159 159 159
23.904209136963 12.122426986694 3.787998199463 159 159 159
23.685958862305 12.201938629150 3.377998352051 165 165 165
23.670234680176 12.186412811279 3.407997131348 169 169 169
23.670234680176 12.186412811279 3.442996978760 165 165 165
23.685958862305 12.201938629150 3.479999542236 160 160 160
23.670234680176 12.186412811279 3.510997772217 166 166 166
23.685958862305 12.201938629150 3.548000335693 151 151 151
23.795927047729 12.294992446899 3.625999450684 154 154 154
23.811552047729 12.294893264771 3.659999847412 164 164 164
23.811552047729 12.294893264771 3.692996978760 171 171 171
23.811552047729 12.294893264771 3.725997924805 174 174 174
23.795927047729 12.294992446899 3.756999969482 170 170 170
23.811552047729 12.294893264771 3.791000366211 168 168 168
23.011220932007 11.753089904785 3.597999572754 133 133 133
23.042669296265 11.784137725830 3.646999359131 143 143 143
23.026945114136 11.768613815308 3.682998657227 145 145 145
23.026945114136 11.768613815308 3.720996856689 146 146 146
23.026945114136 11.768613815308 3.757999420166 136 136 136
22.995498657227 11.737564086914 3.786998748779 145 145 145
22.932701110840 11.691085815430 3.809997558594 22 22 22
23.718894958496 12.467359542847 3.180999755859 150 150 150
23.734519958496 12.467260360718 3.208999633789 143 143 143
23.703170776367 12.451833724976 3.407997131348 144 144 144
23.718894958496 12.467359542847 3.446998596191 173 173 173
23.718795776367 12.451734542847 3.479000091553 164 164 164
23.671821594238 12.436408996582 3.500999450684 123 123 123
23.703170776367 12.451833724976 3.543998718262 139 139 139
23.687446594238 12.436309814453 3.571998596191 136 136 136
23.781591415405 12.498212814331 3.642997741699 140 140 140
