11.971094131470 3.879185676575 1.572998046875 232 232 232
11.963905334473 3.983754158020 1.639999389648 107 107 107
11.973511695862 3.945892333984 1.670997619629 218 218 218
11.966300964355 3.948899269104 1.718997955322 189 189 189
11.959112167358 4.053467750549 2.250999450684 171 171 171
11.959112167358 4.053467750549 2.293998718262 178 178 178
11.959112167358 4.053467750549 2.334999084473 182 182 182
11.959112167358 4.053467750549 2.377998352051 189 189 189
11.944690704346 4.059480667114 2.420997619629 189 189 189
11.944690704346 4.059480667114 2.462997436523 192 192 192
11.944690704346 4.059480667114 2.503997802734 193 193 193
11.944690704346 4.059480667114 2.545997619629 191 191 191
11.956715583801 4.088323593140 2.588996887207 193 193 193
11.956715583801 4.088323593140 2.629997253418 199 199 199
11.956715583801 4.088323593140 2.670997619629 199 199 199
11.944690704346 4.059480667114 2.711997985840 202 202 202
11.956715583801 4.088323593140 2.753997802734 204 204 204
11.930269241333 4.065493583679 2.795997619629 204 204 204
11.942294120789 4.094336509705 2.836997985840 203 203 203
11.942294120789 4.094336509705 2.878997802734 203 203 203
11.942294120789 4.094336509705 2.919998168945 203 203 203
11.930269241333 4.065493583679 2.960998535156 204 204 204
11.942294120789 4.094336509705 3.001998901367 205 205 205
11.942294120789 4.094336509705 3.042999267578 195 195 195
11.930269241333 4.065493583679 3.083999633789 193 193 193
11.942294120789 4.094336509705 3.124996185303 187 187 187
11.930269241333 4.065493583679 3.165996551514 185 185 185
11.930269241333 4.065493583679 3.206996917725 186 186 186
11.942294120789 4.094336509705 3.247997283936 182 182 182
11.927872657776 4.100349426270 3.288997650146 176 176 176
11.930269241333 4.065493583679 3.329998016357 188 188 188
11.930269241333 4.065493583679 3.370998382568 211 211 211
11.930269241333 4.065493583679 3.411998748779 224 224 224
11.927872657776 4.100349426270 3.452999114990 183 183 183
11.930269241333 4.065493583679 3.494998931885 244 244 244
11.935083389282 4.097342491150 3.534999847412 2 2 2
11.935083389282 4.097342491150 3.576000213623 22 22 22
11.935083389282 4.097342491150 3.617000579834 29 29 29
11.927872657776 4.100349426270 3.657001495361 29 29 29
11.927872657776 4.100349426270 3.698001861572 8 8 8
11.932687759399 4.132199287415 3.739002227783 246 246 246
11.932687759399 4.132199287415 3.779994964600 242 242 242
11.932687759399 4.132199287415 3.820995330811 238 238 238
11.932687759399 4.132199287415 3.861995697021 238 238 238
11.925476074219 4.135205268860 3.900997161865 212 212 212
11.923080444336 4.170062065125 3.938999176025 181 181 181
11.920683860779 4.204917907715 3.977001190186 204 204 204
11.915868759155 4.173069000244 4.143001556396 97 97 97
11.920683860779 4.204917907715 4.180995941162 98 98 98
11.918287277222 4.239774703979 4.216999053955 116 116 116
11.903865814209 4.245787620544 4.256000518799 133 133 133
11.901469230652 4.280642509460 4.290996551514 150 150 150
11.918287277222 4.239774703979 4.341999053955 157 157 157
11.918287277222 4.239774703979 4.383998870850 90 90 90
11.918287277222 4.239774703979 4.422000885010 62 62 62
11.956694602966 3.986761093140 4.509998321533 35 35 35
11.963861465454 3.780629158020 4.590999603271 27 27 27
11.975864410400 3.707910537720 4.648998260498 26 26 26
12.112958908081 4.057040214539 4.675998687744 162 162 162
12.098537445068 4.063053131104 4.715000152588 178 178 178
12.096141815186 4.097908973694 4.748996734619 135 135 135
12.088930130005 4.100915908813 4.788997650146 134 134 134
11.673116683960 4.341991424561 3.551998138428 28 28 28
11.692354202271 4.367827415466 3.509998321533 47 47 47
11.697168350220 4.399678230286 3.472995758057 67 67 67
11.709194183350 4.428522109985 3.437000274658 64 64 64
11.716403961182 4.425515174866 3.401996612549 30 30 30
11.576913833618 4.111243247986 3.276996612549 86 86 86
11.615386009216 4.162917137146 3.237995147705 47 47 47
11.612989425659 4.197773933411 3.201000213623 52 52 52
11.930356979370 4.471742630005 4.531002044678 26 26 26
11.918331146240 4.442899703979 4.497997283936 105 105 105
11.925542831421 4.439892768860 4.466999053955 123 123 123
11.925542831421 4.439892768860 4.429996490479 123 123 123
11.906306266785 4.414055824280 4.397998809814 125 125 125
11.906306266785 4.414055824280 4.364002227783 118 118 118
11.906306266785 4.414055824280 4.326000213623 123 123 123
11.913516998291 4.411049842834 4.293994903564 102 102 102
11.894280433655 4.385211944580 4.260997772217 39 39 39
11.906306266785 4.414055824280 4.188999176025 55 55 55
11.906306266785 4.414055824280 4.147998809814 107 107 107
11.920727729797 4.408042907715 4.111995697021 105 105 105
11.913516998291 4.411049842834 4.078998565674 114 114 114
11.920727729797 4.408042907715 4.042995452881 106 106 106
11.913516998291 4.411049842834 4.010997772217 107 107 107
11.913516998291 4.411049842834 3.975002288818 113 113 113
11.920727729797 4.408042907715 3.937999725342 60 60 60
11.788447380066 4.090764045715 3.659999847412 77 77 77
11.769210815430 4.064927101135 3.626995086670 121 121 121
11.788447380066 4.090764045715 3.587001800537 91 91 91
11.776422500610 4.061920166016 3.552997589111 49 49 49
11.764396667480 4.033077239990 3.517002105713 36 36 36
11.788447380066 4.090764045715 3.478000640869 78 78 78
11.776422500610 4.061920166016 3.441997528076 47 47 47
11.800472259521 4.119607925415 3.402996063232 57 57 57
11.810102462769 4.183307647705 3.364002227783 120 120 120
11.812498092651 4.148450851440 3.327999114990 146 146 146
11.812498092651 4.148450851440 3.292995452881 156 156 156
11.805287361145 4.151457786560 3.256999969482 113 113 113
11.800472259521 4.119607925415 3.221996307373 61 61 61
11.800472259521 4.119607925415 3.185001373291 67 67 67
11.788447380066 4.090764045715 3.149997711182 64 64 64
11.788447380066 4.090764045715 3.112995147705 63 63 63
11.764396667480 4.033077239990 3.076999664307 137 137 137
11.764396667480 4.033077239990 3.041000366211 147 147 147
11.740345001221 3.975389480591 3.003997802734 29 29 29
11.675403594971 3.799322128296 1.285999298096 104 104 104
12.031265258789 4.226528167725 4.787998199463 102 102 102
12.031265258789 4.226528167725 4.753002166748 152 152 152
12.031265258789 4.226528167725 4.715999603271 153 153 153
12.031265258789 4.226528167725 4.677997589111 155 155 155
12.031265258789 4.226528167725 4.639995574951 155 155 155
12.031265258789 4.226528167725 4.604000091553 164 164 164
12.031265258789 4.226528167725 4.565998077393 160 160 160
12.031265258789 4.226528167725 4.529994964600 168 168 168
12.031265258789 4.226528167725 4.493000030518 168 168 168
12.026450157166 4.194679260254 4.456996917725 170 170 170
12.026450157166 4.194679260254 4.420001983643 176 176 176
12.026450157166 4.194679260254 4.382999420166 178 178 178
12.026450157166 4.194679260254 4.346996307373 177 177 177
12.026450157166 4.194679260254 4.309001922607 180 180 180
12.026450157166 4.194679260254 4.273998260498 183 183 183
12.033660888672 4.191672325134 4.239002227783 187 187 187
12.026450157166 4.194679260254 4.201999664307 187 187 187
12.026450157166 4.194679260254 4.164997100830 193 193 193
12.026450157166 4.194679260254 4.128002166748 192 192 192
12.026450157166 4.194679260254 4.091999053955 194 194 194
12.033660888672 4.191672325134 4.056995391846 199 199 199
12.033660888672 4.191672325134 4.020999908447 200 200 200
12.033660888672 4.191672325134 3.984996795654 201 201 201
12.021636009216 4.162828445435 3.951000213623 205 205 205
12.033660888672 4.191672325134 3.912998199463 206 206 206
12.021636009216 4.162828445435 3.878002166748 209 209 209
12.021636009216 4.162828445435 3.841999053955 210 210 210
12.021636009216 4.162828445435 3.805995941162 214 214 214
12.014425277710 4.165835380554 3.770999908447 217 217 217
12.014425277710 4.165835380554 3.735996246338 219 219 219
12.014425277710 4.165835380554 3.700000762939 222 222 222
12.021636009216 4.162828445435 3.664997100830 227 227 227
12.009611129761 4.133985519409 3.630001068115 235 235 235
12.009611129761 4.133985519409 3.594997406006 243 243 243
12.021636009216 4.162828445435 3.557994842529 251 251 251
12.009611129761 4.133985519409 3.522998809814 13 13 13
12.009611129761 4.133985519409 3.486995697021 20 20 20
12.009611129761 4.133985519409 3.451000213623 20 20 20
12.009611129761 4.133985519409 3.415996551514 12 12 12
12.009611129761 4.133985519409 3.380001068115 251 251 251
12.009611129761 4.133985519409 3.344997406006 245 245 245
12.009611129761 4.133985519409 3.309001922607 238 238 238
12.009611129761 4.133985519409 3.273998260498 236 236 236
12.009611129761 4.133985519409 3.237995147705 230 230 230
12.009611129761 4.133985519409 3.201999664307 226 226 226
12.016821861267 4.130979537964 3.166996002197 221 221 221
12.009611129761 4.133985519409 3.131000518799 219 219 219
12.016821861267 4.130979537964 3.094997406006 219 219 219
12.009611129761 4.133985519409 3.059997558594 217 217 217
12.009611129761 4.133985519409 3.023998260498 211 211 211
11.997585296631 4.105141639709 2.987998962402 211 211 211
12.009611129761 4.133985519409 2.951999664307 204 204 204
11.997585296631 4.105141639709 2.916999816895 204 204 204
11.997585296631 4.105141639709 2.880996704102 196 196 196
12.004796028137 4.102135658264 2.844997406006 195 195 195
12.004796028137 4.102135658264 2.808998107910 195 195 195
12.004796028137 4.102135658264 2.772998809814 190 190 190
12.004796028137 4.102135658264 2.736999511719 193 193 193
12.004796028137 4.102135658264 2.699996948242 187 187 187
11.999980926514 4.070284843445 2.663997650146 184 184 184
12.004796028137 4.102135658264 2.627998352051 186 186 186
12.004796028137 4.102135658264 2.591999053955 180 180 180
11.999980926514 4.070284843445 2.555000305176 181 181 181
11.985559463501 4.076297760010 2.518997192383 180 180 180
11.985559463501 4.076297760010 2.481998443604 178 178 178
11.987956047058 4.041441917419 2.444999694824 175 175 175
11.999980926514 4.070284843445 2.409999847412 172 172 172
11.999980926514 4.070284843445 2.372997283936 177 177 177
11.987956047058 4.041441917419 2.335998535156 173 173 173
11.987956047058 4.041441917419 2.298000335693 172 172 172
11.987956047058 4.041441917419 2.260997772217 168 168 168
11.987956047058 4.041441917419 2.224998474121 163 163 163
11.987956047058 4.041441917419 2.187999725342 162 162 162
11.987956047058 4.041441917419 2.150997161865 164 164 164
11.980745315552 4.044448852539 2.112998962402 163 163 163
11.975930213928 4.012598991394 2.072998046875 160 160 160
11.975930213928 4.012598991394 2.037998199463 154 154 154
11.975930213928 4.012598991394 2.000999450684 155 155 155
11.975930213928 4.012598991394 1.961997985840 150 150 150
11.975930213928 4.012598991394 1.923999786377 151 151 151
11.975930213928 4.012598991394 1.883998870850 147 147 147
11.975930213928 4.012598991394 1.847999572754 140 140 140
11.975930213928 4.012598991394 1.810997009277 140 140 140
11.975930213928 4.012598991394 1.770999908447 141 141 141
11.975930213928 4.012598991394 1.733997344971 143 143 143
11.975930213928 4.012598991394 1.691997528076 143 143 143
11.975930213928 4.012598991394 1.652999877930 138 138 138
11.975930213928 4.012598991394 1.615997314453 132 132 132
11.975930213928 4.012598991394 1.576999664307 129 129 129
11.963905334473 3.983754158020 1.536998748779 132 132 132
11.963905334473 3.983754158020 1.496997833252 135 135 135
11.963905334473 3.983754158020 1.455997467041 134 134 134
11.951879501343 3.954911231995 1.411998748779 144 144 144
11.951879501343 3.954911231995 1.371997833252 154 154 154
11.959090232849 3.951905250549 1.328998565674 158 158 158
11.959090232849 3.951905250549 1.288997650146 157 157 157
11.959090232849 3.951905250549 1.250000000000 145 145 145
11.999893188477 3.664034843445 4.682994842529 70 70 70
11.995079040527 3.632185935974 4.647998809814 79 79 79
11.975842475891 3.606348037720 4.610996246338 103 103 103
11.975842475891 3.606348037720 4.573001861572 100 100 100
11.975842475891 3.606348037720 4.531002044678 100 100 100
11.987867355347 3.635191917419 4.489002227783 18 18 18
11.978239059448 3.571492195129 4.098995208740 14 14 14
11.959002494812 3.545655250549 4.062999725342 102 102 102
11.959002494812 3.545655250549 4.022998809814 99 99 99
11.959002494812 3.545655250549 3.982997894287 84 84 84
11.959002494812 3.545655250549 3.942996978760 30 30 30
11.899160385132 4.721749305725 4.634998321533 87 87 87
11.920793533325 4.712730407715 4.589000701904 155 155 155
11.913582801819 4.715737342834 4.551998138428 167 167 167
11.913582801819 4.715737342834 4.512996673584 197 197 197
11.913582801819 4.715737342834 4.475002288818 205 205 205
11.913582801819 4.715737342834 4.435001373291 161 161 161
11.901557922363 4.686893463135 3.971996307373 164 164 164
11.901557922363 4.686893463135 3.935001373291 163 163 163
11.887135505676 4.692906379700 3.896999359131 139 139 139
11.901557922363 4.686893463135 3.857997894287 55 55 55
11.920749664307 4.509605407715 4.534999847412 160 160 160
11.927961349487 4.506599426270 4.493999481201 167 167 167
11.927961349487 4.506599426270 4.452999114990 166 166 166
11.913538932800 4.512612342834 4.414997100830 166 166 166
11.927961349487 4.506599426270 4.373996734619 164 164 164
11.913538932800 4.512612342834 4.334995269775 160 160 160
11.901513099670 4.483768463135 4.136997222900 88 88 88
11.927961349487 4.506599426270 4.094997406006 162 162 162
11.927961349487 4.506599426270 4.054996490479 164 164 164
11.913538932800 4.512612342834 4.017002105713 163 163 163
11.913538932800 4.512612342834 3.977001190186 178 178 178
11.913538932800 4.512612342834 3.937000274658 187 187 187
11.908723831177 4.480761528015 3.897998809814 154 154 154
11.754855155945 4.375626564026 3.631999969482 26 26 26
11.762065887451 4.372620582581 3.590999603271 54 54 54
11.754855155945 4.375626564026 3.549999237061 56 56 56
11.754855155945 4.375626564026 3.509998321533 55 55 55
11.754855155945 4.375626564026 3.469997406006 54 54 54
11.754855155945 4.375626564026 3.428997039795 54 54 54
11.754855155945 4.375626564026 3.388996124268 57 57 57
11.754855155945 4.375626564026 3.347995758057 63 63 63
11.754855155945 4.375626564026 3.307994842529 53 53 53
11.754855155945 4.375626564026 3.267002105713 32 32 32
11.927916526794 4.303474426270 4.472995758057 17 17 17
11.939941406250 4.332318305969 4.428997039795 161 161 161
11.939941406250 4.332318305969 4.388996124268 168 168 168
11.927916526794 4.303474426270 4.350002288818 167 167 167
11.927916526794 4.303474426270 4.307994842529 167 167 167
11.927916526794 4.303474426270 4.265995025635 162 162 162
11.939941406250 4.332318305969 4.222995758057 161 161 161
11.939941406250 4.332318305969 4.181995391846 169 169 169
11.927916526794 4.303474426270 4.142002105713 162 162 162
11.942338943481 4.297461509705 4.101001739502 168 168 168
11.927916526794 4.303474426270 4.061000823975 161 161 161
11.942338943481 4.297461509705 4.019001007080 113 113 113
11.769232749939 4.166489601135 3.663997650146 54 54 54
11.788469314575 4.192326545715 3.621997833252 133 133 133
11.769232749939 4.166489601135 3.580997467041 87 87 87
11.754811286926 4.172501564026 3.538997650146 57 57 57
11.795680999756 4.189320564270 3.495998382568 58 58 58
11.807705879211 4.218164443970 3.453998565674 72 72 72
11.769232749939 4.166489601135 3.413997650146 54 54 54
11.754811286926 4.172501564026 3.371997833252 46 46 46
11.802890777588 4.186313629150 3.329998016357 145 145 145
11.769232749939 4.166489601135 3.288997650146 151 151 151
11.754811286926 4.172501564026 3.246997833252 55 55 55
11.742785453796 4.143658638000 3.204998016357 59 59 59
11.735574722290 4.146665573120 3.162998199463 60 60 60
11.754811286926 4.172501564026 3.120998382568 68 68 68
11.754811286926 4.172501564026 3.079998016357 53 53 53
11.742785453796 4.143658638000 3.036998748779 53 53 53
11.742785453796 4.143658638000 2.994998931885 54 54 54
12.086556434631 4.237334251404 4.792995452881 161 161 161
12.086556434631 4.237334251404 4.749996185303 175 175 175
12.086556434631 4.237334251404 4.706996917725 177 177 177
12.074530601501 4.208490371704 4.666996002197 176 176 176
12.086556434631 4.237334251404 4.623996734619 179 179 179
12.088953018188 4.202477455139 4.581996917725 175 175 175
12.074530601501 4.208490371704 4.541996002197 176 176 176
12.074530601501 4.208490371704 4.501995086670 181 181 181
12.074530601501 4.208490371704 4.459995269775 176 176 176
12.074530601501 4.208490371704 4.417995452881 180 180 180
12.074530601501 4.208490371704 4.376995086670 177 177 177
12.074530601501 4.208490371704 4.334995269775 177 177 177
12.055294036865 4.182653427124 4.293994903564 181 181 181
12.055294036865 4.182653427124 4.253002166748 176 176 176
12.055294036865 4.182653427124 4.212001800537 179 179 179
12.048083305359 4.185660362244 4.171001434326 182 182 182
12.055294036865 4.182653427124 4.129001617432 179 179 179
12.048083305359 4.185660362244 4.088001251221 177 177 177
12.055294036865 4.182653427124 4.046001434326 175 175 175
12.048083305359 4.185660362244 4.006000518799 176 176 176
12.048083305359 4.185660362244 3.965999603271 179 179 179
12.048083305359 4.185660362244 3.923999786377 182 182 182
12.048083305359 4.185660362244 3.882999420166 181 181 181
12.048083305359 4.185660362244 3.841999053955 185 185 185
12.028846740723 4.159822463989 3.800998687744 185 185 185
12.036057472229 4.156815528870 3.759998321533 210 210 210
12.028846740723 4.159822463989 3.718997955322 191 191 191
12.028846740723 4.159822463989 3.677997589111 181 181 181
12.028846740723 4.159822463989 3.636997222900 176 176 176
12.021636009216 4.162828445435 3.595996856689 175 175 175
12.021636009216 4.162828445435 3.554996490479 173 173 173
12.021636009216 4.162828445435 3.513996124268 172 172 172
12.021636009216 4.162828445435 3.472995758057 167 167 167
12.021636009216 4.162828445435 3.431995391846 167 167 167
12.021636009216 4.162828445435 3.390995025635 166 166 166
12.007214546204 4.168841362000 3.350002288818 160 160 160
12.007214546204 4.168841362000 3.307994842529 157 157 157
12.009611129761 4.133985519409 3.267002105713 155 155 155
12.009611129761 4.133985519409 3.226001739502 155 155 155
11.995188713074 4.139998435974 3.184001922607 152 152 152
11.995188713074 4.139998435974 3.143001556396 150 150 150
11.983163833618 4.111154556274 3.101001739502 148 148 148
11.983163833618 4.111154556274 3.059997558594 149 149 149
11.983163833618 4.111154556274 3.017997741699 146 146 146
11.975952148438 4.114161491394 2.976997375488 146 146 146
11.968741416931 4.117167472839 2.933998107910 151 151 151
11.975952148438 4.114161491394 2.892997741699 153 153 153
11.968741416931 4.117167472839 2.850997924805 147 147 147
11.968741416931 4.117167472839 2.808998107910 153 153 153
11.968741416931 4.117167472839 2.766998291016 151 151 151
11.956715583801 4.088323593140 2.723999023438 150 150 150
11.956715583801 4.088323593140 2.681999206543 152 152 152
11.956715583801 4.088323593140 2.639999389648 148 148 148
11.956715583801 4.088323593140 2.597999572754 151 151 151
11.949504852295 4.091329574585 2.555000305176 148 148 148
11.949504852295 4.091329574585 2.512996673584 146 146 146
11.956715583801 4.088323593140 2.469997406006 144 144 144
11.930269241333 4.065493583679 2.426998138428 144 144 144
11.930269241333 4.065493583679 2.384998321533 143 143 143
11.930269241333 4.065493583679 2.340999603271 147 147 147
11.930269241333 4.065493583679 2.298000335693 144 144 144
11.930269241333 4.065493583679 2.253997802734 141 141 141
11.930269241333 4.065493583679 2.209999084473 140 140 140
11.930269241333 4.065493583679 2.167999267578 140 140 140
11.903821945190 4.042662620544 2.120998382568 141 141 141
11.911032676697 4.039655685425 2.079998016357 135 135 135
11.903821945190 4.042662620544 2.034999847412 141 141 141
11.903821945190 4.042662620544 1.990997314453 138 138 138
11.903821945190 4.042662620544 1.946998596191 139 139 139
11.903821945190 4.042662620544 1.902999877930 137 137 137
11.903821945190 4.042662620544 1.857997894287 140 140 140
11.903821945190 4.042662620544 1.813999176025 143 143 143
11.903821945190 4.042662620544 1.770999908447 141 141 141
11.870163917542 4.022837638855 1.719997406006 136 136 136
11.884585380554 4.016824722290 1.678997039795 135 135 135
11.877374649048 4.019830703735 1.635997772217 135 135 135
11.884585380554 4.016824722290 1.590000152588 134 134 134
11.877374649048 4.019830703735 1.542999267578 139 139 139
11.870163917542 4.022837638855 1.496997833252 144 144 144
11.877374649048 4.019830703735 1.451999664307 132 132 132
11.862953186035 4.025843620300 1.402999877930 134 134 134
11.862953186035 4.025843620300 1.354999542236 141 141 141
11.790822029114 3.954344749451 1.289997100830 176 176 176
11.968697547913 3.914042472839 4.537998199463 111 111 111
11.954276084900 3.920055389404 4.494998931885 162 162 162
11.954276084900 3.920055389404 4.451000213623 165 165 165
11.954276084900 3.920055389404 4.409000396729 159 159 159
11.954276084900 3.920055389404 4.362995147705 163 163 163
11.954276084900 3.920055389404 4.318996429443 163 163 163
11.954276084900 3.920055389404 4.275997161865 59 59 59
11.954276084900 3.920055389404 4.235996246338 160 160 160
11.954276084900 3.920055389404 4.191997528076 165 165 165
11.949460983276 3.888204574585 4.148998260498 162 162 162
11.942250251770 3.891211509705 4.105998992920 165 165 165
11.942250251770 3.891211509705 4.062000274658 160 160 160
11.935039520264 3.894217491150 4.020999908447 85 85 85
11.822039604187 3.805901527405 3.637996673584 16 16 16
11.795592308044 3.783070564270 3.593997955322 47 47 47
11.795592308044 3.783070564270 3.550998687744 46 46 46
11.781169891357 3.789082527161 3.506999969482 44 44 44
11.795592308044 3.783070564270 3.462001800537 46 46 46
11.795592308044 3.783070564270 3.417995452881 46 46 46
11.769145011902 3.760238647461 3.373996734619 49 49 49
11.968652725220 3.710917472839 4.687999725342 37 37 37
11.987890243530 3.736754417419 4.640995025635 159 159 159
11.968652725220 3.710917472839 4.596996307373 158 158 158
11.968652725220 3.710917472839 4.552997589111 160 160 160
11.968652725220 3.710917472839 4.506999969482 163 163 163
11.968652725220 3.710917472839 4.460994720459 160 160 160
11.968652725220 3.710917472839 4.415996551514 82 82 82
11.942206382751 3.688086509705 4.150997161865 149 149 149
11.942206382751 3.688086509705 4.105998992920 166 166 166
11.942206382751 3.688086509705 4.062999725342 163 163 163
11.942206382751 3.688086509705 4.018001556396 166 166 166
11.927783966064 3.694098472595 3.973995208740 160 160 160
11.942206382751 3.688086509705 3.929996490479 104 104 104
11.995056152344 3.530623435974 4.564998626709 97 97 97
11.975820541382 3.504785537720 4.062000274658 117 117 117
11.961399078369 3.510798454285 4.018001556396 68 68 68
12.031133651733 3.617154121399 4.708995819092 117 117 117
12.016711235046 3.623167037964 4.665996551514 177 177 177
12.031133651733 3.617154121399 4.618999481201 175 175 175
12.019107818604 3.588310241699 4.575000762939 175 175 175
12.016711235046 3.623167037964 4.527996063232 174 174 174
12.019107818604 3.588310241699 4.482997894287 138 138 138
11.978239059448 3.571492195129 4.123996734619 92 92 92
11.978239059448 3.571492195129 4.078998565674 174 174 174
11.990264892578 3.600335121155 4.033000946045 174 174 174
11.971027374268 3.574498176575 3.989002227783 178 178 178
11.978239059448 3.571492195129 3.943996429443 181 181 181
11.978239059448 3.571492195129 3.897998809814 152 152 152
11.983119010925 3.908029556274 4.496997833252 169 169 169
11.983119010925 3.908029556274 4.452999114990 172 172 172
11.983119010925 3.908029556274 4.409999847412 177 177 177
11.983119010925 3.908029556274 4.366001129150 176 176 176
11.983119010925 3.908029556274 4.323001861572 173 173 173
11.983119010925 3.908029556274 4.278995513916 161 161 161
11.963883399963 3.882191658020 4.237995147705 173 173 173
11.956672668457 3.885198593140 4.194995880127 180 180 180
11.956672668457 3.885198593140 4.151996612549 175 175 175
11.956672668457 3.885198593140 4.107997894287 178 178 178
11.956672668457 3.885198593140 4.064998626709 173 173 173
11.956672668457 3.885198593140 4.021999359131 85 85 85
11.810013771057 3.777057647705 3.644001007080 42 42 42
11.810013771057 3.777057647705 3.600002288818 58 58 58
11.810013771057 3.777057647705 3.555995941162 52 52 52
11.836461067200 3.799888610840 3.509998321533 67 67 67
11.836461067200 3.799888610840 3.466999053955 67 67 67
11.836461067200 3.799888610840 3.423000335693 125 125 125
11.822039604187 3.805901527405 3.380001068115 68 68 68
11.822039604187 3.805901527405 3.335994720459 30 30 30
12.062460899353 3.976522445679 2.659000396729 29 29 29
12.062460899353 3.976522445679 2.616996765137 43 43 43
12.062460899353 3.976522445679 2.574996948242 54 54 54
12.036014556885 3.953690528870 2.529998779297 61 61 61
12.048039436340 3.982535362244 2.488998413086 78 78 78
12.048039436340 3.982535362244 2.446998596191 76 76 76
12.036014556885 3.953690528870 2.402999877930 85 85 85
12.048039436340 3.982535362244 2.359996795654 84 84 84
12.048039436340 3.982535362244 2.317996978760 94 94 94
12.036014556885 3.953690528870 2.273998260498 102 102 102
12.028802871704 3.956697463989 2.229999542236 104 104 104
12.028802871704 3.956697463989 2.187999725342 104 104 104
12.028802871704 3.956697463989 2.143997192383 107 107 107
12.028802871704 3.956697463989 2.100997924805 111 111 111
12.048039436340 3.982535362244 2.058998107910 119 119 119
12.028802871704 3.956697463989 2.013999938965 121 121 121
12.014381408691 3.962710380554 1.968997955322 131 131 131
12.021592140198 3.959703445435 1.925998687744 134 134 134
12.014381408691 3.962710380554 1.881999969482 137 137 137
12.014381408691 3.962710380554 1.837997436523 141 141 141
12.014381408691 3.962710380554 1.793998718262 143 143 143
12.007170677185 3.965716362000 1.746997833252 154 154 154
12.007170677185 3.965716362000 1.702999114990 153 153 153
12.014381408691 3.962710380554 1.659999847412 158 158 158
12.007170677185 3.965716362000 1.614997863770 151 151 151
12.014381408691 3.962710380554 1.571998596191 156 156 156
12.007170677185 3.965716362000 1.523998260498 159 159 159
12.007170677185 3.965716362000 1.479999542236 161 161 161
12.007170677185 3.965716362000 1.433998107910 163 163 163
12.007170677185 3.965716362000 1.388999938965 164 164 164
12.007170677185 3.965716362000 1.342998504639 166 166 166
12.007170677185 3.965716362000 1.298999786377 166 166 166
11.992748260498 3.971729278564 1.250000000000 170 170 170
11.975974082947 4.215723991394 4.421001434326 72 72 72
11.968763351440 4.218729972839 4.380001068115 175 175 175
11.968763351440 4.218729972839 4.339000701904 183 183 183
11.968763351440 4.218729972839 4.296001434326 168 168 168
11.968763351440 4.218729972839 4.254001617432 177 177 177
11.949527740479 4.192892074585 4.214000701904 176 176 176
11.975974082947 4.215723991394 4.170001983643 174 174 174
11.949527740479 4.192892074585 4.131000518799 179 179 179
11.975974082947 4.215723991394 4.087001800537 169 169 169
11.968763351440 4.218729972839 4.047000885010 70 70 70
11.802869796753 4.084751129150 3.645000457764 153 153 153
11.802869796753 4.084751129150 3.604999542236 59 59 59
11.788447380066 4.090764045715 3.562000274658 157 157 157
11.788447380066 4.090764045715 3.520000457764 51 51 51
11.788447380066 4.090764045715 3.478000640869 56 56 56
11.802869796753 4.084751129150 3.436000823975 55 55 55
11.855763435364 4.130413055420 3.393001556396 96 96 96
11.867789268494 4.159256935120 3.351001739502 111 111 111
11.829316139221 4.107583045959 3.310001373291 128 128 128
11.814894676208 4.113595008850 3.268001556396 171 171 171
11.788447380066 4.090764045715 3.226001739502 68 68 68
11.814894676208 4.113595008850 3.185001373291 75 75 75
11.807683944702 4.116601943970 3.143001556396 82 82 82
11.776422500610 4.061920166016 3.100002288818 55 55 55
11.762000083923 4.067933082581 3.057998657227 62 62 62
11.776422500610 4.061920166016 3.015998840332 54 54 54
11.762000083923 4.067933082581 2.972999572754 68 68 68
11.961618423462 4.526423454285 4.542995452881 167 167 167
11.942382812500 4.500586509705 4.504001617432 180 180 180
11.942382812500 4.500586509705 4.463001251221 181 181 181
11.942382812500 4.500586509705 4.424999237061 181 181 181
11.942382812500 4.500586509705 4.383998870850 178 178 178
11.942382812500 4.500586509705 4.343997955322 170 170 170
11.915935516357 4.477755546570 4.108997344971 86 86 86
11.942382812500 4.500586509705 4.065998077393 176 176 176
11.954407691956 4.529430389404 4.025997161865 176 176 176
11.927961349487 4.506599426270 3.987995147705 176 176 176
11.942382812500 4.500586509705 3.948001861572 217 217 217
11.942382812500 4.500586509705 3.909000396729 219 219 219
11.942382812500 4.500586509705 3.868999481201 176 176 176
11.762065887451 4.372620582581 3.565998077393 51 51 51
11.781302452087 4.398458480835 3.524997711182 66 66 66
11.781302452087 4.398458480835 3.484996795654 62 62 62
11.781302452087 4.398458480835 3.443996429443 62 62 62
11.754855155945 4.375626564026 3.404994964600 61 61 61
11.754855155945 4.375626564026 3.365001678467 59 59 59
11.754855155945 4.375626564026 3.325000762939 23 23 23
12.021592140198 3.959703445435 1.639999389648 23 23 23
12.021592140198 3.959703445435 1.682998657227 37 37 37
12.021592140198 3.959703445435 1.719997406006 45 45 45
12.021592140198 3.959703445435 1.758998870850 55 55 55
12.021592140198 3.959703445435 1.796997070313 60 60 60
12.033617973328 3.988547325134 1.835998535156 60 60 60
12.033617973328 3.988547325134 1.875000000000 65 65 65
12.021592140198 3.959703445435 1.909999847412 72 72 72
12.033617973328 3.988547325134 1.951000213623 74 74 74
12.033617973328 3.988547325134 1.987998962402 82 82 82
12.033617973328 3.988547325134 2.022998809814 89 89 89
12.033617973328 3.988547325134 2.060997009277 92 92 92
12.033617973328 3.988547325134 2.099998474121 90 90 90
12.033617973328 3.988547325134 2.134998321533 91 91 91
12.033617973328 3.988547325134 2.173000335693 94 94 94
12.033617973328 3.988547325134 2.210998535156 96 96 96
12.033617973328 3.988547325134 2.247997283936 93 93 93
12.026407241821 3.991554260254 2.284999847412 102 102 102
12.026407241821 3.991554260254 2.321998596191 105 105 105
12.026407241821 3.991554260254 2.358997344971 107 107 107
12.045642852783 4.017391204834 2.396999359131 111 111 111
12.045642852783 4.017391204834 2.432998657227 110 110 110
12.045642852783 4.017391204834 2.468997955322 112 112 112
12.031221389771 4.023404121399 2.504997253418 112 112 112
12.031221389771 4.023404121399 2.541000366211 118 118 118
12.038432121277 4.020398139954 2.578998565674 120 120 120
12.045642852783 4.017391204834 2.613998413086 125 125 125
12.045642852783 4.017391204834 2.649997711182 122 122 122
12.038432121277 4.020398139954 2.685997009277 135 135 135
12.038432121277 4.020398139954 2.722999572754 138 138 138
12.038432121277 4.020398139954 2.758998870850 135 135 135
12.043246269226 4.052247047424 2.794998168945 138 138 138
12.043246269226 4.052247047424 2.830997467041 145 145 145
12.043246269226 4.052247047424 2.865997314453 147 147 147
12.043246269226 4.052247047424 2.901996612549 147 147 147
12.043246269226 4.052247047424 2.937999725342 151 151 151
12.043246269226 4.052247047424 2.973999023438 148 148 148
12.055272102356 4.081090927124 3.009998321533 155 155 155
12.043246269226 4.052247047424 3.044998168945 155 155 155
12.055272102356 4.081090927124 3.080997467041 160 160 160
12.043246269226 4.052247047424 3.117000579834 161 161 161
12.055272102356 4.081090927124 3.151996612549 163 163 163
12.043246269226 4.052247047424 3.187999725342 169 169 169
12.055272102356 4.081090927124 3.222995758057 170 170 170
12.055272102356 4.081090927124 3.258998870850 172 172 172
12.055272102356 4.081090927124 3.293994903564 176 176 176
12.055272102356 4.081090927124 3.329998016357 176 176 176
12.067297935486 4.109934806824 3.365001678467 179 179 179
12.067297935486 4.109934806824 3.399997711182 187 187 187
12.067297935486 4.109934806824 3.436000823975 208 208 208
12.067297935486 4.109934806824 3.470996856689 201 201 201
12.067297935486 4.109934806824 3.506000518799 192 192 192
12.067297935486 4.109934806824 3.541996002197 192 192 192
12.060087203979 4.112940788269 3.577999114990 193 193 193
12.060087203979 4.112940788269 3.614002227783 190 190 190
12.060087203979 4.112940788269 3.648998260498 194 194 194
12.079322814941 4.138777732849 3.684001922607 190 190 190
12.067297935486 4.109934806824 3.719997406006 189 189 189
12.079322814941 4.138777732849 3.754001617432 190 190 190
12.079322814941 4.138777732849 3.790996551514 191 191 191
12.079322814941 4.138777732849 3.826000213623 188 188 188
12.079322814941 4.138777732849 3.861995697021 188 188 188
12.079322814941 4.138777732849 3.896999359131 189 189 189
12.064901351929 4.144790649414 3.932994842529 194 194 194
12.064901351929 4.144790649414 3.967998504639 191 191 191
12.064901351929 4.144790649414 4.005001068115 194 194 194
12.064901351929 4.144790649414 4.039997100830 194 194 194
12.076927185059 4.173634529114 4.075000762939 193 193 193
12.064901351929 4.144790649414 4.111995697021 195 195 195
12.076927185059 4.173634529114 4.146999359131 195 195 195
12.076927185059 4.173634529114 4.184001922607 191 191 191
12.076927185059 4.173634529114 4.219997406006 192 192 192
12.076927185059 4.173634529114 4.256999969482 192 192 192
12.084137916565 4.170628547668 4.290996551514 191 191 191
12.076927185059 4.173634529114 4.328998565674 195 195 195
12.076927185059 4.173634529114 4.365001678467 191 191 191
12.076927185059 4.173634529114 4.400997161865 194 194 194
12.076927185059 4.173634529114 4.437000274658 185 185 185
12.076927185059 4.173634529114 4.473995208740 189 189 189
12.076927185059 4.173634529114 4.508998870850 188 188 188
12.076927185059 4.173634529114 4.546001434326 185 185 185
12.088953018188 4.202477455139 4.582996368408 184 184 184
12.088953018188 4.202477455139 4.618000030518 184 184 184
12.088953018188 4.202477455139 4.653995513916 182 182 182
12.088953018188 4.202477455139 4.692996978760 185 185 185
12.088953018188 4.202477455139 4.731998443604 182 182 182
12.088953018188 4.202477455139 4.768001556396 99 99 99
11.757207870483 4.137646675110 2.990997314453 50 50 50
11.764418601990 4.134639739990 3.026996612549 50 50 50
11.764418601990 4.134639739990 3.062999725342 54 54 54
11.769232749939 4.166489601135 3.098995208740 63 63 63
11.769232749939 4.166489601135 3.134998321533 57 57 57
11.769232749939 4.166489601135 3.171001434326 63 63 63
11.769232749939 4.166489601135 3.205997467041 69 69 69
11.769232749939 4.166489601135 3.242000579834 58 58 58
11.781258583069 4.195333480835 3.276996612549 123 123 123
11.781258583069 4.195333480835 3.312000274658 129 129 129
11.805309295654 4.253020286560 3.344997406006 172 172 172
11.817335128784 4.281864166260 3.379001617432 170 170 170
11.817335128784 4.281864166260 3.413997650146 102 102 102
11.817335128784 4.281864166260 3.449001312256 101 101 101
11.817335128784 4.281864166260 3.483997344971 136 136 136
11.817335128784 4.281864166260 3.520999908447 173 173 173
11.793283462524 4.224177360535 3.560001373291 133 133 133
11.781258583069 4.195333480835 3.596996307373 72 72 72
11.793283462524 4.224177360535 3.631999969482 57 57 57
11.937589645386 4.570299148560 3.792995452881 55 55 55
11.925563812256 4.541456222534 3.831996917725 116 116 116
11.925563812256 4.541456222534 3.868999481201 156 156 156
11.911142349243 4.547468185425 3.901996612549 170 170 170
11.930378913879 4.573305130005 3.931995391846 124 124 124
11.911142349243 4.547468185425 3.967998504639 121 121 121
11.923168182373 4.576311111450 3.997997283936 110 110 110
11.911142349243 4.547468185425 4.036998748779 97 97 97
11.923168182373 4.576311111450 4.348995208740 98 98 98
11.923168182373 4.576311111450 4.378002166748 132 132 132
11.923168182373 4.576311111450 4.413997650146 124 124 124
11.935193061829 4.605154991150 4.445995330811 135 135 135
11.935193061829 4.605154991150 4.478000640869 129 129 129
11.935193061829 4.605154991150 4.514995574951 123 123 123
11.935193061829 4.605154991150 4.548000335693 137 137 137
11.959244728088 4.662841796875 4.574001312256 85 85 85
12.093745231628 4.132764816284 4.173000335693 111 111 111
12.093745231628 4.132764816284 4.214000701904 107 107 107
12.093745231628 4.132764816284 4.255001068115 113 113 113
12.096141815186 4.097908973694 4.301998138428 203 203 203
12.088930130005 4.100915908813 4.340999603271 192 192 192
12.093745231628 4.132764816284 4.380001068115 169 169 169
12.079322814941 4.138777732849 4.418994903564 151 151 151
12.076927185059 4.173634529114 4.454998016357 147 147 147
12.084137916565 4.170628547668 4.497997283936 151 151 151
12.084137916565 4.170628547668 4.539997100830 152 152 152
12.076927185059 4.173634529114 4.578998565674 155 155 155
12.084137916565 4.170628547668 4.621997833252 155 155 155
12.081741333008 4.205483436584 4.659999847412 158 158 158
12.081741333008 4.205483436584 4.701000213623 161 161 161
12.081741333008 4.205483436584 4.742000579834 167 167 167
12.081741333008 4.205483436584 4.784999847412 158 158 158
11.855719566345 3.927288055420 3.085998535156 36 36 36
11.831712722778 4.072726249695 3.254001617432 111 111 111
11.826919555664 4.142437934875 3.295001983643 164 164 164
11.822127342224 4.212151527405 3.335994720459 187 187 187
11.817313194275 4.180300712585 3.375995635986 189 189 189
11.819730758667 4.247007369995 3.414997100830 151 151 151
11.805309295654 4.253020286560 3.455997467041 141 141 141
11.814916610718 4.215157508850 3.496997833252 125 125 125
11.569702148438 4.114249229431 3.228000640869 49 49 49
11.579309463501 4.076386451721 3.270000457764 74 74 74
11.555302619934 4.221824645996 3.515995025635 17 17 17
11.564931869507 4.285524368286 3.554996490479 17 17 17
12.040850639343 4.087103843689 2.236999511719 74 74 74
12.043246269226 4.052247047424 2.274997711182 76 76 76
12.028824806213 4.058259963989 2.319000244141 92 92 92
12.028824806213 4.058259963989 2.361000061035 91 91 91
12.028824806213 4.058259963989 2.401996612549 100 100 100
12.028824806213 4.058259963989 2.444000244141 109 109 109
12.028824806213 4.058259963989 2.486000061035 117 117 117
12.028824806213 4.058259963989 2.526996612549 128 128 128
12.033639907837 4.090109825134 2.570999145508 136 136 136
12.040850639343 4.087103843689 2.611999511719 140 140 140
12.033639907837 4.090109825134 2.652999877930 150 150 150
12.033639907837 4.090109825134 2.694999694824 156 156 156
12.033639907837 4.090109825134 2.736000061035 160 160 160
12.026429176331 4.093116760254 2.777999877930 168 168 168
12.026429176331 4.093116760254 2.819000244141 176 176 176
12.026429176331 4.093116760254 2.861000061035 184 184 184
12.031243324280 4.124966621399 2.901996612549 189 189 189
12.031243324280 4.124966621399 2.944000244141 196 196 196
12.031243324280 4.124966621399 2.983997344971 204 204 204
12.031243324280 4.124966621399 3.024997711182 213 213 213
12.024032592773 4.127972602844 3.065998077393 222 222 222
12.024032592773 4.127972602844 3.107997894287 224 224 224
12.024032592773 4.127972602844 3.147998809814 226 226 226
12.024032592773 4.127972602844 3.188999176025 227 227 227
12.024032592773 4.127972602844 3.229999542236 231 231 231
12.024032592773 4.127972602844 3.270999908447 234 234 234
12.024032592773 4.127972602844 3.312000274658 237 237 237
12.024032592773 4.127972602844 3.352001190186 242 242 242
12.009611129761 4.133985519409 3.393001556396 244 244 244
12.009611129761 4.133985519409 3.434001922607 251 251 251
12.021636009216 4.162828445435 3.473995208740 250 250 250
12.021636009216 4.162828445435 3.514995574951 246 246 246
12.021636009216 4.162828445435 3.555995941162 244 244 244
12.009611129761 4.133985519409 3.596996307373 250 250 250
12.007214546204 4.168841362000 3.637996673584 13 13 13
12.007214546204 4.168841362000 3.677997589111 223 223 223
12.007214546204 4.168841362000 3.718997955322 203 203 203
12.009611129761 4.133985519409 3.759998321533 191 191 191
12.009611129761 4.133985519409 3.801998138428 184 184 184
11.992792129517 4.174854278564 3.839000701904 199 199 199
11.997607231140 4.206704139709 3.878002166748 192 192 192
11.976018905640 4.418848991394 3.896999359131 164 164 164
11.964015007019 4.491567611694 3.930995941162 162 162 162
11.932797431946 4.640011787415 3.951999664307 134 134 134
11.947218894958 4.633998870850 3.992000579834 95 95 95
11.954407691956 4.529430389404 4.041996002197 103 103 103
11.978414535522 4.383992195129 4.100002288818 110 110 110
11.985603332520 4.279422760010 4.157001495361 121 121 121
11.997607231140 4.206704139709 4.205997467041 167 167 167
11.992792129517 4.174854278564 4.249996185303 197 197 197
11.990396499634 4.209711074829 4.287998199463 214 214 214
11.990396499634 4.209711074829 4.326999664307 207 207 207
11.990396499634 4.209711074829 4.367000579834 194 194 194
11.963993072510 4.390005111694 4.381000518799 154 154 154
11.944800376892 4.567292213440 4.388996124268 96 96 96
11.942382812500 4.500586509705 4.439998626709 28 28 28
11.944800376892 4.567292213440 4.469997406006 50 50 50
11.956804275513 4.494573593140 4.522998809814 23 23 23
11.975974082947 4.215723991394 4.618000030518 62 62 62
12.004796028137 4.102135658264 4.684001922607 120 120 120
12.004774093628 4.000573158264 4.743999481201 161 161 161
11.995188713074 4.139998435974 4.760997772217 25 25 25
11.786050796509 4.125620841980 3.003997802734 46 46 46
11.781258583069 4.195333480835 3.045997619629 70 70 70
11.786050796509 4.125620841980 3.085998535156 103 103 103
11.786073684692 4.227183341980 3.129001617432 59 59 59
11.778861999512 4.230189323425 3.170001983643 76 76 76
11.778861999512 4.230189323425 3.210994720459 76 76 76
11.769232749939 4.166489601135 3.251995086670 53 53 53
11.788447380066 4.090764045715 3.292995452881 53 53 53
11.786050796509 4.125620841980 3.333995819092 144 144 144
11.783655166626 4.160476684570 3.374996185303 59 59 59
11.757251739502 4.340770721436 3.411998748779 73 73 73
11.754855155945 4.375626564026 3.451999664307 113 113 113
11.750041007996 4.343776702881 3.492000579834 86 86 86
11.757251739502 4.340770721436 3.533000946045 78 78 78
11.771651268005 4.233196258545 3.578998565674 71 71 71
11.810035705566 3.878620147705 3.637996673584 31 31 31
11.548069000244 4.123268127441 3.272998809814 82 82 82
12.019129753113 3.689872741699 4.674999237061 77 77 77
12.023944854736 3.721722602844 4.631000518799 100 100 100
12.023944854736 3.721722602844 4.592998504639 101 101 101
12.023944854736 3.721722602844 4.554996490479 107 107 107
12.019129753113 3.689872741699 4.514995574951 104 104 104
12.023944854736 3.721722602844 4.473995208740 102 102 102
12.023944854736 3.721722602844 4.431995391846 56 56 56
11.999893188477 3.664034843445 4.162998199463 24 24 24
11.999893188477 3.664034843445 4.126995086670 104 104 104
11.987867355347 3.635191917419 4.091999053955 117 117 117
11.999893188477 3.664034843445 4.052997589111 116 116 116
11.987867355347 3.635191917419 4.014995574951 123 123 123
11.987867355347 3.635191917419 3.975002288818 110 110 110
11.987867355347 3.635191917419 3.938999176025 107 107 107
11.975842475891 3.606348037720 3.902996063232 38 38 38
11.983207702637 4.314279556274 4.443996429443 89 89 89
11.978392601013 4.282429695129 4.413997650146 122 122 122
11.978392601013 4.282429695129 4.379001617432 117 117 117
11.978392601013 4.282429695129 4.341999053955 133 133 133
11.971181869507 4.285435676575 4.309001922607 117 117 117
11.978392601013 4.282429695129 4.268001556396 101 101 101
11.978392601013 4.282429695129 4.230998992920 110 110 110
11.978392601013 4.282429695129 4.195995330811 112 112 112
11.978392601013 4.282429695129 4.160999298096 114 114 114
11.985603332520 4.279422760010 4.124996185303 111 111 111
11.971181869507 4.285435676575 4.089000701904 114 114 114
11.983207702637 4.314279556274 4.049999237061 92 92 92
11.819665908813 3.942319869995 3.659999847412 45 45 45
11.838901519775 3.968156814575 3.621997833252 41 41 41
11.850927352905 3.997000694275 3.582996368408 126 126 126
11.819665908813 3.942319869995 3.548000335693 88 88 88
11.838901519775 3.968156814575 3.508998870850 162 162 162
11.923080444336 4.170062065125 3.457996368408 130 130 130
11.911054611206 4.141218185425 3.423000335693 144 144 144
11.923080444336 4.170062065125 3.385997772217 161 161 161
11.923080444336 4.170062065125 3.350002288818 150 150 150
11.911054611206 4.141218185425 3.314998626709 145 145 145
11.899028778076 4.112374305725 3.279994964600 153 153 153
11.826875686646 3.939312934875 3.250995635986 68 68 68
11.838901519775 3.968156814575 3.213001251221 127 127 127
11.838901519775 3.968156814575 3.175998687744 114 114 114
11.826875686646 3.939312934875 3.138996124268 118 118 118
11.814850807190 3.910470008850 3.102001190186 116 116 116
11.814850807190 3.910470008850 3.064998626709 18 18 18
11.778774261475 3.823939323425 1.319000244141 124 124 124
11.778774261475 3.823939323425 1.277999877930 224 224 224
11.687538146973 4.335978507996 3.536998748779 28 28 28
11.706775665283 4.361815452576 3.499996185303 38 38 38
11.593730926514 4.070373535156 3.300998687744 45 45 45
11.617782592773 4.128060340881 3.261997222900 62 62 62
11.627410888672 4.191761016846 3.223995208740 49 49 49
12.028737068176 3.652009963989 4.728000640869 99 99 99
12.028737068176 3.652009963989 4.680995941162 158 158 158
12.009500503540 3.626173019409 4.637996673584 163 163 163
12.028737068176 3.652009963989 4.590000152588 162 162 162
12.028737068176 3.652009963989 4.545001983643 165 165 165
12.028737068176 3.652009963989 4.497997283936 158 158 158
11.990264892578 3.600335121155 4.140995025635 125 125 125
11.990264892578 3.600335121155 4.096996307373 166 166 166
11.990264892578 3.600335121155 4.051998138428 165 165 165
11.975842475891 3.606348037720 4.007999420166 164 164 164
11.990264892578 3.600335121155 3.962001800537 162 162 162
11.975842475891 3.606348037720 3.918994903564 120 120 120
11.997541427612 3.902016639709 4.520000457764 149 149 149
11.997541427612 3.902016639709 4.475002288818 161 161 161
11.997541427612 3.902016639709 4.432994842529 161 161 161
11.997541427612 3.902016639709 4.388996124268 161 161 161
11.997541427612 3.902016639709 4.344997406006 163 163 163
11.997541427612 3.902016639709 4.301998138428 154 154 154
11.990329742432 3.905023574829 4.259998321533 146 146 146
11.971094131470 3.879185676575 4.217998504639 166 166 166
11.971094131470 3.879185676575 4.173000335693 163 163 163
11.963883399963 3.882191658020 4.131000518799 166 166 166
11.971094131470 3.879185676575 4.088001251221 162 162 162
11.971094131470 3.879185676575 4.045001983643 128 128 128
11.824435234070 3.771044731140 3.664997100830 16 16 16
11.824435234070 3.771044731140 3.621997833252 47 47 47
11.824435234070 3.771044731140 3.576999664307 42 42 42
11.824435234070 3.771044731140 3.533000946045 50 50 50
11.850883483887 3.793875694275 3.487995147705 57 57 57
11.858094215393 3.790869712830 3.443996429443 106 106 106
11.824435234070 3.771044731140 3.400997161865 40 40 40
11.797988891602 3.748213768005 3.357997894287 36 36 36
12.023988723755 3.924847602844 1.673999786377 15 15 15
11.997541427612 3.902016639709 1.622997283936 15 15 15
11.997541427612 3.902016639709 1.576999664307 23 23 23
11.997541427612 3.902016639709 1.534000396729 27 27 27
11.903777122498 3.839537620544 1.410999298096 178 178 178
11.930225372314 3.862368583679 1.371997833252 158 158 158
11.997607231140 4.206704139709 4.783000946045 124 124 124
12.004817962646 4.203698158264 4.739002227783 119 119 119
11.978370666504 4.180867195129 4.700000762939 125 125 125
11.978370666504 4.180867195129 4.658000946045 109 109 109
11.978370666504 4.180867195129 4.615001678467 103 103 103
11.978370666504 4.180867195129 4.573001861572 99 99 99
11.978370666504 4.180867195129 4.531002044678 89 89 89
11.997607231140 4.206704139709 4.487995147705 79 79 79
11.978370666504 4.180867195129 4.448001861572 75 75 75
11.978370666504 4.180867195129 4.408000946045 150 150 150
11.978370666504 4.180867195129 4.366001129150 167 167 167
11.978370666504 4.180867195129 4.323001861572 161 161 161
11.978370666504 4.180867195129 4.282001495361 170 170 170
