23.651058197021 17.859714508057 5.076995849609 129 129 129
23.651058197021 17.859714508057 5.000000000000 186 186 186
23.620365142822 17.853847503662 4.920989990234 180 180 180
23.651058197021 17.859714508057 4.470977783203 159 159 159
23.620365142822 17.853847503662 4.394989013672 185 185 185
23.620365142822 17.853847503662 4.319976806641 190 190 190
23.642944335938 17.985424041748 5.078979492188 56 56 56
23.627595901489 17.982492446899 5.000976562500 184 184 184
23.642944335938 17.985424041748 4.925994873047 194 194 194
23.627595901489 17.982492446899 4.847991943359 181 181 181
23.627595901489 17.982492446899 4.542999267578 74 74 74
23.627595901489 17.982492446899 4.470001220703 205 205 205
23.627595901489 17.982492446899 4.394989013672 197 197 197
23.627595901489 17.982492446899 4.319976806641 190 190 190
23.634828567505 18.111135482788 5.008972167969 87 87 87
23.634828567505 18.111135482788 4.929992675781 186 186 186
23.619482040405 18.108201980591 4.850982666016 200 200 200
23.619482040405 18.108201980591 4.774993896484 182 182 182
23.619482040405 18.108201980591 4.547973632813 211 211 211
23.634828567505 18.111135482788 4.471984863281 200 200 200
23.619482040405 18.108201980591 4.396972656250 195 195 195
23.735027313232 18.003021240234 4.100982666016 143 143 143
23.750375747681 18.005954742432 4.024993896484 169 169 169
23.735027313232 18.003021240234 3.948974609375 163 163 163
23.735027313232 18.003021240234 3.872985839844 29 29 29
23.611368179321 18.233913421631 5.316986083984 55 55 55
23.680870056152 18.119934082031 4.935974121094 97 97 97
23.642061233521 18.239778518677 4.856994628906 185 185 185
23.626714706421 18.236846923828 4.779998779297 201 201 201
23.642061233521 18.239778518677 4.703979492188 185 185 185
23.642061233521 18.239778518677 4.627990722656 197 197 197
23.680870056152 18.119934082031 4.552978515625 194 194 194
23.680870056152 18.119934082031 4.476989746094 193 193 193
23.757606506348 18.134597778320 4.179992675781 177 177 177
23.757606506348 18.134597778320 4.102996826172 172 172 172
23.726913452148 18.128730773926 4.026000976563 150 150 150
23.742259979248 18.131664276123 3.949981689453 157 157 157
23.757606506348 18.134597778320 3.873992919922 151 151 151
23.757606506348 18.134597778320 3.797973632813 169 169 169
23.757606506348 18.134597778320 3.721984863281 152 152 152
23.426319122314 18.453075408936 5.359985351563 123 123 123
23.587905883789 18.356693267822 5.319976806641 97 97 97
23.495822906494 18.339096069336 5.215972900391 117 117 117
23.587905883789 18.356693267822 5.160980224609 85 85 85
23.526517868042 18.344963073730 5.072998046875 105 105 105
23.572559356689 18.353759765625 5.004974365234 138 138 138
23.572559356689 18.353759765625 4.924987792969 135 135 135
23.587905883789 18.356693267822 4.852996826172 121 121 121
23.603254318237 18.359626770020 4.780975341797 172 172 172
23.603254318237 18.359626770020 4.704986572266 174 174 174
23.603254318237 18.359626770020 4.627990722656 175 175 175
23.603254318237 18.359626770020 4.551971435547 195 195 195
23.511169433594 18.342029571533 4.464996337891 94 94 94
23.495822906494 18.339096069336 4.389984130859 96 96 96
23.495822906494 18.339096069336 4.314971923828 96 96 96
23.495822906494 18.339096069336 4.240997314453 108 108 108
23.557210922241 18.350828170776 4.171997070313 169 169 169
23.557210922241 18.350828170776 4.095977783203 156 156 156
23.511169433594 18.342029571533 4.020996093750 145 145 145
23.511169433594 18.342029571533 3.946990966797 160 160 160
23.495822906494 18.339096069336 3.872985839844 162 162 162
23.495822906494 18.339096069336 3.799987792969 172 172 172
23.495822906494 18.339096069336 3.725982666016 185 185 185
23.480474472046 18.336162567139 3.652984619141 177 177 177
23.495822906494 18.339096069336 3.579986572266 179 179 179
23.495822906494 18.339096069336 3.505981445313 181 181 181
23.495822906494 18.339096069336 3.432983398438 185 185 185
23.495822906494 18.339096069336 3.358978271484 188 188 188
23.480474472046 18.336162567139 3.285980224609 190 190 190
23.480474472046 18.336162567139 3.211975097656 187 187 187
23.480474472046 18.336162567139 3.138000488281 189 189 189
23.480474472046 18.336162567139 3.063995361328 191 191 191
23.480474472046 18.336162567139 2.989990234375 190 190 190
23.480474472046 18.336162567139 2.915985107422 185 185 185
23.480474472046 18.336162567139 2.841979980469 194 194 194
23.480474472046 18.336162567139 2.764984130859 190 190 190
23.480474472046 18.336162567139 2.688995361328 189 189 189
23.480474472046 18.336162567139 2.614990234375 183 183 183
23.480474472046 18.336162567139 2.538970947266 183 183 183
23.465127944946 18.333230972290 2.463989257813 183 183 183
23.480474472046 18.336162567139 2.384979248047 180 180 180
23.480474472046 18.336162567139 2.306976318359 182 182 182
23.480474472046 18.336162567139 2.231994628906 177 177 177
23.480474472046 18.336162567139 2.153991699219 178 178 178
23.480474472046 18.336162567139 2.073974609375 174 174 174
23.480474472046 18.336162567139 1.991973876953 175 175 175
23.480474472046 18.336162567139 1.916992187500 172 172 172
23.480474472046 18.336162567139 1.835998535156 170 170 170
23.480474472046 18.336162567139 1.753997802734 165 165 165
23.487707138062 18.464807510376 5.381988525391 122 122 122
23.549097061157 18.476537704468 5.315979003906 119 119 119
23.487707138062 18.464807510376 5.223999023438 97 97 97
23.549097061157 18.476537704468 5.161987304688 87 87 87
23.549097061157 18.476537704468 5.085998535156 157 157 157
23.564443588257 18.479471206665 5.010986328125 161 161 161
23.564443588257 18.479471206665 4.934997558594 160 160 160
23.579792022705 18.482402801514 4.860992431641 164 164 164
23.579792022705 18.482402801514 4.783996582031 163 163 163
23.579792022705 18.482402801514 4.707977294922 165 165 165
23.595138549805 18.485336303711 4.631988525391 171 171 171
23.579792022705 18.482402801514 4.555999755859 171 171 171
23.579792022705 18.482402801514 4.478973388672 172 172 172
23.595138549805 18.485336303711 4.404998779297 171 171 171
23.595138549805 18.485336303711 4.328979492188 172 172 172
23.595138549805 18.485336303711 4.253997802734 165 165 165
23.649295806885 18.368423461914 4.178985595703 177 177 177
23.641180038452 18.494134902954 4.104980468750 182 182 182
23.641180038452 18.494134902954 4.028991699219 188 188 188
23.649295806885 18.368423461914 3.952972412109 195 195 195
23.641180038452 18.494134902954 3.876983642578 210 210 210
23.633947372437 18.365491867065 3.801971435547 215 215 215
23.633947372437 18.365491867065 3.726989746094 228 228 228
23.649295806885 18.368423461914 3.651000976563 194 194 194
23.649295806885 18.368423461914 3.574981689453 189 189 189
23.633947372437 18.365491867065 3.500000000000 177 177 177
23.633947372437 18.365491867065 3.424987792969 167 167 167
23.595138549805 18.485336303711 3.348999023438 155 155 155
23.595138549805 18.485336303711 3.273986816406 145 145 145
23.595138549805 18.485336303711 3.197998046875 133 133 133
23.595138549805 18.485336303711 3.121978759766 112 112 112
23.595138549805 18.485336303711 3.046997070313 65 65 65
23.525634765625 18.599315643311 5.317993164063 97 97 97
23.779306411743 18.520528793335 5.304992675781 62 62 62
23.633066177368 18.619846343994 4.876983642578 168 168 168
23.648412704468 18.622777938843 4.799987792969 187 187 187
23.633066177368 18.619846343994 4.721984863281 194 194 194
23.633066177368 18.619846343994 4.643981933594 193 193 193
23.633066177368 18.619846343994 4.565979003906 193 193 193
23.633066177368 18.619846343994 4.489990234375 180 180 180
23.779306411743 18.520528793335 4.192993164063 168 168 168
23.779306411743 18.520528793335 4.114990234375 167 167 167
23.748611450195 18.514663696289 4.035980224609 141 141 141
23.733264923096 18.511730194092 3.957977294922 154 154 154
23.779306411743 18.520528793335 3.880981445313 144 144 144
23.779306411743 18.520528793335 3.802978515625 176 176 176
23.779306411743 18.520528793335 3.725982666016 154 154 154
23.779306411743 18.520528793335 3.647979736328 159 159 159
23.763957977295 18.517597198486 3.570983886719 146 146 146
23.679107666016 18.628643035889 4.963989257813 53 53 53
23.679107666016 18.628643035889 4.884979248047 197 197 197
23.679107666016 18.628643035889 4.805999755859 194 194 194
23.640296936035 18.748489379883 4.727996826172 186 186 186
23.640296936035 18.748489379883 4.649993896484 104 104 104
23.624950408936 18.745555877686 4.570983886719 186 186 186
23.624950408936 18.745555877686 4.493988037109 191 191 191
23.624950408936 18.745555877686 4.416992187500 180 180 180
23.786539077759 18.649173736572 4.195983886719 59 59 59
23.786539077759 18.649173736572 4.116973876953 176 176 176
23.786539077759 18.649173736572 4.038970947266 180 180 180
23.771190643311 18.646240234375 3.960998535156 184 184 184
23.786539077759 18.649173736572 3.882995605469 173 173 173
23.771190643311 18.646240234375 3.803985595703 175 175 175
23.786539077759 18.649173736572 3.725982666016 139 139 139
23.670991897583 18.754354476929 4.968994140625 192 192 192
23.670991897583 18.754354476929 4.890991210938 192 192 192
23.670991897583 18.754354476929 4.811981201172 194 194 194
23.655645370483 18.751420974731 4.574981689453 150 150 150
23.655645370483 18.751420974731 4.495971679688 190 190 190
23.616834640503 18.871269226074 4.417999267578 193 193 193
23.655645370483 18.751420974731 4.341979980469 171 171 171
23.793769836426 18.777816772461 4.118988037109 69 69 69
23.809118270874 18.780748367310 4.039978027344 199 199 199
23.809118270874 18.780748367310 3.961975097656 202 202 202
23.793769836426 18.777816772461 3.882995605469 105 105 105
23.662878036499 18.880065917969 5.052978515625 198 198 198
23.662878036499 18.880065917969 4.973999023438 191 191 191
23.662878036499 18.880065917969 4.893981933594 209 209 209
23.647529602051 18.877134323120 4.500000000000 180 180 180
23.647529602051 18.877134323120 4.421997070313 191 191 191
23.647529602051 18.877134323120 4.343994140625 200 200 200
23.647529602051 18.877134323120 4.265991210938 114 114 114
23.685457229614 19.011642456055 4.978973388672 173 173 173
23.670110702515 19.008710861206 4.896972656250 99 99 99
23.639417648315 19.002845764160 4.421997070313 178 178 178
23.654764175415 19.005777359009 4.345001220703 19 19 19
24.011278152466 18.055810928345 4.087982177734 76 76 76
23.635711669922 17.856781005859 4.444000244141 60 60 60
23.635711669922 17.856781005859 4.972991943359 91 91 91
23.849691390991 18.152193069458 4.076995849609 104 104 104
23.635711669922 17.856781005859 4.288970947266 116 116 116
23.612249374390 17.979558944702 4.364990234375 189 189 189
23.612249374390 17.979558944702 4.438995361328 192 192 192
23.627595901489 17.982492446899 4.516998291016 112 112 112
23.627595901489 17.982492446899 4.895996093750 153 153 153
23.627595901489 17.982492446899 4.971984863281 159 159 159
23.627595901489 17.982492446899 5.050994873047 152 152 152
23.772954940796 18.137529373169 3.760986328125 102 102 102
23.742259979248 18.131664276123 3.836975097656 111 111 111
23.742259979248 18.131664276123 3.913970947266 104 104 104
23.742259979248 18.131664276123 3.989990234375 118 118 118
23.742259979248 18.131664276123 4.065979003906 113 113 113
23.742259979248 18.131664276123 4.142974853516 114 114 114
23.604133605957 18.105270385742 4.359985351563 85 85 85
23.604133605957 18.105270385742 4.435974121094 198 198 198
23.619482040405 18.108201980591 4.513000488281 189 189 189
23.619482040405 18.108201980591 4.587982177734 123 123 123
23.619482040405 18.108201980591 4.816986083984 187 187 187
23.619482040405 18.108201980591 4.893981933594 159 159 159
23.634828567505 18.111135482788 4.971984863281 150 150 150
23.749494552612 18.260307312012 3.603973388672 110 110 110
23.764841079712 18.263240814209 3.679992675781 118 118 118
23.764841079712 18.263240814209 3.756988525391 122 122 122
23.749494552612 18.260307312012 3.832977294922 128 128 128
23.764841079712 18.263240814209 3.909973144531 116 116 116
23.703451156616 18.251510620117 3.985992431641 88 88 88
23.734144210815 18.257375717163 4.061981201172 97 97 97
23.756727218628 18.388954162598 4.141998291016 123 123 123
23.756727218628 18.388954162598 4.218994140625 56 56 56
23.626714706421 18.236846923828 4.434997558594 33 33 33
23.642061233521 18.239778518677 4.513000488281 193 193 193
23.657407760620 18.242712020874 4.589996337891 181 181 181
23.657407760620 18.242712020874 4.665985107422 145 145 145
23.642061233521 18.239778518677 4.739990234375 188 188 188
23.657407760620 18.242712020874 4.819000244141 151 151 151
23.642061233521 18.239778518677 4.895996093750 151 151 151
23.772073745728 18.391885757446 5.328979492188 69 69 69
23.626714706421 18.236846923828 2.062988281250 23 23 23
23.611368179321 18.233913421631 2.148986816406 25 25 25
23.611368179321 18.233913421631 2.227996826172 33 33 33
23.626714706421 18.236846923828 2.306976318359 35 35 35
23.611368179321 18.233913421631 2.385986328125 40 40 40
23.611368179321 18.233913421631 2.463989257813 45 45 45
23.626714706421 18.236846923828 2.541992187500 53 53 53
23.626714706421 18.236846923828 2.616973876953 61 61 61
23.626714706421 18.236846923828 2.695983886719 61 61 61
23.626714706421 18.236846923828 2.770996093750 69 69 69
23.626714706421 18.236846923828 2.848999023438 66 66 66
23.626714706421 18.236846923828 2.925994873047 80 80 80
23.626714706421 18.236846923828 3.001983642578 78 78 78
23.626714706421 18.236846923828 3.076995849609 89 89 89
23.603254318237 18.359626770020 3.151977539063 91 91 91
23.626714706421 18.236846923828 3.228973388672 98 98 98
23.603254318237 18.359626770020 3.302978515625 106 106 106
23.587905883789 18.356693267822 3.379974365234 103 103 103
23.603254318237 18.359626770020 3.453979492188 109 109 109
23.633947372437 18.365491867065 3.527984619141 131 131 131
23.649295806885 18.368423461914 3.602996826172 151 151 151
23.618600845337 18.362558364868 3.678985595703 145 145 145
23.633947372437 18.365491867065 3.753997802734 138 138 138
23.611368179321 18.233913421631 3.829986572266 123 123 123
23.649295806885 18.368423461914 3.904998779297 152 152 152
23.633947372437 18.365491867065 3.979980468750 142 142 142
23.664642333984 18.371356964111 4.056976318359 144 144 144
23.664642333984 18.371356964111 4.132995605469 170 170 170
23.649295806885 18.368423461914 4.207977294922 155 155 155
23.633947372437 18.365491867065 4.282989501953 125 125 125
23.633947372437 18.365491867065 4.358978271484 130 130 130
23.649295806885 18.368423461914 4.435974121094 155 155 155
23.633947372437 18.365491867065 4.510986328125 167 167 167
23.633947372437 18.365491867065 4.587982177734 180 180 180
23.649295806885 18.368423461914 4.664978027344 181 181 181
23.618600845337 18.362558364868 4.737976074219 187 187 187
23.633947372437 18.365491867065 4.817993164063 156 156 156
23.633947372437 18.365491867065 4.894989013672 114 114 114
23.633947372437 18.365491867065 4.972991943359 112 112 112
23.633947372437 18.365491867065 5.048980712891 94 94 94
23.572559356689 18.353759765625 5.113983154297 74 74 74
23.557210922241 18.350828170776 5.190979003906 98 98 98
23.572559356689 18.353759765625 5.270996093750 68 68 68
23.519285202026 18.216316223145 5.324981689453 107 107 107
23.572559356689 18.353759765625 5.426971435547 64 64 64
23.465127944946 18.333230972290 1.623992919922 182 182 182
23.465127944946 18.333230972290 1.705993652344 179 179 179
23.465127944946 18.333230972290 1.784973144531 175 175 175
23.465127944946 18.333230972290 1.864990234375 179 179 179
23.465127944946 18.333230972290 1.944976806641 181 181 181
23.465127944946 18.333230972290 2.024993896484 184 184 184
23.465127944946 18.333230972290 2.104980468750 182 182 182
23.465127944946 18.333230972290 2.183990478516 183 183 183
23.465127944946 18.333230972290 2.258972167969 186 186 186
23.465127944946 18.333230972290 2.336975097656 189 189 189
23.465127944946 18.333230972290 2.413970947266 187 187 187
23.465127944946 18.333230972290 2.490997314453 188 188 188
23.465127944946 18.333230972290 2.566986083984 190 190 190
23.465127944946 18.333230972290 2.642974853516 190 190 190
23.480474472046 18.336162567139 2.716979980469 192 192 192
23.465127944946 18.333230972290 2.793975830078 195 195 195
23.465127944946 18.333230972290 2.868988037109 195 195 195
23.465127944946 18.333230972290 2.944000244141 195 195 195
23.480474472046 18.336162567139 3.017974853516 197 197 197
23.480474472046 18.336162567139 3.091979980469 198 198 198
23.465127944946 18.333230972290 3.166992187500 202 202 202
23.480474472046 18.336162567139 3.239990234375 202 202 202
23.480474472046 18.336162567139 3.313995361328 204 204 204
23.480474472046 18.336162567139 3.388000488281 208 208 208
23.495822906494 18.339096069336 3.460998535156 223 223 223
23.495822906494 18.339096069336 3.533996582031 231 231 231
23.511169433594 18.342029571533 3.607971191406 250 250 250
23.495822906494 18.339096069336 3.681976318359 255 255 255
23.511169433594 18.342029571533 3.754974365234 249 249 249
23.495822906494 18.339096069336 3.828979492188 227 227 227
23.495822906494 18.339096069336 3.901977539063 216 216 216
23.495822906494 18.339096069336 3.975982666016 206 206 206
23.495822906494 18.339096069336 4.049987792969 200 200 200
23.495822906494 18.339096069336 4.122985839844 198 198 198
23.495822906494 18.339096069336 4.196990966797 197 197 197
23.495822906494 18.339096069336 4.270996093750 196 196 196
23.495822906494 18.339096069336 4.345001220703 196 196 196
23.511169433594 18.342029571533 4.420989990234 189 189 189
23.511169433594 18.342029571533 4.494995117188 191 191 191
23.511169433594 18.342029571533 4.569976806641 189 189 189
23.526517868042 18.344963073730 4.645996093750 188 188 188
23.526517868042 18.344963073730 4.720977783203 187 187 187
23.526517868042 18.344963073730 4.797973632813 183 183 183
23.526517868042 18.344963073730 4.871978759766 182 182 182
23.526517868042 18.344963073730 4.949981689453 178 178 178
23.541864395142 18.347894668579 5.027984619141 175 175 175
23.541864395142 18.347894668579 5.104980468750 167 167 167
23.511169433594 18.342029571533 5.175994873047 111 111 111
23.480474472046 18.336162567139 5.245971679688 87 87 87
23.511169433594 18.342029571533 5.329986572266 115 115 115
23.465127944946 18.333230972290 5.397979736328 109 109 109
23.663759231567 18.625711441040 4.441986083984 141 141 141
23.663759231567 18.625711441040 4.518981933594 152 152 152
23.624950408936 18.745555877686 4.597991943359 149 149 149
23.640296936035 18.748489379883 4.753997802734 132 132 132
23.640296936035 18.748489379883 4.833984375000 130 130 130
23.640296936035 18.748489379883 4.912994384766 136 136 136
23.503055572510 18.467739105225 5.334991455078 80 80 80
23.632183074951 18.874200820923 4.370971679688 144 144 144
23.632183074951 18.874200820923 4.447998046875 147 147 147
23.632183074951 18.874200820923 4.526000976563 149 149 149
23.647529602051 18.877134323120 4.842987060547 131 131 131
23.678224563599 18.882999420166 4.924987792969 184 184 184
23.662878036499 18.880065917969 5.002990722656 135 135 135
23.624067306519 18.999912261963 4.295989990234 80 80 80
23.654764175415 19.005777359009 4.376983642578 183 183 183
23.639417648315 19.002845764160 4.453979492188 134 134 134
23.670110702515 19.008710861206 4.930999755859 147 147 147
23.639417648315 19.002845764160 5.006988525391 73 73 73
23.635711669922 17.856781005859 5.032989501953 112 112 112
23.635711669922 17.856781005859 4.963989257813 210 210 210
23.651058197021 17.859714508057 4.897979736328 173 173 173
23.635711669922 17.856781005859 4.430999755859 206 206 206
23.635711669922 17.856781005859 4.365997314453 217 217 217
23.635711669922 17.856781005859 4.300994873047 21 21 21
23.627595901489 17.982492446899 5.039978027344 192 192 192
23.627595901489 17.982492446899 4.971984863281 208 208 208
23.642944335938 17.985424041748 4.904998779297 208 208 208
23.642944335938 17.985424041748 4.836975097656 210 210 210
23.642944335938 17.985424041748 4.503997802734 204 204 204
23.642944335938 17.985424041748 4.436981201172 220 220 220
23.642944335938 17.985424041748 4.370971679688 212 212 212
23.627595901489 17.982492446899 4.304992675781 203 203 203
23.619482040405 18.108201980591 4.979980468750 84 84 84
23.634828567505 18.111135482788 4.914978027344 207 207 207
23.634828567505 18.111135482788 4.846984863281 219 219 219
23.634828567505 18.111135482788 4.777984619141 216 216 216
23.634828567505 18.111135482788 4.577972412109 205 205 205
23.634828567505 18.111135482788 4.510986328125 218 218 218
23.650177001953 18.114067077637 4.444976806641 218 218 218
23.634828567505 18.111135482788 4.377990722656 192 192 192
23.726913452148 18.128730773926 4.125000000000 174 174 174
23.742259979248 18.131664276123 4.059997558594 176 176 176
23.742259979248 18.131664276123 3.992980957031 175 175 175
23.742259979248 18.131664276123 3.926971435547 174 174 174
23.726913452148 18.128730773926 3.860992431641 167 167 167
23.742259979248 18.131664276123 3.794982910156 152 152 152
23.534631729126 18.219249725342 5.310974121094 55 55 55
23.764841079712 18.263240814209 5.306976318359 78 78 78
23.657407760620 18.242712020874 4.857971191406 205 205 205
23.657407760620 18.242712020874 4.788970947266 206 206 206
23.657407760620 18.242712020874 4.720001220703 210 210 210
23.657407760620 18.242712020874 4.654998779297 207 207 207
23.657407760620 18.242712020874 4.586975097656 201 201 201
23.657407760620 18.242712020874 4.521972656250 217 217 217
23.657407760620 18.242712020874 4.452972412109 175 175 175
23.764841079712 18.263240814209 4.201995849609 117 117 117
23.780187606812 18.266174316406 4.134979248047 164 164 164
23.749494552612 18.260307312012 4.064971923828 151 151 151
23.703451156616 18.251510620117 3.995971679688 128 128 128
23.734144210815 18.257375717163 3.931976318359 175 175 175
23.764841079712 18.263240814209 3.866973876953 158 158 158
23.764841079712 18.263240814209 3.800994873047 186 186 186
23.764841079712 18.263240814209 3.733978271484 158 158 158
23.764841079712 18.263240814209 3.667999267578 159 159 159
23.749494552612 18.260307312012 3.601989746094 161 161 161
23.718797683716 18.254442214966 3.535980224609 29 29 29
23.495822906494 18.339096069336 5.380981445313 113 113 113
23.557210922241 18.350828170776 5.327972412109 105 105 105
23.511169433594 18.342029571533 5.243988037109 83 83 83
23.511169433594 18.342029571533 5.176971435547 135 135 135
23.572559356689 18.353759765625 5.119995117188 127 127 127
23.587905883789 18.356693267822 5.053985595703 130 130 130
23.618600845337 18.362558364868 4.994995117188 167 167 167
23.603254318237 18.359626770020 4.921997070313 171 171 171
23.587905883789 18.356693267822 4.849975585938 192 192 192
23.603254318237 18.359626770020 4.785980224609 194 194 194
23.603254318237 18.359626770020 4.720001220703 176 176 176
23.603254318237 18.359626770020 4.653991699219 169 169 169
23.603254318237 18.359626770020 4.585998535156 171 171 171
23.603254318237 18.359626770020 4.518981933594 169 169 169
23.603254318237 18.359626770020 4.451995849609 171 171 171
23.587905883789 18.356693267822 4.384979248047 172 172 172
23.587905883789 18.356693267822 4.319000244141 170 170 170
23.587905883789 18.356693267822 4.252990722656 166 166 166
23.572559356689 18.353759765625 4.186981201172 169 169 169
23.572559356689 18.353759765625 4.120971679688 166 166 166
23.572559356689 18.353759765625 4.055999755859 163 163 163
23.557210922241 18.350828170776 3.989990234375 161 161 161
23.557210922241 18.350828170776 3.925994873047 156 156 156
23.541864395142 18.347894668579 3.860992431641 156 156 156
23.541864395142 18.347894668579 3.796997070313 157 157 157
23.526517868042 18.344963073730 3.732971191406 158 158 158
23.511169433594 18.342029571533 3.667999267578 159 159 159
23.511169433594 18.342029571533 3.604980468750 161 161 161
23.511169433594 18.342029571533 3.540985107422 171 171 171
23.511169433594 18.342029571533 3.476989746094 210 210 210
23.495822906494 18.339096069336 3.413970947266 176 176 176
23.495822906494 18.339096069336 3.349975585938 169 169 169
23.495822906494 18.339096069336 3.286987304688 172 172 172
23.495822906494 18.339096069336 3.222991943359 169 169 169
23.495822906494 18.339096069336 3.158996582031 171 171 171
23.495822906494 18.339096069336 3.095001220703 168 168 168
23.495822906494 18.339096069336 3.030975341797 167 167 167
23.495822906494 18.339096069336 2.965972900391 166 166 166
23.480474472046 18.336162567139 2.903991699219 168 168 168
23.495822906494 18.339096069336 2.837982177734 167 167 167
23.495822906494 18.339096069336 2.771972656250 170 170 170
23.480474472046 18.336162567139 2.707977294922 169 169 169
23.480474472046 18.336162567139 2.643981933594 169 169 169
23.480474472046 18.336162567139 2.579986572266 170 170 170
23.480474472046 18.336162567139 2.513000488281 169 169 169
23.480474472046 18.336162567139 2.447998046875 170 170 170
23.465127944946 18.333230972290 2.382995605469 166 166 166
23.465127944946 18.333230972290 2.317993164063 169 169 169
23.449781417847 18.330299377441 2.252990722656 167 167 167
23.465127944946 18.333230972290 2.181976318359 168 168 168
23.465127944946 18.333230972290 2.114990234375 170 170 170
23.465127944946 18.333230972290 2.047973632813 167 167 167
23.465127944946 18.333230972290 1.977996826172 170 170 170
23.449781417847 18.330299377441 1.911987304688 168 168 168
23.465127944946 18.333230972290 1.841979980469 166 166 166
23.449781417847 18.330299377441 1.772979736328 170 170 170
23.449781417847 18.330299377441 1.704986572266 174 174 174
23.449781417847 18.330299377441 1.633972167969 170 170 170
23.449781417847 18.330299377441 1.560974121094 174 174 174
23.457012176514 18.458942413330 5.381988525391 84 84 84
23.533748626709 18.473606109619 5.333984375000 101 101 101
23.518402099609 18.470672607422 5.258972167969 81 81 81
23.487707138062 18.464807510376 5.178985595703 117 117 117
23.625833511353 18.491201400757 5.146972656250 22 22 22
23.671875000000 18.500000000000 4.809997558594 198 198 198
23.656528472900 18.497066497803 4.738983154297 206 206 206
23.656528472900 18.497066497803 4.671997070313 214 214 214
23.656528472900 18.497066497803 4.601989746094 214 214 214
23.656528472900 18.497066497803 4.533996582031 213 213 213
23.779306411743 18.520528793335 4.148986816406 177 177 177
23.779306411743 18.520528793335 4.079986572266 174 174 174
23.656528472900 18.497066497803 4.001983642578 136 136 136
23.641180038452 18.494134902954 3.935974121094 168 168 168
23.656528472900 18.497066497803 3.869995117188 178 178 178
23.641180038452 18.494134902954 3.803985595703 181 181 181
23.748611450195 18.514663696289 3.741973876953 181 181 181
23.763957977295 18.517597198486 3.674987792969 161 161 161
23.763957977295 18.517597198486 3.607971191406 159 159 159
23.625833511353 18.491201400757 3.541992187500 58 58 58
23.663759231567 18.625711441040 5.301971435547 82 82 82
23.663759231567 18.625711441040 4.885986328125 197 197 197
23.663759231567 18.625711441040 4.814971923828 194 194 194
23.663759231567 18.625711441040 4.745971679688 205 205 205
23.663759231567 18.625711441040 4.676971435547 122 122 122
23.663759231567 18.625711441040 4.607971191406 214 214 214
23.663759231567 18.625711441040 4.537994384766 215 215 215
23.663759231567 18.625711441040 4.470977783203 214 214 214
23.663759231567 18.625711441040 4.406982421875 20 20 20
23.801885604858 18.652105331421 4.151000976563 165 165 165
23.801885604858 18.652105331421 4.083984375000 180 180 180
23.801885604858 18.652105331421 4.014984130859 218 218 218
23.801885604858 18.652105331421 3.946990966797 203 203 203
23.801885604858 18.652105331421 3.878997802734 177 177 177
23.801885604858 18.652105331421 3.810974121094 178 178 178
23.786539077759 18.649173736572 3.742980957031 86 86 86
23.670991897583 18.754354476929 4.959991455078 196 196 196
23.670991897583 18.754354476929 4.890991210938 194 194 194
23.655645370483 18.751420974731 4.819976806641 203 203 203
23.655645370483 18.751420974731 4.747985839844 80 80 80
23.640296936035 18.748489379883 4.540985107422 211 211 211
23.655645370483 18.751420974731 4.473999023438 215 215 215
23.640296936035 18.748489379883 4.405975341797 219 219 219
23.640296936035 18.748489379883 4.336975097656 98 98 98
23.662878036499 18.880065917969 5.033996582031 191 191 191
23.662878036499 18.880065917969 4.964996337891 189 189 189
23.662878036499 18.880065917969 4.893981933594 218 218 218
23.662878036499 18.880065917969 4.823974609375 65 65 65
23.647529602051 18.877134323120 4.474975585938 213 213 213
23.647529602051 18.877134323120 4.406982421875 220 220 220
23.647529602051 18.877134323120 4.338989257813 222 222 222
23.632183074951 18.874200820923 4.270996093750 139 139 139
23.646648406982 19.131488800049 4.967987060547 180 180 180
23.646648406982 19.131488800049 4.896972656250 22 22 22
23.639417648315 19.002845764160 4.405975341797 207 207 207
23.639417648315 19.002845764160 4.337982177734 33 33 33
