23.697061538696 24.985446929932 61.130001068115 165 165 165
23.697061538696 24.985446929932 61.200000762939 167 167 167
23.697061538696 24.985446929932 61.270999908447 175 175 175
23.697061538696 24.985446929932 61.340999603271 182 182 182
23.697061538696 24.985446929932 61.409999847412 182 182 182
23.697061538696 24.985446929932 61.482002258301 182 182 182
23.697061538696 24.985446929932 61.553001403809 180 180 180
23.697061538696 24.985446929932 61.622001647949 119 119 119
23.591394424438 24.893981933594 61.691001892090 137 137 137
23.697061538696 24.985446929932 61.764999389648 115 115 115
23.475955963135 24.941928863525 61.815002441406 119 119 119
23.625141143799 24.812288284302 58.831001281738 178 178 178
23.625141143799 24.812288284302 58.905002593994 180 180 180
23.625141143799 24.812288284302 58.975002288818 180 180 180
23.625141143799 24.812288284302 59.048999786377 176 176 176
23.625141143799 24.812288284302 59.119003295898 172 172 172
23.625141143799 24.812288284302 59.188999176025 169 169 169
23.601167678833 24.754570007324 59.260002136230 165 165 165
23.601167678833 24.754570007324 59.331001281738 156 156 156
23.706832885742 24.846035003662 59.399002075195 157 157 157
23.706832885742 24.846035003662 59.468002319336 166 166 166
23.706832885742 24.846035003662 59.538002014160 160 160 160
23.706832885742 24.846035003662 59.608001708984 151 151 151
23.706832885742 24.846035003662 59.678001403809 145 145 145
23.706832885742 24.846035003662 59.747001647949 141 141 141
23.706832885742 24.846035003662 59.817001342773 155 155 155
23.706832885742 24.846035003662 59.888000488281 135 135 135
23.706832885742 24.846035003662 59.955001831055 164 164 164
23.706832885742 24.846035003662 60.024002075195 185 185 185
23.706832885742 24.846035003662 60.095001220703 205 205 205
23.706832885742 24.846035003662 60.165000915527 255 255 255
23.706832885742 24.846035003662 60.236000061035 179 179 179
23.706832885742 24.846035003662 60.305999755859 191 191 191
23.706832885742 24.846035003662 60.377002716064 180 180 180
23.764553070068 24.822061538696 60.449001312256 166 166 166
23.764553070068 24.822061538696 60.519001007080 177 177 177
23.961683273315 24.807859420776 60.597000122070 153 153 153
23.961683273315 24.807859420776 60.671001434326 153 153 153
23.764553070068 24.822061538696 60.949001312256 255 255 255
23.764553070068 24.822061538696 61.020999908447 255 255 255
23.706832885742 24.846035003662 61.089000701904 245 245 245
23.764553070068 24.822061538696 61.163002014160 236 236 236
23.706832885742 24.846035003662 61.234001159668 225 225 225
23.706832885742 24.846035003662 61.657001495361 26 26 26
23.903964996338 24.831832885742 61.778999328613 71 71 71
23.706832885742 24.846035003662 61.822002410889 103 103 103
23.937709808350 24.750141143799 60.164001464844 72 72 72
23.937709808350 24.750141143799 60.237003326416 114 114 114
23.937709808350 24.750141143799 60.310001373291 112 112 112
23.937709808350 24.750141143799 60.382999420166 106 106 106
23.937709808350 24.750141143799 60.456001281738 110 110 110
23.832044601440 24.658676147461 60.527999877930 111 111 111
23.937709808350 24.750141143799 60.604000091553 108 108 108
23.937709808350 24.750141143799 60.678001403809 112 112 112
23.774324417114 24.682649612427 60.886001586914 255 255 255
23.774324417114 24.682649612427 60.959999084473 255 255 255
23.774324417114 24.682649612427 61.031002044678 244 244 244
23.774324417114 24.682649612427 61.105998992920 23 23 23
23.774324417114 24.682649612427 61.173999786377 222 222 222
23.774324417114 24.682649612427 61.248001098633 230 230 230
23.774324417114 24.682649612427 61.322002410889 229 229 229
23.774324417114 24.682649612427 61.396999359131 45 45 45
24.005203247070 24.586755752563 60.458000183105 86 86 86
23.841815948486 24.519264221191 60.532001495361 89 89 89
24.005203247070 24.586755752563 60.608001708984 29 29 29
23.784097671509 24.543237686157 60.749000549316 131 131 131
23.784097671509 24.543237686157 60.822002410889 255 255 255
23.784097671509 24.543237686157 60.895999908447 255 255 255
23.784097671509 24.543237686157 60.968002319336 255 255 255
23.784097671509 24.543237686157 61.259002685547 214 214 214
23.784097671509 24.543237686157 61.333999633789 230 230 230
23.784097671509 24.543237686157 61.409000396729 222 222 222
23.784097671509 24.543237686157 61.486000061035 31 31 31
23.851589202881 24.379850387573 60.680000305176 100 100 100
23.851589202881 24.379850387573 60.755001068115 255 255 255
23.851589202881 24.379850387573 60.827999114990 252 252 252
23.851589202881 24.379850387573 60.902999877930 255 255 255
23.851589202881 24.379850387573 61.347000122070 222 222 222
23.851589202881 24.379850387573 61.420001983643 217 217 217
23.851589202881 24.379850387573 61.496002197266 197 197 197
23.725463867188 25.379709243774 61.444999694824 187 187 187
23.725463867188 25.379709243774 61.384002685547 186 186 186
23.725463867188 25.379709243774 61.324001312256 214 214 214
23.725463867188 25.379709243774 61.260002136230 185 185 185
23.725463867188 25.379709243774 60.895999908447 167 167 167
23.725463867188 25.379709243774 60.834999084473 177 177 177
23.725463867188 25.379709243774 60.776000976563 178 178 178
23.725463867188 25.379709243774 60.716999053955 178 178 178
23.725463867188 25.379709243774 60.656002044678 83 83 83
23.735235214233 25.240297317505 61.344001770020 183 183 183
23.735235214233 25.240297317505 61.281002044678 179 179 179
23.735235214233 25.240297317505 61.216999053955 180 180 180
23.735235214233 25.240297317505 61.153999328613 178 178 178
23.735235214233 25.240297317505 61.030002593994 22 22 22
23.735235214233 25.240297317505 60.968002319336 177 177 177
23.735235214233 25.240297317505 60.908000946045 176 176 176
23.735235214233 25.240297317505 60.848999023438 181 181 181
23.735235214233 25.240297317505 60.788002014160 168 168 168
23.850673675537 25.192350387573 60.625000000000 98 98 98
23.850673675537 25.192350387573 60.562000274658 102 102 102
23.850673675537 25.192350387573 60.500999450684 118 118 118
23.850673675537 25.192350387573 60.438999176025 118 118 118
23.850673675537 25.192350387573 60.378002166748 124 124 124
23.850673675537 25.192350387573 60.315002441406 92 92 92
23.850673675537 25.192350387573 60.256000518799 86 86 86
23.629570007324 25.148832321167 61.769001007080 129 129 129
23.894191741943 24.971244812012 61.798000335693 123 123 123
23.745008468628 25.100885391235 61.667999267578 116 116 116
23.721035003662 25.043165206909 61.234001159668 182 182 182
23.802726745605 25.076911926270 61.172000885010 178 178 178
23.721035003662 25.043165206909 61.105998992920 176 176 176
23.721035003662 25.043165206909 61.045001983643 182 182 182
23.721035003662 25.043165206909 60.983001708984 184 184 184
23.721035003662 25.043165206909 60.917999267578 178 178 178
23.918165206909 25.028964996338 60.697002410889 39 39 39
23.894191741943 24.971244812012 60.631999969482 95 95 95
23.894191741943 24.971244812012 60.569000244141 186 186 186
23.894191741943 24.971244812012 60.506000518799 160 160 160
23.894191741943 24.971244812012 60.443000793457 126 126 126
23.894191741943 24.971244812012 60.381000518799 135 135 135
23.894191741943 24.971244812012 60.319999694824 102 102 102
23.894191741943 24.971244812012 60.257999420166 105 105 105
23.918165206909 25.028964996338 60.194999694824 168 168 168
23.894191741943 24.971244812012 60.135002136230 163 163 163
23.894191741943 24.971244812012 60.073001861572 173 173 173
23.894191741943 24.971244812012 60.012001037598 53 53 53
23.591394424438 24.893981933594 61.843002319336 141 141 141
23.673088073730 24.927726745605 61.795001983643 124 124 124
23.697061538696 24.985446929932 61.721000671387 132 132 132
23.591394424438 24.893981933594 61.646999359131 161 161 161
23.673088073730 24.927726745605 61.609001159668 91 91 91
23.673088073730 24.927726745605 61.534000396729 161 161 161
23.673088073730 24.927726745605 61.468002319336 163 163 163
23.697061538696 24.985446929932 61.402999877930 164 164 164
23.697061538696 24.985446929932 61.340000152588 171 171 171
23.697061538696 24.985446929932 61.276000976563 171 171 171
23.697061538696 24.985446929932 61.214000701904 177 177 177
23.697061538696 24.985446929932 61.152000427246 175 175 175
23.673088073730 24.927726745605 61.090000152588 182 182 182
23.673088073730 24.927726745605 61.028999328613 190 190 190
23.673088073730 24.927726745605 60.966999053955 195 195 195
23.697061538696 24.985446929932 60.906002044678 191 191 191
23.697061538696 24.985446929932 60.845001220703 200 200 200
23.697061538696 24.985446929932 60.784999847412 202 202 202
23.673088073730 24.927726745605 60.726001739502 204 204 204
23.673088073730 24.927726745605 60.665000915527 206 206 206
23.673088073730 24.927726745605 60.605998992920 210 210 210
23.673088073730 24.927726745605 60.545001983643 213 213 213
23.673088073730 24.927726745605 60.486000061035 219 219 219
23.673088073730 24.927726745605 60.427001953125 224 224 224
23.673088073730 24.927726745605 60.368000030518 225 225 225
23.673088073730 24.927726745605 60.308002471924 230 230 230
23.673088073730 24.927726745605 60.249000549316 236 236 236
23.673088073730 24.927726745605 60.188999176025 238 238 238
23.673088073730 24.927726745605 60.130001068115 252 252 252
23.673088073730 24.927726745605 60.070999145508 255 255 255
23.673088073730 24.927726745605 60.012001037598 241 241 241
23.673088073730 24.927726745605 59.951999664307 225 225 225
23.673088073730 24.927726745605 59.893001556396 217 217 217
23.673088073730 24.927726745605 59.833999633789 213 213 213
23.673088073730 24.927726745605 59.774002075195 194 194 194
23.673088073730 24.927726745605 59.715999603271 187 187 187
23.649114608765 24.870008468628 59.290000915527 135 135 135
23.649114608765 24.870008468628 59.229000091553 130 130 130
23.649114608765 24.870008468628 59.167999267578 124 124 124
23.649114608765 24.870008468628 59.107002258301 116 116 116
23.706832885742 24.846035003662 58.444999694824 131 131 131
23.649114608765 24.870008468628 59.652999877930 181 181 181
23.649114608765 24.870008468628 59.593002319336 178 178 178
23.649114608765 24.870008468628 59.532001495361 172 172 172
23.649114608765 24.870008468628 59.472000122070 158 158 158
23.706832885742 24.846035003662 59.348999023438 143 143 143
23.706832885742 24.846035003662 59.040000915527 109 109 109
23.649114608765 24.870008468628 58.983001708984 114 114 114
23.706832885742 24.846035003662 58.916000366211 112 112 112
23.706832885742 24.846035003662 58.846000671387 113 113 113
23.706832885742 24.846035003662 58.377002716064 135 135 135
23.706832885742 24.846035003662 58.309001922607 139 139 139
23.706832885742 24.846035003662 58.181999206543 179 179 179
23.706832885742 24.846035003662 58.123001098633 191 191 191
23.716606140137 24.706623077393 61.767002105713 42 42 42
23.774324417114 24.682649612427 61.334999084473 172 172 172
23.774324417114 24.682649612427 61.270999908447 172 172 172
23.774324417114 24.682649612427 61.205001831055 207 207 207
23.774324417114 24.682649612427 61.139999389648 175 175 175
23.774324417114 24.682649612427 61.016002655029 192 192 192
23.774324417114 24.682649612427 60.951999664307 192 192 192
23.774324417114 24.682649612427 60.888999938965 200 200 200
23.832044601440 24.658676147461 60.826000213623 150 150 150
23.947483062744 24.610729217529 60.651000976563 44 44 44
23.947483062744 24.610729217529 60.587001800537 90 90 90
23.947483062744 24.610729217529 60.520999908447 89 89 89
23.947483062744 24.610729217529 60.457000732422 97 97 97
23.947483062744 24.610729217529 60.392002105713 99 99 99
23.947483062744 24.610729217529 60.327999114990 51 51 51
23.841815948486 24.519264221191 61.488002777100 51 51 51
23.841815948486 24.519264221191 61.423000335693 170 170 170
23.841815948486 24.519264221191 61.355003356934 169 169 169
23.841815948486 24.519264221191 61.289001464844 182 182 182
23.817842483521 24.461544036865 60.903999328613 201 201 201
23.817842483521 24.461544036865 60.840000152588 184 184 184
23.817842483521 24.461544036865 60.776000976563 214 214 214
23.817842483521 24.461544036865 60.711002349854 112 112 112
23.803642272949 24.264411926270 61.371002197266 71 71 71
23.769895553589 24.346105575562 61.422000885010 131 131 131
23.475955963135 24.941928863525 61.806999206543 109 109 109
23.716606140137 24.706623077393 61.812000274658 80 80 80
23.591394424438 24.893981933594 61.688999176025 65 65 65
23.750350952148 24.624929428101 61.396999359131 109 109 109
23.750350952148 24.624929428101 61.324001312256 118 118 118
23.750350952148 24.624929428101 61.248001098633 159 159 159
23.750350952148 24.624929428101 61.174999237061 36 36 36
23.784097671509 24.543237686157 61.035999298096 104 104 104
23.784097671509 24.543237686157 60.965000152588 153 153 153
23.784097671509 24.543237686157 60.894001007080 160 160 160
23.784097671509 24.543237686157 60.819999694824 106 106 106
23.591394424438 24.893981933594 60.444999694824 36 36 36
23.591394424438 24.893981933594 60.377002716064 52 52 52
23.591394424438 24.893981933594 60.309001922607 59 59 59
23.591394424438 24.893981933594 60.240001678467 76 76 76
23.591394424438 24.893981933594 60.172000885010 87 87 87
23.591394424438 24.893981933594 60.104000091553 93 93 93
23.591394424438 24.893981933594 60.034999847412 105 105 105
23.591394424438 24.893981933594 59.966999053955 108 108 108
23.591394424438 24.893981933594 59.898002624512 120 120 120
23.591394424438 24.893981933594 59.830001831055 127 127 127
23.591394424438 24.893981933594 59.761001586914 136 136 136
23.591394424438 24.893981933594 59.693000793457 138 138 138
23.591394424438 24.893981933594 59.623001098633 149 149 149
23.591394424438 24.893981933594 59.553001403809 148 148 148
23.649114608765 24.870008468628 59.483001708984 160 160 160
23.591394424438 24.893981933594 59.414001464844 161 161 161
23.591394424438 24.893981933594 59.344001770020 158 158 158
23.591394424438 24.893981933594 59.273002624512 163 163 163
23.591394424438 24.893981933594 59.204002380371 165 165 165
23.649114608765 24.870008468628 59.131000518799 165 165 165
23.591394424438 24.893981933594 59.061000823975 170 170 170
23.649114608765 24.870008468628 58.988002777100 169 169 169
23.591394424438 24.893981933594 58.916999816895 167 167 167
23.706832885742 24.846035003662 58.841999053955 165 165 165
23.591394424438 24.893981933594 58.770999908447 166 166 166
23.706832885742 24.846035003662 58.695999145508 164 164 164
23.706832885742 24.846035003662 58.623001098633 163 163 163
23.706832885742 24.846035003662 58.547000885010 165 165 165
23.591394424438 24.893981933594 58.476001739502 162 162 162
23.591394424438 24.893981933594 58.423000335693 163 163 163
23.639341354370 25.009420394897 61.913002014160 106 106 106
23.605596542358 25.091112136841 61.816001892090 133 133 133
23.639341354370 25.009420394897 61.766002655029 106 106 106
23.639341354370 25.009420394897 61.691001892090 140 140 140
23.673088073730 24.927726745605 61.650001525879 97 97 97
23.697061538696 24.985446929932 61.567001342773 144 144 144
23.697061538696 24.985446929932 61.497001647949 145 145 145
23.697061538696 24.985446929932 61.426002502441 148 148 148
23.673088073730 24.927726745605 61.357002258301 158 158 158
23.673088073730 24.927726745605 61.284999847412 157 157 157
23.673088073730 24.927726745605 61.215000152588 158 158 158
23.754779815674 24.961473464966 61.145999908447 161 161 161
23.754779815674 24.961473464966 61.076000213623 163 163 163
23.754779815674 24.961473464966 61.005001068115 164 164 164
23.754779815674 24.961473464966 60.936000823975 169 169 169
23.754779815674 24.961473464966 60.866001129150 171 171 171
23.754779815674 24.961473464966 60.795001983643 172 172 172
23.754779815674 24.961473464966 60.725002288818 179 179 179
23.754779815674 24.961473464966 60.656002044678 177 177 177
23.754779815674 24.961473464966 60.586002349854 173 173 173
23.754779815674 24.961473464966 60.516002655029 165 165 165
23.754779815674 24.961473464966 60.447002410889 173 173 173
23.754779815674 24.961473464966 60.377002716064 165 165 165
23.754779815674 24.961473464966 60.306999206543 140 140 140
23.754779815674 24.961473464966 60.237003326416 135 135 135
23.754779815674 24.961473464966 60.167999267578 131 131 131
23.754779815674 24.961473464966 60.098999023438 112 112 112
23.754779815674 24.961473464966 60.028999328613 97 97 97
23.754779815674 24.961473464966 59.958000183105 94 94 94
23.754779815674 24.961473464966 59.888999938965 86 86 86
23.754779815674 24.961473464966 59.819000244141 82 82 82
23.754779815674 24.961473464966 59.748001098633 43 43 43
23.754779815674 24.961473464966 58.533000946045 94 94 94
23.754779815674 24.961473464966 58.463001251221 106 106 106
23.860446929932 25.052938461304 61.805999755859 96 96 96
23.792955398560 25.216323852539 61.345001220703 129 129 129
23.792955398560 25.216323852539 61.275001525879 131 131 131
23.792955398560 25.216323852539 61.202999114990 124 124 124
23.792955398560 25.216323852539 61.137001037598 66 66 66
23.792955398560 25.216323852539 61.062000274658 105 105 105
23.792955398560 25.216323852539 60.994003295898 128 128 128
23.792955398560 25.216323852539 60.926002502441 126 126 126
23.792955398560 25.216323852539 60.855003356934 104 104 104
23.870218276978 24.913526535034 60.665000915527 120 120 120
23.894191741943 24.971244812012 60.590999603271 154 154 154
23.860446929932 25.052938461304 60.517002105713 77 77 77
23.860446929932 25.052938461304 60.447002410889 89 89 89
23.918165206909 25.028964996338 60.377002716064 136 136 136
23.918165206909 25.028964996338 60.306999206543 68 68 68
23.918165206909 25.028964996338 60.166000366211 76 76 76
23.918165206909 25.028964996338 60.095001220703 70 70 70
23.749437332153 25.437429428101 61.525001525879 46 46 46
23.725463867188 25.379709243774 61.461002349854 133 133 133
23.725463867188 25.379709243774 61.388999938965 175 175 175
23.725463867188 25.379709243774 61.322002410889 148 148 148
23.725463867188 25.379709243774 60.912002563477 81 81 81
23.725463867188 25.379709243774 60.843002319336 118 118 118
23.725463867188 25.379709243774 60.776000976563 122 122 122
23.725463867188 25.379709243774 60.709999084473 81 81 81
23.816928863525 25.274044036865 60.586002349854 70 70 70
23.816928863525 25.274044036865 60.516002655029 74 74 74
23.816928863525 25.274044036865 60.445999145508 29 29 29
23.851589202881 24.379850387573 61.548999786377 49 49 49
23.851589202881 24.379850387573 61.486000061035 171 171 171
23.851589202881 24.379850387573 61.417999267578 184 184 184
23.851589202881 24.379850387573 61.351001739502 180 180 180
23.851589202881 24.379850387573 60.898002624512 175 175 175
23.851589202881 24.379850387573 60.833000183105 200 200 200
23.851589202881 24.379850387573 60.768001556396 170 170 170
23.851589202881 24.379850387573 60.701999664307 59 59 59
23.784097671509 24.543237686157 61.395999908447 170 170 170
23.784097671509 24.543237686157 61.330001831055 169 169 169
23.784097671509 24.543237686157 61.263999938965 214 214 214
23.784097671509 24.543237686157 61.198001861572 145 145 145
23.784097671509 24.543237686157 61.010002136230 190 190 190
23.784097671509 24.543237686157 60.947002410889 204 204 204
23.784097671509 24.543237686157 60.881000518799 195 195 195
23.784097671509 24.543237686157 60.819000244141 152 152 152
24.005203247070 24.586755752563 60.574001312256 48 48 48
24.005203247070 24.586755752563 60.509002685547 58 58 58
23.533676147461 24.917955398560 61.808002471924 108 108 108
23.822271347046 24.798088073730 61.845001220703 121 121 121
23.591394424438 24.893981933594 61.708000183105 125 125 125
23.706832885742 24.846035003662 61.653999328613 114 114 114
23.706832885742 24.846035003662 61.605003356934 36 36 36
23.706832885742 24.846035003662 61.535999298096 153 153 153
23.706832885742 24.846035003662 61.477001190186 62 62 62
23.740579605103 24.764341354370 61.305000305176 147 147 147
23.706832885742 24.846035003662 61.239002227783 169 169 169
23.706832885742 24.846035003662 61.171001434326 168 168 168
23.706832885742 24.846035003662 61.108001708984 167 167 167
23.706832885742 24.846035003662 61.041999816895 171 171 171
23.706832885742 24.846035003662 60.980998992920 184 184 184
23.706832885742 24.846035003662 60.909000396729 145 145 145
23.591394424438 24.893981933594 60.836002349854 105 105 105
23.591394424438 24.893981933594 60.775001525879 118 118 118
23.706832885742 24.846035003662 60.715999603271 129 129 129
23.591394424438 24.893981933594 60.655002593994 142 142 142
23.591394424438 24.893981933594 60.595001220703 152 152 152
23.591394424438 24.893981933594 60.534000396729 155 155 155
23.591394424438 24.893981933594 60.473999023438 162 162 162
23.591394424438 24.893981933594 60.414001464844 167 167 167
23.591394424438 24.893981933594 60.355003356934 172 172 172
23.591394424438 24.893981933594 60.295001983643 179 179 179
23.591394424438 24.893981933594 60.235000610352 187 187 187
23.591394424438 24.893981933594 60.176002502441 197 197 197
23.591394424438 24.893981933594 60.117000579834 229 229 229
23.591394424438 24.893981933594 60.058002471924 221 221 221
23.591394424438 24.893981933594 59.998001098633 220 220 220
23.591394424438 24.893981933594 59.938999176025 219 219 219
23.591394424438 24.893981933594 59.879001617432 220 220 220
23.591394424438 24.893981933594 59.819999694824 220 220 220
23.591394424438 24.893981933594 59.760002136230 216 216 216
23.591394424438 24.893981933594 59.701000213623 217 217 217
23.591394424438 24.893981933594 59.641002655029 215 215 215
23.591394424438 24.893981933594 59.582000732422 215 215 215
23.591394424438 24.893981933594 59.521999359131 211 211 211
23.591394424438 24.893981933594 59.462001800537 210 210 210
23.591394424438 24.893981933594 59.400001525879 207 207 207
23.591394424438 24.893981933594 59.340999603271 205 205 205
23.591394424438 24.893981933594 59.280002593994 199 199 199
23.591394424438 24.893981933594 59.220001220703 196 196 196
23.591394424438 24.893981933594 59.158000946045 189 189 189
23.591394424438 24.893981933594 59.097000122070 184 184 184
23.591394424438 24.893981933594 59.035999298096 184 184 184
23.591394424438 24.893981933594 58.972999572754 174 174 174
23.706832885742 24.846035003662 58.909000396729 173 173 173
23.706832885742 24.846035003662 58.506000518799 125 125 125
23.706832885742 24.846035003662 58.837001800537 121 121 121
23.639341354370 25.009420394897 61.902999877930 46 46 46
23.605596542358 25.091112136841 61.801002502441 127 127 127
23.639341354370 25.009420394897 61.788002014160 114 114 114
23.639341354370 25.009420394897 61.702999114990 125 125 125
23.639341354370 25.009420394897 61.649002075195 129 129 129
23.754779815674 24.961473464966 61.605003356934 44 44 44
23.754779815674 24.961473464966 61.544002532959 31 31 31
23.754779815674 24.961473464966 61.285999298096 55 55 55
23.754779815674 24.961473464966 61.222999572754 179 179 179
23.754779815674 24.961473464966 61.158000946045 176 176 176
23.754779815674 24.961473464966 61.096000671387 176 176 176
23.754779815674 24.961473464966 61.033000946045 181 181 181
23.754779815674 24.961473464966 60.971000671387 176 176 176
23.927938461304 24.889553070068 60.680000305176 137 137 137
23.927938461304 24.889553070068 60.617000579834 121 121 121
23.870218276978 24.913526535034 60.554000854492 84 84 84
23.836473464966 24.995218276978 60.488002777100 104 104 104
23.860446929932 25.052938461304 60.422000885010 117 117 117
23.870218276978 24.913526535034 60.365001678467 103 103 103
23.870218276978 24.913526535034 60.305000305176 92 92 92
23.870218276978 24.913526535034 60.242000579834 123 123 123
23.836473464966 24.995218276978 60.180000305176 128 128 128
23.836473464966 24.995218276978 60.118000030518 104 104 104
23.870218276978 24.913526535034 60.056999206543 131 131 131
23.735235214233 25.240297317505 61.388000488281 103 103 103
23.735235214233 25.240297317505 61.329002380371 181 181 181
23.735235214233 25.240297317505 61.264999389648 182 182 182
23.735235214233 25.240297317505 61.201000213623 183 183 183
23.735235214233 25.240297317505 61.014999389648 177 177 177
23.735235214233 25.240297317505 60.955001831055 175 175 175
23.735235214233 25.240297317505 60.894001007080 179 179 179
23.735235214233 25.240297317505 60.833000183105 173 173 173
23.850673675537 25.192350387573 60.670001983643 93 93 93
23.850673675537 25.192350387573 60.608001708984 94 94 94
23.850673675537 25.192350387573 60.546001434326 114 114 114
23.850673675537 25.192350387573 60.484001159668 126 126 126
23.850673675537 25.192350387573 60.423000335693 115 115 115
23.826700210571 25.134632110596 60.360000610352 77 77 77
23.826700210571 25.134632110596 60.298999786377 55 55 55
23.850673675537 25.192350387573 60.239002227783 24 24 24
23.783182144165 25.355735778809 61.494003295898 144 144 144
23.783182144165 25.355735778809 61.431999206543 182 182 182
23.725463867188 25.379709243774 61.367000579834 204 204 204
23.783182144165 25.355735778809 61.306999206543 212 212 212
23.725463867188 25.379709243774 60.940002441406 126 126 126
23.725463867188 25.379709243774 60.880001068115 178 178 178
23.783182144165 25.355735778809 60.822002410889 176 176 176
23.783182144165 25.355735778809 60.762001037598 179 179 179
23.725463867188 25.379709243774 60.701999664307 148 148 148
23.851589202881 24.379850387573 60.722999572754 181 181 181
23.851589202881 24.379850387573 60.797000885010 255 255 255
23.851589202881 24.379850387573 60.871002197266 210 210 210
23.851589202881 24.379850387573 60.947002410889 255 255 255
23.851589202881 24.379850387573 61.391002655029 222 222 222
23.851589202881 24.379850387573 61.465999603271 227 227 227
23.851589202881 24.379850387573 61.547000885010 182 182 182
24.005203247070 24.586755752563 60.499000549316 78 78 78
24.005203247070 24.586755752563 60.573001861572 81 81 81
23.784097671509 24.543237686157 60.788002014160 203 203 203
23.784097671509 24.543237686157 60.863002777100 255 255 255
23.784097671509 24.543237686157 60.937000274658 255 255 255
23.784097671509 24.543237686157 61.009002685547 255 255 255
23.784097671509 24.543237686157 61.299999237061 204 204 204
23.784097671509 24.543237686157 61.375999450684 230 230 230
23.784097671509 24.543237686157 61.451000213623 221 221 221
23.937709808350 24.750141143799 60.202999114990 94 94 94
23.937709808350 24.750141143799 60.276000976563 112 112 112
23.937709808350 24.750141143799 60.350002288818 113 113 113
23.937709808350 24.750141143799 60.423000335693 112 112 112
23.832044601440 24.658676147461 60.495002746582 107 107 107
23.832044601440 24.658676147461 60.568000793457 113 113 113
23.937709808350 24.750141143799 60.644001007080 106 106 106
23.937709808350 24.750141143799 60.718002319336 110 110 110
23.856018066406 24.716394424438 60.857002258301 23 23 23
23.774324417114 24.682649612427 60.927001953125 255 255 255
23.774324417114 24.682649612427 61.000999450684 255 255 255
23.774324417114 24.682649612427 61.073001861572 249 249 249
23.774324417114 24.682649612427 61.139999389648 112 112 112
23.774324417114 24.682649612427 61.215000152588 200 200 200
23.774324417114 24.682649612427 61.291000366211 234 234 234
23.774324417114 24.682649612427 61.363002777100 233 233 233
23.625141143799 24.812288284302 58.873001098633 185 185 185
23.625141143799 24.812288284302 58.945999145508 186 186 186
23.625141143799 24.812288284302 59.018001556396 183 183 183
23.625141143799 24.812288284302 59.088001251221 182 182 182
23.625141143799 24.812288284302 59.159000396729 186 186 186
23.625141143799 24.812288284302 59.234001159668 181 181 181
23.625141143799 24.812288284302 59.303001403809 178 178 178
23.625141143799 24.812288284302 59.373001098633 176 176 176
23.625141143799 24.812288284302 59.442001342773 175 175 175
23.625141143799 24.812288284302 59.512001037598 173 173 173
23.625141143799 24.812288284302 59.582000732422 166 166 166
23.625141143799 24.812288284302 59.652000427246 164 164 164
23.625141143799 24.812288284302 59.722000122070 157 157 157
23.706832885742 24.846035003662 59.789001464844 180 180 180
23.706832885742 24.846035003662 59.859001159668 187 187 187
23.706832885742 24.846035003662 59.930000305176 171 171 171
23.706832885742 24.846035003662 59.999000549316 170 170 170
23.706832885742 24.846035003662 60.068000793457 178 178 178
23.706832885742 24.846035003662 60.138000488281 188 188 188
23.706832885742 24.846035003662 60.207000732422 233 233 233
23.706832885742 24.846035003662 60.277999877930 186 186 186
23.706832885742 24.846035003662 60.347999572754 189 189 189
23.706832885742 24.846035003662 60.417999267578 166 166 166
23.706832885742 24.846035003662 60.490001678467 182 182 182
23.706832885742 24.846035003662 60.561000823975 172 172 172
23.706832885742 24.846035003662 60.631999969482 183 183 183
23.764553070068 24.822061538696 60.705001831055 189 189 189
23.706832885742 24.846035003662 60.771999359131 123 123 123
23.706832885742 24.846035003662 60.841999053955 46 46 46
23.764553070068 24.822061538696 60.990001678467 251 251 251
23.764553070068 24.822061538696 61.062000274658 234 234 234
23.706832885742 24.846035003662 61.131999969482 246 246 246
23.706832885742 24.846035003662 61.206001281738 243 243 243
23.706832885742 24.846035003662 61.276000976563 223 223 223
23.706832885742 24.846035003662 61.546001434326 98 98 98
23.625141143799 24.812288284302 61.688999176025 106 106 106
23.764553070068 24.822061538696 61.806999206543 102 102 102
23.706832885742 24.846035003662 61.865001678467 109 109 109
23.754779815674 24.961473464966 60.069999694824 56 56 56
23.918165206909 25.028964996338 60.138000488281 181 181 181
23.918165206909 25.028964996338 60.208999633789 114 114 114
23.918165206909 25.028964996338 60.280002593994 153 153 153
23.639341354370 25.009420394897 60.348999023438 194 194 194
23.860446929932 25.052938461304 60.421001434326 170 170 170
23.860446929932 25.052938461304 60.491001129150 200 200 200
23.918165206909 25.028964996338 60.565002441406 106 106 106
23.918165206909 25.028964996338 60.637001037598 107 107 107
23.918165206909 25.028964996338 60.709999084473 110 110 110
23.754779815674 24.961473464966 60.980003356934 212 212 212
23.754779815674 24.961473464966 61.053001403809 229 229 229
23.754779815674 24.961473464966 61.122001647949 219 219 219
23.754779815674 24.961473464966 61.193000793457 202 202 202
23.754779815674 24.961473464966 61.263999938965 195 195 195
23.639341354370 25.009420394897 61.317001342773 57 57 57
23.639341354370 25.009420394897 61.385002136230 63 63 63
23.639341354370 25.009420394897 61.455001831055 77 77 77
23.639341354370 25.009420394897 61.527999877930 82 82 82
23.639341354370 25.009420394897 61.601001739502 94 94 94
23.533676147461 24.917955398560 61.664001464844 134 134 134
23.557649612427 24.975673675537 61.728000640869 127 127 127
23.639341354370 25.009420394897 61.815002441406 103 103 103
23.557649612427 24.975673675537 61.867000579834 126 126 126
23.792955398560 25.216323852539 60.281002044678 91 91 91
23.826700210571 25.134632110596 60.350002288818 184 184 184
23.826700210571 25.134632110596 60.421001434326 114 114 114
23.850673675537 25.192350387573 60.492000579834 166 166 166
23.850673675537 25.192350387573 60.562000274658 104 104 104
23.850673675537 25.192350387573 60.634002685547 108 108 108
23.826700210571 25.134632110596 60.702999114990 82 82 82
23.792955398560 25.216323852539 60.902999877930 239 239 239
23.792955398560 25.216323852539 60.972999572754 245 245 245
23.792955398560 25.216323852539 61.042999267578 254 254 254
23.792955398560 25.216323852539 61.114002227783 177 177 177
23.792955398560 25.216323852539 61.183002471924 211 211 211
23.792955398560 25.216323852539 61.253002166748 207 207 207
23.792955398560 25.216323852539 61.325000762939 207 207 207
23.629570007324 25.148832321167 61.802001953125 78 78 78
23.725463867188 25.379709243774 60.759002685547 119 119 119
23.725463867188 25.379709243774 60.827999114990 255 255 255
23.725463867188 25.379709243774 60.895999908447 255 255 255
23.783182144165 25.355735778809 60.965999603271 255 255 255
23.725463867188 25.379709243774 61.241001129150 212 212 212
23.725463867188 25.379709243774 61.312000274658 210 210 210
23.725463867188 25.379709243774 61.381999969482 221 221 221
23.725463867188 25.379709243774 61.452999114990 199 199 199
23.749437332153 25.437429428101 60.752002716064 237 237 237
23.749437332153 25.437429428101 60.819999694824 255 255 255
23.749437332153 25.437429428101 60.888000488281 255 255 255
23.749437332153 25.437429428101 61.298999786377 120 120 120
23.749437332153 25.437429428101 61.368000030518 208 208 208
23.749437332153 25.437429428101 61.436000823975 214 214 214
23.749437332153 25.437429428101 61.505001068115 196 196 196
23.793869018555 24.403823852539 61.535999298096 76 76 76
23.793869018555 24.403823852539 61.469001770020 169 169 169
23.793869018555 24.403823852539 61.400001525879 171 171 171
23.793869018555 24.403823852539 61.333000183105 169 169 169
23.851589202881 24.379850387573 60.948001861572 137 137 137
23.851589202881 24.379850387573 60.881999969482 209 209 209
23.851589202881 24.379850387573 60.817001342773 182 182 182
23.851589202881 24.379850387573 60.753002166748 179 179 179
23.784097671509 24.543237686157 61.381000518799 171 171 171
23.784097671509 24.543237686157 61.316001892090 169 169 169
23.784097671509 24.543237686157 61.250999450684 213 213 213
23.784097671509 24.543237686157 61.185001373291 126 126 126
23.784097671509 24.543237686157 60.998001098633 208 208 208
23.784097671509 24.543237686157 60.933002471924 194 194 194
23.784097671509 24.543237686157 60.869003295898 203 203 203
23.784097671509 24.543237686157 60.805999755859 133 133 133
23.899536132813 24.495290756226 60.562000274658 52 52 52
23.899536132813 24.495290756226 60.497001647949 51 51 51
23.625141143799 24.812288284302 61.830001831055 39 39 39
23.716606140137 24.706623077393 61.823001861572 105 105 105
23.625141143799 24.812288284302 61.700000762939 58 58 58
23.716606140137 24.706623077393 61.298000335693 170 170 170
23.716606140137 24.706623077393 61.234001159668 174 174 174
23.716606140137 24.706623077393 61.171001434326 171 171 171
23.716606140137 24.706623077393 61.105003356934 173 173 173
23.716606140137 24.706623077393 61.042999267578 208 208 208
23.716606140137 24.706623077393 60.980998992920 208 208 208
23.716606140137 24.706623077393 60.919002532959 172 172 172
23.913736343384 24.692420959473 60.686000823975 92 92 92
23.937709808350 24.750141143799 60.619003295898 99 99 99
23.832044601440 24.658676147461 60.549999237061 90 90 90
23.856018066406 24.716394424438 60.486000061035 71 71 71
23.832044601440 24.658676147461 60.423999786377 95 95 95
23.706832885742 24.846035003662 60.348999023438 171 171 171
23.716606140137 24.706623077393 60.291000366211 96 96 96
23.740579605103 24.764341354370 60.228000640869 96 96 96
23.706832885742 24.846035003662 60.166999816895 93 93 93
23.625141143799 24.812288284302 60.105998992920 80 80 80
23.625141143799 24.812288284302 60.047000885010 92 92 92
23.625141143799 24.812288284302 59.987003326416 100 100 100
23.625141143799 24.812288284302 59.928001403809 114 114 114
23.625141143799 24.812288284302 59.868000030518 129 129 129
23.625141143799 24.812288284302 59.808002471924 140 140 140
23.625141143799 24.812288284302 59.749000549316 145 145 145
23.625141143799 24.812288284302 59.688999176025 156 156 156
23.625141143799 24.812288284302 59.630001068115 162 162 162
23.625141143799 24.812288284302 59.569999694824 164 164 164
23.625141143799 24.812288284302 59.511001586914 170 170 170
23.625141143799 24.812288284302 59.450000762939 172 172 172
23.625141143799 24.812288284302 59.389999389648 174 174 174
23.625141143799 24.812288284302 59.329002380371 177 177 177
23.625141143799 24.812288284302 59.269001007080 181 181 181
23.625141143799 24.812288284302 59.208000183105 185 185 185
23.625141143799 24.812288284302 59.146999359131 184 184 184
23.625141143799 24.812288284302 59.087001800537 183 183 183
23.625141143799 24.812288284302 59.025001525879 185 185 185
23.625141143799 24.812288284302 58.962001800537 186 186 186
23.625141143799 24.812288284302 58.900001525879 187 187 187
23.543447494507 24.778543472290 58.533000946045 187 187 187
23.625141143799 24.812288284302 58.831001281738 146 146 146
23.639341354370 25.009420394897 61.880001068115 80 80 80
23.557649612427 24.975673675537 61.805000305176 105 105 105
23.639341354370 25.009420394897 61.757999420166 122 122 122
23.533676147461 24.917955398560 61.680999755859 161 161 161
23.697061538696 24.985446929932 61.631000518799 107 107 107
23.697061538696 24.985446929932 61.568000793457 168 168 168
23.697061538696 24.985446929932 61.504001617432 171 171 171
23.697061538696 24.985446929932 61.442001342773 166 166 166
23.697061538696 24.985446929932 61.377002716064 160 160 160
23.697061538696 24.985446929932 61.317001342773 161 161 161
23.697061538696 24.985446929932 61.256000518799 157 157 157
23.697061538696 24.985446929932 61.192001342773 157 157 157
23.697061538696 24.985446929932 61.132999420166 155 155 155
23.697061538696 24.985446929932 61.070999145508 153 153 153
23.697061538696 24.985446929932 61.011001586914 160 160 160
23.673088073730 24.927726745605 60.951000213623 160 160 160
23.673088073730 24.927726745605 60.892002105713 156 156 156
23.673088073730 24.927726745605 60.832000732422 162 162 162
23.673088073730 24.927726745605 60.771999359131 161 161 161
23.649114608765 24.870008468628 60.712001800537 163 163 163
23.649114608765 24.870008468628 60.651000976563 169 169 169
23.649114608765 24.870008468628 60.590999603271 176 176 176
23.649114608765 24.870008468628 60.530002593994 182 182 182
23.649114608765 24.870008468628 60.469001770020 186 186 186
23.649114608765 24.870008468628 60.409000396729 183 183 183
23.649114608765 24.870008468628 60.347999572754 173 173 173
23.649114608765 24.870008468628 60.288002014160 178 178 178
23.649114608765 24.870008468628 60.227001190186 181 181 181
23.649114608765 24.870008468628 60.166999816895 177 177 177
23.754779815674 24.961473464966 60.107002258301 191 191 191
23.649114608765 24.870008468628 60.046001434326 133 133 133
23.649114608765 24.870008468628 59.986000061035 166 166 166
23.649114608765 24.870008468628 59.926002502441 147 147 147
23.649114608765 24.870008468628 59.865001678467 107 107 107
23.649114608765 24.870008468628 59.805000305176 52 52 52
23.918165206909 25.028964996338 61.819999694824 111 111 111
23.721035003662 25.043165206909 61.264999389648 186 186 186
23.721035003662 25.043165206909 61.201999664307 178 178 178
23.721035003662 25.043165206909 61.139999389648 183 183 183
23.745008468628 25.100885391235 61.076000213623 183 183 183
23.721035003662 25.043165206909 61.013999938965 178 178 178
23.721035003662 25.043165206909 60.952999114990 182 182 182
23.721035003662 25.043165206909 60.891002655029 146 146 146
23.894191741943 24.971244812012 60.665000915527 86 86 86
23.894191741943 24.971244812012 60.602001190186 106 106 106
23.802726745605 25.076911926270 60.534000396729 105 105 105
23.802726745605 25.076911926270 60.472000122070 105 105 105
23.918165206909 25.028964996338 60.413002014160 86 86 86
23.918165206909 25.028964996338 60.351001739502 129 129 129
23.802726745605 25.076911926270 60.289001464844 112 112 112
23.802726745605 25.076911926270 60.227001190186 36 36 36
23.918165206909 25.028964996338 60.166999816895 110 110 110
23.918165206909 25.028964996338 60.105998992920 104 104 104
23.735235214233 25.240297317505 61.375000000000 182 182 182
23.735235214233 25.240297317505 61.311000823975 181 181 181
23.735235214233 25.240297317505 61.246002197266 184 184 184
23.735235214233 25.240297317505 61.186000823975 185 185 185
23.735235214233 25.240297317505 60.999000549316 176 176 176
23.735235214233 25.240297317505 60.937000274658 175 175 175
23.735235214233 25.240297317505 60.878002166748 181 181 181
23.735235214233 25.240297317505 60.817001342773 178 178 178
23.850673675537 25.192350387573 60.653999328613 97 97 97
23.850673675537 25.192350387573 60.593002319336 97 97 97
23.850673675537 25.192350387573 60.531002044678 115 115 115
23.850673675537 25.192350387573 60.470001220703 115 115 115
23.850673675537 25.192350387573 60.408000946045 116 116 116
23.826700210571 25.134632110596 60.346000671387 86 86 86
23.783182144165 25.355735778809 61.480998992920 168 168 168
23.783182144165 25.355735778809 61.416000366211 185 185 185
23.783182144165 25.355735778809 61.353000640869 213 213 213
23.783182144165 25.355735778809 61.290000915527 205 205 205
23.783182144165 25.355735778809 60.926002502441 166 166 166
23.783182144165 25.355735778809 60.866001129150 177 177 177
23.783182144165 25.355735778809 60.805999755859 177 177 177
23.783182144165 25.355735778809 60.747001647949 180 180 180
23.783182144165 25.355735778809 60.687999725342 73 73 73
23.715690612793 25.519121170044 61.334999084473 82 82 82
23.861362457275 24.240438461304 60.874000549316 255 255 255
23.803642272949 24.264411926270 61.395999908447 184 184 184
23.851589202881 24.379850387573 60.719001770020 125 125 125
23.851589202881 24.379850387573 60.794002532959 255 255 255
23.851589202881 24.379850387573 60.868000030518 255 255 255
23.851589202881 24.379850387573 60.941001892090 255 255 255
23.851589202881 24.379850387573 61.308002471924 191 191 191
23.851589202881 24.379850387573 61.382999420166 216 216 216
23.851589202881 24.379850387573 61.462001800537 234 234 234
23.851589202881 24.379850387573 61.534999847412 209 209 209
24.005203247070 24.586755752563 60.424999237061 69 69 69
24.005203247070 24.586755752563 60.499000549316 104 104 104
23.899536132813 24.495290756226 60.573001861572 102 102 102
24.005203247070 24.586755752563 60.648002624512 67 67 67
23.841815948486 24.519264221191 60.789001464844 181 181 181
23.841815948486 24.519264221191 60.863002777100 255 255 255
23.841815948486 24.519264221191 60.935001373291 255 255 255
23.784097671509 24.543237686157 61.009002685547 255 255 255
23.784097671509 24.543237686157 61.225002288818 176 176 176
23.784097671509 24.543237686157 61.301002502441 194 194 194
23.784097671509 24.543237686157 61.375000000000 231 231 231
23.784097671509 24.543237686157 61.449001312256 219 219 219
23.913736343384 24.692420959473 60.204002380371 101 101 101
23.913736343384 24.692420959473 60.277000427246 112 112 112
23.913736343384 24.692420959473 60.351001739502 106 106 106
23.913736343384 24.692420959473 60.423999786377 108 108 108
23.913736343384 24.692420959473 60.497001647949 141 141 141
23.832044601440 24.658676147461 60.569999694824 102 102 102
23.913736343384 24.692420959473 60.645000457764 100 100 100
23.913736343384 24.692420959473 60.719001770020 102 102 102
23.774324417114 24.682649612427 60.857002258301 162 162 162
23.774324417114 24.682649612427 60.928001403809 220 220 220
23.774324417114 24.682649612427 61.000999450684 255 255 255
23.774324417114 24.682649612427 61.073001861572 255 255 255
23.774324417114 24.682649612427 61.144001007080 136 136 136
23.774324417114 24.682649612427 61.215999603271 196 196 196
23.774324417114 24.682649612427 61.291999816895 236 236 236
23.774324417114 24.682649612427 61.363002777100 223 223 223
23.658885955811 24.730596542358 58.858001708984 138 138 138
23.658885955811 24.730596542358 58.931999206543 133 133 133
23.658885955811 24.730596542358 59.003002166748 126 126 126
23.740579605103 24.764341354370 59.072002410889 120 120 120
23.740579605103 24.764341354370 59.145999908447 117 117 117
23.740579605103 24.764341354370 59.216999053955 119 119 119
23.740579605103 24.764341354370 59.285999298096 114 114 114
23.740579605103 24.764341354370 59.354000091553 122 122 122
23.740579605103 24.764341354370 59.423000335693 144 144 144
23.740579605103 24.764341354370 59.495002746582 145 145 145
23.740579605103 24.764341354370 59.569000244141 125 125 125
23.740579605103 24.764341354370 59.641002655029 70 70 70
23.879991531372 24.774114608765 60.061000823975 103 103 103
23.879991531372 24.774114608765 60.132999420166 113 113 113
23.879991531372 24.774114608765 60.205001831055 175 175 175
23.879991531372 24.774114608765 60.277999877930 107 107 107
23.740579605103 24.764341354370 60.347999572754 216 216 216
23.716606140137 24.706623077393 60.420001983643 147 147 147
23.822271347046 24.798088073730 60.492000579834 196 196 196
23.879991531372 24.774114608765 60.568000793457 156 156 156
23.879991531372 24.774114608765 60.641002655029 155 155 155
23.937709808350 24.750141143799 60.714000701904 103 103 103
23.822271347046 24.798088073730 60.923000335693 90 90 90
23.716606140137 24.706623077393 60.992000579834 224 224 224
23.716606140137 24.706623077393 61.065002441406 255 255 255
23.716606140137 24.706623077393 61.137001037598 255 255 255
23.740579605103 24.764341354370 61.208000183105 233 233 233
23.740579605103 24.764341354370 61.278999328613 216 216 216
23.740579605103 24.764341354370 61.706001281738 51 51 51
23.822271347046 24.798088073730 61.818000793457 96 96 96
23.740579605103 24.764341354370 61.855003356934 38 38 38
23.649114608765 24.870008468628 59.093002319336 27 27 27
23.649114608765 24.870008468628 59.164001464844 43 43 43
23.591394424438 24.893981933594 59.237003326416 57 57 57
23.649114608765 24.870008468628 59.306999206543 73 73 73
23.591394424438 24.893981933594 59.379001617432 80 80 80
23.591394424438 24.893981933594 59.449001312256 90 90 90
23.649114608765 24.870008468628 59.517002105713 102 102 102
23.591394424438 24.893981933594 59.588001251221 99 99 99
23.591394424438 24.893981933594 59.657001495361 108 108 108
23.591394424438 24.893981933594 59.727001190186 120 120 120
23.591394424438 24.893981933594 59.796001434326 128 128 128
23.591394424438 24.893981933594 59.865001678467 132 132 132
23.649114608765 24.870008468628 59.933002471924 147 147 147
23.649114608765 24.870008468628 60.002002716064 161 161 161
23.649114608765 24.870008468628 60.070999145508 178 178 178
23.591394424438 24.893981933594 60.139999389648 187 187 187
23.591394424438 24.893981933594 60.208000183105 205 205 205
23.591394424438 24.893981933594 60.277000427246 195 195 195
23.591394424438 24.893981933594 60.345001220703 193 193 193
23.591394424438 24.893981933594 60.413002014160 193 193 193
23.591394424438 24.893981933594 60.482002258301 193 193 193
23.591394424438 24.893981933594 60.551002502441 194 194 194
23.591394424438 24.893981933594 60.619003295898 195 195 195
23.591394424438 24.893981933594 60.687999725342 193 193 193
23.591394424438 24.893981933594 60.756999969482 192 192 192
23.591394424438 24.893981933594 60.826000213623 192 192 192
23.591394424438 24.893981933594 60.895000457764 191 191 191
23.591394424438 24.893981933594 60.965000152588 191 191 191
23.591394424438 24.893981933594 61.034000396729 191 191 191
23.591394424438 24.893981933594 61.104000091553 187 187 187
23.591394424438 24.893981933594 61.174999237061 189 189 189
23.591394424438 24.893981933594 61.244003295898 187 187 187
23.649114608765 24.870008468628 61.316001892090 184 184 184
23.649114608765 24.870008468628 61.388999938965 182 182 182
23.649114608765 24.870008468628 61.458999633789 179 179 179
23.649114608765 24.870008468628 61.530002593994 174 174 174
23.649114608765 24.870008468628 61.602001190186 176 176 176
23.591394424438 24.893981933594 61.669002532959 154 154 154
23.591394424438 24.893981933594 61.734001159668 125 125 125
23.649114608765 24.870008468628 61.820999145508 115 115 115
23.591394424438 24.893981933594 61.877002716064 72 72 72
23.918165206909 25.028964996338 60.134002685547 101 101 101
23.918165206909 25.028964996338 60.205001831055 167 167 167
23.802726745605 25.076911926270 60.276000976563 157 157 157
23.918165206909 25.028964996338 60.347000122070 137 137 137
23.918165206909 25.028964996338 60.416999816895 100 100 100
23.802726745605 25.076911926270 60.487003326416 107 107 107
23.918165206909 25.028964996338 60.558002471924 111 111 111
23.918165206909 25.028964996338 60.631999969482 109 109 109
23.918165206909 25.028964996338 60.702999114990 104 104 104
23.697061538696 24.985446929932 60.975002288818 239 239 239
23.697061538696 24.985446929932 61.044002532959 239 239 239
