23.872119903564 9.750643730164 4.783996582031 134 134 134
23.872119903564 9.750643730164 4.239990234375 17 17 17
23.897663116455 9.876934051514 4.944000244141 151 151 151
23.882055282593 9.876224517822 4.861999511719 170 170 170
23.897663116455 9.876934051514 4.784973144531 192 192 192
23.866445541382 9.875514984131 4.701995849609 105 105 105
23.897663116455 9.876934051514 4.315979003906 179 179 179
23.882055282593 9.876224517822 4.237976074219 171 171 171
23.882055282593 9.876224517822 4.160980224609 201 201 201
23.891988754272 10.001805305481 4.859985351563 174 174 174
23.876380920410 10.001095771790 4.780975341797 171 171 171
23.876380920410 10.001095771790 4.701995849609 173 173 173
23.907598495483 10.002513885498 4.390991210938 179 179 179
23.891988754272 10.001805305481 4.312988281250 170 170 170
23.907598495483 10.002513885498 4.235992431641 178 178 178
23.886316299438 10.126676559448 4.777984619141 169 169 169
23.901926040649 10.127385139465 4.698974609375 168 168 168
23.886316299438 10.126676559448 4.619995117188 168 168 168
23.901926040649 10.127385139465 4.463989257813 175 175 175
23.901926040649 10.127385139465 4.386993408203 166 166 166
23.901926040649 10.127385139465 4.308990478516 178 178 178
23.901926040649 10.127385139465 4.231994628906 25 25 25
23.880641937256 10.251547813416 4.696990966797 167 167 167
23.880641937256 10.251547813416 4.618988037109 170 170 170
23.880641937256 10.251547813416 4.539978027344 174 174 174
23.896251678467 10.252256393433 4.462982177734 178 178 178
23.896251678467 10.252256393433 4.384979248047 176 176 176
23.911859512329 10.252965927124 4.307983398438 48 48 48
23.796924591064 10.372872352600 5.073974609375 154 154 154
23.760032653809 10.496325492859 4.991973876953 160 160 160
23.760032653809 10.496325492859 4.912994384766 174 174 174
23.760032653809 10.496325492859 4.835998535156 178 178 178
23.760032653809 10.496325492859 4.758972167969 178 178 178
23.760032653809 10.496325492859 4.679992675781 181 181 181
23.760032653809 10.496325492859 4.601989746094 183 183 183
23.760032653809 10.496325492859 4.526000976563 189 189 189
23.760032653809 10.496325492859 4.448974609375 194 194 194
23.760032653809 10.496325492859 4.371978759766 198 198 198
23.744424819946 10.495615959167 4.295989990234 202 202 202
23.760032653809 10.496325492859 4.220001220703 205 205 205
23.744424819946 10.495615959167 4.143981933594 209 209 209
23.744424819946 10.495615959167 4.067993164063 216 216 216
23.760032653809 10.496325492859 3.991973876953 221 221 221
23.744424819946 10.495615959167 3.915985107422 229 229 229
23.760032653809 10.496325492859 3.839996337891 240 240 240
23.744424819946 10.495615959167 3.764984130859 255 255 255
23.744424819946 10.495615959167 3.688995361328 255 255 255
23.760032653809 10.496325492859 3.612976074219 253 253 253
23.744424819946 10.495615959167 3.536987304688 232 232 232
23.744424819946 10.495615959167 3.460998535156 227 227 227
23.744424819946 10.495615959167 3.385986328125 220 220 220
23.744424819946 10.495615959167 3.309997558594 215 215 215
23.744424819946 10.495615959167 3.233978271484 206 206 206
23.744424819946 10.495615959167 3.155975341797 208 208 208
23.744424819946 10.495615959167 3.080993652344 196 196 196
23.728815078735 10.494907379150 3.003997802734 188 188 188
23.728815078735 10.494907379150 2.926971435547 185 185 185
23.744424819946 10.495615959167 2.849975585938 174 174 174
23.744424819946 10.495615959167 2.769989013672 171 171 171
23.744424819946 10.495615959167 2.694000244141 172 172 172
23.728815078735 10.494907379150 2.616973876953 164 164 164
23.728815078735 10.494907379150 2.537994384766 160 160 160
23.744424819946 10.495615959167 2.457977294922 156 156 156
23.744424819946 10.495615959167 2.378997802734 149 149 149
23.728815078735 10.494907379150 2.300994873047 140 140 140
23.728815078735 10.494907379150 2.223999023438 135 135 135
23.744424819946 10.495615959167 2.138000488281 141 141 141
23.760032653809 10.496325492859 2.049987792969 172 172 172
23.760032653809 10.496325492859 1.968994140625 184 184 184
23.760032653809 10.496325492859 1.883972167969 185 185 185
23.760032653809 10.496325492859 1.799987792969 180 180 180
23.916122436523 10.503417968750 4.701995849609 181 181 181
23.900512695313 10.502708435059 4.621978759766 171 171 171
23.900512695313 10.502708435059 4.542999267578 177 177 177
23.900512695313 10.502708435059 4.463989257813 178 178 178
23.900512695313 10.502708435059 4.385986328125 172 172 172
23.900512695313 10.502708435059 3.451995849609 14 14 14
23.884904861450 10.501998901367 3.375000000000 45 45 45
23.884904861450 10.501998901367 3.296997070313 84 84 84
23.863620758057 10.626161575317 3.220001220703 106 106 106
23.884904861450 10.501998901367 3.140991210938 112 112 112
23.863620758057 10.626161575317 3.062988281250 115 115 115
23.884904861450 10.501998901367 2.983978271484 120 120 120
23.863620758057 10.626161575317 2.905975341797 121 121 121
23.900512695313 10.502708435059 2.823974609375 128 128 128
23.863620758057 10.626161575317 2.746978759766 129 129 129
23.863620758057 10.626161575317 2.666992187500 132 132 132
23.884904861450 10.501998901367 2.585998535156 137 137 137
23.863620758057 10.626161575317 2.506988525391 132 132 132
23.853687286377 10.500580787659 2.427978515625 133 133 133
23.853687286377 10.500580787659 2.346984863281 136 136 136
23.863620758057 10.626161575317 2.264984130859 135 135 135
23.853687286377 10.500580787659 2.183990478516 144 144 144
23.900512695313 10.502708435059 2.093994140625 187 187 187
23.884904861450 10.501998901367 2.013977050781 170 170 170
23.863620758057 10.626161575317 1.932983398438 161 161 161
23.853687286377 10.500580787659 1.852996826172 155 155 155
23.838077545166 10.499871253967 1.771972656250 150 150 150
23.910448074341 10.628289222717 4.785980224609 168 168 168
23.910448074341 10.628289222717 4.704986572266 173 173 173
23.910448074341 10.628289222717 4.626983642578 180 180 180
23.910448074341 10.628289222717 4.546997070313 115 115 115
23.894838333130 10.627579689026 4.466979980469 176 176 176
23.894838333130 10.627579689026 4.389984130859 175 175 175
23.894838333130 10.627579689026 4.310974121094 170 170 170
23.904773712158 10.753160476685 4.868988037109 149 149 149
23.904773712158 10.753160476685 4.788970947266 174 174 174
23.904773712158 10.753160476685 4.709991455078 180 180 180
23.904773712158 10.753160476685 4.630981445313 134 134 134
23.889163970947 10.752450942993 4.470977783203 30 30 30
23.889163970947 10.752450942993 4.392974853516 182 182 182
23.904773712158 10.753160476685 4.315979003906 186 186 186
23.904773712158 10.753160476685 4.237976074219 170 170 170
23.914710998535 10.878740310669 4.951995849609 131 131 131
23.930318832397 10.879449844360 4.872985839844 172 172 172
23.930318832397 10.879449844360 4.793975830078 180 180 180
23.930318832397 10.879449844360 4.713989257813 153 153 153
23.914710998535 10.878740310669 4.396972656250 80 80 80
23.914710998535 10.878740310669 4.319000244141 191 191 191
23.914710998535 10.878740310669 4.240997314453 189 189 189
23.914710998535 10.878740310669 4.161987304688 163 163 163
23.924644470215 11.004320144653 4.875976562500 44 44 44
23.924644470215 11.004320144653 4.795989990234 153 153 153
23.909036636353 11.003610610962 4.319976806641 131 131 131
23.924644470215 11.004320144653 4.241973876953 143 143 143
23.872119903564 9.750643730164 4.274993896484 119 119 119
23.872119903564 9.750643730164 4.820983886719 130 130 130
23.882055282593 9.876224517822 4.121978759766 96 96 96
23.897663116455 9.876934051514 4.199981689453 199 199 199
23.897663116455 9.876934051514 4.277984619141 164 164 164
23.913272857666 9.877642631531 4.355987548828 142 142 142
23.897663116455 9.876934051514 4.745971679688 156 156 156
23.897663116455 9.876934051514 4.824981689453 164 164 164
23.897663116455 9.876934051514 4.904998779297 164 164 164
23.891988754272 10.001805305481 4.200988769531 74 74 74
23.907598495483 10.002513885498 4.279998779297 165 165 165
23.907598495483 10.002513885498 4.357971191406 166 166 166
23.907598495483 10.002513885498 4.435974121094 150 150 150
23.891988754272 10.001805305481 4.669982910156 160 160 160
23.907598495483 10.002513885498 4.748992919922 162 162 162
23.907598495483 10.002513885498 4.827972412109 165 165 165
23.886316299438 10.126676559448 4.278991699219 62 62 62
23.901926040649 10.127385139465 4.358978271484 163 163 163
23.901926040649 10.127385139465 4.435974121094 161 161 161
23.901926040649 10.127385139465 4.514984130859 155 155 155
23.901926040649 10.127385139465 4.592987060547 164 164 164
23.886316299438 10.126676559448 4.670989990234 163 163 163
23.886316299438 10.126676559448 4.748992919922 159 159 159
23.896251678467 10.252256393433 4.356994628906 47 47 47
23.911859512329 10.252965927124 4.435974121094 169 169 169
23.896251678467 10.252256393433 4.513977050781 170 170 170
23.880641937256 10.251547813416 4.590972900391 166 166 166
23.896251678467 10.252256393433 4.670989990234 163 163 163
23.896251678467 10.252256393433 4.907989501953 18 18 18
23.896251678467 10.252256393433 4.987976074219 76 76 76
23.880641937256 10.251547813416 5.065979003906 91 91 91
23.859359741211 10.375709533691 2.148986816406 17 17 17
23.874967575073 10.376419067383 2.225982666016 59 59 59
23.859359741211 10.375709533691 2.309997558594 85 85 85
23.859359741211 10.375709533691 2.390991210938 98 98 98
23.859359741211 10.375709533691 2.473999023438 103 103 103
23.874967575073 10.376419067383 2.550994873047 117 117 117
23.859359741211 10.375709533691 2.633972167969 124 124 124
23.859359741211 10.375709533691 2.713989257813 127 127 127
23.859359741211 10.375709533691 2.792999267578 123 123 123
23.874967575073 10.376419067383 2.869995117188 138 138 138
23.874967575073 10.376419067383 2.948974609375 141 141 141
23.874967575073 10.376419067383 3.026977539063 150 150 150
23.874967575073 10.376419067383 3.106994628906 161 161 161
23.874967575073 10.376419067383 3.185974121094 158 158 158
23.859359741211 10.375709533691 3.264984130859 152 152 152
23.843750000000 10.375000000000 3.343994140625 149 149 149
23.843750000000 10.375000000000 3.421997070313 148 148 148
23.828142166138 10.374291419983 3.500000000000 149 149 149
23.828142166138 10.374291419983 3.576995849609 158 158 158
23.812532424927 10.373581886292 3.654998779297 157 157 157
23.812532424927 10.373581886292 3.731994628906 159 159 159
23.812532424927 10.373581886292 3.807983398438 167 167 167
23.796924591064 10.372872352600 3.884979248047 182 182 182
23.781314849854 10.372163772583 3.960998535156 199 199 199
23.781314849854 10.372163772583 4.037994384766 188 188 188
23.765705108643 10.371454238892 4.113983154297 191 191 191
23.765705108643 10.371454238892 4.189971923828 190 190 190
23.765705108643 10.371454238892 4.265991210938 191 191 191
23.765705108643 10.371454238892 4.341979980469 195 195 195
23.750097274780 10.370744705200 4.417999267578 197 197 197
23.750097274780 10.370744705200 4.493988037109 199 199 199
23.750097274780 10.370744705200 4.570983886719 201 201 201
23.750097274780 10.370744705200 4.646972656250 198 198 198
23.750097274780 10.370744705200 4.725982666016 199 199 199
23.750097274780 10.370744705200 4.800994873047 198 198 198
23.750097274780 10.370744705200 4.880981445313 196 196 196
23.750097274780 10.370744705200 4.957977294922 192 192 192
23.765705108643 10.371454238892 5.036987304688 190 190 190
23.760032653809 10.496325492859 1.845977783203 174 174 174
23.744424819946 10.495615959167 1.929992675781 177 177 177
23.744424819946 10.495615959167 2.011993408203 178 178 178
23.744424819946 10.495615959167 2.095001220703 181 181 181
23.744424819946 10.495615959167 2.177978515625 184 184 184
23.744424819946 10.495615959167 2.258972167969 184 184 184
23.744424819946 10.495615959167 2.337982177734 184 184 184
23.744424819946 10.495615959167 2.417999267578 186 186 186
23.728815078735 10.494907379150 2.498992919922 185 185 185
23.728815078735 10.494907379150 2.578979492188 185 185 185
23.744424819946 10.495615959167 2.654998779297 186 186 186
23.728815078735 10.494907379150 2.733978271484 187 187 187
23.744424819946 10.495615959167 2.811981201172 182 182 182
23.728815078735 10.494907379150 2.890991210938 178 178 178
23.744424819946 10.495615959167 2.965972900391 176 176 176
23.728815078735 10.494907379150 3.044982910156 173 173 173
23.744424819946 10.495615959167 3.119995117188 161 161 161
23.744424819946 10.495615959167 3.196990966797 154 154 154
23.728815078735 10.494907379150 3.273986816406 148 148 148
23.728815078735 10.494907379150 3.350982666016 141 141 141
23.744424819946 10.495615959167 3.425994873047 128 128 128
23.728815078735 10.494907379150 3.502990722656 112 112 112
23.728815078735 10.494907379150 3.578979492188 104 104 104
23.728815078735 10.494907379150 3.654998779297 97 97 97
23.744424819946 10.495615959167 3.729980468750 93 93 93
23.744424819946 10.495615959167 3.805999755859 79 79 79
23.744424819946 10.495615959167 3.880981445313 65 65 65
23.728815078735 10.494907379150 3.957000732422 53 53 53
23.760032653809 10.496325492859 4.032989501953 42 42 42
23.910448074341 10.628289222717 4.349975585938 148 148 148
23.894838333130 10.627579689026 4.427978515625 164 164 164
23.894838333130 10.627579689026 4.505981445313 162 162 162
23.910448074341 10.628289222717 4.586975097656 167 167 167
23.910448074341 10.628289222717 4.664978027344 162 162 162
23.910448074341 10.628289222717 4.743988037109 153 153 153
23.904773712158 10.753160476685 4.267974853516 126 126 126
23.904773712158 10.753160476685 4.346984863281 169 169 169
23.904773712158 10.753160476685 4.425994873047 160 160 160
23.889163970947 10.752450942993 4.502990722656 87 87 87
23.920383453369 10.753869056702 4.663970947266 158 158 158
23.904773712158 10.753160476685 4.741973876953 152 152 152
23.920383453369 10.753869056702 4.822998046875 152 152 152
23.899101257324 10.878031730652 4.186981201172 103 103 103
23.914710998535 10.878740310669 4.265991210938 188 188 188
23.899101257324 10.878031730652 4.343994140625 189 189 189
23.899101257324 10.878031730652 4.421997070313 114 114 114
23.930318832397 10.879449844360 4.741973876953 153 153 153
23.914710998535 10.878740310669 4.820983886719 155 155 155
23.914710998535 10.878740310669 4.899993896484 148 148 148
23.924644470215 11.004320144653 4.186981201172 145 145 145
23.924644470215 11.004320144653 4.265991210938 185 185 185
23.909036636353 11.003610610962 4.342987060547 120 120 120
23.924644470215 11.004320144653 4.822998046875 159 159 159
23.924644470215 11.004320144653 4.899993896484 107 107 107
23.887729644775 9.751353263855 4.811981201172 173 173 173
23.887729644775 9.751353263855 4.265991210938 180 180 180
23.882055282593 9.876224517822 4.877990722656 221 221 221
23.897663116455 9.876934051514 4.809997558594 222 222 222
23.897663116455 9.876934051514 4.741973876953 227 227 227
23.913272857666 9.877642631531 4.332000732422 229 229 229
23.897663116455 9.876934051514 4.263000488281 231 231 231
23.897663116455 9.876934051514 4.194976806641 229 229 229
23.897663116455 9.876934051514 4.126983642578 229 229 229
23.891988754272 10.001805305481 4.808990478516 226 226 226
23.891988754272 10.001805305481 4.740997314453 229 229 229
23.891988754272 10.001805305481 4.669982910156 229 229 229
23.891988754272 10.001805305481 4.397979736328 229 229 229
23.907598495483 10.002513885498 4.329986572266 236 236 236
23.891988754272 10.001805305481 4.260986328125 234 234 234
23.891988754272 10.001805305481 4.192993164063 226 226 226
23.901926040649 10.127385139465 4.741973876953 224 224 224
23.886316299438 10.126676559448 4.670989990234 230 230 230
23.886316299438 10.126676559448 4.600982666016 229 229 229
23.917533874512 10.128094673157 4.536987304688 26 26 26
23.901926040649 10.127385139465 4.465972900391 227 227 227
23.901926040649 10.127385139465 4.397979736328 226 226 226
23.901926040649 10.127385139465 4.328979492188 235 235 235
23.901926040649 10.127385139465 4.260986328125 202 202 202
23.896251678467 10.252256393433 4.673980712891 227 227 227
23.896251678467 10.252256393433 4.603973388672 233 233 233
23.896251678467 10.252256393433 4.535980224609 230 230 230
23.896251678467 10.252256393433 4.467987060547 227 227 227
23.896251678467 10.252256393433 4.399993896484 230 230 230
23.896251678467 10.252256393433 4.329986572266 154 154 154
23.781314849854 10.372163772583 5.065979003906 149 149 149
23.765705108643 10.371454238892 4.993988037109 169 169 169
23.765705108643 10.371454238892 4.923980712891 173 173 173
23.765705108643 10.371454238892 4.854980468750 177 177 177
23.765705108643 10.371454238892 4.785980224609 184 184 184
23.765705108643 10.371454238892 4.718994140625 182 182 182
23.765705108643 10.371454238892 4.649993896484 189 189 189
23.750097274780 10.370744705200 4.582000732422 195 195 195
23.765705108643 10.371454238892 4.514984130859 195 195 195
23.765705108643 10.371454238892 4.448974609375 204 204 204
23.765705108643 10.371454238892 4.380981445313 203 203 203
23.750097274780 10.370744705200 4.313995361328 204 204 204
23.765705108643 10.371454238892 4.248992919922 210 210 210
23.765705108643 10.371454238892 4.182983398438 209 209 209
23.750097274780 10.370744705200 4.114990234375 211 211 211
23.750097274780 10.370744705200 4.049987792969 213 213 213
23.765705108643 10.371454238892 3.983978271484 218 218 218
23.765705108643 10.371454238892 3.918975830078 223 223 223
23.750097274780 10.370744705200 3.851989746094 222 222 222
23.750097274780 10.370744705200 3.786987304688 223 223 223
23.765705108643 10.371454238892 3.720977783203 234 234 234
23.750097274780 10.370744705200 3.655975341797 233 233 233
23.765705108643 10.371454238892 3.589996337891 255 255 255
23.765705108643 10.371454238892 3.523986816406 217 217 217
23.750097274780 10.370744705200 3.458984375000 200 200 200
23.765705108643 10.371454238892 3.392974853516 185 185 185
23.750097274780 10.370744705200 3.326995849609 178 178 178
23.765705108643 10.371454238892 3.260986328125 170 170 170
23.765705108643 10.371454238892 3.194976806641 164 164 164
23.765705108643 10.371454238892 3.127990722656 163 163 163
23.765705108643 10.371454238892 3.061981201172 156 156 156
23.781314849854 10.372163772583 2.993988037109 157 157 157
23.796924591064 10.372872352600 2.924987792969 163 163 163
23.812532424927 10.373581886292 2.854980468750 175 175 175
23.828142166138 10.374291419983 2.785980224609 173 173 173
23.828142166138 10.374291419983 2.716979980469 165 165 165
23.828142166138 10.374291419983 2.648986816406 151 151 151
23.828142166138 10.374291419983 2.579986572266 132 132 132
23.812532424927 10.373581886292 2.513977050781 118 118 118
23.828142166138 10.374291419983 2.444000244141 109 109 109
23.828142166138 10.374291419983 2.372985839844 105 105 105
23.828142166138 10.374291419983 2.302978515625 91 91 91
23.843750000000 10.375000000000 2.228973388672 93 93 93
23.859359741211 10.375709533691 2.152984619141 90 90 90
23.859359741211 10.375709533691 2.080993652344 95 95 95
23.859359741211 10.375709533691 1.935974121094 16 16 16
23.894838333130 10.627579689026 4.748992919922 83 83 83
23.894838333130 10.627579689026 4.680999755859 221 221 221
23.894838333130 10.627579689026 4.610992431641 222 222 222
23.894838333130 10.627579689026 4.541992187500 233 233 233
23.894838333130 10.627579689026 4.470977783203 237 237 237
23.894838333130 10.627579689026 4.403991699219 243 243 243
23.879230499268 10.626870155334 4.333984375000 218 218 218
23.760032653809 10.496325492859 2.386993408203 44 44 44
23.760032653809 10.496325492859 2.317993164063 65 65 65
23.760032653809 10.496325492859 2.247985839844 80 80 80
23.775642395020 10.497035026550 2.175994873047 102 102 102
23.775642395020 10.497035026550 2.104980468750 114 114 114
23.760032653809 10.496325492859 2.036987304688 121 121 121
23.760032653809 10.496325492859 1.967987060547 124 124 124
23.775642395020 10.497035026550 1.891998291016 163 163 163
23.760032653809 10.496325492859 1.823974609375 151 151 151
23.904773712158 10.753160476685 4.827972412109 128 128 128
23.904773712158 10.753160476685 4.756988525391 223 223 223
23.904773712158 10.753160476685 4.686981201172 223 223 223
23.904773712158 10.753160476685 4.616973876953 224 224 224
23.889163970947 10.752450942993 4.476989746094 250 250 250
23.889163970947 10.752450942993 4.408996582031 243 243 243
23.904773712158 10.753160476685 4.340972900391 244 244 244
23.904773712158 10.753160476685 4.272979736328 234 234 234
23.899101257324 10.878031730652 4.901000976563 139 139 139
23.914710998535 10.878740310669 4.832000732422 222 222 222
23.899101257324 10.878031730652 4.760986328125 222 222 222
23.899101257324 10.878031730652 4.687988281250 218 218 218
23.899101257324 10.878031730652 4.411987304688 235 235 235
23.899101257324 10.878031730652 4.342987060547 230 230 230
23.899101257324 10.878031730652 4.276000976563 227 227 227
23.899101257324 10.878031730652 4.207000732422 237 237 237
23.909036636353 11.003610610962 4.973999023438 83 83 83
23.924644470215 11.004320144653 4.905975341797 222 222 222
23.924644470215 11.004320144653 4.832977294922 220 220 220
23.924644470215 11.004320144653 4.763000488281 221 221 221
23.924644470215 11.004320144653 4.345977783203 235 235 235
23.924644470215 11.004320144653 4.276977539063 218 218 218
23.909036636353 11.003610610962 4.207977294922 212 212 212
23.924644470215 11.004320144653 4.139984130859 211 211 211
