23.531250000000 17.500000000000 3.208999633789 107 107 107
23.531250000000 17.500000000000 3.342000007629 108 108 108
23.468750000000 17.437500000000 3.473999977112 96 96 96
23.468750000000 17.437500000000 3.605999946594 31 31 31
23.406250000000 17.437500000000 4.130000114441 13 13 13
23.406250000000 17.437500000000 4.260999679565 158 158 158
23.406250000000 17.437500000000 4.392000198364 29 29 29
23.406250000000 17.437500000000 4.782999038696 136 136 136
23.406250000000 17.437500000000 4.914999008179 131 131 131
23.531250000000 17.625000000000 3.076999664307 125 125 125
23.531250000000 17.625000000000 3.210000038147 117 117 117
23.531250000000 17.625000000000 3.342000007629 126 126 126
23.500000000000 17.625000000000 3.474999427795 126 126 126
23.468750000000 17.625000000000 3.605999946594 123 123 123
23.468750000000 17.625000000000 3.737999916077 21 21 21
23.406250000000 17.562500000000 4.260999679565 162 162 162
23.406250000000 17.562500000000 4.392000198364 172 172 172
23.406250000000 17.562500000000 4.653999328613 65 65 65
23.406250000000 17.562500000000 4.784000396729 153 153 153
23.406250000000 17.562500000000 4.913999557495 92 92 92
23.343750000000 17.687500000000 1.377999305725 134 134 134
23.531250000000 17.750000000000 1.463999748230 61 61 61
23.531250000000 17.750000000000 1.592000007629 108 108 108
23.531250000000 17.750000000000 1.726999282837 122 122 122
23.531250000000 17.750000000000 1.865999221802 106 106 106
23.531250000000 17.750000000000 2.001999855042 88 88 88
23.531250000000 17.750000000000 2.137000083923 44 44 44
23.531250000000 17.750000000000 2.943999290466 113 113 113
23.531250000000 17.750000000000 3.076999664307 117 117 117
23.468750000000 17.687500000000 3.211999893188 132 132 132
23.531250000000 17.750000000000 3.342999458313 125 125 125
23.468750000000 17.687500000000 3.474999427795 121 121 121
23.468750000000 17.687500000000 3.606999397278 132 132 132
23.468750000000 17.687500000000 3.737999916077 121 121 121
23.406250000000 17.625000000000 4.260999679565 1 1 1
23.406250000000 17.625000000000 4.392000198364 174 174 174
23.406250000000 17.625000000000 4.521999359131 81 81 81
23.406250000000 17.625000000000 4.653999328613 194 194 194
23.406250000000 17.625000000000 4.784000396729 144 144 144
23.406250000000 17.812500000000 1.484999656677 62 62 62
23.406250000000 17.812500000000 1.619999885559 84 84 84
23.406250000000 17.812500000000 1.753999710083 111 111 111
23.406250000000 17.812500000000 1.890999794006 142 142 142
23.406250000000 17.812500000000 2.027999877930 152 152 152
23.406250000000 17.812500000000 2.158999443054 165 165 165
23.406250000000 17.812500000000 2.292999267578 172 172 172
23.406250000000 17.812500000000 2.424999237061 179 179 179
23.406250000000 17.812500000000 2.557999610901 171 171 171
23.406250000000 17.812500000000 2.689999580383 150 150 150
23.406250000000 17.812500000000 2.821999549866 145 145 145
23.406250000000 17.812500000000 2.951999664307 139 139 139
23.468750000000 17.875000000000 3.081999778748 151 151 151
23.468750000000 17.875000000000 3.211999893188 117 117 117
23.468750000000 17.875000000000 3.342999458313 145 145 145
23.468750000000 17.875000000000 3.473999977112 152 152 152
23.468750000000 17.875000000000 3.605999946594 150 150 150
23.468750000000 17.875000000000 3.736999511719 135 135 135
23.406250000000 17.812500000000 4.389999389648 162 162 162
23.406250000000 17.812500000000 4.520999908447 160 160 160
23.406250000000 17.812500000000 4.652000427246 147 147 147
23.468750000000 18.000000000000 2.948999404907 114 114 114
23.406250000000 17.937500000000 3.083999633789 128 128 128
23.343750000000 17.875000000000 3.218999862671 136 136 136
23.343750000000 17.937500000000 3.350999832153 139 139 139
23.343750000000 17.937500000000 3.479999542236 184 184 184
23.343750000000 17.937500000000 3.608999252319 213 213 213
23.312500000000 17.937500000000 3.737999916077 221 221 221
23.312500000000 17.937500000000 3.866999626160 226 226 226
23.281250000000 17.875000000000 3.995999336243 236 236 236
23.312500000000 17.937500000000 4.125999450684 255 255 255
23.281250000000 17.875000000000 4.253999710083 223 223 223
23.312500000000 17.937500000000 4.383998870850 177 177 177
23.343750000000 17.937500000000 4.514999389648 158 158 158
23.343750000000 17.937500000000 4.645999908447 152 152 152
23.343750000000 17.875000000000 4.777000427246 131 131 131
23.343750000000 17.875000000000 4.907999038696 116 116 116
23.531250000000 18.125000000000 2.948999404907 1 1 1
23.531250000000 18.187500000000 3.078999519348 121 121 121
23.531250000000 18.125000000000 3.211999893188 127 127 127
23.531250000000 18.125000000000 3.343999862671 123 123 123
23.531250000000 18.125000000000 3.475999832153 119 119 119
23.500000000000 18.125000000000 3.607999801636 122 122 122
23.500000000000 18.125000000000 3.738999366760 126 126 126
23.406250000000 18.125000000000 4.392000198364 140 140 140
23.406250000000 18.125000000000 4.520000457764 132 132 132
23.343750000000 18.062500000000 4.646999359131 138 138 138
23.218750000000 17.937500000000 4.765998840332 80 80 80
23.218750000000 17.937500000000 4.895000457764 113 113 113
23.468750000000 18.312500000000 3.082999229431 40 40 40
23.500000000000 18.250000000000 3.213999748230 122 122 122
23.500000000000 18.250000000000 3.344999313354 126 126 126
23.468750000000 18.312500000000 3.477999687195 125 125 125
23.468750000000 18.312500000000 3.608999252319 122 122 122
23.406250000000 18.250000000000 4.263000488281 124 124 124
23.406250000000 18.250000000000 4.392999649048 142 142 142
23.406250000000 18.250000000000 4.652999877930 140 140 140
23.406250000000 18.250000000000 4.782999038696 111 111 111
23.437500000000 18.375000000000 4.134999275208 22 22 22
23.437500000000 18.375000000000 4.265998840332 142 142 142
23.437500000000 18.375000000000 4.395999908447 110 110 110
23.406250000000 18.375000000000 4.654998779297 136 136 136
23.375000000000 18.312500000000 4.784999847412 143 143 143
23.406250000000 17.312500000000 4.778999328613 251 251 251
23.437500000000 17.312500000000 4.326999664307 92 92 92
23.437500000000 17.312500000000 4.213998794556 233 233 233
23.437500000000 17.500000000000 4.900999069214 255 255 255
23.437500000000 17.500000000000 4.782999038696 255 255 255
23.437500000000 17.500000000000 4.668998718262 233 233 233
23.437500000000 17.500000000000 4.329999923706 255 255 255
23.437500000000 17.500000000000 4.216999053955 255 255 255
23.531250000000 17.500000000000 3.538999557495 188 188 188
23.531250000000 17.500000000000 3.424999237061 188 188 188
23.531250000000 17.500000000000 3.310999870300 187 187 187
23.531250000000 17.500000000000 3.196999549866 187 187 187
23.531250000000 17.500000000000 3.083999633789 77 77 77
23.437500000000 17.625000000000 4.788000106812 255 255 255
23.437500000000 17.625000000000 4.673999786377 233 233 233
23.437500000000 17.625000000000 4.559999465942 110 110 110
23.468750000000 17.625000000000 4.447000503540 255 255 255
23.468750000000 17.625000000000 4.333999633789 255 255 255
23.468750000000 17.625000000000 4.220998764038 255 255 255
23.531250000000 17.625000000000 3.656999588013 193 193 193
23.531250000000 17.625000000000 3.542999267578 192 192 192
23.531250000000 17.562500000000 3.429999351501 186 186 186
23.562500000000 17.562500000000 3.314999580383 187 187 187
23.531250000000 17.562500000000 3.200999259949 188 188 188
23.531250000000 17.562500000000 3.086999893188 187 187 187
23.562500000000 17.562500000000 2.972000122070 176 176 176
23.406250000000 17.687500000000 4.678998947144 255 255 255
23.468750000000 17.750000000000 4.565999984741 255 255 255
23.406250000000 17.687500000000 4.451000213623 226 226 226
23.468750000000 17.750000000000 4.338998794556 255 255 255
23.531250000000 17.750000000000 3.774999618530 186 186 186
23.531250000000 17.750000000000 3.660999298096 208 208 208
23.531250000000 17.750000000000 3.547999382019 203 203 203
23.531250000000 17.750000000000 3.434000015259 188 188 188
23.531250000000 17.750000000000 3.319999694824 188 188 188
23.531250000000 17.750000000000 3.205999374390 185 185 185
23.531250000000 17.750000000000 3.090999603271 184 184 184
23.562500000000 17.750000000000 2.976999282837 174 174 174
23.531250000000 17.750000000000 2.861999511719 10 10 10
23.468750000000 17.750000000000 2.639999389648 18 18 18
23.468750000000 17.750000000000 2.528999328613 33 33 33
23.468750000000 17.750000000000 2.414999961853 55 55 55
23.468750000000 17.750000000000 2.300999641418 80 80 80
23.468750000000 17.750000000000 2.185999870300 98 98 98
23.468750000000 17.750000000000 2.069999694824 125 125 125
23.468750000000 17.750000000000 1.953000068665 125 125 125
23.468750000000 17.750000000000 1.835000038147 142 142 142
23.468750000000 17.750000000000 1.717000007629 156 156 156
23.562500000000 17.812500000000 1.586999893188 133 133 133
23.281250000000 17.937500000000 4.889999389648 47 47 47
23.312500000000 17.937500000000 4.777999877930 72 72 72
23.343750000000 17.875000000000 4.670000076294 128 128 128
23.406250000000 17.875000000000 4.562999725342 216 216 216
23.312500000000 17.937500000000 4.444000244141 168 168 168
23.312500000000 17.937500000000 4.331998825073 191 191 191
23.343750000000 17.937500000000 4.220998764038 255 255 255
23.343750000000 17.937500000000 4.108999252319 249 249 249
23.343750000000 17.937500000000 3.997999191284 236 236 236
23.343750000000 17.937500000000 3.887000083923 238 238 238
23.343750000000 17.875000000000 3.776000022888 230 230 230
23.343750000000 17.875000000000 3.663999557495 232 232 232
23.343750000000 17.875000000000 3.552999496460 219 219 219
23.343750000000 17.875000000000 3.440999984741 198 198 198
23.375000000000 17.875000000000 3.328999519348 179 179 179
23.375000000000 17.875000000000 3.217000007629 166 166 166
23.468750000000 17.937500000000 3.101999282837 162 162 162
23.468750000000 17.937500000000 2.987999916077 160 160 160
23.468750000000 17.937500000000 2.875999450684 95 95 95
23.468750000000 17.937500000000 2.760999679565 77 77 77
23.468750000000 17.937500000000 2.644000053406 61 61 61
23.531250000000 17.875000000000 2.523999214172 55 55 55
23.593750000000 17.937500000000 2.406999588013 9 9 9
23.437500000000 18.187500000000 4.567998886108 200 200 200
23.437500000000 18.187500000000 4.454999923706 206 206 206
23.468750000000 18.250000000000 4.343999862671 231 231 231
23.468750000000 18.187500000000 4.230998992920 138 138 138
23.531250000000 18.187500000000 3.325999259949 20 20 20
23.531250000000 18.187500000000 3.212999343872 70 70 70
23.531250000000 18.187500000000 3.097999572754 58 58 58
23.437500000000 18.312500000000 4.795999526978 255 255 255
23.437500000000 18.312500000000 4.681999206543 255 255 255
23.437500000000 18.312500000000 4.569000244141 178 178 178
23.468750000000 18.375000000000 4.343999862671 255 255 255
23.468750000000 18.375000000000 4.230998992920 255 255 255
23.531250000000 18.375000000000 3.553999900818 123 123 123
23.531250000000 18.312500000000 3.439999580383 177 177 177
23.531250000000 18.312500000000 3.325999259949 171 171 171
23.531250000000 18.312500000000 3.212999343872 158 158 158
23.468750000000 18.375000000000 4.911998748779 83 83 83
23.437500000000 18.375000000000 4.795000076294 255 255 255
23.437500000000 18.375000000000 4.680999755859 255 255 255
23.531250000000 18.437500000000 4.343999862671 103 103 103
23.500000000000 18.437500000000 4.230998992920 255 255 255
23.531250000000 18.437500000000 4.118000030518 255 255 255
23.437500000000 18.562500000000 4.792999267578 138 138 138
23.468750000000 18.625000000000 4.229999542236 156 156 156
23.531250000000 17.375000000000 4.822999954224 90 90 90
23.531250000000 17.500000000000 3.640999794006 35 35 35
23.531250000000 17.500000000000 3.377999305725 76 76 76
23.593750000000 17.500000000000 3.244999885559 76 76 76
23.562500000000 17.500000000000 3.113999366760 76 76 76
23.437500000000 17.750000000000 4.688999176025 110 110 110
23.406250000000 17.812500000000 4.556999206543 123 123 123
23.406250000000 17.812500000000 4.427000045776 141 141 141
23.343750000000 17.812500000000 4.293998718262 60 60 60
23.343750000000 17.875000000000 4.163999557495 43 43 43
23.343750000000 17.875000000000 4.035999298096 61 61 61
23.343750000000 17.875000000000 3.906999588013 65 65 65
23.406250000000 17.875000000000 3.777999877930 119 119 119
23.406250000000 17.875000000000 3.648999214172 126 126 126
23.406250000000 17.875000000000 3.519999504089 143 143 143
23.406250000000 17.875000000000 3.390999794006 132 132 132
23.406250000000 17.875000000000 3.260999679565 135 135 135
23.406250000000 17.875000000000 3.131999969482 138 138 138
23.406250000000 17.875000000000 3.000999450684 148 148 148
23.406250000000 17.875000000000 2.869999885559 156 156 156
23.437500000000 17.875000000000 2.737999916077 155 155 155
23.437500000000 17.875000000000 2.606999397278 156 156 156
23.468750000000 17.875000000000 2.472999572754 150 150 150
23.468750000000 17.875000000000 2.340999603271 149 149 149
23.468750000000 17.875000000000 2.204999923706 146 146 146
23.468750000000 17.812500000000 2.068999290466 149 149 149
23.468750000000 17.812500000000 1.936999320984 135 135 135
23.500000000000 17.812500000000 1.798999786377 133 133 133
23.343750000000 18.000000000000 4.938999176025 166 166 166
23.343750000000 18.000000000000 4.809000015259 208 208 208
23.343750000000 18.000000000000 4.681999206543 198 198 198
23.375000000000 17.937500000000 4.555000305176 185 185 185
23.406250000000 17.937500000000 4.426000595093 179 179 179
23.406250000000 17.937500000000 4.298000335693 175 175 175
23.437500000000 17.937500000000 4.168999671936 162 162 162
23.468750000000 17.937500000000 4.038999557495 152 152 152
23.468750000000 17.937500000000 3.908999443054 140 140 140
23.468750000000 17.937500000000 3.778999328613 134 134 134
23.531250000000 18.000000000000 3.648999214172 123 123 123
23.531250000000 18.000000000000 3.517999649048 117 117 117
23.531250000000 18.000000000000 3.385999679565 135 135 135
23.562500000000 17.937500000000 3.252999305725 141 141 141
23.593750000000 17.937500000000 3.120999336243 136 136 136
23.593750000000 17.937500000000 2.988999366760 141 141 141
23.593750000000 17.937500000000 2.855999946594 99 99 99
23.593750000000 17.937500000000 2.722999572754 84 84 84
23.593750000000 17.937500000000 2.588999748230 71 71 71
23.593750000000 17.937500000000 2.456999778748 57 57 57
23.468750000000 18.062500000000 4.688999176025 105 105 105
23.468750000000 18.062500000000 4.559999465942 137 137 137
23.468750000000 18.062500000000 4.430000305176 127 127 127
23.500000000000 18.062500000000 4.299999237061 38 38 38
23.531250000000 18.062500000000 3.777999877930 105 105 105
23.531250000000 18.062500000000 3.646999359131 115 115 115
23.531250000000 18.062500000000 3.515999794006 136 136 136
23.562500000000 18.000000000000 3.383999824524 110 110 110
23.562500000000 18.000000000000 3.251999855042 120 120 120
23.593750000000 18.125000000000 3.119999885559 111 111 111
23.593750000000 18.062500000000 2.986999511719 121 121 121
23.437500000000 18.250000000000 4.690000534058 138 138 138
23.437500000000 18.250000000000 4.559000015259 113 113 113
23.468750000000 18.187500000000 4.430000305176 135 135 135
23.468750000000 18.187500000000 4.299999237061 131 131 131
23.531250000000 18.187500000000 3.646999359131 107 107 107
23.531250000000 18.187500000000 3.514999389648 123 123 123
23.531250000000 18.187500000000 3.383999824524 117 117 117
23.531250000000 18.187500000000 3.251999855042 118 118 118
23.562500000000 18.187500000000 3.118999481201 112 112 112
23.593750000000 18.250000000000 2.986000061035 19 19 19
23.468750000000 18.375000000000 4.816999435425 127 127 127
23.468750000000 18.375000000000 4.687000274658 183 183 183
23.468750000000 18.375000000000 4.296998977661 131 131 131
23.468750000000 18.375000000000 4.166999816895 109 109 109
23.531250000000 18.312500000000 3.512999534607 76 76 76
23.562500000000 18.312500000000 3.380999565125 76 76 76
23.562500000000 18.312500000000 3.248999595642 75 75 75
23.593750000000 18.312500000000 3.114999771118 17 17 17
23.468750000000 18.437500000000 4.815000534058 137 137 137
23.468750000000 18.437500000000 4.684999465942 81 81 81
23.500000000000 18.437500000000 4.295000076294 106 106 106
23.531250000000 18.437500000000 4.163999557495 131 131 131
23.468750000000 18.375000000000 4.049999237061 82 82 82
23.468750000000 18.375000000000 4.179999351501 140 140 140
23.468750000000 18.375000000000 4.310998916626 70 70 70
23.437500000000 18.312500000000 4.569999694824 72 72 72
23.437500000000 18.312500000000 4.699998855591 155 155 155
23.406250000000 18.312500000000 4.830999374390 10 10 10
23.531250000000 18.250000000000 3.128999710083 123 123 123
23.531250000000 18.250000000000 3.260999679565 129 129 129
23.531250000000 18.250000000000 3.392999649048 126 126 126
23.500000000000 18.187500000000 3.524999618530 100 100 100
23.468750000000 18.187500000000 4.178999900818 133 133 133
23.468750000000 18.187500000000 4.309999465942 141 141 141
23.468750000000 18.187500000000 4.569000244141 146 146 146
23.437500000000 18.187500000000 4.698999404907 134 134 134
23.593750000000 18.125000000000 2.993999481201 124 124 124
23.531250000000 18.062500000000 3.126999855042 131 131 131
23.531250000000 18.062500000000 3.258999824524 126 126 126
23.531250000000 18.062500000000 3.390999794006 122 122 122
23.531250000000 18.062500000000 3.522999763489 126 126 126
23.531250000000 18.062500000000 3.653999328613 123 123 123
23.468750000000 18.000000000000 4.306999206543 144 144 144
23.468750000000 18.000000000000 4.437000274658 135 135 135
23.406250000000 17.937500000000 4.563999176025 133 133 133
23.281250000000 17.937500000000 4.683000564575 62 62 62
23.281250000000 17.937500000000 4.812000274658 89 89 89
23.500000000000 17.875000000000 2.863999366760 109 109 109
23.468750000000 17.875000000000 3.000000000000 117 117 117
23.375000000000 17.812500000000 3.133999824524 144 144 144
23.375000000000 17.812500000000 3.264999389648 151 151 151
23.375000000000 17.812500000000 3.394000053406 198 198 198
23.343750000000 17.812500000000 3.523999214172 217 217 217
23.343750000000 17.812500000000 3.652999877930 221 221 221
23.343750000000 17.812500000000 3.782999992371 226 226 226
23.312500000000 17.750000000000 3.910999298096 237 237 237
23.375000000000 17.812500000000 4.040999412537 255 255 255
23.343750000000 17.750000000000 4.170000076294 211 211 211
23.375000000000 17.812500000000 4.299999237061 171 171 171
23.406250000000 17.812500000000 4.430999755859 155 155 155
23.406250000000 17.812500000000 4.562000274658 145 145 145
23.406250000000 17.812500000000 4.690999984741 113 113 113
23.406250000000 17.812500000000 4.823999404907 126 126 126
23.406250000000 17.687500000000 1.401000022888 88 88 88
23.468750000000 17.687500000000 1.531000137329 110 110 110
23.468750000000 17.687500000000 1.665999412537 147 147 147
23.437500000000 17.687500000000 1.802000045776 152 152 152
23.437500000000 17.687500000000 1.936999320984 161 161 161
23.468750000000 17.687500000000 2.069999694824 172 172 172
23.437500000000 17.687500000000 2.203999519348 167 167 167
23.437500000000 17.687500000000 2.338999748230 149 149 149
23.437500000000 17.687500000000 2.469999313354 143 143 143
23.468750000000 17.687500000000 2.599999427795 135 135 135
23.468750000000 17.687500000000 2.729999542236 135 135 135
23.468750000000 17.687500000000 2.861000061035 128 128 128
23.531250000000 17.750000000000 2.991999626160 136 136 136
23.500000000000 17.750000000000 3.123999595642 132 132 132
23.531250000000 17.750000000000 3.255000114441 149 149 149
23.531250000000 17.750000000000 3.385999679565 136 136 136
23.531250000000 17.750000000000 3.516999244690 139 139 139
23.531250000000 17.750000000000 3.648999214172 123 123 123
23.468750000000 17.687500000000 4.302000045776 170 170 170
23.437500000000 17.687500000000 4.431999206543 177 177 177
23.437500000000 17.687500000000 4.562999725342 160 160 160
23.437500000000 17.625000000000 4.692998886108 81 81 81
23.593750000000 17.625000000000 1.495999336243 91 91 91
23.562500000000 17.562500000000 2.852999687195 80 80 80
23.562500000000 17.562500000000 2.986000061035 126 126 126
23.531250000000 17.625000000000 3.120999336243 130 130 130
23.531250000000 17.562500000000 3.251999855042 121 121 121
23.531250000000 17.562500000000 3.383999824524 117 117 117
23.531250000000 17.562500000000 3.515999794006 130 130 130
23.531250000000 17.625000000000 3.646999359131 119 119 119
23.468750000000 17.625000000000 4.170000076294 60 60 60
23.468750000000 17.625000000000 4.301000595093 179 179 179
23.468750000000 17.625000000000 4.431999206543 23 23 23
23.468750000000 17.625000000000 4.562999725342 159 159 159
23.437500000000 17.562500000000 4.692998886108 145 145 145
23.562500000000 17.500000000000 2.983999252319 44 44 44
23.531250000000 17.500000000000 3.116999626160 121 121 121
23.531250000000 17.437500000000 3.250000000000 120 120 120
23.531250000000 17.437500000000 3.381999969482 121 121 121
23.500000000000 17.437500000000 3.512999534607 119 119 119
23.468750000000 17.437500000000 4.167999267578 151 151 151
23.437500000000 17.375000000000 4.298999786377 174 174 174
23.437500000000 17.375000000000 4.690999984741 141 141 141
23.406250000000 17.375000000000 4.820999145508 149 149 149
23.437500000000 17.250000000000 4.166999816895 135 135 135
23.406250000000 18.437500000000 4.732000350952 106 106 106
23.437500000000 18.375000000000 4.212999343872 72 72 72
23.437500000000 18.375000000000 4.081999778748 74 74 74
23.406250000000 18.312500000000 4.729000091553 136 136 136
23.406250000000 18.312500000000 4.598999023438 147 147 147
23.437500000000 18.312500000000 4.209999084473 133 133 133
23.437500000000 18.312500000000 4.079999923706 102 102 102
23.468750000000 18.312500000000 3.425999641418 58 58 58
23.500000000000 18.250000000000 3.293999671936 55 55 55
23.500000000000 18.250000000000 3.163000106812 41 41 41
23.406250000000 18.187500000000 4.726999282837 58 58 58
23.406250000000 18.187500000000 4.597000122070 134 134 134
23.468750000000 18.187500000000 4.468999862671 33 33 33
23.437500000000 18.187500000000 4.337999343872 131 131 131
23.468750000000 18.187500000000 4.208000183105 131 131 131
23.500000000000 18.125000000000 3.555999755859 112 112 112
23.531250000000 18.125000000000 3.424999237061 121 121 121
23.531250000000 18.125000000000 3.292999267578 110 110 110
23.531250000000 18.125000000000 3.160999298096 113 113 113
23.531250000000 18.125000000000 3.027999877930 118 118 118
23.375000000000 17.937500000000 4.595998764038 129 129 129
23.406250000000 17.937500000000 4.465999603271 137 137 137
23.406250000000 17.937500000000 4.336999893188 140 140 140
23.468750000000 17.937500000000 3.684999465942 117 117 117
23.468750000000 17.937500000000 3.553999900818 115 115 115
23.468750000000 17.937500000000 3.422999382019 122 122 122
23.468750000000 17.937500000000 3.291999816895 116 116 116
23.468750000000 17.937500000000 3.158999443054 121 121 121
23.500000000000 17.875000000000 3.026999473572 117 117 117
23.531250000000 18.000000000000 2.894000053406 117 117 117
23.250000000000 17.875000000000 4.841999053955 214 214 214
23.281250000000 17.875000000000 4.715000152588 255 255 255
23.250000000000 17.875000000000 4.584999084473 248 248 248
23.281250000000 17.875000000000 4.455999374390 236 236 236
23.281250000000 17.875000000000 4.327999114990 227 227 227
23.281250000000 17.875000000000 4.199999809265 218 218 218
23.281250000000 17.875000000000 4.071999549866 201 201 201
23.281250000000 17.875000000000 3.942999839783 195 195 195
23.312500000000 17.812500000000 3.814999580383 181 181 181
23.343750000000 17.812500000000 3.684999465942 167 167 167
23.343750000000 17.812500000000 3.554999351501 153 153 153
23.343750000000 17.812500000000 3.425999641418 126 126 126
23.375000000000 17.812500000000 3.295000076294 150 150 150
23.406250000000 17.812500000000 3.163999557495 140 140 140
23.406250000000 17.812500000000 3.031999588013 136 136 136
23.406250000000 17.812500000000 2.899999618530 127 127 127
23.437500000000 17.750000000000 2.765999794006 118 118 118
23.437500000000 17.750000000000 2.632999420166 109 109 109
23.468750000000 17.750000000000 2.498999595642 93 93 93
23.468750000000 17.750000000000 2.365999221802 89 89 89
23.468750000000 17.750000000000 2.229000091553 85 85 85
23.531250000000 17.750000000000 2.089999198914 77 77 77
23.531250000000 17.750000000000 1.953000068665 85 85 85
23.531250000000 17.750000000000 1.812999725342 109 109 109
23.593750000000 17.687500000000 1.664999961853 180 180 180
23.406250000000 17.625000000000 4.594999313354 132 132 132
23.406250000000 17.625000000000 4.463998794556 122 122 122
23.406250000000 17.625000000000 4.333999633789 168 168 168
23.468750000000 17.625000000000 3.681999206543 112 112 112
23.468750000000 17.625000000000 3.550999641418 114 114 114
23.500000000000 17.625000000000 3.420000076294 114 114 114
23.531250000000 17.625000000000 3.288000106812 117 117 117
23.500000000000 17.625000000000 3.156999588013 117 117 117
23.468750000000 17.625000000000 3.026999473572 101 101 101
23.468750000000 17.625000000000 2.895999908447 108 108 108
23.343750000000 17.687500000000 2.776999473572 22 22 22
23.343750000000 17.687500000000 2.645999908447 33 33 33
23.437500000000 17.625000000000 1.972999572754 77 77 77
23.468750000000 17.625000000000 1.696999549866 168 168 168
23.406250000000 17.187500000000 4.726999282837 15 15 15
23.406250000000 17.187500000000 4.204999923706 59 59 59
23.406250000000 18.375000000000 4.812999725342 255 255 255
23.437500000000 18.375000000000 4.699998855591 255 255 255
23.406250000000 18.375000000000 4.584999084473 238 238 238
23.468750000000 18.375000000000 4.250000000000 255 255 255
23.468750000000 18.375000000000 4.137000083923 255 255 255
23.468750000000 18.375000000000 4.023999214172 255 255 255
23.406250000000 18.250000000000 4.698999404907 255 255 255
23.406250000000 18.250000000000 4.584999084473 255 255 255
23.406250000000 18.250000000000 4.358999252319 196 196 196
23.437500000000 18.250000000000 4.247999191284 255 255 255
23.468750000000 18.250000000000 4.134999275208 255 255 255
23.500000000000 18.187500000000 3.456999778748 187 187 187
23.531250000000 18.250000000000 3.342999458313 187 187 187
23.531250000000 18.250000000000 3.229999542236 182 182 182
23.531250000000 18.250000000000 3.115999221802 176 176 176
23.281250000000 17.875000000000 4.792999267578 161 161 161
23.281250000000 17.875000000000 4.680999755859 141 141 141
23.312500000000 17.937500000000 4.572999954224 124 124 124
23.343750000000 17.875000000000 4.463998794556 129 129 129
23.468750000000 17.937500000000 4.360000610352 197 197 197
23.406250000000 17.875000000000 4.244998931885 140 140 140
23.468750000000 17.937500000000 4.132999420166 211 211 211
23.468750000000 17.937500000000 4.019999504089 156 156 156
23.468750000000 17.937500000000 3.907999992371 159 159 159
23.406250000000 17.875000000000 3.793999671936 46 46 46
23.500000000000 17.875000000000 3.681999206543 199 199 199
23.531250000000 17.875000000000 3.568999290466 203 203 203
23.500000000000 17.875000000000 3.455999374390 184 184 184
23.531250000000 17.875000000000 3.342000007629 183 183 183
23.531250000000 17.875000000000 3.227999687195 182 182 182
23.531250000000 17.875000000000 3.113999366760 180 180 180
23.531250000000 17.875000000000 2.998999595642 177 177 177
23.531250000000 17.875000000000 2.884999275208 178 178 178
23.406250000000 17.687500000000 4.586000442505 255 255 255
23.406250000000 17.687500000000 4.472000122070 255 255 255
23.406250000000 17.687500000000 4.358999252319 255 255 255
23.437500000000 17.687500000000 4.246999740601 88 88 88
23.406250000000 17.750000000000 4.017999649048 7 7 7
23.406250000000 17.750000000000 3.906000137329 54 54 54
23.406250000000 17.750000000000 3.792999267578 45 45 45
23.468750000000 17.750000000000 3.680999755859 194 194 194
23.437500000000 17.687500000000 3.567999839783 192 192 192
23.406250000000 17.750000000000 3.455999374390 160 160 160
23.406250000000 17.750000000000 3.343999862671 163 163 163
23.343750000000 17.750000000000 3.232999801636 156 156 156
23.343750000000 17.750000000000 3.120999336243 145 145 145
23.343750000000 17.750000000000 3.008999824524 177 177 177
23.375000000000 17.750000000000 2.895999908447 184 184 184
23.375000000000 17.750000000000 2.782999992371 186 186 186
23.375000000000 17.750000000000 2.670000076294 188 188 188
23.406250000000 17.750000000000 2.555999755859 192 192 192
23.343750000000 17.750000000000 2.108999252319 181 181 181
23.406250000000 17.750000000000 1.977999687195 156 156 156
23.406250000000 17.750000000000 1.861000061035 135 135 135
23.437500000000 17.625000000000 4.697999954224 255 255 255
23.468750000000 17.625000000000 4.584999084473 255 255 255
23.437500000000 17.625000000000 4.470998764038 210 210 210
23.437500000000 17.625000000000 4.357000350952 232 232 232
23.437500000000 17.625000000000 4.243999481201 253 253 253
23.468750000000 17.625000000000 3.680999755859 206 206 206
23.531250000000 17.625000000000 3.566999435425 215 215 215
23.500000000000 17.625000000000 3.453999519348 185 185 185
23.531250000000 17.625000000000 3.339999198914 183 183 183
23.531250000000 17.562500000000 3.225999832153 184 184 184
23.531250000000 17.625000000000 3.112999916077 176 176 176
23.531250000000 17.562500000000 2.997999191284 180 180 180
23.531250000000 17.562500000000 2.882999420166 176 176 176
23.406250000000 17.500000000000 4.809000015259 247 247 247
23.437500000000 17.500000000000 4.697999954224 255 255 255
23.437500000000 17.500000000000 4.584999084473 255 255 255
23.437500000000 17.500000000000 4.355998992920 172 172 172
23.437500000000 17.500000000000 4.244998931885 255 255 255
23.437500000000 17.500000000000 4.131999969482 255 255 255
23.500000000000 17.437500000000 3.566999435425 175 175 175
23.500000000000 17.437500000000 3.453000068665 199 199 199
23.500000000000 17.437500000000 3.338999748230 191 191 191
23.500000000000 17.437500000000 3.224999427795 187 187 187
23.531250000000 17.500000000000 3.111000061035 186 186 186
23.531250000000 17.500000000000 2.996999740601 171 171 171
23.375000000000 17.250000000000 4.808000564575 239 239 239
23.437500000000 17.312500000000 4.697000503540 255 255 255
23.437500000000 17.312500000000 4.243999481201 255 255 255
23.468750000000 17.312500000000 4.130999565125 255 255 255
23.468750000000 17.312500000000 4.017999649048 9 9 9
