24.690013885498 27.408729553223 4.576999664307 129 129 129
24.690013885498 27.408729553223 4.532001495361 129 129 129
24.690013885498 27.408729553223 4.485996246338 148 148 148
24.682991027832 27.394769668579 4.442996978760 184 184 184
24.710906982422 27.380725860596 4.398998260498 173 173 173
24.707393646240 27.373746871948 4.354999542236 113 113 113
24.745674133301 27.310764312744 4.043994903564 76 76 76
24.721267700195 27.331787109375 3.996997833252 124 124 124
24.745674133301 27.310764312744 3.952999114990 127 127 127
24.721267700195 27.331787109375 3.907001495361 118 118 118
24.745674133301 27.310764312744 3.861995697021 129 129 129
24.724777221680 27.338766098022 3.815998077393 82 82 82
24.836101531982 27.142837524414 3.604999542236 36 36 36
24.836101531982 27.142837524414 3.557994842529 47 47 47
24.836101531982 27.142837524414 3.511997222900 48 48 48
24.860507965088 27.121814727783 3.466999053955 83 83 83
24.836101531982 27.142837524414 3.420001983643 73 73 73
24.836101531982 27.142837524414 3.373996734619 66 66 66
24.860507965088 27.121814727783 3.328998565674 55 55 55
24.839611053467 27.149814605713 3.282001495361 52 52 52
24.843124389648 27.156795501709 3.235996246338 59 59 59
24.853485107422 27.107856750488 3.189998626709 47 47 47
24.891765594482 27.044872283936 3.144001007080 61 61 61
24.870868682861 27.072875976563 3.097995758057 24 24 24
24.912658691406 27.016868591309 3.049999237061 14 14 14
24.703197479248 27.087261199951 4.917995452881 89 89 89
24.845951080322 26.884265899658 4.923000335693 134 134 134
24.703197479248 27.087261199951 4.398998260498 78 78 78
24.699687957764 27.080280303955 4.355998992920 145 145 145
24.724094390869 27.059257507324 4.312000274658 131 131 131
24.724094390869 27.059257507324 4.265995025635 143 143 143
24.724094390869 27.059257507324 4.218997955322 136 136 136
24.717071533203 27.045299530029 4.174999237061 139 139 139
24.741477966309 27.024276733398 4.131000518799 129 129 129
24.737964630127 27.017299652100 4.085994720459 126 126 126
24.737964630127 27.017299652100 4.038997650146 131 131 131
24.737964630127 27.017299652100 3.993000030518 68 68 68
24.911972045898 26.737361907959 3.596996307373 43 43 43
24.904949188232 26.723403930664 3.549999237061 42 42 42
24.904949188232 26.723403930664 3.501995086670 56 56 56
24.793628692627 26.919334411621 3.446994781494 98 98 98
24.751838684082 26.975337982178 3.397998809814 166 166 166
24.744815826416 26.961380004883 3.352001190186 147 147 147
24.751838684082 26.975337982178 3.305995941162 185 185 185
24.748325347900 26.968357086182 3.259998321533 158 158 158
24.765708923340 26.933376312256 3.215000152588 98 98 98
24.828395843506 26.849370956421 3.168994903564 58 58 58
24.814521789551 26.891330718994 3.121997833252 87 87 87
24.793628692627 26.919334411621 3.076000213623 89 89 89
24.741306304932 26.954399108887 3.029998779297 131 131 131
24.741306304932 26.954399108887 2.983997344971 109 109 109
24.769222259521 26.940357208252 2.937999725342 114 114 114
24.769222259521 26.940357208252 2.891998291016 111 111 111
24.762199401855 26.926399230957 2.844997406006 106 106 106
24.793628692627 26.919334411621 2.798000335693 103 103 103
24.762199401855 26.926399230957 2.751998901367 99 99 99
24.762199401855 26.926399230957 2.705997467041 104 104 104
24.793628692627 26.919334411621 2.659000396729 106 106 106
24.793628692627 26.919334411621 2.612998962402 100 100 100
24.786605834961 26.905376434326 2.564998626709 111 111 111
24.786605834961 26.905376434326 2.518997192383 109 109 109
24.786605834961 26.905376434326 2.472000122070 104 104 104
24.786605834961 26.905376434326 2.424999237061 116 116 116
24.807498931885 26.877372741699 2.375999450684 113 113 113
24.800479888916 26.863414764404 2.326000213623 116 116 116
24.796966552734 26.856437683105 2.277999877930 115 115 115
24.796966552734 26.856437683105 2.229999542236 118 118 118
24.800479888916 26.863414764404 2.183998107910 126 126 126
24.779582977295 26.891418457031 2.142997741699 137 137 137
24.646678924561 26.835842132568 3.694995880127 119 119 119
24.604892730713 26.891845703125 3.600002288818 135 135 135
24.604892730713 26.891845703125 3.553997039795 143 143 143
24.608402252197 26.898822784424 3.507999420166 134 134 134
24.608402252197 26.898822784424 3.463001251221 134 134 134
24.604892730713 26.891845703125 3.417995452881 133 133 133
24.604892730713 26.891845703125 3.372997283936 117 117 117
24.601379394531 26.884864807129 3.327999114990 112 112 112
24.604892730713 26.891845703125 3.282001495361 108 108 108
24.604892730713 26.891845703125 3.236995697021 110 110 110
24.604892730713 26.891845703125 3.191997528076 108 108 108
24.601379394531 26.884864807129 3.145999908447 96 96 96
24.618762969971 26.849884033203 2.872997283936 63 63 63
24.618762969971 26.849884033203 2.826999664307 55 55 55
24.618762969971 26.849884033203 2.781997680664 33 33 33
24.618762969971 26.849884033203 2.736000061035 17 17 17
24.629295349121 26.870822906494 3.875995635986 106 106 106
24.622272491455 26.856864929199 3.785999298096 116 116 116
24.646678924561 26.835842132568 3.742000579834 117 117 117
24.604892730713 26.891845703125 3.646999359131 132 132 132
24.756378173828 27.401578903198 3.774997711182 221 221 221
24.759887695313 27.408557891846 3.819995880127 6 6 6
24.794826507568 27.408472061157 3.865001678467 14 14 14
24.759887695313 27.408557891846 3.908000946045 12 12 12
24.759887695313 27.408557891846 3.951999664307 7 7 7
24.759887695313 27.408557891846 3.995998382568 179 179 179
24.724948883057 27.408643722534 4.350002288818 16 16 16
24.724948883057 27.408643722534 4.394001007080 240 240 240
24.724948883057 27.408643722534 4.437999725342 221 221 221
24.721439361572 27.401664733887 4.480998992920 235 235 235
24.721439361572 27.401664733887 4.525997161865 248 248 248
24.724948883057 27.408643722534 4.571994781494 235 235 235
24.756378173828 27.401578903198 4.621997833252 57 57 57
24.850318908691 27.240631103516 3.450000762939 10 10 10
24.776927947998 27.233821868896 3.847995758057 199 199 199
24.776927947998 27.233821868896 3.894001007080 5 5 5
24.776927947998 27.233821868896 3.937999725342 12 12 12
24.776927947998 27.233821868896 3.981998443604 2 2 2
24.776927947998 27.233821868896 4.027996063232 17 17 17
24.776927947998 27.233821868896 4.071994781494 250 250 250
24.745502471924 27.240886688232 4.293994903564 234 234 234
24.741992950439 27.233905792236 4.339000701904 250 250 250
24.745502471924 27.240886688232 4.383998870850 245 245 245
24.745502471924 27.240886688232 4.428997039795 255 255 255
24.741992950439 27.233905792236 4.473995208740 241 241 241
24.741992950439 27.233905792236 4.519001007080 185 185 185
24.839443206787 27.079940795898 3.112995147705 68 68 68
24.835929870605 27.072959899902 3.159000396729 91 91 91
24.835929870605 27.072959899902 3.203998565674 91 91 91
24.835929870605 27.072959899902 3.248996734619 98 98 98
24.870868682861 27.072875976563 3.295001983643 101 101 101
24.877891540527 27.086833953857 3.340999603271 89 89 89
24.839443206787 27.079940795898 3.384998321533 87 87 87
24.835929870605 27.072959899902 3.429996490479 80 80 80
24.839443206787 27.079940795898 3.476001739502 79 79 79
24.905807495117 27.072788238525 3.522998809814 72 72 72
24.877891540527 27.086833953857 3.568996429443 69 69 69
24.905807495117 27.072788238525 3.615001678467 62 62 62
24.766056060791 27.073131561279 3.968997955322 244 244 244
24.766056060791 27.073131561279 4.014995574951 8 8 8
24.766056060791 27.073131561279 4.060001373291 0 0 0
24.766056060791 27.073131561279 4.106998443604 15 15 15
24.759033203125 27.059173583984 4.148998260498 248 248 248
24.731113433838 27.073215484619 4.193996429443 234 234 234
24.731113433838 27.073215484619 4.237995147705 252 252 252
24.731113433838 27.073215484619 4.284000396729 249 249 249
24.731113433838 27.073215484619 4.329998016357 249 249 249
24.731113433838 27.073215484619 4.375995635986 244 244 244
24.731113433838 27.073215484619 4.421001434326 185 185 185
24.766056060791 27.073131561279 4.892002105713 55 55 55
24.654216766357 27.059429168701 4.910999298096 77 77 77
24.744644165039 26.891502380371 2.181999206543 144 144 144
24.737621307373 26.877544403076 2.230998992920 107 107 107
24.674770355225 26.891674041748 2.280998229980 104 104 104
24.674770355225 26.891674041748 2.326000213623 109 109 109
24.674770355225 26.891674041748 2.370998382568 119 119 119
24.702686309814 26.877628326416 2.416000366211 111 111 111
24.674770355225 26.891674041748 2.461997985840 115 115 115
24.674770355225 26.891674041748 2.507999420166 115 115 115
24.674770355225 26.891674041748 2.552997589111 123 123 123
24.674770355225 26.891674041748 2.597999572754 125 125 125
24.674770355225 26.891674041748 2.642997741699 126 126 126
24.674770355225 26.891674041748 2.687999725342 126 126 126
24.674770355225 26.891674041748 2.732997894287 135 135 135
24.674770355225 26.891674041748 2.777999877930 133 133 133
24.674770355225 26.891674041748 2.821998596191 135 135 135
24.671257019043 26.884693145752 2.868000030518 140 140 140
24.671257019043 26.884693145752 2.912998199463 135 135 135
24.674770355225 26.891674041748 2.956996917725 143 143 143
24.671257019043 26.884693145752 3.002998352051 146 146 146
24.671257019043 26.884693145752 3.048000335693 146 146 146
24.671257019043 26.884693145752 3.091999053955 149 149 149
24.639827728271 26.891757965088 3.136997222900 154 154 154
24.671257019043 26.884693145752 3.181995391846 156 156 156
24.639827728271 26.891757965088 3.226001739502 161 161 161
24.671257019043 26.884693145752 3.270999908447 165 165 165
24.639827728271 26.891757965088 3.315998077393 166 166 166
24.639827728271 26.891757965088 3.359996795654 167 167 167
24.639827728271 26.891757965088 3.404994964600 175 175 175
24.639827728271 26.891757965088 3.450000762939 201 201 201
24.636318206787 26.884780883789 3.493999481201 192 192 192
24.639827728271 26.891757965088 3.538997650146 175 175 175
24.639827728271 26.891757965088 3.583995819092 173 173 173
24.636318206787 26.884780883789 3.628002166748 174 174 174
24.636318206787 26.884780883789 3.673000335693 169 169 169
24.636318206787 26.884780883789 3.716999053955 176 176 176
24.636318206787 26.884780883789 3.761997222900 177 177 177
24.636318206787 26.884780883789 3.806995391846 173 173 173
24.636318206787 26.884780883789 3.852001190186 176 176 176
24.636318206787 26.884780883789 3.896999359131 169 169 169
24.636318206787 26.884780883789 3.940998077393 177 177 177
24.604892730713 26.891845703125 3.985996246338 176 176 176
24.604892730713 26.891845703125 4.029994964600 176 176 176
24.604892730713 26.891845703125 4.076000213623 175 175 175
24.604892730713 26.891845703125 4.120998382568 177 177 177
24.604892730713 26.891845703125 4.165996551514 179 179 179
24.604892730713 26.891845703125 4.210994720459 180 180 180
24.604892730713 26.891845703125 4.256000518799 181 181 181
24.604892730713 26.891845703125 4.299999237061 181 181 181
24.604892730713 26.891845703125 4.347995758057 178 178 178
24.604892730713 26.891845703125 4.389995574951 182 182 182
24.604892730713 26.891845703125 4.437000274658 182 182 182
24.604892730713 26.891845703125 4.481998443604 181 181 181
24.604892730713 26.891845703125 4.526996612549 186 186 186
24.604892730713 26.891845703125 4.573001861572 179 179 179
24.569953918457 26.891929626465 4.617000579834 181 181 181
24.573463439941 26.898910522461 4.663997650146 185 185 185
24.604892730713 26.891845703125 4.714000701904 179 179 179
24.569953918457 26.891929626465 4.750995635986 118 118 118
24.604892730713 26.891845703125 4.802997589111 156 156 156
24.538524627686 26.898996353149 4.840000152588 106 106 106
24.569953918457 26.891929626465 4.892002105713 124 124 124
24.461627960205 26.885208129883 4.913997650146 82 82 82
24.535015106201 26.892017364502 4.976001739502 78 78 78
24.939891815186 26.723318099976 2.970996856689 42 42 42
24.943401336670 26.730297088623 3.017997741699 75 75 75
24.939891815186 26.723318099976 3.064998626709 71 71 71
24.939891815186 26.723318099976 3.111995697021 66 66 66
24.939891815186 26.723318099976 3.159000396729 87 87 87
24.939891815186 26.723318099976 3.205997467041 74 74 74
24.939891815186 26.723318099976 3.253002166748 145 145 145
24.943401336670 26.730297088623 3.299999237061 73 73 73
24.939891815186 26.723318099976 3.346996307373 86 86 86
24.904949188232 26.723403930664 3.392002105713 84 84 84
24.877033233643 26.737447738647 3.438999176025 74 74 74
24.911972045898 26.737361907959 3.486995697021 72 72 72
24.939891815186 26.723318099976 3.534000396729 68 68 68
24.939891815186 26.723318099976 3.580997467041 71 71 71
24.939891815186 26.723318099976 3.628002166748 35 35 35
24.772220611572 26.737703323364 4.220996856689 248 248 248
24.765197753906 26.723745346069 4.265995025635 248 248 248
24.768707275391 26.730724334717 4.313999176025 255 255 255
24.765197753906 26.723745346069 4.359996795654 245 245 245
24.660381317139 26.724002838135 4.812000274658 22 22 22
24.842098236084 26.737533569336 4.897998809814 62 62 62
24.772220611572 26.737703323364 4.932994842529 116 116 116
24.548542022705 26.710300445557 4.927997589111 43 43 43
24.800136566162 26.723659515381 4.175998687744 158 158 158
24.806301116943 26.388235092163 3.770000457764 74 74 74
24.806301116943 26.388235092163 3.817996978760 251 251 251
24.806301116943 26.388235092163 3.865001678467 18 18 18
24.806301116943 26.388235092163 3.911998748779 253 253 253
24.806301116943 26.388235092163 3.958995819092 219 219 219
24.848262786865 26.402107238770 4.011997222900 235 235 235
24.771362304688 26.388320922852 4.337001800537 146 146 146
24.743442535400 26.402364730835 4.383998870850 236 236 236
24.743442535400 26.402364730835 4.431995391846 231 231 231
24.771362304688 26.388320922852 4.480998992920 0 0 0
24.771362304688 26.388320922852 4.529994964600 2 2 2
24.739933013916 26.395385742188 4.574001312256 227 227 227
24.976028442383 27.212371826172 3.422000885010 84 84 84
25.003944396973 27.198326110840 3.465000152588 87 87 87
24.752696990967 27.324722290039 3.792995452881 151 151 151
24.721267700195 27.331787109375 3.829998016357 183 183 183
24.752696990967 27.324722290039 3.870998382568 183 183 183
24.752696990967 27.324722290039 3.909000396729 178 178 178
24.752696990967 27.324722290039 3.949001312256 182 182 182
24.721267700195 27.331787109375 3.986995697021 178 178 178
24.721267700195 27.331787109375 4.025997161865 85 85 85
24.724777221680 27.338766098022 4.301998138428 67 67 67
24.724777221680 27.338766098022 4.340000152588 176 176 176
24.724777221680 27.338766098022 4.379001617432 205 205 205
24.696861267090 27.352809906006 4.416996002197 196 196 196
24.724777221680 27.338766098022 4.458995819092 181 181 181
24.696861267090 27.352809906006 4.494998931885 182 182 182
24.696861267090 27.352809906006 4.537998199463 168 168 168
24.884742736816 27.030914306641 3.000999450684 18 18 18
24.863849639893 27.058914184570 3.041000366211 61 61 61
24.860336303711 27.051937103271 3.079998016357 90 90 90
24.835929870605 27.072959899902 3.118999481201 26 26 26
24.832416534424 27.065979003906 3.158000946045 17 17 17
24.828907012939 27.059001922607 3.237995147705 24 24 24
24.860336303711 27.051937103271 3.278995513916 106 106 106
24.832416534424 27.065979003906 3.317996978760 137 137 137
24.828907012939 27.059001922607 3.356998443604 73 73 73
24.832416534424 27.065979003906 3.395999908447 77 77 77
24.832416534424 27.065979003906 3.435001373291 74 74 74
24.835929870605 27.072959899902 3.476001739502 73 73 73
24.863849639893 27.058914184570 3.520999908447 60 60 60
24.888252258301 27.037891387939 3.561000823975 58 58 58
24.863849639893 27.058914184570 3.601001739502 62 62 62
24.745159149170 27.101131439209 3.903995513916 61 61 61
24.745159149170 27.101131439209 3.943996429443 178 178 178
24.745159149170 27.101131439209 3.982997894287 183 183 183
24.745159149170 27.101131439209 4.021999359131 183 183 183
24.745159149170 27.101131439209 4.062999725342 182 182 182
24.717243194580 27.115177154541 4.101001739502 180 180 180
24.717243194580 27.115177154541 4.140995025635 149 149 149
24.717243194580 27.115177154541 4.180995941162 119 119 119
24.717243194580 27.115177154541 4.218997955322 179 179 179
24.717243194580 27.115177154541 4.259998321533 184 184 184
24.720752716064 27.122154235840 4.298000335693 182 182 182
24.720752716064 27.122154235840 4.340000152588 182 182 182
24.720752716064 27.122154235840 4.380001068115 183 183 183
24.720752716064 27.122154235840 4.418994903564 155 155 155
24.744644165039 26.891502380371 2.144996643066 145 145 145
24.744644165039 26.891502380371 2.185997009277 140 140 140
24.744644165039 26.891502380371 2.224998474121 144 144 144
24.741134643555 26.884525299072 2.263999938965 145 145 145
24.772563934326 26.877460479736 2.303997039795 149 149 149
24.744644165039 26.891502380371 2.344997406006 152 152 152
24.744644165039 26.891502380371 2.384998321533 152 152 152
24.744644165039 26.891502380371 2.423999786377 154 154 154
24.744644165039 26.891502380371 2.463996887207 153 153 153
24.744644165039 26.891502380371 2.503997802734 156 156 156
24.744644165039 26.891502380371 2.543998718262 158 158 158
24.744644165039 26.891502380371 2.583999633789 158 158 158
24.744644165039 26.891502380371 2.622997283936 160 160 160
24.744644165039 26.891502380371 2.662998199463 167 167 167
24.744644165039 26.891502380371 2.701999664307 161 161 161
24.744644165039 26.891502380371 2.741996765137 167 167 167
24.744644165039 26.891502380371 2.780998229980 166 166 166
24.744644165039 26.891502380371 2.820999145508 168 168 168
24.744644165039 26.891502380371 2.859996795654 173 173 173
24.744644165039 26.891502380371 2.899997711182 170 170 170
24.744644165039 26.891502380371 2.938999176025 175 175 175
24.744644165039 26.891502380371 2.979000091553 170 170 170
24.744644165039 26.891502380371 3.017997741699 176 176 176
24.744644165039 26.891502380371 3.057998657227 178 178 178
24.716728210449 26.905548095703 3.096996307373 181 181 181
24.744644165039 26.891502380371 3.136997222900 179 179 179
24.716728210449 26.905548095703 3.175998687744 188 188 188
24.716728210449 26.905548095703 3.215000152588 206 206 206
24.716728210449 26.905548095703 3.255001068115 188 188 188
24.744644165039 26.891502380371 3.295001983643 183 183 183
24.716728210449 26.905548095703 3.333995819092 182 182 182
24.716728210449 26.905548095703 3.372997283936 174 174 174
24.716728210449 26.905548095703 3.411998748779 172 172 172
24.716728210449 26.905548095703 3.451999664307 173 173 173
24.716728210449 26.905548095703 3.492000579834 173 173 173
24.716728210449 26.905548095703 3.531002044678 170 170 170
24.716728210449 26.905548095703 3.570995330811 169 169 169
24.716728210449 26.905548095703 3.609996795654 166 166 166
24.716728210449 26.905548095703 3.650997161865 166 166 166
24.716728210449 26.905548095703 3.689998626709 163 163 163
24.716728210449 26.905548095703 3.729000091553 163 163 163
24.716728210449 26.905548095703 3.769001007080 162 162 162
24.716728210449 26.905548095703 3.807994842529 160 160 160
24.716728210449 26.905548095703 3.848995208740 166 166 166
24.688812255859 26.919589996338 3.886997222900 169 169 169
24.688812255859 26.919589996338 3.926998138428 163 163 163
24.716728210449 26.905548095703 3.968997955322 167 167 167
24.716728210449 26.905548095703 4.008998870850 168 168 168
24.716728210449 26.905548095703 4.048999786377 170 170 170
24.688812255859 26.919589996338 4.089000701904 168 168 168
24.688812255859 26.919589996338 4.129001617432 168 168 168
24.688812255859 26.919589996338 4.168994903564 165 165 165
24.688812255859 26.919589996338 4.208995819092 164 164 164
24.688812255859 26.919589996338 4.249996185303 165 165 165
24.688812255859 26.919589996338 4.288997650146 163 163 163
24.688812255859 26.919589996338 4.330997467041 164 164 164
24.688812255859 26.919589996338 4.371997833252 156 156 156
24.688812255859 26.919589996338 4.413997650146 161 161 161
24.688812255859 26.919589996338 4.452999114990 154 154 154
24.688812255859 26.919589996338 4.493999481201 157 157 157
24.692325592041 26.926570892334 4.534000396729 157 157 157
24.660892486572 26.933635711670 4.573001861572 161 161 161
24.692325592041 26.926570892334 4.616001129150 159 159 159
24.692325592041 26.926570892334 4.658000946045 157 157 157
24.660892486572 26.933635711670 4.698001861572 135 135 135
24.632976531982 26.947677612305 4.723995208740 104 104 104
24.577144622803 26.975767135620 4.751995086670 115 115 115
24.549228668213 26.989810943604 4.788997650146 115 115 115
24.601551055908 26.954742431641 4.842998504639 110 110 110
24.601551055908 26.954742431641 4.881999969482 116 116 116
24.517803192139 26.996875762939 4.900997161865 88 88 88
24.573635101318 26.968788146973 4.958995819092 80 80 80
24.932521820068 26.569606781006 3.249996185303 31 31 31
24.960437774658 26.555561065674 3.291996002197 67 67 67
24.932521820068 26.569606781006 3.332996368408 52 52 52
24.932521820068 26.569606781006 3.373996734619 52 52 52
24.932521820068 26.569606781006 3.415996551514 53 53 53
24.932521820068 26.569606781006 3.457996368408 53 53 53
24.932521820068 26.569606781006 3.498996734619 48 48 48
24.932521820068 26.569606781006 3.540996551514 49 49 49
24.765026092529 26.653869628906 3.930995941162 155 155 155
24.768535614014 26.660848617554 3.969997406006 187 187 187
24.737110137939 26.667913436890 4.010997772217 189 189 189
24.737110137939 26.667913436890 4.051998138428 191 191 191
24.768535614014 26.660848617554 4.092998504639 199 199 199
24.737110137939 26.667913436890 4.132999420166 179 179 179
24.768535614014 26.660848617554 4.175998687744 158 158 158
24.737110137939 26.667913436890 4.216999053955 200 200 200
24.737110137939 26.667913436890 4.257999420166 198 198 198
24.737110137939 26.667913436890 4.299999237061 175 175 175
24.737110137939 26.667913436890 4.341999053955 177 177 177
24.737110137939 26.667913436890 4.381999969482 170 170 170
24.573120117188 26.759155273438 4.792995452881 38 38 38
24.712703704834 26.688938140869 4.882999420166 122 122 122
24.653358459473 26.710044860840 4.912998199463 120 120 120
24.489372253418 26.801288604736 4.899997711182 76 76 76
24.788917541504 26.423215866089 3.802997589111 135 135 135
24.816833496094 26.409172058105 3.848995208740 157 157 157
24.729572296143 26.444324493408 4.299999237061 126 126 126
24.733081817627 26.451303482056 4.340999603271 188 188 188
24.733081817627 26.451303482056 4.382999420166 206 206 206
24.729572296143 26.444324493408 4.423999786377 178 178 178
24.729572296143 26.444324493408 4.465999603271 179 179 179
24.760997772217 26.437259674072 4.512996673584 151 151 151
24.576461791992 26.696258544922 4.886997222900 38 38 38
24.736934661865 26.598035812378 4.463001251221 116 116 116
24.740447998047 26.605014801025 4.422000885010 173 173 173
24.743957519531 26.611993789673 4.378002166748 171 171 171
24.740447998047 26.605014801025 4.338001251221 183 183 183
24.740447998047 26.605014801025 4.296001434326 191 191 191
24.743957519531 26.611993789673 4.251995086670 184 184 184
24.736934661865 26.598035812378 4.210994720459 54 54 54
24.743957519531 26.611993789673 4.126995086670 103 103 103
24.740447998047 26.605014801025 4.088001251221 187 187 187
24.740447998047 26.605014801025 4.046001434326 194 194 194
24.740447998047 26.605014801025 4.006000518799 177 177 177
24.740447998047 26.605014801025 3.965000152588 187 187 187
24.740447998047 26.605014801025 3.923999786377 176 176 176
24.740447998047 26.605014801025 3.881999969482 110 110 110
24.939373016357 26.513687133789 3.445995330811 20 20 20
24.939373016357 26.513687133789 3.403995513916 21 21 21
24.542377471924 27.045728683472 4.939998626709 76 76 76
24.514461517334 27.059772491455 4.888996124268 88 88 88
24.681961059570 26.975509643555 4.898998260498 118 118 118
24.598213195801 27.017641067505 4.827999114990 88 88 88
24.594699859619 27.010662078857 4.787998199463 103 103 103
24.594699859619 27.010662078857 4.746997833252 94 94 94
24.681961059570 26.975509643555 4.730998992920 98 98 98
24.681961059570 26.975509643555 4.689998626709 148 148 148
24.681961059570 26.975509643555 4.648998260498 146 146 146
24.709877014160 26.961463928223 4.608997344971 142 142 142
24.709877014160 26.961463928223 4.565998077393 143 143 143
24.709877014160 26.961463928223 4.523998260498 139 139 139
24.681961059570 26.975509643555 4.481998443604 138 138 138
24.709877014160 26.961463928223 4.442996978760 143 143 143
24.709877014160 26.961463928223 4.401996612549 136 136 136
24.709877014160 26.961463928223 4.359996795654 146 146 146
24.709877014160 26.961463928223 4.319995880127 169 169 169
24.709877014160 26.961463928223 4.279994964600 181 181 181
24.709877014160 26.961463928223 4.240001678467 180 180 180
24.709877014160 26.961463928223 4.200000762939 180 180 180
24.709877014160 26.961463928223 4.158000946045 181 181 181
24.709877014160 26.961463928223 4.117000579834 178 178 178
24.709877014160 26.961463928223 4.077999114990 183 183 183
24.709877014160 26.961463928223 4.035999298096 176 176 176
24.709877014160 26.961463928223 3.997997283936 143 143 143
24.734283447266 26.940441131592 3.956996917725 143 143 143
24.709877014160 26.961463928223 3.915996551514 143 143 143
24.737792968750 26.947422027588 3.876995086670 145 145 145
24.737792968750 26.947422027588 3.837001800537 140 140 140
24.737792968750 26.947422027588 3.797000885010 147 147 147
24.737792968750 26.947422027588 3.756999969482 148 148 148
24.737792968750 26.947422027588 3.716999053955 147 147 147
24.737792968750 26.947422027588 3.676998138428 147 147 147
24.709877014160 26.961463928223 3.635997772217 145 145 145
24.765708923340 26.933376312256 3.597995758057 151 151 151
24.762199401855 26.926399230957 3.559001922607 155 155 155
24.765708923340 26.933376312256 3.518001556396 157 157 157
24.765708923340 26.933376312256 3.479000091553 156 156 156
24.765708923340 26.933376312256 3.438999176025 158 158 158
24.737792968750 26.947422027588 3.397998809814 180 180 180
24.765708923340 26.933376312256 3.358997344971 184 184 184
24.765708923340 26.933376312256 3.319995880127 170 170 170
24.765708923340 26.933376312256 3.278995513916 189 189 189
24.709877014160 26.961463928223 3.237995147705 186 186 186
24.709877014160 26.961463928223 3.199001312256 171 171 171
24.769222259521 26.940357208252 3.159999847412 171 171 171
24.769222259521 26.940357208252 3.120998382568 142 142 142
24.769222259521 26.940357208252 3.080997467041 169 169 169
24.769222259521 26.940357208252 3.041000366211 168 168 168
24.793628692627 26.919334411621 3.001998901367 169 169 169
24.765708923340 26.933376312256 2.961997985840 164 164 164
24.765708923340 26.933376312256 2.921997070313 159 159 159
24.769222259521 26.940357208252 2.881999969482 152 152 152
24.765708923340 26.933376312256 2.841999053955 151 151 151
24.765708923340 26.933376312256 2.802997589111 147 147 147
24.765708923340 26.933376312256 2.762996673584 149 149 149
24.769222259521 26.940357208252 2.722999572754 146 146 146
24.793628692627 26.919334411621 2.682998657227 146 146 146
24.793628692627 26.919334411621 2.642997741699 144 144 144
24.765708923340 26.933376312256 2.602996826172 140 140 140
24.793628692627 26.919334411621 2.562999725342 147 147 147
24.793628692627 26.919334411621 2.522998809814 139 139 139
24.793628692627 26.919334411621 2.482997894287 134 134 134
24.797138214111 26.926311492920 2.441997528076 137 137 137
24.793628692627 26.919334411621 2.401996612549 138 138 138
24.797138214111 26.926311492920 2.361999511719 135 135 135
24.797138214111 26.926311492920 2.320999145508 130 130 130
24.797138214111 26.926311492920 2.280998229980 135 135 135
24.797138214111 26.926311492920 2.240997314453 129 129 129
24.797138214111 26.926311492920 2.199996948242 129 129 129
24.797138214111 26.926311492920 2.159000396729 126 126 126
24.703712463379 27.296892166138 4.506000518799 169 169 169
24.703712463379 27.296892166138 4.466999053955 180 180 180
24.703712463379 27.296892166138 4.427997589111 177 177 177
24.703712463379 27.296892166138 4.385997772217 179 179 179
24.703712463379 27.296892166138 4.347995758057 181 181 181
24.703712463379 27.296892166138 4.305995941162 174 174 174
24.728118896484 27.275869369507 4.270999908447 28 28 28
24.731632232666 27.282848358154 4.071994781494 98 98 98
24.731632232666 27.282848358154 4.031002044678 168 168 168
24.731632232666 27.282848358154 3.993999481201 180 180 180
24.731632232666 27.282848358154 3.952999114990 168 168 168
24.731632232666 27.282848358154 3.913997650146 176 176 176
24.731632232666 27.282848358154 3.873996734619 176 176 176
24.731632232666 27.282848358154 3.834995269775 148 148 148
24.846805572510 27.233650207520 3.529994964600 27 27 27
24.850318908691 27.240631103516 3.492000579834 56 56 56
24.850318908691 27.240631103516 3.451000213623 64 64 64
24.818889617920 27.247695922852 3.409999847412 61 61 61
24.846805572510 27.233650207520 3.371997833252 52 52 52
24.846805572510 27.233650207520 3.331996917725 36 36 36
24.653701782227 26.849800109863 3.534000396729 132 132 132
24.653701782227 26.849800109863 3.489002227783 139 139 139
24.632808685303 26.877799987793 3.442996978760 165 165 165
24.632808685303 26.877799987793 3.396999359131 169 169 169
24.632808685303 26.877799987793 3.352001190186 165 165 165
24.639827728271 26.891757965088 3.305995941162 161 161 161
24.611911773682 26.905803680420 3.259998321533 163 163 163
24.639827728271 26.891757965088 3.215000152588 156 156 156
24.611911773682 26.905803680420 3.170001983643 156 156 156
24.653701782227 26.849800109863 3.123996734619 141 141 141
24.636318206787 26.884780883789 2.851997375488 138 138 138
24.636318206787 26.884780883789 2.806999206543 132 132 132
24.639827728271 26.891757965088 2.760997772217 132 132 132
24.639827728271 26.891757965088 2.715999603271 132 132 132
24.636318206787 26.884780883789 2.669998168945 131 131 131
24.636318206787 26.884780883789 2.623996734619 125 125 125
24.632808685303 26.877799987793 2.577999114990 121 121 121
24.632808685303 26.877799987793 2.531997680664 117 117 117
24.632808685303 26.877799987793 2.486000061035 120 120 120
24.632808685303 26.877799987793 2.439998626709 118 118 118
24.639827728271 26.891757965088 2.394996643066 114 114 114
24.632808685303 26.877799987793 2.347999572754 115 115 115
24.632808685303 26.877799987793 2.302997589111 113 113 113
24.632808685303 26.877799987793 2.255996704102 101 101 101
24.632808685303 26.877799987793 2.208999633789 104 104 104
24.611911773682 26.905803680420 4.309001922607 109 109 109
24.611911773682 26.905803680420 4.216999053955 112 112 112
24.611911773682 26.905803680420 4.171001434326 115 115 115
24.632808685303 26.877799987793 4.130001068115 112 112 112
24.611911773682 26.905803680420 4.034000396729 110 110 110
24.632808685303 26.877799987793 3.898998260498 121 121 121
24.632808685303 26.877799987793 3.806995391846 116 116 116
24.653701782227 26.849800109863 3.761997222900 123 123 123
24.632808685303 26.877799987793 3.670001983643 120 120 120
24.653701782227 26.849800109863 3.625995635986 127 127 127
24.653701782227 26.849800109863 3.579998016357 129 129 129
24.653701782227 26.849800109863 2.895999908447 134 134 134
24.689666748047 27.268974304199 4.499996185303 48 48 48
24.707054138184 27.233993530273 4.460994720459 128 128 128
24.710563659668 27.240972518921 4.413997650146 121 121 121
24.710563659668 27.240972518921 4.368000030518 124 124 124
24.710563659668 27.240972518921 4.321994781494 122 122 122
24.707054138184 27.233993530273 4.276996612549 121 121 121
24.731456756592 27.212970733643 4.233997344971 53 53 53
24.752353668213 27.184967041016 4.100002288818 107 107 107
24.727947235107 27.205989837646 4.053997039795 110 110 110
24.752353668213 27.184967041016 4.008998870850 114 114 114
24.752353668213 27.184967041016 3.963001251221 118 118 118
24.752353668213 27.184967041016 3.917995452881 117 117 117
24.727947235107 27.205989837646 3.870998382568 18 18 18
24.888080596924 26.968015670776 3.616001129150 30 30 30
24.888080596924 26.968015670776 3.568996429443 27 27 27
24.891590118408 26.974994659424 3.521999359131 46 46 46
24.808013916016 27.087001800537 3.468997955322 56 56 56
24.815036773682 27.100963592529 3.423000335693 70 70 70
24.835929870605 27.072959899902 3.378002166748 63 63 63
24.828907012939 27.059001922607 3.332996368408 115 115 115
24.853313446045 27.037979125977 3.286998748779 111 111 111
24.870697021484 27.002998352051 3.241001129150 21 21 21
24.839443206787 27.079940795898 3.147998809814 31 31 31
24.853313446045 27.037979125977 3.102001190186 111 111 111
24.846294403076 27.024021148682 3.055999755859 72 72 72
24.870697021484 27.002998352051 3.008998870850 88 88 88
24.891590118408 26.974994659424 2.961997985840 22 22 22
25.066799163818 27.184196472168 3.499996185303 24 24 24
25.017986297607 27.226242065430 3.451000213623 51 51 51
24.768020629883 26.451217651367 3.805995941162 228 228 228
24.768020629883 26.451217651367 3.853000640869 250 250 250
24.771533966064 26.458196640015 3.899997711182 246 246 246
24.768020629883 26.451217651367 3.946994781494 221 221 221
24.768020629883 26.451217651367 3.993999481201 242 242 242
24.771533966064 26.458196640015 4.042995452881 192 192 192
24.802959442139 26.451131820679 4.331996917725 172 172 172
24.736595153809 26.458282470703 4.371997833252 233 233 233
24.736595153809 26.458282470703 4.417995452881 241 241 241
24.736595153809 26.458282470703 4.466999053955 251 251 251
24.736595153809 26.458282470703 4.514995574951 245 245 245
24.974826812744 26.723232269287 2.982997894287 32 32 32
25.009765625000 26.723146438599 3.267002105713 113 113 113
24.796623229980 26.716680526733 4.333995819092 221 221 221
24.618419647217 26.710132598877 4.916996002197 13 13 13
24.800136566162 26.723659515381 4.242000579834 170 170 170
24.796623229980 26.716680526733 4.286998748779 223 223 223
24.765197753906 26.723745346069 4.379001617432 194 194 194
24.867187500000 26.996017456055 2.966999053955 77 77 77
24.821716308594 26.975166320801 3.013999938965 133 133 133
24.818202972412 26.968189239502 3.059997558594 76 76 76
24.856655120850 26.975082397461 3.104999542236 118 118 118
24.860164642334 26.982059478760 3.150997161865 124 124 124
24.716899871826 26.975421905518 3.195995330811 152 152 152
24.751838684082 26.975337982178 3.242000579834 158 158 158
24.783264160156 26.968273162842 3.286998748779 157 157 157
24.751838684082 26.975337982178 3.331996917725 141 141 141
24.751838684082 26.975337982178 3.376995086670 171 171 171
24.751838684082 26.975337982178 3.423000335693 135 135 135
24.898612976074 26.988952636719 3.472995758057 71 71 71
24.898612976074 26.988952636719 3.519001007080 66 66 66
24.867187500000 26.996017456055 3.564998626709 63 63 63
24.898612976074 26.988952636719 3.610996246338 53 53 53
24.751838684082 26.975337982178 4.012996673584 226 226 226
24.751838684082 26.975337982178 4.057994842529 246 246 246
24.751838684082 26.975337982178 4.103000640869 246 246 246
24.716899871826 26.975421905518 4.147998809814 252 252 252
24.751838684082 26.975337982178 4.195995330811 254 254 254
24.716899871826 26.975421905518 4.239002227783 245 245 245
24.716899871826 26.975421905518 4.284999847412 244 244 244
24.716899871826 26.975421905518 4.330997467041 207 207 207
24.612083435059 26.975681304932 4.729999542236 98 98 98
24.535182952881 26.961893081665 4.756999969482 102 102 102
24.535182952881 26.961893081665 4.800998687744 102 102 102
24.601551055908 26.954742431641 4.859996795654 93 93 93
24.500247955322 26.961978912354 4.885997772217 90 90 90
24.503757476807 26.968957901001 4.934001922607 73 73 73
24.570125579834 26.961807250977 4.994998931885 21 21 21
24.853828430176 27.247608184814 3.358997344971 26 26 26
24.850318908691 27.240631103516 3.402996063232 32 32 32
24.853828430176 27.247608184814 3.449001312256 36 36 36
24.850318908691 27.240631103516 3.493000030518 11 11 11
24.745502471924 27.240886688232 3.845996856689 209 209 209
24.780437469482 27.240802764893 3.892002105713 9 9 9
24.745502471924 27.240886688232 3.936000823975 10 10 10
24.745502471924 27.240886688232 3.979999542236 253 253 253
24.745502471924 27.240886688232 4.025997161865 7 7 7
24.745502471924 27.240886688232 4.069995880127 240 240 240
24.714076995850 27.247951507568 4.247997283936 188 188 188
24.745502471924 27.240886688232 4.293994903564 253 253 253
24.745502471924 27.240886688232 4.339000701904 252 252 252
24.714076995850 27.247951507568 4.383998870850 248 248 248
24.710563659668 27.240972518921 4.427997589111 251 251 251
24.710563659668 27.240972518921 4.471996307373 233 233 233
24.739166259766 27.506437301636 3.859996795654 154 154 154
24.735652923584 27.499458312988 3.901996612549 237 237 237
24.739166259766 27.506437301636 3.948001861572 18 18 18
24.704227447510 27.506521224976 4.386997222900 91 91 91
24.704227447510 27.506521224976 4.428997039795 227 227 227
24.704227447510 27.506521224976 4.475002288818 144 144 144
24.745159149170 27.101131439209 4.956996917725 69 69 69
24.807842254639 27.017127990723 4.929996490479 130 130 130
24.905292510986 26.863157272339 4.922000885010 136 136 136
24.766056060791 27.073131561279 4.821994781494 74 74 74
24.786949157715 27.045127868652 4.781002044678 40 40 40
24.786949157715 27.045127868652 4.355998992920 124 124 124
24.783435821533 27.038150787354 4.312000274658 146 146 146
24.786949157715 27.045127868652 4.264995574951 141 141 141
24.779926300049 27.031169891357 4.219997406006 139 139 139
24.807842254639 27.017127990723 4.174999237061 148 148 148
24.807842254639 27.017127990723 4.129001617432 138 138 138
24.804332733154 27.010147094727 4.083995819092 138 138 138
24.800819396973 27.003170013428 4.036998748779 116 116 116
24.800819396973 27.003170013428 3.806995391846 23 23 23
24.800819396973 27.003170013428 3.759998321533 48 48 48
24.821716308594 26.975166320801 3.715999603271 81 81 81
24.825225830078 26.982147216797 3.668994903564 92 92 92
24.821716308594 26.975166320801 3.623996734619 107 107 107
24.821716308594 26.975166320801 3.577999114990 121 121 121
24.821716308594 26.975166320801 3.532001495361 116 116 116
24.814693450928 26.961208343506 3.485996246338 127 127 127
24.800819396973 27.003170013428 3.438999176025 158 158 158
24.821716308594 26.975166320801 3.393001556396 181 181 181
24.821716308594 26.975166320801 3.346996307373 164 164 164
24.807842254639 27.017127990723 3.300998687744 173 173 173
24.800819396973 27.003170013428 3.255001068115 162 162 162
24.814693450928 26.961208343506 3.209995269775 126 126 126
24.814693450928 26.961208343506 3.162998199463 115 115 115
24.839099884033 26.940185546875 3.117000579834 114 114 114
24.835590362549 26.933204650879 3.070999145508 100 100 100
24.763568878174 27.485414505005 4.569995880127 86 86 86
24.767082214355 27.492393493652 4.520999908447 128 128 128
24.767082214355 27.492393493652 4.476001739502 188 188 188
24.767082214355 27.492393493652 4.432994842529 156 156 156
24.787975311279 27.464389801025 4.389995574951 81 81 81
24.805362701416 27.429409027100 3.989002227783 108 108 108
24.805362701416 27.429409027100 3.943996429443 119 119 119
24.805362701416 27.429409027100 3.898998260498 120 120 120
24.805362701416 27.429409027100 3.853000640869 120 120 120
24.805362701416 27.429409027100 3.809001922607 120 120 120
24.808872222900 27.436388015747 3.762996673584 31 31 31
24.920192718506 27.240459442139 3.551998138428 23 23 23
24.920192718506 27.240459442139 3.506000518799 54 54 54
24.920192718506 27.240459442139 3.459995269775 71 71 71
24.948112487793 27.226413726807 3.414997100830 118 118 118
24.920192718506 27.240459442139 3.368999481201 75 75 75
24.899299621582 27.268459320068 3.321994781494 39 39 39
25.076816558838 26.995504379272 3.232997894287 26 26 26
25.062946319580 27.037464141846 3.186000823975 93 93 93
25.038539886475 27.058486938477 3.137996673584 104 104 104
24.820346832275 26.416151046753 3.769001007080 113 113 113
24.823856353760 26.423130035400 3.810001373291 171 171 171
24.792430877686 26.430194854736 3.851001739502 177 177 177
24.855281829834 26.416065216064 3.897998809814 165 165 165
24.771533966064 26.458196640015 4.347995758057 177 177 177
24.771533966064 26.458196640015 4.389995574951 216 216 216
24.771533966064 26.458196640015 4.432994842529 200 200 200
24.771533966064 26.458196640015 4.475002288818 176 176 176
24.974655151367 26.653356552124 3.209995269775 30 30 30
24.974655151367 26.653356552124 3.250995635986 52 52 52
25.002571105957 26.639312744141 3.292995452881 55 55 55
24.974655151367 26.653356552124 3.333995819092 52 52 52
24.974655151367 26.653356552124 3.374996185303 53 53 53
24.918823242188 26.681444168091 3.413997650146 63 63 63
24.918823242188 26.681444168091 3.454998016357 58 58 58
24.974655151367 26.653356552124 3.499996185303 52 52 52
24.974655151367 26.653356552124 3.541996002197 53 53 53
24.974655151367 26.653356552124 3.582996368408 55 55 55
24.779239654541 26.751663208008 3.970996856689 171 171 171
24.779239654541 26.751663208008 4.010997772217 189 189 189
24.779239654541 26.751663208008 4.049999237061 199 199 199
24.779239654541 26.751663208008 4.092998504639 195 195 195
24.779239654541 26.751663208008 4.131999969482 199 199 199
24.779239654541 26.751663208008 4.174999237061 180 180 180
24.779239654541 26.751663208008 4.215999603271 196 196 196
24.779239654541 26.751663208008 4.257999420166 185 185 185
24.779239654541 26.751663208008 4.298000335693 177 177 177
24.782749176025 26.758642196655 4.338001251221 172 172 172
24.779239654541 26.751663208008 4.381999969482 142 142 142
24.639659881592 26.821884155273 4.597995758057 35 35 35
24.615253448486 26.842906951904 4.634998321533 126 126 126
24.615253448486 26.842906951904 4.674999237061 94 94 94
24.590847015381 26.863929748535 4.748996734619 93 93 93
24.587337493896 26.856948852539 4.785999298096 109 109 109
24.671085357666 26.814819335938 4.857997894287 124 124 124
24.758346557617 26.779666900635 4.926998138428 135 135 135
24.535015106201 26.892017364502 4.901996612549 102 102 102
24.507099151611 26.906061172485 4.935001373291 56 56 56
24.926528930664 26.974908828735 2.938999176025 56 56 56
24.898612976074 26.988952636719 2.979999542236 133 133 133
24.842781066895 27.017040252686 3.018997192383 82 82 82
24.926528930664 26.974908828735 3.059997558594 60 60 60
24.930042266846 26.981887817383 3.100002288818 68 68 68
24.870697021484 27.002998352051 3.138996124268 152 152 152
24.898612976074 26.988952636719 3.180995941162 59 59 59
24.870697021484 27.002998352051 3.218997955322 113 113 113
24.842781066895 27.017040252686 3.256999969482 103 103 103
24.786949157715 27.045127868652 3.292995452881 134 134 134
24.870697021484 27.002998352051 3.338001251221 87 87 87
24.902126312256 26.995931625366 3.381999969482 66 66 66
24.846294403076 27.024021148682 3.417995452881 75 75 75
24.902126312256 26.995931625366 3.462001800537 55 55 55
24.930042266846 26.981887817383 3.504001617432 49 49 49
24.930042266846 26.981887817383 3.543994903564 54 54 54
24.930042266846 26.981887817383 3.584995269775 51 51 51
24.930042266846 26.981887817383 3.626995086670 21 21 21
24.793972015381 27.059085845947 3.969997406006 104 104 104
24.762542724609 27.066150665283 4.007999420166 178 178 178
24.793972015381 27.059085845947 4.048999786377 181 181 181
24.762542724609 27.066150665283 4.088001251221 178 178 178
24.766056060791 27.073131561279 4.126995086670 187 187 187
24.766056060791 27.073131561279 4.164997100830 175 175 175
24.766056060791 27.073131561279 4.204998016357 181 181 181
24.766056060791 27.073131561279 4.245998382568 181 181 181
24.766056060791 27.073131561279 4.287998199463 180 180 180
24.766056060791 27.073131561279 4.326999664307 184 184 184
24.738136291504 27.087173461914 4.366001129150 164 164 164
24.853313446045 27.037979125977 4.900997161865 124 124 124
24.745159149170 27.101131439209 4.898998260498 97 97 97
24.993579864502 27.247268676758 3.438999176025 112 112 112
25.021495819092 27.233222961426 3.480998992920 70 70 70
24.801677703857 27.352554321289 3.811000823975 173 173 173
24.773761749268 27.366598129272 3.848995208740 178 178 178
24.773761749268 27.366598129272 3.887996673584 178 178 178
24.773761749268 27.366598129272 3.925998687744 177 177 177
24.773761749268 27.366598129272 3.965000152588 181 181 181
24.773761749268 27.366598129272 4.006000518799 172 172 172
24.749355316162 27.387620925903 4.320995330811 136 136 136
24.749355316162 27.387620925903 4.356998443604 184 184 184
24.749355316162 27.387620925903 4.395999908447 206 206 206
24.749355316162 27.387620925903 4.436000823975 194 194 194
24.749355316162 27.387620925903 4.476001739502 184 184 184
24.749355316162 27.387620925903 4.515995025635 182 182 182
24.749355316162 27.387620925903 4.556995391846 151 151 151
24.792083740234 26.290441513062 4.434001922607 10 10 10
24.803131103516 26.521009445190 3.824001312256 189 189 189
24.799621582031 26.514030456543 3.869998931885 243 243 243
24.799621582031 26.514030456543 3.916996002197 236 236 236
24.799621582031 26.514030456543 3.964000701904 244 244 244
24.799621582031 26.514030456543 4.010997772217 221 221 221
24.799621582031 26.514030456543 4.057994842529 243 243 243
24.806644439697 26.527988433838 4.395000457764 222 222 222
24.803131103516 26.521009445190 4.440998077393 246 246 246
24.806644439697 26.527988433838 4.493000030518 229 229 229
24.841583251953 26.527902603149 4.545001983643 178 178 178
24.639488220215 26.752006530762 4.936000823975 50 50 50
24.856140136719 26.765449523926 4.269001007080 162 162 162
24.821201324463 26.765535354614 4.312000274658 211 211 211
24.817687988281 26.758556365967 4.357997894287 207 207 207
24.817687988281 26.758556365967 4.406002044678 184 184 184
24.853141784668 26.968101501465 2.205997467041 88 88 88
24.744815826416 26.961380004883 2.265998840332 22 22 22
24.713390350342 26.968444824219 2.313999176025 25 25 25
24.709877014160 26.961463928223 2.361000061035 29 29 29
24.713390350342 26.968444824219 2.404998779297 30 30 30
24.709877014160 26.961463928223 2.451999664307 26 26 26
24.709877014160 26.961463928223 2.496997833252 24 24 24
24.713390350342 26.968444824219 2.541999816895 29 29 29
24.709877014160 26.961463928223 2.586997985840 32 32 32
24.713390350342 26.968444824219 2.631999969482 37 37 37
24.709877014160 26.961463928223 2.677997589111 37 37 37
24.681961059570 26.975509643555 2.723999023438 38 38 38
24.678447723389 26.968528747559 2.768997192383 37 37 37
24.681961059570 26.975509643555 2.813999176025 38 38 38
24.709877014160 26.961463928223 2.857997894287 41 41 41
24.709877014160 26.961463928223 2.902999877930 44 44 44
24.748325347900 26.968357086182 2.946998596191 68 68 68
24.825225830078 26.982147216797 2.989997863770 126 126 126
24.786777496338 26.975250244141 3.035999298096 86 86 86
24.751838684082 26.975337982178 3.081996917725 86 86 86
24.716899871826 26.975421905518 3.128002166748 88 88 88
24.751838684082 26.975337982178 3.173000335693 92 92 92
24.716899871826 26.975421905518 3.216999053955 140 140 140
24.751838684082 26.975337982178 3.262996673584 163 163 163
24.786777496338 26.975250244141 3.307994842529 120 120 120
24.751838684082 26.975337982178 3.353000640869 92 92 92
24.751838684082 26.975337982178 3.397998809814 164 164 164
24.720409393311 26.982402801514 3.442996978760 102 102 102
24.720409393311 26.982402801514 3.487995147705 83 83 83
24.751838684082 26.975337982178 3.534000396729 80 80 80
24.720409393311 26.982402801514 3.577999114990 86 86 86
24.716899871826 26.975421905518 3.621997833252 81 81 81
24.647022247314 26.975593566895 3.663997650146 50 50 50
24.647022247314 26.975593566895 3.708995819092 49 49 49
24.647022247314 26.975593566895 3.754001617432 48 48 48
24.647022247314 26.975593566895 3.798999786377 46 46 46
24.654045104980 26.989551544189 3.843997955322 48 48 48
24.654045104980 26.989551544189 3.888996124268 46 46 46
24.647022247314 26.975593566895 3.931995391846 47 47 47
24.654045104980 26.989551544189 3.979000091553 55 55 55
24.755348205566 26.982315063477 4.034000396729 184 184 184
24.758861541748 26.989295959473 4.080997467041 216 216 216
24.751838684082 26.975337982178 4.124996185303 222 222 222
24.758861541748 26.989295959473 4.171001434326 226 226 226
