26.308059692383 29.242216110229 3.621002197266 170 170 170
26.296592712402 29.231603622437 3.651992797852 187 187 187
26.308059692383 29.242216110229 3.679000854492 181 181 181
26.296592712402 29.231603622437 3.708999633789 197 197 197
26.308059692383 29.242216110229 3.735992431641 173 173 173
26.308059692383 29.242216110229 3.764999389648 168 168 168
26.308059692383 29.242216110229 3.793991088867 165 165 165
26.286834716797 29.265150070190 3.824996948242 169 169 169
26.275367736816 29.254537582397 3.853988647461 168 168 168
26.275367736816 29.254537582397 3.881988525391 174 174 174
26.263896942139 29.243925094604 3.909988403320 167 167 167
26.296592712402 29.231603622437 3.938003540039 164 164 164
26.308059692383 29.242216110229 3.966003417969 165 165 165
26.308059692383 29.242216110229 3.994003295898 165 165 165
26.329284667969 29.219280242920 4.022994995117 172 172 172
26.329284667969 29.219280242920 4.052001953125 168 168 168
26.329284667969 29.219280242920 4.080001831055 153 153 153
26.209121704102 29.257101058960 4.527999877930 182 182 182
26.209121704102 29.257101058960 4.556991577148 193 193 193
26.209121704102 29.257101058960 4.584991455078 198 198 198
26.209121704102 29.257101058960 4.612991333008 190 190 190
26.209121704102 29.257101058960 4.640991210938 188 188 188
26.209121704102 29.257101058960 4.668991088867 192 192 192
26.176429748535 29.269424438477 4.695999145508 196 196 196
26.176429748535 29.269424438477 4.724990844727 185 185 185
26.176429748535 29.269424438477 4.751998901367 196 196 196
26.176429748535 29.269424438477 4.779998779297 201 201 201
26.176429748535 29.269424438477 4.808990478516 197 197 197
26.176429748535 29.269424438477 4.836990356445 199 199 199
26.176429748535 29.269424438477 4.865997314453 197 197 197
26.209121704102 29.257101058960 4.895996093750 192 192 192
26.176429748535 29.269424438477 4.922988891602 129 129 129
26.164962768555 29.258811950684 5.175994873047 87 87 87
26.317817687988 29.208667755127 5.246994018555 74 74 74
26.329284667969 29.219280242920 5.278991699219 127 127 127
26.308059692383 29.242216110229 5.302001953125 137 137 137
26.263896942139 29.243925094604 5.321990966797 139 139 139
26.066879272461 29.295776367188 5.293991088867 132 132 132
26.099575042725 29.283454895020 5.335998535156 104 104 104
26.166313171387 29.579406738281 4.326995849609 174 174 174
26.166313171387 29.579406738281 4.352996826172 193 193 193
26.166313171387 29.579406738281 4.378997802734 199 199 199
26.166313171387 29.579406738281 4.405990600586 199 199 199
26.166313171387 29.579406738281 4.431991577148 192 192 192
26.166313171387 29.579406738281 4.457992553711 192 192 192
26.166313171387 29.579406738281 4.485000610352 197 197 197
26.166313171387 29.579406738281 4.511001586914 195 195 195
26.166313171387 29.579406738281 4.537002563477 189 189 189
26.166313171387 29.579406738281 4.563995361328 156 156 156
26.166313171387 29.579406738281 4.856002807617 185 185 185
26.154846191406 29.568794250488 4.882995605469 208 208 208
26.154846191406 29.568794250488 4.909988403320 216 216 216
26.166313171387 29.579406738281 4.938003540039 218 218 218
26.154846191406 29.568794250488 4.963989257813 201 201 201
26.166313171387 29.579406738281 4.988998413086 195 195 195
26.154846191406 29.568794250488 5.017990112305 199 199 199
26.166313171387 29.579406738281 5.046997070313 201 201 201
26.154846191406 29.568794250488 5.071990966797 166 166 166
26.391746520996 29.404830932617 3.996994018555 102 102 102
26.381988525391 29.438377380371 3.968994140625 121 121 121
26.383697509766 29.482540130615 3.942001342773 143 143 143
26.351005554199 29.494859695435 3.914993286133 168 168 168
26.360763549805 29.461313247681 3.886993408203 171 171 171
26.381988525391 29.438377380371 3.856994628906 143 143 143
26.370521545410 29.427764892578 3.828002929688 115 115 115
26.401504516602 29.371280670166 3.797988891602 92 92 92
26.394668579102 29.194637298584 3.700988769531 90 90 90
26.396381378174 29.238800048828 3.673995971680 155 155 155
26.375152587891 29.261734008789 3.645996093750 161 161 161
26.375152587891 29.261734008789 3.617996215820 148 148 148
26.375152587891 29.261734008789 3.588989257813 116 116 116
26.375152587891 29.261734008789 3.558990478516 64 64 64
26.373443603516 29.217573165894 3.526000976563 45 45 45
26.242668151855 29.266860961914 5.389999389648 120 120 120
26.244380950928 29.311019897461 5.349990844727 153 153 153
26.224861145020 29.378116607666 5.302001953125 145 145 145
26.242668151855 29.266860961914 5.302993774414 143 143 143
26.252429962158 29.233310699463 5.279998779297 132 132 132
26.230350494385 29.234167098999 5.246002197266 128 128 128
26.221443176270 29.289794921875 5.203994750977 141 141 141
26.230350494385 29.234167098999 5.186996459961 99 99 99
26.242668151855 29.266860961914 5.154998779297 56 56 56
26.240104675293 29.200618743896 5.134002685547 128 128 128
26.240104675293 29.200618743896 5.106002807617 125 125 125
26.251575469971 29.211231231689 5.071990966797 163 163 163
26.251575469971 29.211231231689 5.041992187500 151 151 151
26.230350494385 29.234167098999 5.013992309570 148 148 148
26.230350494385 29.234167098999 4.983001708984 142 142 142
26.209976196289 29.279180526733 4.949996948242 155 155 155
26.209976196289 29.279180526733 4.920989990234 159 159 159
26.209121704102 29.257101058960 4.889999389648 147 147 147
26.230350494385 29.234167098999 4.865997314453 134 134 134
26.230350494385 29.234167098999 4.838989257813 127 127 127
26.209121704102 29.257101058960 4.807998657227 127 127 127
26.230350494385 29.234167098999 4.781997680664 128 128 128
26.228637695313 29.190006256104 4.757995605469 139 139 139
26.228637695313 29.190006256104 4.726989746094 132 132 132
26.228637695313 29.190006256104 4.697998046875 128 128 128
26.228637695313 29.190006256104 4.670989990234 137 137 137
26.217170715332 29.179391860962 4.642990112305 142 142 142
26.207412719727 29.212942123413 4.612991333008 142 142 142
26.205703735352 29.168779373169 4.585998535156 153 153 153
26.207412719727 29.212942123413 4.555999755859 166 166 166
26.207412719727 29.212942123413 4.526992797852 173 173 173
26.205703735352 29.168779373169 4.500000000000 173 173 173
26.205703735352 29.168779373169 4.470993041992 168 168 168
26.205703735352 29.168779373169 4.442993164063 165 165 165
26.205703735352 29.168779373169 4.414993286133 169 169 169
26.205703735352 29.168779373169 4.386001586914 174 174 174
26.184478759766 29.191715240479 4.358001708984 179 179 179
26.184478759766 29.191715240479 4.328994750977 180 180 180
26.184478759766 29.191715240479 4.300994873047 183 183 183
26.194236755371 29.158166885376 4.272994995117 189 189 189
26.194236755371 29.158166885376 4.244003295898 192 192 192
26.194236755371 29.158166885376 4.216003417969 203 203 203
26.194236755371 29.158166885376 4.188003540039 204 204 204
26.194236755371 29.158166885376 4.158996582031 201 201 201
26.194236755371 29.158166885376 4.130996704102 194 194 194
26.194236755371 29.158166885376 4.102996826172 199 199 199
26.161544799805 29.170488357544 4.073989868164 192 192 192
26.161544799805 29.170488357544 4.045989990234 192 192 192
26.161544799805 29.170488357544 4.016998291016 192 192 192
26.161544799805 29.170488357544 3.988998413086 182 182 182
26.182769775391 29.147552490234 3.960998535156 186 186 186
26.161544799805 29.170488357544 3.931991577148 192 192 192
26.161544799805 29.170488357544 3.903991699219 192 192 192
26.182769775391 29.147552490234 3.875000000000 192 192 192
26.161544799805 29.170488357544 3.847000122070 192 192 192
26.150077819824 29.159875869751 3.819000244141 190 190 190
26.150077819824 29.159875869751 3.789993286133 191 191 191
26.161544799805 29.170488357544 3.761993408203 185 185 185
26.150077819824 29.159875869751 3.733001708984 186 186 186
26.150077819824 29.159875869751 3.705001831055 186 186 186
26.150077819824 29.159875869751 3.675994873047 183 183 183
26.150077819824 29.159875869751 3.647003173828 184 184 184
26.150077819824 29.159875869751 3.619003295898 185 185 185
26.138610839844 29.149263381958 3.591003417969 186 186 186
26.138610839844 29.149263381958 3.561996459961 184 184 184
26.138610839844 29.149263381958 3.532989501953 185 185 185
26.138610839844 29.149263381958 3.504989624023 184 184 184
26.138610839844 29.149263381958 3.474990844727 191 191 191
26.138610839844 29.149263381958 3.446990966797 179 179 179
26.138610839844 29.149263381958 3.417999267578 184 184 184
26.138610839844 29.149263381958 3.388992309570 185 185 185
26.117385864258 29.172197341919 3.360000610352 187 187 187
26.127143859863 29.138648986816 3.330993652344 185 185 185
26.127143859863 29.138648986816 3.302001953125 186 186 186
26.117385864258 29.172197341919 3.272994995117 188 188 188
26.127143859863 29.138648986816 3.242996215820 186 186 186
26.127143859863 29.138648986816 3.214996337891 187 187 187
26.127143859863 29.138648986816 3.184997558594 186 186 186
26.127143859863 29.138648986816 3.155990600586 186 186 186
26.127143859863 29.138648986816 3.125991821289 186 186 186
26.115676879883 29.128036499023 3.097000122070 186 186 186
26.115676879883 29.128036499023 3.067001342773 188 188 188
26.115676879883 29.128036499023 3.037002563477 184 184 184
26.115676879883 29.128036499023 3.006988525391 178 178 178
26.115676879883 29.128036499023 2.977996826172 173 173 173
26.115676879883 29.128036499023 2.946990966797 167 167 167
26.115676879883 29.128036499023 2.916992187500 166 166 166
26.115676879883 29.128036499023 2.888000488281 162 162 162
26.115676879883 29.128036499023 2.856994628906 159 159 159
26.071514129639 29.129743576050 2.826995849609 157 157 157
26.071514129639 29.129743576050 2.794998168945 155 155 155
26.071514129639 29.129743576050 2.764999389648 153 153 153
26.071514129639 29.129743576050 2.733001708984 142 142 142
26.071514129639 29.129743576050 2.705993652344 132 132 132
26.071514129639 29.129743576050 2.672988891602 102 102 102
26.071514129639 29.129743576050 2.641998291016 88 88 88
26.092742919922 29.106809616089 2.608993530273 37 37 37
26.009544372559 29.242710113525 5.305999755859 99 99 99
26.014175415039 29.076679229736 5.320999145508 143 143 143
26.000999450684 29.021905899048 5.305999755859 139 139 139
26.189247131348 29.600631713867 4.345993041992 99 99 99
26.189247131348 29.600631713867 4.371994018555 193 193 193
26.189247131348 29.600631713867 4.399002075195 193 193 193
26.189247131348 29.600631713867 4.425003051758 198 198 198
26.189247131348 29.600631713867 4.451995849609 198 198 198
26.166313171387 29.579406738281 4.477996826172 192 192 192
26.189247131348 29.600631713867 4.504989624023 194 194 194
26.189247131348 29.600631713867 4.530990600586 195 195 195
26.189247131348 29.600631713867 4.556991577148 187 187 187
26.189247131348 29.600631713867 4.584991455078 185 185 185
26.210472106934 29.577695846558 4.612991333008 37 37 37
26.187538146973 29.556470870972 4.852996826172 182 182 182
26.166313171387 29.579406738281 4.878997802734 201 201 201
26.166313171387 29.579406738281 4.905990600586 217 217 217
26.199005126953 29.567083358765 4.936996459961 228 228 228
26.187538146973 29.556470870972 4.960998535156 203 203 203
26.187538146973 29.556470870972 4.987991333008 196 196 196
26.187538146973 29.556470870972 5.016998291016 197 197 197
26.187538146973 29.556470870972 5.043991088867 199 199 199
26.166313171387 29.579406738281 5.067993164063 158 158 158
26.288539886475 29.309312820435 3.466995239258 41 41 41
26.288539886475 29.309312820435 3.496002197266 159 159 159
26.321235656738 29.296989440918 3.524002075195 165 165 165
26.321235656738 29.296989440918 3.552001953125 168 168 168
26.321235656738 29.296989440918 3.582000732422 144 144 144
26.309768676758 29.286376953125 3.608993530273 169 169 169
26.277072906494 29.298700332642 3.642990112305 164 164 164
26.309768676758 29.286376953125 3.667999267578 177 177 177
26.309768676758 29.286376953125 3.695999145508 181 181 181
26.309768676758 29.286376953125 3.724990844727 183 183 183
26.342460632324 29.274055480957 3.751998901367 172 172 172
26.342460632324 29.274055480957 3.779998779297 166 166 166
26.342460632324 29.274055480957 3.809997558594 170 170 170
26.277072906494 29.298700332642 3.841003417969 166 166 166
26.277072906494 29.298700332642 3.869003295898 170 170 170
26.277072906494 29.298700332642 3.897994995117 178 178 178
26.277072906494 29.298700332642 3.925994873047 168 168 168
26.309768676758 29.286376953125 3.953994750977 160 160 160
26.330993652344 29.263442993164 3.981002807617 168 168 168
26.330993652344 29.263442993164 4.009002685547 163 163 163
26.375152587891 29.261734008789 4.037994384766 168 168 168
26.375152587891 29.261734008789 4.067001342773 170 170 170
26.363685607910 29.251119613647 4.095001220703 147 147 147
26.221443176270 29.289794921875 4.543991088867 178 178 178
26.188751220703 29.302116394043 4.571990966797 189 189 189
26.221443176270 29.289794921875 4.600997924805 194 194 194
26.221443176270 29.289794921875 4.628997802734 192 192 192
26.221443176270 29.289794921875 4.655990600586 188 188 188
26.221443176270 29.289794921875 4.684997558594 191 191 191
26.221443176270 29.289794921875 4.713989257813 197 197 197
26.188751220703 29.302116394043 4.739990234375 195 195 195
26.188751220703 29.302116394043 4.768997192383 198 198 198
26.188751220703 29.302116394043 4.797988891602 199 199 199
26.188751220703 29.302116394043 4.825988769531 197 197 197
26.188751220703 29.302116394043 4.853988647461 198 198 198
26.187896728516 29.280036926270 4.882995605469 199 199 199
26.187896728516 29.280036926270 4.910995483398 188 188 188
26.166671752930 29.302970886230 5.162002563477 42 42 42
26.176429748535 29.269424438477 5.192001342773 108 108 108
26.242668151855 29.266860961914 5.240997314453 115 115 115
26.373443603516 29.217573165894 5.300003051758 129 129 129
26.329284667969 29.219280242920 5.321990966797 137 137 137
26.296592712402 29.231603622437 5.345001220703 136 136 136
26.057121276855 29.329324722290 5.310989379883 137 137 137
26.111042022705 29.294067382813 5.350997924805 146 146 146
26.225223541260 29.101682662964 1.985992431641 129 129 129
26.159835815430 29.126327514648 2.052993774414 137 137 137
26.159835815430 29.126327514648 2.089996337891 130 130 130
26.159835815430 29.126327514648 2.123001098633 123 123 123
26.159835815430 29.126327514648 2.153991699219 124 124 124
26.136901855469 29.105100631714 2.196990966797 124 124 124
26.115676879883 29.128036499023 2.464996337891 149 149 149
26.115676879883 29.128036499023 2.498001098633 147 147 147
26.115676879883 29.128036499023 2.527999877930 142 142 142
26.115676879883 29.128036499023 2.557998657227 138 138 138
26.115676879883 29.128036499023 2.589996337891 137 137 137
26.104209899902 29.117424011230 2.621002197266 141 141 141
26.104209899902 29.117424011230 2.652999877930 146 146 146
26.104209899902 29.117424011230 2.684997558594 146 146 146
26.104209899902 29.117424011230 2.716995239258 149 149 149
26.104209899902 29.117424011230 2.748001098633 150 150 150
26.104209899902 29.117424011230 2.777999877930 150 150 150
26.104209899902 29.117424011230 2.807998657227 146 146 146
26.104209899902 29.117424011230 2.837997436523 143 143 143
26.104209899902 29.117424011230 2.867996215820 146 146 146
26.104209899902 29.117424011230 2.899002075195 148 148 148
26.104209899902 29.117424011230 2.927001953125 152 152 152
26.115676879883 29.128036499023 2.955001831055 153 153 153
26.125434875488 29.094488143921 2.981994628906 155 155 155
26.125434875488 29.094488143921 3.009994506836 156 156 156
26.125434875488 29.094488143921 3.039001464844 156 156 156
26.125434875488 29.094488143921 3.070999145508 148 148 148
26.113967895508 29.083873748779 3.102996826172 137 137 137
26.113967895508 29.083873748779 3.131988525391 133 133 133
26.113967895508 29.083873748779 3.164993286133 136 136 136
26.113967895508 29.083873748779 3.194992065430 135 135 135
26.113967895508 29.083873748779 3.224990844727 140 140 140
26.113967895508 29.083873748779 3.253997802734 137 137 137
26.113967895508 29.083873748779 3.280990600586 132 132 132
26.125434875488 29.094488143921 3.308990478516 124 124 124
26.158126831055 29.082164764404 3.332000732422 120 120 120
26.179351806641 29.059230804443 3.360000610352 115 115 115
26.179351806641 29.059230804443 3.388992309570 90 90 90
26.179351806641 29.059230804443 3.418991088867 42 42 42
26.321594238281 29.020557403564 3.457992553711 146 146 146
26.321594238281 29.020557403564 3.487991333008 174 174 174
26.321594238281 29.020557403564 3.517990112305 178 178 178
26.321594238281 29.020557403564 3.546997070313 175 175 175
26.321594238281 29.020557403564 3.576995849609 168 168 168
26.342819213867 28.997621536255 3.606002807617 171 171 171
26.342819213867 28.997621536255 3.636993408203 168 168 168
26.342819213867 28.997621536255 3.666992187500 170 170 170
26.221805572510 29.013360977173 3.707992553711 164 164 164
26.200576782227 29.036294937134 3.737991333008 162 162 162
26.244743347168 29.034587860107 3.764999389648 166 166 166
26.277435302734 29.022264480591 3.792999267578 153 153 153
26.277435302734 29.022264480591 3.822998046875 146 146 146
26.221805572510 29.013360977173 3.854995727539 155 155 155
26.200576782227 29.036294937134 3.886001586914 153 153 153
26.221805572510 29.013360977173 3.914001464844 130 130 130
26.298660278320 28.999330520630 3.940002441406 109 109 109
26.342819213867 28.997621536255 3.968002319336 119 119 119
26.375514984131 28.985300064087 3.996994018555 168 168 168
26.375514984131 28.985300064087 4.026992797852 174 174 174
26.375514984131 28.985300064087 4.056991577148 172 172 172
26.375514984131 28.985300064087 4.087997436523 169 169 169
26.396743774414 28.962364196777 4.117996215820 31 31 31
26.221805572510 29.013360977173 4.560989379883 177 177 177
26.210338592529 29.002748489380 4.589996337891 202 202 202
26.210338592529 29.002748489380 4.619995117188 212 212 212
26.210338592529 29.002748489380 4.649002075195 206 206 206
26.210338592529 29.002748489380 4.677993774414 205 205 205
26.210338592529 29.002748489380 4.708999633789 215 215 215
26.221805572510 29.013360977173 4.738998413086 204 204 204
26.210338592529 29.002748489380 4.768997192383 195 195 195
26.221805572510 29.013360977173 4.798995971680 193 193 193
26.254497528076 29.001037597656 4.830001831055 190 190 190
26.254497528076 29.001037597656 4.858993530273 190 190 190
26.254497528076 29.001037597656 4.889999389648 190 190 190
26.254497528076 29.001037597656 4.920989990234 191 191 191
26.254497528076 29.001037597656 4.950988769531 188 188 188
26.254497528076 29.001037597656 4.985992431641 42 42 42
26.122016906738 29.006166458130 5.199996948242 47 47 47
26.068092346191 29.041421890259 5.220001220703 61 61 61
26.275726318359 28.978103637695 5.297988891602 120 120 120
26.231563568115 28.979812622070 5.319000244141 131 131 131
26.198871612549 28.992134094238 5.339996337891 137 137 137
26.002708435059 29.066066741943 5.321990966797 119 119 119
26.244247436523 28.736072540283 4.418991088867 182 182 182
26.244247436523 28.736072540283 4.449996948242 196 196 196
26.244247436523 28.736072540283 4.481002807617 193 193 193
26.244247436523 28.736072540283 4.511993408203 196 196 196
26.244247436523 28.736072540283 4.542999267578 204 204 204
26.244247436523 28.736072540283 4.574996948242 215 215 215
26.244247436523 28.736072540283 4.604995727539 203 203 203
26.244247436523 28.736072540283 4.636001586914 142 142 142
26.298164367676 28.700815200806 4.893997192383 50 50 50
26.265472412109 28.713138580322 4.920989990234 191 191 191
26.265472412109 28.713138580322 4.953002929688 209 209 209
26.265472412109 28.713138580322 4.985000610352 202 202 202
26.265472412109 28.713138580322 5.016998291016 204 204 204
26.265472412109 28.713138580322 5.050003051758 189 189 189
26.265472412109 28.713138580322 5.080993652344 189 189 189
26.265472412109 28.713138580322 5.112991333008 188 188 188
26.265472412109 28.713138580322 5.144989013672 168 168 168
26.581569671631 29.452768325806 3.933990478516 49 49 49
26.602798461914 29.429834365845 3.959991455078 48 48 48
26.300010681152 29.319925308228 3.481994628906 74 74 74
26.300010681152 29.319925308228 3.506988525391 118 118 118
26.321235656738 29.296989440918 3.530990600586 145 145 145
26.321235656738 29.296989440918 3.554992675781 153 153 153
26.321235656738 29.296989440918 3.580993652344 136 136 136
26.290252685547 29.353473663330 3.608993530273 127 127 127
26.269023895264 29.376409530640 3.634994506836 142 142 142
26.269023895264 29.376409530640 3.659988403320 134 134 134
26.269023895264 29.376409530640 3.683990478516 121 121 121
26.278785705566 29.342859268188 3.705993652344 153 153 153
26.300010681152 29.319925308228 3.729995727539 174 174 174
26.300010681152 29.319925308228 3.754989624023 187 187 187
26.300010681152 29.319925308228 3.778991699219 182 182 182
26.300010681152 29.319925308228 3.804000854492 164 164 164
26.278785705566 29.342859268188 3.828994750977 153 153 153
26.290252685547 29.353473663330 3.853988647461 163 163 163
26.278785705566 29.342859268188 3.877990722656 162 162 162
26.290252685547 29.353473663330 3.901992797852 150 150 150
26.278785705566 29.342859268188 3.927001953125 156 156 156
26.278785705566 29.342859268188 3.951995849609 151 151 151
26.330993652344 29.263442993164 3.977996826172 146 146 146
26.330993652344 29.263442993164 4.002990722656 150 150 150
26.330993652344 29.263442993164 4.028991699219 140 140 140
26.375152587891 29.261734008789 4.054000854492 137 137 137
26.375152587891 29.261734008789 4.078994750977 138 138 138
26.184120178223 29.468149185181 4.421997070313 73 73 73
26.184120178223 29.468149185181 4.448989868164 135 135 135
26.184120178223 29.468149185181 4.473999023438 141 141 141
26.193878173828 29.434598922729 4.498992919922 140 140 140
26.184120178223 29.468149185181 4.522994995117 137 137 137
26.184120178223 29.468149185181 4.544998168945 136 136 136
26.184120178223 29.468149185181 4.570999145508 142 142 142
26.184120178223 29.468149185181 4.595001220703 135 135 135
26.184120178223 29.468149185181 4.619995117188 134 134 134
26.184120178223 29.468149185181 4.643997192383 129 129 129
26.205345153809 29.445213317871 4.670989990234 77 77 77
26.205345153809 29.445213317871 4.768997192383 118 118 118
26.184120178223 29.468149185181 4.789001464844 158 158 158
26.184120178223 29.468149185181 4.813995361328 149 149 149
26.184120178223 29.468149185181 4.841003417969 140 140 140
26.184120178223 29.468149185181 4.865997314453 154 154 154
26.184120178223 29.468149185181 4.888000488281 151 151 151
26.184120178223 29.468149185181 4.916000366211 134 134 134
26.184120178223 29.468149185181 4.940002441406 150 150 150
26.184120178223 29.468149185181 4.964996337891 160 160 160
26.184120178223 29.468149185181 4.987991333008 128 128 128
26.363685607910 29.251119613647 5.255996704102 101 101 101
26.332702636719 29.307603836060 5.265991210938 118 118 118
26.269023895264 29.376409530640 5.263000488281 58 58 58
26.113967895508 29.083873748779 1.727996826172 166 166 166
26.081272125244 29.096197128296 1.761993408203 167 167 167
26.113967895508 29.083873748779 1.791000366211 166 166 166
26.113967895508 29.083873748779 1.821990966797 166 166 166
26.113967895508 29.083873748779 1.851989746094 167 167 167
26.113967895508 29.083873748779 1.880996704102 165 165 165
26.113967895508 29.083873748779 1.912994384766 163 163 163
26.081272125244 29.096197128296 1.944992065430 161 161 161
26.113967895508 29.083873748779 1.972991943359 161 161 161
26.113967895508 29.083873748779 1.998992919922 162 162 162
26.081272125244 29.096197128296 2.033996582031 161 161 161
26.081272125244 29.096197128296 2.065002441406 158 158 158
26.113967895508 29.083873748779 2.089996337891 157 157 157
26.113967895508 29.083873748779 2.422988891602 177 177 177
26.113967895508 29.083873748779 2.447998046875 184 184 184
26.102497100830 29.073261260986 2.475997924805 189 189 189
26.113967895508 29.083873748779 2.514999389648 142 142 142
26.113967895508 29.083873748779 2.539993286133 142 142 142
26.081272125244 29.096197128296 2.570999145508 143 143 143
26.081272125244 29.096197128296 2.597991943359 143 143 143
26.113967895508 29.083873748779 2.621002197266 141 141 141
26.081272125244 29.096197128296 2.651000976563 136 136 136
26.113967895508 29.083873748779 2.675994873047 135 135 135
26.081272125244 29.096197128296 2.703994750977 138 138 138
26.081272125244 29.096197128296 2.731994628906 134 134 134
26.113967895508 29.083873748779 2.756988525391 135 135 135
26.092742919922 29.106809616089 2.787002563477 136 136 136
26.113967895508 29.083873748779 2.809997558594 137 137 137
26.113967895508 29.083873748779 2.835998535156 133 133 133
26.081272125244 29.096197128296 2.862991333008 128 128 128
26.081272125244 29.096197128296 2.888992309570 133 133 133
26.081272125244 29.096197128296 2.914993286133 132 132 132
26.113967895508 29.083873748779 2.940002441406 134 134 134
26.081272125244 29.096197128296 2.968002319336 135 135 135
26.081272125244 29.096197128296 2.992996215820 135 135 135
26.092742919922 29.106809616089 3.019989013672 129 129 129
26.092742919922 29.106809616089 3.046997070313 130 130 130
26.092742919922 29.106809616089 3.071990966797 128 128 128
26.092742919922 29.106809616089 3.097991943359 128 128 128
26.092742919922 29.106809616089 3.121994018555 132 132 132
26.081272125244 29.096197128296 3.147994995117 123 123 123
26.092742919922 29.106809616089 3.173995971680 125 125 125
26.092742919922 29.106809616089 3.199996948242 124 124 124
26.081272125244 29.096197128296 3.223999023438 125 125 125
26.092742919922 29.106809616089 3.250000000000 126 126 126
26.092742919922 29.106809616089 3.276000976563 125 125 125
26.092742919922 29.106809616089 3.300994873047 115 115 115
26.092742919922 29.106809616089 3.325988769531 113 113 113
26.092742919922 29.106809616089 3.349990844727 107 107 107
26.092742919922 29.106809616089 3.376998901367 109 109 109
26.092742919922 29.106809616089 3.401992797852 99 99 99
26.092742919922 29.106809616089 3.425994873047 96 96 96
26.092742919922 29.106809616089 3.449996948242 84 84 84
26.092742919922 29.106809616089 3.476989746094 78 78 78
26.092742919922 29.106809616089 3.500991821289 73 73 73
26.092742919922 29.106809616089 3.526000976563 72 72 72
26.092742919922 29.106809616089 3.550994873047 55 55 55
26.092742919922 29.106809616089 3.574996948242 48 48 48
26.092742919922 29.106809616089 3.599990844727 44 44 44
26.092742919922 29.106809616089 3.625000000000 33 33 33
26.293533325195 28.866846084595 3.791992187500 106 106 106
26.314758300781 28.843912124634 3.817993164063 123 123 123
26.335983276367 28.820976257324 3.845001220703 133 133 133
26.335983276367 28.820976257324 3.871994018555 137 137 137
26.335983276367 28.820976257324 3.899002075195 140 140 140
26.347454071045 28.831588745117 3.925994873047 136 136 136
26.357212066650 28.798042297363 3.953002929688 132 132 132
26.347454071045 28.831588745117 3.979995727539 114 114 114
26.231563568115 28.979812622070 4.524002075195 127 127 127
26.231563568115 28.979812622070 4.550994873047 150 150 150
26.231563568115 28.979812622070 4.578002929688 173 173 173
26.208625793457 28.958585739136 4.601989746094 184 184 184
26.208625793457 28.958585739136 4.627990722656 177 177 177
26.208625793457 28.958585739136 4.655990600586 180 180 180
26.231563568115 28.979812622070 4.683990478516 180 180 180
26.231563568115 28.979812622070 4.710998535156 162 162 162
26.187400817871 28.981521606445 4.731994628906 123 123 123
26.166175842285 29.004455566406 4.748992919922 134 134 134
26.241325378418 28.946264266968 4.792999267578 138 138 138
26.252792358398 28.956878662109 4.821990966797 140 140 140
26.252792358398 28.956878662109 4.849990844727 136 136 136
26.231563568115 28.979812622070 4.873992919922 136 136 136
26.241325378418 28.946264266968 4.901992797852 134 134 134
26.241325378418 28.946264266968 4.930999755859 138 138 138
26.231563568115 28.979812622070 4.949996948242 139 139 139
26.156417846680 29.038003921509 4.950988769531 131 131 131
26.113967895508 29.083873748779 4.970001220703 134 134 134
26.113967895508 29.083873748779 4.992996215820 171 171 171
26.113967895508 29.083873748779 5.017990112305 199 199 199
26.113967895508 29.083873748779 5.042999267578 207 207 207
26.113967895508 29.083873748779 5.069992065430 198 198 198
26.113967895508 29.083873748779 5.099990844727 166 166 166
26.113967895508 29.083873748779 5.129989624023 102 102 102
26.050285339355 29.152679443359 5.130996704102 97 97 97
26.029060363770 29.175613403320 5.144989013672 122 122 122
26.050285339355 29.152679443359 5.177993774414 122 122 122
26.029060363770 29.175613403320 5.194000244141 135 135 135
26.071514129639 29.129743576050 5.246994018555 132 132 132
26.135192871094 29.060937881470 5.297988891602 142 142 142
26.156417846680 29.038003921509 5.343002319336 154 154 154
26.104209899902 29.117424011230 5.335998535156 160 160 160
25.976852416992 29.255033493042 5.302993774414 129 129 129
26.040527343750 29.186227798462 5.353988647461 94 94 94
26.029060363770 29.175613403320 5.401992797852 105 105 105
26.009544372559 29.242710113525 5.345993041992 125 125 125
25.988319396973 29.265645980835 5.311996459961 139 139 139
26.082981109619 29.140357971191 5.335998535156 133 133 133
26.050285339355 29.152679443359 5.298995971680 130 130 130
26.040527343750 29.186227798462 5.267990112305 130 130 130
26.030769348145 29.219776153564 5.226989746094 131 131 131
26.061752319336 29.163293838501 5.220993041992 131 131 131
26.030769348145 29.219776153564 5.175003051758 154 154 154
26.040527343750 29.186227798462 5.155990600586 135 135 135
26.104209899902 29.117424011230 5.158996582031 105 105 105
26.113967895508 29.083873748779 5.140991210938 128 128 128
26.104209899902 29.117424011230 5.103988647461 193 193 193
26.104209899902 29.117424011230 5.076995849609 188 188 188
26.104209899902 29.117424011230 5.052001953125 188 188 188
26.104209899902 29.117424011230 5.022994995117 190 190 190
26.071514129639 29.129743576050 4.990997314453 144 144 144
26.082981109619 29.140357971191 4.961990356445 145 145 145
26.071514129639 29.129743576050 4.940002441406 157 157 157
26.082981109619 29.140357971191 4.909988403320 172 172 172
26.071514129639 29.129743576050 4.884994506836 170 170 170
26.061752319336 29.163293838501 4.852996826172 162 162 162
26.082981109619 29.140357971191 4.828002929688 160 160 160
26.082981109619 29.140357971191 4.805999755859 170 170 170
26.082981109619 29.140357971191 4.777999877930 178 178 178
26.061752319336 29.163293838501 4.748992919922 171 171 171
26.061752319336 29.163293838501 4.722991943359 166 166 166
26.082981109619 29.140357971191 4.699996948242 173 173 173
26.061752319336 29.163293838501 4.671997070313 166 166 166
26.061752319336 29.163293838501 4.647003173828 168 168 168
26.082981109619 29.140357971191 4.625000000000 166 166 166
26.082981109619 29.140357971191 4.597000122070 166 166 166
26.082981109619 29.140357971191 4.571990966797 164 164 164
26.082981109619 29.140357971191 4.545989990234 168 168 168
26.082981109619 29.140357971191 4.522003173828 172 172 172
26.082981109619 29.140357971191 4.496002197266 169 169 169
26.082981109619 29.140357971191 4.472000122070 172 172 172
26.082981109619 29.140357971191 4.444992065430 172 172 172
26.082981109619 29.140357971191 4.419998168945 172 172 172
26.082981109619 29.140357971191 4.395996093750 168 168 168
26.082981109619 29.140357971191 4.371002197266 171 171 171
26.082981109619 29.140357971191 4.345993041992 173 173 173
26.082981109619 29.140357971191 4.319992065430 171 171 171
26.082981109619 29.140357971191 4.294998168945 174 174 174
26.082981109619 29.140357971191 4.269989013672 171 171 171
26.073219299316 29.173906326294 4.244995117188 169 169 169
26.082981109619 29.140357971191 4.220001220703 172 172 172
26.082981109619 29.140357971191 4.194992065430 173 173 173
26.082981109619 29.140357971191 4.170989990234 173 173 173
26.073219299316 29.173906326294 4.144989013672 171 171 171
26.073219299316 29.173906326294 4.119995117188 169 169 169
26.082981109619 29.140357971191 4.095993041992 175 175 175
26.082981109619 29.140357971191 4.070999145508 173 173 173
26.082981109619 29.140357971191 4.045989990234 175 175 175
26.082981109619 29.140357971191 4.020996093750 172 172 172
26.082981109619 29.140357971191 3.996002197266 172 172 172
26.082981109619 29.140357971191 3.970993041992 168 168 168
26.082981109619 29.140357971191 3.946990966797 172 172 172
26.082981109619 29.140357971191 3.921997070313 170 170 170
26.082981109619 29.140357971191 3.897003173828 170 170 170
26.082981109619 29.140357971191 3.871994018555 168 168 168
26.082981109619 29.140357971191 3.847000122070 167 167 167
26.082981109619 29.140357971191 3.821990966797 170 170 170
26.082981109619 29.140357971191 3.797988891602 169 169 169
26.094448089600 29.150970458984 3.772003173828 169 169 169
26.073219299316 29.173906326294 3.748001098633 168 168 168
26.082981109619 29.140357971191 3.722991943359 168 168 168
26.082981109619 29.140357971191 3.697998046875 167 167 167
26.082981109619 29.140357971191 3.672988891602 166 166 166
26.094448089600 29.150970458984 3.647994995117 170 170 170
26.094448089600 29.150970458984 3.623001098633 165 165 165
26.082981109619 29.140357971191 3.597991943359 167 167 167
26.082981109619 29.140357971191 3.572998046875 165 165 165
26.082981109619 29.140357971191 3.547988891602 167 167 167
26.082981109619 29.140357971191 3.522994995117 166 166 166
26.094448089600 29.150970458984 3.498001098633 164 164 164
26.094448089600 29.150970458984 3.472000122070 167 167 167
26.094448089600 29.150970458984 3.447998046875 166 166 166
26.094448089600 29.150970458984 3.421997070313 163 163 163
26.094448089600 29.150970458984 3.397003173828 159 159 159
26.094448089600 29.150970458984 3.371002197266 159 159 159
26.094448089600 29.150970458984 3.345993041992 164 164 164
26.094448089600 29.150970458984 3.320999145508 162 162 162
26.094448089600 29.150970458984 3.294998168945 165 165 165
26.094448089600 29.150970458984 3.268997192383 167 167 167
26.094448089600 29.150970458984 3.244995117188 162 162 162
26.071514129639 29.129743576050 3.216995239258 164 164 164
26.094448089600 29.150970458984 3.192001342773 164 164 164
26.094448089600 29.150970458984 3.166992187500 162 162 162
26.094448089600 29.150970458984 3.140991210938 163 163 163
26.094448089600 29.150970458984 3.114990234375 165 165 165
26.071514129639 29.129743576050 3.088989257813 162 162 162
26.094448089600 29.150970458984 3.063995361328 157 157 157
26.071514129639 29.129743576050 3.037002563477 163 163 163
26.071514129639 29.129743576050 3.011001586914 159 159 159
26.115676879883 29.128036499023 2.983993530273 160 160 160
26.115676879883 29.128036499023 2.955993652344 158 158 158
26.115676879883 29.128036499023 2.929000854492 159 159 159
26.115676879883 29.128036499023 2.904998779297 157 157 157
26.115676879883 29.128036499023 2.877990722656 158 158 158
26.115676879883 29.128036499023 2.850997924805 159 159 159
26.115676879883 29.128036499023 2.825988769531 158 158 158
26.115676879883 29.128036499023 2.797988891602 160 160 160
26.115676879883 29.128036499023 2.770996093750 159 159 159
26.115676879883 29.128036499023 2.744003295898 161 161 161
26.115676879883 29.128036499023 2.718002319336 159 159 159
26.115676879883 29.128036499023 2.690994262695 158 158 158
26.115676879883 29.128036499023 2.664001464844 158 158 158
26.115676879883 29.128036499023 2.636001586914 155 155 155
26.115676879883 29.128036499023 2.608993530273 157 157 157
26.115676879883 29.128036499023 2.582000732422 155 155 155
26.115676879883 29.128036499023 2.552993774414 155 155 155
26.115676879883 29.128036499023 2.526000976563 153 153 153
26.115676879883 29.128036499023 2.498992919922 156 156 156
26.115676879883 29.128036499023 2.470001220703 156 156 156
26.115676879883 29.128036499023 2.442001342773 155 155 155
26.158126831055 29.082164764404 2.011001586914 130 130 130
26.115676879883 29.128036499023 1.998992919922 157 157 157
26.115676879883 29.128036499023 1.972000122070 154 154 154
26.115676879883 29.128036499023 1.938003540039 152 152 152
26.115676879883 29.128036499023 1.906997680664 152 152 152
26.115676879883 29.128036499023 1.875991821289 148 148 148
26.125434875488 29.094488143921 1.843002319336 150 150 150
26.115676879883 29.128036499023 1.813995361328 149 149 149
26.125434875488 29.094488143921 1.779998779297 155 155 155
26.115676879883 29.128036499023 1.756988525391 146 146 146
26.115676879883 29.128036499023 1.726989746094 163 163 163
26.145084381104 29.602340698242 5.095993041992 137 137 137
26.156551361084 29.612953186035 5.071990966797 165 165 165
26.156551361084 29.612953186035 5.047988891602 160 160 160
26.135326385498 29.635889053345 5.018997192383 137 137 137
26.135326385498 29.635889053345 4.994995117188 171 171 171
26.145084381104 29.602340698242 4.970993041992 200 200 200
26.135326385498 29.635889053345 4.944000244141 188 188 188
26.156551361084 29.612953186035 4.922988891602 176 176 176
26.135326385498 29.635889053345 4.897003173828 159 159 159
26.156551361084 29.612953186035 4.873992919922 75 75 75
26.156551361084 29.612953186035 4.585998535156 86 86 86
26.135326385498 29.635889053345 4.559997558594 134 134 134
26.156551361084 29.612953186035 4.537002563477 134 134 134
26.156551361084 29.612953186035 4.513992309570 137 137 137
26.135326385498 29.635889053345 4.488998413086 137 137 137
26.156551361084 29.612953186035 4.466003417969 140 140 140
26.156551361084 29.612953186035 4.442001342773 139 139 139
26.135326385498 29.635889053345 4.418991088867 137 137 137
26.135326385498 29.635889053345 4.394989013672 140 140 140
26.135326385498 29.635889053345 4.371994018555 137 137 137
26.135326385498 29.635889053345 4.347991943359 130 130 130
26.135326385498 29.635889053345 4.323989868164 44 44 44
26.314895629883 29.418861389160 4.082000732422 117 117 117
26.314895629883 29.418861389160 4.056991577148 135 135 135
26.314895629883 29.418861389160 4.031997680664 134 134 134
26.314895629883 29.418861389160 4.007995605469 136 136 136
26.314895629883 29.418861389160 3.983001708984 135 135 135
26.293670654297 29.441795349121 3.958999633789 134 134 134
26.293670654297 29.441795349121 3.933990478516 136 136 136
26.293670654297 29.441795349121 3.909988403320 137 137 137
26.293670654297 29.441795349121 3.884994506836 138 138 138
26.293670654297 29.441795349121 3.860992431641 134 134 134
26.293670654297 29.441795349121 3.835998535156 138 138 138
26.305137634277 29.452407836914 3.811996459961 139 139 139
26.272441864014 29.464731216431 3.787994384766 130 130 130
26.272441864014 29.464731216431 3.763992309570 102 102 102
26.314895629883 29.418861389160 3.737991333008 75 75 75
26.517395019531 29.223058700562 3.700988769531 145 145 145
26.463478088379 29.258316040039 3.677001953125 157 157 157
26.463478088379 29.258316040039 3.651992797852 160 160 160
26.463478088379 29.258316040039 3.625991821289 161 161 161
26.442253112793 29.281251907349 3.601989746094 88 88 88
26.213260650635 28.792554855347 4.453994750977 178 178 178
26.201793670654 28.781942367554 4.483993530273 195 195 195
26.201793670654 28.781942367554 4.513992309570 195 195 195
26.213260650635 28.792554855347 4.544998168945 207 207 207
26.201793670654 28.781942367554 4.574996948242 195 195 195
26.213260650635 28.792554855347 4.606994628906 197 197 197
26.201793670654 28.781942367554 4.636993408203 204 204 204
26.223018646240 28.759008407593 4.667999267578 164 164 164
26.223018646240 28.759008407593 4.886993408203 155 155 155
26.223018646240 28.759008407593 4.916000366211 196 196 196
26.223018646240 28.759008407593 4.948989868164 217 217 217
26.223018646240 28.759008407593 4.981002807617 210 210 210
26.223018646240 28.759008407593 5.011001586914 188 188 188
26.223018646240 28.759008407593 5.041992187500 183 183 183
26.223018646240 28.759008407593 5.074996948242 187 187 187
26.223018646240 28.759008407593 5.106002807617 189 189 189
26.223018646240 28.759008407593 5.138992309570 105 105 105
26.161544799805 29.170488357544 2.571990966797 40 40 40
26.161544799805 29.170488357544 2.604995727539 57 57 57
26.150077819824 29.159875869751 2.638000488281 64 64 64
26.161544799805 29.170488357544 2.666992187500 72 72 72
26.161544799805 29.170488357544 2.696990966797 77 77 77
26.150077819824 29.159875869751 2.729995727539 76 76 76
26.161544799805 29.170488357544 2.757995605469 82 82 82
26.161544799805 29.170488357544 2.787002563477 80 80 80
26.161544799805 29.170488357544 2.819992065430 86 86 86
26.161544799805 29.170488357544 2.848999023438 90 90 90
26.161544799805 29.170488357544 2.880996704102 104 104 104
26.150077819824 29.159875869751 2.912002563477 113 113 113
26.161544799805 29.170488357544 2.940994262695 119 119 119
26.161544799805 29.170488357544 2.970993041992 125 125 125
26.150077819824 29.159875869751 3.001998901367 125 125 125
26.161544799805 29.170488357544 3.029998779297 133 133 133
26.150077819824 29.159875869751 3.063995361328 133 133 133
26.150077819824 29.159875869751 3.087997436523 144 144 144
26.150077819824 29.159875869751 3.117996215820 146 146 146
26.150077819824 29.159875869751 3.147994995117 146 146 146
26.150077819824 29.159875869751 3.177993774414 146 146 146
26.150077819824 29.159875869751 3.207000732422 150 150 150
26.150077819824 29.159875869751 3.235992431641 148 148 148
26.150077819824 29.159875869751 3.264999389648 152 152 152
26.150077819824 29.159875869751 3.295989990234 156 156 156
26.150077819824 29.159875869751 3.324996948242 163 163 163
26.150077819824 29.159875869751 3.351989746094 172 172 172
26.150077819824 29.159875869751 3.380996704102 143 143 143
26.150077819824 29.159875869751 3.412002563477 156 156 156
26.150077819824 29.159875869751 3.440002441406 155 155 155
26.150077819824 29.159875869751 3.468994140625 150 150 150
26.150077819824 29.159875869751 3.498001098633 149 149 149
26.150077819824 29.159875869751 3.526992797852 151 151 151
26.150077819824 29.159875869751 3.555999755859 164 164 164
26.150077819824 29.159875869751 3.584991455078 154 154 154
26.150077819824 29.159875869751 3.612991333008 158 158 158
26.159835815430 29.126327514648 3.641998291016 153 153 153
26.138610839844 29.149263381958 3.670989990234 144 144 144
26.159835815430 29.126327514648 3.698989868164 133 133 133
26.138610839844 29.149263381958 3.728988647461 132 132 132
26.138610839844 29.149263381958 3.756988525391 126 126 126
26.138610839844 29.149263381958 3.784988403320 130 130 130
26.117385864258 29.172197341919 3.815002441406 125 125 125
26.138610839844 29.149263381958 3.841995239258 126 126 126
26.127143859863 29.138648986816 3.871002197266 127 127 127
26.127143859863 29.138648986816 3.899993896484 122 122 122
26.127143859863 29.138648986816 3.927993774414 117 117 117
26.127143859863 29.138648986816 3.955993652344 122 122 122
26.115676879883 29.128036499023 3.985000610352 123 123 123
26.115676879883 29.128036499023 4.013000488281 126 126 126
26.105915069580 29.161582946777 4.041000366211 126 126 126
26.115676879883 29.128036499023 4.069000244141 130 130 130
26.115676879883 29.128036499023 4.097000122070 138 138 138
26.115676879883 29.128036499023 4.125000000000 138 138 138
26.094448089600 29.150970458984 4.153991699219 139 139 139
26.094448089600 29.150970458984 4.181991577148 142 142 142
26.094448089600 29.150970458984 4.209991455078 146 146 146
26.094448089600 29.150970458984 4.237991333008 152 152 152
26.094448089600 29.150970458984 4.264999389648 155 155 155
26.073219299316 29.173906326294 4.292999267578 157 157 157
26.073219299316 29.173906326294 4.320999145508 159 159 159
26.082981109619 29.140357971191 4.348999023438 148 148 148
26.082981109619 29.140357971191 4.376998901367 143 143 143
26.082981109619 29.140357971191 4.404998779297 136 136 136
26.082981109619 29.140357971191 4.432998657227 147 147 147
26.094448089600 29.150970458984 4.461990356445 147 147 147
26.094448089600 29.150970458984 4.489990234375 149 149 149
26.094448089600 29.150970458984 4.517990112305 146 146 146
26.082981109619 29.140357971191 4.545989990234 148 148 148
26.082981109619 29.140357971191 4.573989868164 152 152 152
26.082981109619 29.140357971191 4.601989746094 158 158 158
26.082981109619 29.140357971191 4.629989624023 164 164 164
26.082981109619 29.140357971191 4.656997680664 205 205 205
26.082981109619 29.140357971191 4.685989379883 186 186 186
26.050285339355 29.152679443359 4.712997436523 190 190 190
26.050285339355 29.152679443359 4.739990234375 198 198 198
26.082981109619 29.140357971191 4.772003173828 168 168 168
26.082981109619 29.140357971191 4.800003051758 166 166 166
26.082981109619 29.140357971191 4.828002929688 186 186 186
26.050285339355 29.152679443359 4.854995727539 189 189 189
26.071514129639 29.129743576050 4.886993408203 170 170 170
26.071514129639 29.129743576050 4.916000366211 152 152 152
26.071514129639 29.129743576050 4.945999145508 128 128 128
26.071514129639 29.129743576050 4.974990844727 130 130 130
26.071514129639 29.129743576050 5.002990722656 126 126 126
26.071514129639 29.129743576050 5.029998779297 119 119 119
26.071514129639 29.129743576050 5.059997558594 118 118 118
26.071514129639 29.129743576050 5.087997436523 121 121 121
26.071514129639 29.129743576050 5.119995117188 125 125 125
26.115676879883 29.128036499023 5.156997680664 107 107 107
26.038818359375 29.142066955566 5.162002563477 110 110 110
26.006126403809 29.154388427734 5.186996459961 129 129 129
26.038818359375 29.142066955566 5.223999023438 141 141 141
26.038818359375 29.142066955566 5.250991821289 124 124 124
26.027351379395 29.131454467773 5.284988403320 141 141 141
26.071514129639 29.129743576050 5.319992065430 136 136 136
25.940738677979 29.179031372070 5.319992065430 137 137 137
25.973434448242 29.166711807251 5.350997924805 121 121 121
26.027351379395 29.131454467773 5.397003173828 113 113 113
26.293670654297 29.441795349121 3.720001220703 134 134 134
26.282203674316 29.431182861328 3.748992919922 166 166 166
26.293670654297 29.441795349121 3.776000976563 163 163 163
26.293670654297 29.441795349121 3.804000854492 166 166 166
26.314895629883 29.418861389160 3.830993652344 171 171 171
26.303428649902 29.408248901367 3.858993530273 171 171 171
26.303428649902 29.408248901367 3.886001586914 172 172 172
26.303428649902 29.408248901367 3.914001464844 169 169 169
26.303428649902 29.408248901367 3.942001342773 171 171 171
26.314895629883 29.418861389160 3.968994140625 169 169 169
26.314895629883 29.418861389160 3.996994018555 169 169 169
26.314895629883 29.418861389160 4.024993896484 168 168 168
26.314895629883 29.418861389160 4.052001953125 164 164 164
26.314895629883 29.418861389160 4.080001831055 158 158 158
26.161186218262 29.446922302246 4.430999755859 65 65 65
26.161186218262 29.446922302246 4.457992553711 186 186 186
26.161186218262 29.446922302246 4.485000610352 192 192 192
26.161186218262 29.446922302246 4.511993408203 195 195 195
26.161186218262 29.446922302246 4.539001464844 196 196 196
26.161186218262 29.446922302246 4.565002441406 190 190 190
26.161186218262 29.446922302246 4.593002319336 196 196 196
26.161186218262 29.446922302246 4.621002197266 193 193 193
26.161186218262 29.446922302246 4.647003173828 190 190 190
26.161186218262 29.446922302246 4.673995971680 177 177 177
26.161186218262 29.446922302246 4.783996582031 94 94 94
26.161186218262 29.446922302246 4.809997558594 199 199 199
26.161186218262 29.446922302246 4.836990356445 191 191 191
26.161186218262 29.446922302246 4.865997314453 193 193 193
26.161186218262 29.446922302246 4.892990112305 198 198 198
26.161186218262 29.446922302246 4.918991088867 192 192 192
26.161186218262 29.446922302246 4.947998046875 190 190 190
26.161186218262 29.446922302246 4.975997924805 198 198 198
26.161186218262 29.446922302246 5.003997802734 189 189 189
26.140453338623 29.768371582031 4.962997436523 102 102 102
26.151920318604 29.778984069824 4.989990234375 147 147 147
26.097866058350 29.239292144775 5.405990600586 157 157 157
26.066879272461 29.295776367188 5.361999511719 160 160 160
26.057121276855 29.329324722290 5.319000244141 140 140 140
26.074932098389 29.218067169189 5.319000244141 134 134 134
