30.366041183472 25.967285156250 65.165008544922 152 152 152
30.363355636597 25.959949493408 65.120010375977 148 148 148
30.363355636597 25.959949493408 65.074005126953 156 156 156
30.357984542847 25.945274353027 65.029006958008 159 159 159
30.363355636597 25.959949493408 64.984008789063 159 159 159
30.357984542847 25.945274353027 64.938995361328 161 161 161
30.357984542847 25.945274353027 64.893005371094 163 163 163
30.357984542847 25.945274353027 64.848007202148 161 161 161
30.355298995972 25.937938690186 64.802001953125 160 160 160
30.355298995972 25.937938690186 64.757003784180 163 163 163
30.355298995972 25.937938690186 64.710998535156 155 155 155
30.355298995972 25.937938690186 64.666000366211 153 153 153
30.355298995972 25.937938690186 64.621002197266 145 145 145
30.355298995972 25.937938690186 64.574996948242 141 141 141
30.349927902222 25.923267364502 64.529998779297 138 138 138
30.349927902222 25.923267364502 64.484008789063 142 142 142
30.347242355347 25.915927886963 64.438995361328 144 144 144
30.337938308716 25.935974121094 64.393005371094 144 144 144
30.347242355347 25.915927886963 64.348007202148 136 136 136
30.320581436157 25.934009552002 64.303009033203 137 137 137
30.347242355347 25.915927886963 64.255996704102 144 144 144
30.344556808472 25.908592224121 64.210998535156 145 145 145
30.344556808472 25.908592224121 64.165008544922 144 144 144
30.344556808472 25.908592224121 64.120010375977 140 140 140
30.344556808472 25.908592224121 64.074005126953 141 141 141
30.344556808472 25.908592224121 64.029006958008 139 139 139
30.327196121216 25.906627655029 63.983001708984 133 133 133
30.341871261597 25.901256561279 63.936004638672 139 139 139
30.339185714722 25.893920898438 63.889999389648 143 143 143
30.339185714722 25.893920898438 63.844009399414 135 135 135
30.339185714722 25.893920898438 63.798004150391 146 146 146
30.312524795532 25.911998748779 63.753005981445 140 140 140
30.324510574341 25.899291992188 63.706008911133 138 138 138
30.324510574341 25.899291992188 63.658996582031 135 135 135
30.324510574341 25.899291992188 63.613006591797 137 137 137
30.307153701782 25.897327423096 63.567001342773 138 138 138
30.307153701782 25.897327423096 63.522003173828 130 130 130
30.316453933716 25.877281188965 63.473007202148 131 131 131
30.316453933716 25.877281188965 63.426010131836 134 134 134
30.316453933716 25.877281188965 63.378997802734 136 136 136
30.304468154907 25.889987945557 63.333007812500 134 134 134
30.304468154907 25.889987945557 63.287002563477 135 135 135
30.299097061157 25.875316619873 63.238998413086 140 140 140
30.299097061157 25.875316619873 63.191009521484 141 141 141
30.299097061157 25.875316619873 63.145004272461 131 131 131
30.301782608032 25.882652282715 63.100006103516 133 133 133
30.296411514282 25.867980957031 63.050003051758 134 134 134
30.296411514282 25.867980957031 63.003005981445 128 128 128
30.296411514282 25.867980957031 62.955001831055 133 133 133
30.296411514282 25.867980957031 62.906005859375 133 133 133
30.293725967407 25.860645294189 62.857009887695 135 135 135
30.296411514282 25.867980957031 62.811004638672 137 137 137
30.293725967407 25.860645294189 62.760009765625 133 133 133
30.296411514282 25.867980957031 62.714996337891 129 129 129
30.279054641724 25.866016387939 62.666000366211 131 131 131
30.291040420532 25.853305816650 62.615005493164 130 130 130
30.291040420532 25.853305816650 62.567001342773 133 133 133
30.285669326782 25.838634490967 62.514007568359 131 131 131
30.291040420532 25.853305816650 62.469009399414 127 127 127
30.273683547974 25.851341247559 62.417999267578 125 125 125
30.282983779907 25.831298828125 62.365997314453 124 124 124
30.282983779907 25.831298828125 62.317001342773 126 126 126
30.282983779907 25.831298828125 62.263000488281 132 132 132
30.282983779907 25.831298828125 62.212997436523 144 144 144
30.282983779907 25.831298828125 62.166000366211 137 137 137
30.282983779907 25.831298828125 62.115005493164 133 133 133
30.282983779907 25.831298828125 62.065002441406 128 128 128
30.828489303589 26.230617523193 64.266006469727 16 16 16
30.451665878296 25.428455352783 64.747009277344 170 170 170
30.451665878296 25.428455352783 64.787002563477 202 202 202
30.451665878296 25.428455352783 64.828002929688 189 189 189
30.439676284790 25.441162109375 64.869003295898 193 193 193
30.436990737915 25.433826446533 64.908996582031 204 204 204
30.436990737915 25.433826446533 64.949996948242 185 185 185
30.436990737915 25.433826446533 64.990997314453 18 18 18
30.413015365601 25.459239959717 65.277008056641 153 153 153
30.410329818726 25.451904296875 65.318008422852 190 190 190
30.413015365601 25.459239959717 65.358001708984 190 190 190
30.410329818726 25.451904296875 65.400009155273 188 188 188
30.413015365601 25.459239959717 65.442001342773 192 192 192
30.413015365601 25.459239959717 65.482009887695 189 189 189
30.413015365601 25.459239959717 65.525009155273 114 114 114
30.597730636597 25.691127777100 63.861007690430 84 84 84
30.629762649536 25.687721252441 63.901000976563 133 133 133
30.647123336792 25.689687728882 63.941009521484 144 144 144
30.647123336792 25.689687728882 63.983001708984 152 152 152
30.647123336792 25.689687728882 64.025009155273 131 131 131
30.453687667847 25.752172470093 64.076995849609 154 154 154
30.453687667847 25.752172470093 64.117996215820 152 152 152
30.427030563354 25.770252227783 64.158996582031 148 148 148
30.453687667847 25.752172470093 64.199005126953 154 154 154
30.547098159790 25.734619140625 64.236007690430 162 162 162
30.561769485474 25.729248046875 64.276000976563 161 161 161
30.647123336792 25.689687728882 64.315002441406 157 157 157
30.691141128540 25.673574447632 64.354995727539 153 153 153
30.693826675415 25.680910110474 64.397003173828 150 150 150
30.435083389282 25.792261123657 64.921997070313 156 156 156
30.420412063599 25.797632217407 64.960998535156 193 193 193
30.435083389282 25.792261123657 65.001998901367 203 203 203
30.417726516724 25.790294647217 65.041000366211 198 198 198
30.405740737915 25.803003311157 65.081008911133 196 196 196
30.408426284790 25.810338973999 65.121002197266 197 197 197
30.408426284790 25.810338973999 65.162002563477 193 193 193
30.408426284790 25.810338973999 65.201995849609 195 195 195
30.408426284790 25.810338973999 65.242004394531 191 191 191
30.411111831665 25.817676544189 65.283004760742 182 182 182
30.347047805786 25.824487686157 65.315002441406 41 41 41
30.332376480103 25.829856872559 65.352005004883 160 160 160
30.320386886597 25.842563629150 65.391006469727 130 130 130
30.293725967407 25.860645294189 65.427001953125 127 127 127
30.320386886597 25.842563629150 65.471008300781 120 120 120
30.291040420532 25.853305816650 65.505996704102 90 90 90
30.259012222290 25.856712341309 65.541000366211 127 127 127
30.232347488403 25.874790191650 65.576995849609 94 94 94
30.379076004028 25.821081161499 65.645004272461 114 114 114
30.393751144409 25.815710067749 65.686996459961 125 125 125
30.176343917847 25.903612136841 65.684997558594 118 118 118
30.232347488403 25.874790191650 65.735000610352 77 77 77
30.595827102661 26.049560546875 63.807998657227 116 116 116
30.593141555786 26.042224884033 63.850006103516 123 123 123
30.595827102661 26.049560546875 63.889999389648 134 134 134
30.613183975220 26.051528930664 63.930007934570 141 141 141
30.566476821899 26.060302734375 63.975006103516 148 148 148
30.542505264282 26.085718154907 64.016006469727 145 145 145
30.601198196411 26.064235687256 64.053009033203 154 154 154
30.598512649536 26.056900024414 64.094009399414 163 163 163
30.539819717407 26.078382492065 64.138000488281 163 163 163
30.510473251343 26.089124679565 64.179000854492 177 177 177
30.510473251343 26.089124679565 64.218002319336 176 176 176
30.527833938599 26.091089248657 64.257995605469 177 177 177
30.601198196411 26.064235687256 64.296005249023 160 160 160
30.647897720337 26.055458068848 64.335998535156 142 142 142
30.647897720337 26.055458068848 64.376007080078 140 140 140
30.647897720337 26.055458068848 64.417007446289 106 106 106
30.425119400024 26.128684997559 64.811996459961 82 82 82
30.398462295532 26.146762847900 64.850997924805 198 198 198
30.415819168091 26.148731231689 64.891006469727 197 197 197
30.401147842407 26.154102325439 64.930007934570 195 195 195
30.398462295532 26.146762847900 64.969009399414 193 193 193
30.401147842407 26.154102325439 65.009002685547 197 197 197
30.401147842407 26.154102325439 65.048004150391 190 190 190
30.415819168091 26.148731231689 65.089004516602 73 73 73
30.418504714966 26.156066894531 65.128997802734 200 200 200
30.415819168091 26.148731231689 65.167999267578 201 201 201
30.418504714966 26.156066894531 65.208007812500 200 200 200
30.418504714966 26.156066894531 65.247009277344 198 198 198
30.415819168091 26.148731231689 65.287002563477 201 201 201
30.415819168091 26.148731231689 65.326004028320 187 187 187
30.465211868286 26.147291183472 65.615005493164 32 32 32
30.856592178345 26.261928558350 64.313003540039 54 54 54
30.849973678589 26.289308547974 64.266998291016 13 13 13
30.442014694214 26.538475036621 65.561004638672 47 47 47
30.436643600464 26.523803710938 65.516998291016 162 162 162
30.463304519653 26.505725860596 65.475006103516 183 183 183
30.445943832397 26.503761291504 65.430007934570 183 183 183
30.445943832397 26.503761291504 65.385009765625 202 202 202
30.457933425903 26.491050720215 65.341003417969 175 175 175
30.457933425903 26.491050720215 65.296005249023 69 69 69
30.447851181030 26.145324707031 65.320999145508 154 154 154
30.459840774536 26.132617950439 65.277008056641 141 141 141
30.430490493774 26.143360137939 65.231002807617 155 155 155
30.430490493774 26.143360137939 65.184997558594 142 142 142
30.430490493774 26.143360137939 65.139999389648 140 140 140
30.430490493774 26.143360137939 65.095001220703 149 149 149
30.430490493774 26.143360137939 65.048995971680 148 148 148
30.427804946899 26.136020660400 65.003997802734 147 147 147
30.427804946899 26.136020660400 64.958999633789 153 153 153
30.425119400024 26.128684997559 64.914001464844 18 18 18
30.703321456909 25.752309799194 64.447006225586 123 123 123
30.703321456909 25.752309799194 64.399002075195 128 128 128
30.648756027222 25.830516815186 64.354995727539 134 134 134
30.574144363403 25.899425506592 64.311996459961 147 147 147
30.526197433472 25.950256347656 64.270996093750 180 180 180
30.480932235718 26.008422851563 64.227996826172 177 177 177
30.451585769653 26.019165039063 64.184005737305 149 149 149
30.451585769653 26.019165039063 64.138000488281 136 136 136
30.664674758911 25.783094406128 64.067001342773 114 114 114
30.595438003540 25.866676330566 64.027999877930 136 136 136
30.544801712036 25.910167694092 63.986999511719 138 138 138
30.518140792847 25.928247451782 63.942001342773 138 138 138
30.563402175903 25.870082855225 63.888000488281 115 115 115
30.527441024780 25.908203125000 63.800003051758 14 14 14
30.435472488403 25.975147247314 63.344009399414 17 17 17
30.408815383911 25.993225097656 63.300003051758 40 40 40
30.420801162720 25.980518341064 63.251998901367 61 61 61
30.420801162720 25.980518341064 63.204010009766 77 77 77
30.403444290161 25.978551864624 63.156997680664 80 80 80
30.406129837036 25.985889434814 63.111007690430 80 80 80
30.403444290161 25.978551864624 63.059997558594 85 85 85
30.412744522095 25.958507537842 63.010009765625 76 76 76
30.412744522095 25.958507537842 62.962997436523 83 83 83
30.412744522095 25.958507537842 62.914001464844 77 77 77
30.398073196411 25.963878631592 62.867996215820 78 78 78
30.398073196411 25.963878631592 62.817001342773 75 75 75
30.395387649536 25.956542968750 62.768005371094 84 84 84
30.404687881470 25.936498641968 62.718002319336 95 95 95
30.404687881470 25.936498641968 62.669998168945 98 98 98
30.404687881470 25.936498641968 62.621002197266 105 105 105
30.404687881470 25.936498641968 62.569000244141 121 121 121
30.425977706909 25.903747558594 62.510009765625 171 171 171
30.411302566528 25.909118652344 62.462005615234 156 156 156
30.413988113403 25.916454315186 62.417999267578 136 136 136
30.408617019653 25.901782989502 62.363998413086 127 127 127
30.399316787720 25.921825408936 62.320007324219 122 122 122
30.399316787720 25.921825408936 62.268997192383 135 135 135
30.381959915161 25.919860839844 62.218002319336 127 127 127
30.391260147095 25.899816513062 62.166000366211 124 124 124
30.391260147095 25.899816513062 62.113006591797 116 116 116
30.391260147095 25.899816513062 62.061996459961 120 120 120
30.376588821411 25.905187606812 62.013000488281 127 127 127
30.283372879028 26.014183044434 65.826004028320 57 57 57
30.238111495972 26.072349548340 65.772003173828 121 121 121
30.187475204468 26.115842819214 65.719009399414 132 132 132
30.280687332153 26.006847381592 65.694000244141 118 118 118
30.247411727905 26.052305221558 65.641006469727 110 110 110
30.304666519165 25.981433868408 65.604995727539 148 148 148
30.280687332153 26.006847381592 65.557006835938 122 122 122
30.320581436157 25.934009552002 65.522003173828 148 148 148
30.320581436157 25.934009552002 65.475997924805 133 133 133
30.347242355347 25.915927886963 65.432998657227 110 110 110
30.428468704224 25.819641113281 65.399002075195 89 89 89
30.437768936157 25.799596786499 65.354003906250 135 135 135
30.437768936157 25.799596786499 65.307998657227 137 137 137
30.437768936157 25.799596786499 65.262008666992 163 163 163
30.435083389282 25.792261123657 65.216003417969 173 173 173
30.429712295532 25.777587890625 65.169998168945 116 116 116
30.444383621216 25.772216796875 65.125000000000 150 150 150
30.453687667847 25.752172470093 65.080001831055 187 187 187
30.453687667847 25.752172470093 65.033004760742 163 163 163
30.451002120972 25.744836807251 64.988006591797 172 172 172
30.460306167603 25.724792480469 64.942001342773 147 147 147
30.472291946411 25.712085723877 64.895996093750 47 47 47
30.460966110229 25.408412933350 65.542007446289 86 86 86
30.443609237671 25.406444549561 65.495010375977 132 132 132
30.443609237671 25.406444549561 65.447998046875 153 153 153
30.434305191040 25.426490783691 65.400009155273 54 54 54
30.466142654419 25.331642150879 64.934005737305 23 23 23
30.431077957153 26.417686462402 64.750000000000 214 214 214
30.431077957153 26.417686462402 64.794998168945 224 224 224
30.431077957153 26.417686462402 64.839996337891 217 217 217
30.431077957153 26.417686462402 64.884002685547 222 222 222
30.431077957153 26.417686462402 64.929000854492 214 214 214
30.431077957153 26.417686462402 64.973999023438 207 207 207
30.460424423218 26.406944274902 65.244003295898 62 62 62
30.460424423218 26.406944274902 65.288009643555 215 215 215
30.460424423218 26.406944274902 65.333999633789 220 220 220
30.443063735962 26.404979705811 65.378005981445 214 214 214
30.443063735962 26.404979705811 65.423995971680 212 212 212
30.460424423218 26.406944274902 65.469009399414 204 204 204
30.463109970093 26.414279937744 65.514999389648 16 16 16
30.613573074341 26.234411239624 64.035995483398 158 158 158
30.613573074341 26.234411239624 64.083007812500 184 184 184
30.628244400024 26.229040145874 64.126998901367 161 161 161
30.625558853149 26.221704483032 64.175003051758 165 165 165
30.576169967651 26.223144531250 64.225997924805 174 174 174
30.576169967651 26.223144531250 64.272003173828 177 177 177
30.622873306274 26.214368820190 64.316009521484 170 170 170
30.660276412964 26.225635528564 64.360000610352 152 152 152
30.662961959839 26.232971191406 64.406997680664 160 160 160
30.662961959839 26.232971191406 64.453002929688 94 94 94
30.426561355591 26.178073883057 64.917007446289 208 208 208
30.426561355591 26.178073883057 64.962005615234 226 226 226
30.409204483032 26.176109313965 65.007995605469 226 226 226
30.435861587524 26.158031463623 65.053009033203 223 223 223
30.435861587524 26.158031463623 65.098999023438 226 226 226
30.435861587524 26.158031463623 65.143997192383 220 220 220
30.438547134399 26.165367126465 65.190002441406 219 219 219
30.435861587524 26.158031463623 65.235000610352 217 217 217
30.438547134399 26.165367126465 65.281005859375 216 216 216
30.435861587524 26.158031463623 65.326004028320 211 211 211
30.435861587524 26.158031463623 65.372009277344 169 169 169
30.341016769409 26.126194000244 65.589996337891 64 64 64
30.291627883911 26.127635955811 65.628997802734 39 39 39
30.505296707153 26.165893554688 65.701004028320 85 85 85
30.219507217407 26.112436294556 65.710998535156 119 119 119
30.254224777222 26.116367340088 65.759002685547 102 102 102
30.420801162720 25.980518341064 63.221008300781 65 65 65
30.403444290161 25.978551864624 63.270004272461 88 88 88
30.400758743286 25.971216201782 63.320999145508 104 104 104
30.400758743286 25.971216201782 63.367004394531 107 107 107
30.403444290161 25.978551864624 63.415008544922 110 110 110
30.403444290161 25.978551864624 63.460998535156 117 117 117
30.403444290161 25.978551864624 63.507003784180 117 117 117
30.400758743286 25.971216201782 63.555999755859 117 117 117
30.403444290161 25.978551864624 63.600997924805 135 135 135
30.403444290161 25.978551864624 63.648010253906 141 141 141
30.398073196411 25.963878631592 63.697006225586 151 151 151
30.366041183472 25.967285156250 63.746002197266 154 154 154
30.366041183472 25.967285156250 63.792999267578 149 149 149
30.366041183472 25.967285156250 63.839004516602 138 138 138
30.392702102661 25.949207305908 63.884002685547 139 139 139
30.375345230103 25.947238922119 63.930999755859 123 123 123
30.392702102661 25.949207305908 63.975006103516 128 128 128
30.360670089722 25.952610015869 64.024002075195 121 121 121
30.375345230103 25.947238922119 64.069000244141 119 119 119
30.357984542847 25.945274353027 64.115997314453 132 132 132
30.355298995972 25.937938690186 64.164001464844 126 126 126
30.355298995972 25.937938690186 64.208999633789 129 129 129
30.320581436157 25.934009552002 64.255996704102 115 115 115
30.355298995972 25.937938690186 64.300003051758 111 111 111
30.355298995972 25.937938690186 64.345001220703 113 113 113
30.355298995972 25.937938690186 64.391006469727 119 119 119
30.360670089722 25.952610015869 64.434997558594 137 137 137
30.357984542847 25.945274353027 64.481002807617 168 168 168
30.355298995972 25.937938690186 64.527008056641 169 169 169
30.355298995972 25.937938690186 64.572998046875 149 149 149
30.364603042603 25.917896270752 64.617996215820 134 134 134
30.384645462036 25.927196502686 64.663009643555 134 134 134
30.402002334595 25.929162979126 64.708999633789 131 131 131
30.384645462036 25.927196502686 64.753997802734 132 132 132
30.402002334595 25.929162979126 64.800003051758 130 130 130
30.404687881470 25.936498641968 64.846008300781 129 129 129
30.404687881470 25.936498641968 64.891998291016 132 132 132
30.416673660278 25.923791885376 64.936996459961 138 138 138
30.419359207153 25.931127548218 64.983001708984 146 146 146
30.419359207153 25.931127548218 65.029006958008 155 155 155
30.419359207153 25.931127548218 65.074996948242 158 158 158
30.416673660278 25.923791885376 65.120010375977 157 157 157
30.416673660278 25.923791885376 65.166000366211 155 155 155
30.419359207153 25.931127548218 65.212005615234 160 160 160
30.419359207153 25.931127548218 65.259002685547 176 176 176
30.419359207153 25.931127548218 65.304000854492 183 183 183
30.381959915161 25.919860839844 65.348007202148 122 122 122
30.376588821411 25.905187606812 65.391998291016 186 186 186
30.361917495728 25.910556793213 65.438003540039 154 154 154
30.341871261597 25.901256561279 65.481002807617 145 145 145
30.339185714722 25.893920898438 65.526000976563 131 131 131
30.307153701782 25.897327423096 65.570007324219 121 121 121
30.324510574341 25.899291992188 65.617004394531 119 119 119
30.341871261597 25.901256561279 65.665008544922 95 95 95
30.483423233032 25.924316406250 65.727005004883 109 109 109
30.229661941528 25.867454528809 65.742004394531 139 139 139
30.307153701782 25.897327423096 65.798995971680 103 103 103
30.664674758911 25.783094406128 63.856002807617 97 97 97
30.647317886353 25.781127929688 63.904998779297 156 156 156
30.664674758911 25.783094406128 63.953002929688 161 161 161
30.664674758911 25.783094406128 64.000000000000 163 163 163
30.664674758911 25.783094406128 64.048004150391 155 155 155
30.679346084595 25.777723312378 64.095001220703 152 152 152
30.661989212036 25.775758743286 64.143997192383 158 158 158
30.592554092407 25.767894744873 64.197998046875 165 165 165
30.572511672974 25.758594512939 64.247009277344 187 187 187
30.572511672974 25.758594512939 64.294998168945 188 188 188
30.624586105347 25.764492034912 64.339004516602 166 166 166
30.699392318726 25.787025451660 64.382003784180 154 154 154
30.699392318726 25.787025451660 64.430007934570 157 157 157
30.702077865601 25.794363021851 64.477996826172 101 101 101
30.460306167603 25.724792480469 64.908004760742 178 178 178
30.454935073853 25.710119247437 64.955001831055 222 222 222
30.454935073853 25.710119247437 65.001007080078 215 215 215
30.454935073853 25.710119247437 65.048004150391 217 217 217
30.440259933472 25.715490341187 65.095001220703 211 211 211
30.440259933472 25.715490341187 65.141006469727 194 194 194
30.437574386597 25.708154678345 65.188003540039 86 86 86
30.434888839722 25.700817108154 65.234008789063 233 233 233
30.437574386597 25.708154678345 65.279998779297 198 198 198
30.434888839722 25.700817108154 65.326995849609 236 236 236
30.434888839722 25.700817108154 65.374008178711 240 240 240
30.434888839722 25.700817108154 65.419998168945 236 236 236
30.434888839722 25.700817108154 65.466003417969 149 149 149
30.470460891724 25.479808807373 64.794006347656 216 216 216
30.453104019165 25.477844238281 64.841995239258 246 246 246
30.453104019165 25.477844238281 64.889007568359 234 234 234
30.453104019165 25.477844238281 64.936004638672 213 213 213
30.453104019165 25.477844238281 64.983001708984 232 232 232
30.453104019165 25.477844238281 65.029998779297 114 114 114
30.445047378540 25.455837249756 65.360000610352 191 191 191
30.445047378540 25.455837249756 65.406997680664 240 240 240
30.445047378540 25.455837249756 65.454010009766 218 218 218
30.445047378540 25.455837249756 65.501998901367 241 241 241
30.427690505981 25.453868865967 65.548004150391 239 239 239
30.445047378540 25.455837249756 65.596008300781 204 204 204
30.615015029907 26.283802032471 64.085006713867 104 104 104
30.615015029907 26.283802032471 64.125000000000 141 141 141
30.644357681274 26.273059844971 64.164001464844 145 145 145
30.644357681274 26.273059844971 64.205001831055 145 145 145
30.644357681274 26.273059844971 64.245010375977 146 146 146
30.647043228149 26.280395507813 64.285003662109 143 143 143
30.647043228149 26.280395507813 64.324996948242 149 149 149
30.647043228149 26.280395507813 64.365005493164 150 150 150
30.647043228149 26.280395507813 64.406005859375 107 107 107
30.441625595093 26.355590820313 64.761001586914 139 139 139
30.424264907837 26.353626251221 64.800003051758 199 199 199
30.441625595093 26.355590820313 64.839004516602 198 198 198
30.412279129028 26.366333007813 64.876998901367 197 197 197
30.414964675903 26.373668670654 64.916000366211 202 202 202
30.424264907837 26.353626251221 64.956008911133 197 197 197
30.441625595093 26.355590820313 64.995010375977 188 188 188
30.441625595093 26.355590820313 65.231002807617 194 194 194
30.441625595093 26.355590820313 65.270996093750 206 206 206
30.441625595093 26.355590820313 65.309997558594 201 201 201
30.441625595093 26.355590820313 65.350006103516 205 205 205
30.441625595093 26.355590820313 65.389007568359 200 200 200
30.441625595093 26.355590820313 65.429000854492 194 194 194
30.441625595093 26.355590820313 65.470001220703 42 42 42
30.606370925903 25.987464904785 63.777008056641 122 122 122
30.615674972534 25.967418670654 63.817001342773 170 170 170
30.574342727661 25.990871429443 63.861999511719 166 166 166
30.533006668091 26.014318466187 63.908004760742 182 182 182
30.515649795532 26.012353897095 63.949005126953 207 207 207
30.515649795532 26.012353897095 63.988998413086 194 194 194
30.571657180786 25.983531951904 64.026000976563 177 177 177
30.606370925903 25.987464904785 64.063995361328 167 167 167
30.515649795532 26.012353897095 64.110000610352 162 162 162
30.459642410278 26.041173934937 64.154006958008 129 129 129
30.518335342407 26.019689559937 64.192001342773 142 142 142
30.500978469849 26.017724990845 64.232009887695 142 142 142
30.665063858032 25.965980529785 64.266006469727 142 142 142
30.667749404907 25.973316192627 64.307006835938 142 142 142
30.635717391968 25.976722717285 64.348007202148 121 121 121
30.665063858032 25.965980529785 64.389007568359 119 119 119
30.670434951782 25.980651855469 64.430007934570 126 126 126
30.667749404907 25.973316192627 64.471008300781 69 69 69
30.415624618530 26.057285308838 64.947006225586 111 111 111
30.430299758911 26.051916122437 64.986999511719 197 197 197
30.415624618530 26.057285308838 65.026000976563 199 199 199
30.415624618530 26.057285308838 65.066009521484 200 200 200
30.430299758911 26.051916122437 65.106002807617 200 200 200
30.415624618530 26.057285308838 65.145996093750 200 200 200
30.432985305786 26.059253692627 65.186004638672 201 201 201
30.430299758911 26.051916122437 65.225997924805 203 203 203
30.430299758911 26.051916122437 65.266006469727 203 203 203
30.430299758911 26.051916122437 65.305999755859 126 126 126
30.347631454468 26.098815917969 65.533996582031 110 110 110
30.315599441528 26.102222442627 65.569000244141 125 125 125
30.288942337036 26.120300292969 65.604995727539 118 118 118
30.344945907593 26.091480255127 65.656997680664 110 110 110
30.315599441528 26.102222442627 65.688995361328 119 119 119
30.227563858032 26.134447097778 65.712997436523 123 123 123
30.312913894653 26.094882965088 65.766998291016 114 114 114
30.659109115601 25.676979064941 64.027008056641 98 98 98
30.659109115601 25.676979064941 64.069000244141 134 134 134
30.676465988159 25.678945541382 64.110000610352 152 152 152
30.688455581665 25.666236877441 64.151000976563 147 147 147
30.659109115601 25.676979064941 64.194000244141 150 150 150
30.629762649536 25.687721252441 64.236999511719 149 149 149
30.632448196411 25.695058822632 64.277999877930 146 146 146
30.676465988159 25.678945541382 64.318008422852 146 146 146
30.691141128540 25.673574447632 64.359008789063 152 152 152
30.717802047729 25.655494689941 64.401000976563 145 145 145
30.691141128540 25.673574447632 64.443008422852 20 20 20
30.427030563354 25.770252227783 64.928009033203 174 174 174
30.444383621216 25.772216796875 64.969009399414 196 196 196
30.444383621216 25.772216796875 65.010009765625 207 207 207
30.427030563354 25.770252227783 65.048995971680 199 199 199
30.427030563354 25.770252227783 65.089996337891 205 205 205
30.427030563354 25.770252227783 65.130004882813 193 193 193
30.427030563354 25.770252227783 65.169006347656 192 192 192
30.427030563354 25.770252227783 65.208999633789 203 203 203
30.429712295532 25.777587890625 65.250000000000 195 195 195
30.429712295532 25.777587890625 65.291000366211 193 193 193
30.429712295532 25.777587890625 65.331008911133 191 191 191
30.427030563354 25.770252227783 65.371002197266 180 180 180
30.400369644165 25.788330078125 65.695007324219 83 83 83
30.256326675415 25.849376678467 65.710006713867 93 93 93
30.482450485229 25.467102050781 64.783004760742 159 159 159
30.453104019165 25.477844238281 64.822998046875 194 194 194
30.453104019165 25.477844238281 64.863998413086 185 185 185
30.453104019165 25.477844238281 64.904998779297 187 187 187
30.453104019165 25.477844238281 64.945999145508 204 204 204
30.453104019165 25.477844238281 64.986999511719 187 187 187
30.470460891724 25.479808807373 65.029006958008 37 37 37
30.423757553101 25.488586425781 65.313003540039 84 84 84
30.426443099976 25.495922088623 65.354003906250 192 192 192
30.426443099976 25.495922088623 65.395004272461 193 193 193
30.426443099976 25.495922088623 65.436004638672 188 188 188
30.426443099976 25.495922088623 65.477005004883 197 197 197
30.426443099976 25.495922088623 65.518005371094 189 189 189
30.441118240356 25.490550994873 65.561996459961 178 178 178
30.458475112915 25.492519378662 65.641998291016 66 66 66
30.458475112915 25.492519378662 65.600006103516 182 182 182
30.461160659790 25.499855041504 65.559997558594 185 185 185
30.461160659790 25.499855041504 65.518005371094 186 186 186
30.461160659790 25.499855041504 65.475997924805 186 186 186
30.461160659790 25.499855041504 65.434005737305 183 183 183
30.458475112915 25.492519378662 65.391998291016 163 163 163
30.487821578979 25.481777191162 65.063995361328 16 16 16
30.487821578979 25.481777191162 65.022003173828 178 178 178
30.487821578979 25.481777191162 64.979995727539 204 204 204
30.487821578979 25.481777191162 64.938995361328 187 187 187
30.487821578979 25.481777191162 64.898010253906 181 181 181
30.487821578979 25.481777191162 64.857009887695 187 187 187
30.487821578979 25.481777191162 64.815002441406 132 132 132
30.273878097534 25.942783355713 65.817001342773 86 86 86
30.200513839722 25.969638824463 65.762008666992 113 113 113
30.479295730591 25.867589950562 65.774002075195 118 118 118
30.435281753540 25.883703231812 65.723999023438 103 103 103
30.291238784790 25.944751739502 65.656997680664 102 102 102
30.288553237915 25.937412261963 65.619003295898 120 120 120
30.317895889282 25.926670074463 65.583007812500 77 77 77
30.347242355347 25.915927886963 65.546997070313 119 119 119
30.349927902222 25.923267364502 65.507003784180 126 126 126
30.379274368286 25.912525177002 65.470001220703 144 144 144
30.381959915161 25.919860839844 65.430007934570 173 173 173
30.408617019653 25.901782989502 65.395004272461 28 28 28
30.461938858032 25.865625381470 65.358001708984 179 179 179
30.461938858032 25.865625381470 65.318008422852 181 181 181
30.461938858032 25.865625381470 65.277008056641 189 189 189
30.461938858032 25.865625381470 65.236007690430 184 184 184
30.461938858032 25.865625381470 65.195999145508 187 187 187
30.461938858032 25.865625381470 65.154998779297 185 185 185
30.461938858032 25.865625381470 65.115005493164 190 190 190
30.464624404907 25.872961044312 65.076004028320 189 189 189
30.464624404907 25.872961044312 65.035003662109 187 187 187
30.479295730591 25.867589950562 64.995010375977 38 38 38
30.699392318726 25.787025451660 64.507003784180 81 81 81
30.667360305786 25.790431976318 64.466003417969 142 142 142
30.638013839722 25.801174163818 64.425003051758 138 138 138
30.593996047974 25.817287445068 64.385009765625 165 165 165
30.552659988403 25.840736389160 64.345001220703 178 178 178
30.479295730591 25.867589950562 64.307006835938 159 159 159
30.405931472778 25.894445419312 64.270004272461 144 144 144
30.391260147095 25.899816513062 64.231002807617 138 138 138
30.405931472778 25.894445419312 64.190002441406 146 146 146
30.391260147095 25.899816513062 64.151000976563 135 135 135
30.435281753540 25.883703231812 64.108001708984 139 139 139
30.435281753540 25.883703231812 64.068008422852 150 150 150
30.435281753540 25.883703231812 64.027999877930 141 141 141
30.435281753540 25.883703231812 63.986007690430 142 142 142
30.405931472778 25.894445419312 63.947998046875 115 115 115
30.347242355347 25.915927886963 63.915008544922 78 78 78
30.361917495728 25.910556793213 63.874008178711 84 84 84
30.361917495728 25.910556793213 63.833999633789 63 63 63
30.361917495728 25.910556793213 63.792999267578 69 69 69
30.361917495728 25.910556793213 63.753997802734 69 69 69
30.376588821411 25.905187606812 63.712005615234 69 69 69
30.347242355347 25.915927886963 63.673995971680 72 72 72
30.373903274536 25.897851943970 63.628997802734 79 79 79
30.376588821411 25.905187606812 63.591003417969 80 80 80
30.379274368286 25.912525177002 63.548995971680 78 78 78
30.373903274536 25.897851943970 63.507003784180 88 88 88
30.391260147095 25.899816513062 63.464004516602 94 94 94
30.391260147095 25.899816513062 63.423004150391 102 102 102
30.373903274536 25.897851943970 63.385009765625 108 108 108
30.376588821411 25.905187606812 63.343002319336 107 107 107
30.376588821411 25.905187606812 63.305999755859 108 108 108
30.344556808472 25.908592224121 63.266998291016 103 103 103
30.361917495728 25.910556793213 63.225006103516 111 111 111
30.344556808472 25.908592224121 63.184997558594 111 111 111
30.344556808472 25.908592224121 63.145996093750 105 105 105
30.344556808472 25.908592224121 63.102005004883 102 102 102
30.344556808472 25.908592224121 63.059997558594 106 106 106
30.371217727661 25.890514373779 62.675003051758 90 90 90
30.344556808472 25.908592224121 62.638000488281 88 88 88
30.361917495728 25.910556793213 62.594009399414 85 85 85
30.361917495728 25.910556793213 62.548995971680 91 91 91
30.376588821411 25.905187606812 62.503005981445 83 83 83
30.373903274536 25.897851943970 62.458007812500 91 91 91
30.373903274536 25.897851943970 62.415008544922 88 88 88
30.361917495728 25.910556793213 62.374008178711 87 87 87
30.373903274536 25.897851943970 62.324005126953 101 101 101
30.361917495728 25.910556793213 62.289001464844 99 99 99
30.361917495728 25.910556793213 62.242996215820 95 95 95
30.361917495728 25.910556793213 62.197006225586 97 97 97
30.373903274536 25.897851943970 62.149002075195 91 91 91
30.429910659790 25.869029998779 62.087005615234 137 137 137
30.405931472778 25.894445419312 62.046997070313 153 153 153
30.405931472778 25.894445419312 62.001007080078 141 141 141
30.468088150024 26.246067047119 65.445007324219 127 127 127
30.470773696899 26.253406524658 65.406005859375 192 192 192
30.470773696899 26.253406524658 65.365997314453 192 192 192
30.470773696899 26.253406524658 65.326004028320 194 194 194
30.470773696899 26.253406524658 65.285995483398 191 191 191
30.470773696899 26.253406524658 65.246002197266 191 191 191
30.470773696899 26.253406524658 65.206008911133 151 151 151
30.470773696899 26.253406524658 65.126007080078 169 169 169
30.468088150024 26.246067047119 65.085998535156 185 185 185
30.468088150024 26.246067047119 65.046005249023 188 188 188
30.458787918091 26.266113281250 65.005996704102 190 190 190
30.470773696899 26.253406524658 64.966995239258 186 186 186
30.468088150024 26.246067047119 64.927001953125 189 189 189
30.441431045532 26.264148712158 64.887008666992 140 140 140
30.702856063843 26.160133361816 64.488998413086 123 123 123
30.702856063843 26.160133361816 64.447998046875 138 138 138
30.676195144653 26.178211212158 64.406997680664 146 146 146
30.629491806030 26.186986923218 64.367996215820 148 148 148
30.585474014282 26.203100204468 64.328002929688 168 168 168
30.568117141724 26.201135635376 64.289001464844 194 194 194
30.585474014282 26.203100204468 64.248001098633 175 175 175
30.614816665649 26.192358016968 64.205001831055 150 150 150
30.644166946411 26.181617736816 64.162002563477 178 178 178
30.644166946411 26.181617736816 64.121002197266 123 123 123
30.614816665649 26.192358016968 64.083007812500 136 136 136
30.644166946411 26.181617736816 64.040008544922 131 131 131
30.644166946411 26.181617736816 63.999008178711 138 138 138
30.641481399536 26.174282073975 63.958007812500 91 91 91
30.453104019165 25.477844238281 65.613998413086 96 96 96
30.477079391479 25.452430725098 65.569000244141 127 127 127
30.477079391479 25.452430725098 65.520996093750 148 148 148
30.477079391479 25.452430725098 65.472000122070 156 156 156
30.465089797974 25.465137481689 65.421997070313 104 104 104
30.490312576294 25.397670745850 64.992004394531 107 107 107
30.490312576294 25.397670745850 64.944000244141 142 142 142
30.490312576294 25.397670745850 64.895996093750 99 99 99
30.499612808228 25.377624511719 64.847000122070 15 15 15
30.407567977905 26.035278320313 65.884002685547 16 16 16
30.350317001343 26.106151580811 65.824005126953 129 129 129
30.305055618286 26.164318084717 65.768997192383 118 118 118
30.326341629028 26.131565093994 65.729995727539 140 140 140
30.347631454468 26.098815917969 65.686004638672 114 114 114
30.347631454468 26.098815917969 65.639999389648 132 132 132
30.347631454468 26.098815917969 65.594009399414 136 136 136
30.414186477661 26.007898330688 65.559005737305 151 151 151
30.390211105347 26.033313751221 65.511001586914 172 172 172
30.390211105347 26.033313751221 65.464004516602 172 172 172
30.390211105347 26.033313751221 65.417007446289 174 174 174
30.390211105347 26.033313751221 65.370010375977 177 177 177
30.390211105347 26.033313751221 65.324005126953 160 160 160
30.399511337280 26.013267517090 65.279006958008 145 145 145
30.411500930786 26.000560760498 65.233001708984 137 137 137
30.384840011597 26.018638610840 65.186004638672 125 125 125
30.411500930786 26.000560760498 65.141006469727 135 135 135
30.411500930786 26.000560760498 65.094009399414 137 137 137
30.396825790405 26.005931854248 65.048004150391 143 143 143
30.406129837036 25.985889434814 65.001998901367 139 139 139
30.379468917847 26.003967285156 64.955001831055 135 135 135
30.406129837036 25.985889434814 64.908996582031 126 126 126
30.406129837036 25.985889434814 64.863006591797 134 134 134
30.379468917847 26.003967285156 64.816009521484 129 129 129
30.388769149780 25.983921051025 64.770004272461 141 141 141
30.388769149780 25.983921051025 64.723999023438 136 136 136
30.388769149780 25.983921051025 64.677001953125 134 134 134
30.388769149780 25.983921051025 64.630996704102 133 133 133
30.400758743286 25.971216201782 64.583999633789 132 132 132
30.386083602905 25.976585388184 64.538009643555 134 134 134
30.386083602905 25.976585388184 64.492004394531 134 134 134
30.386083602905 25.976585388184 64.445007324219 128 128 128
30.398073196411 25.963878631592 64.398010253906 134 134 134
30.386083602905 25.976585388184 64.352005004883 131 131 131
30.398073196411 25.963878631592 64.305999755859 137 137 137
30.398073196411 25.963878631592 64.259002685547 138 138 138
30.392702102661 25.949207305908 64.210998535156 138 138 138
30.383398056030 25.969249725342 64.166000366211 134 134 134
30.383398056030 25.969249725342 64.119003295898 126 126 126
30.383398056030 25.969249725342 64.072006225586 133 133 133
30.392702102661 25.949207305908 64.025009155273 130 130 130
30.392702102661 25.949207305908 63.977005004883 127 127 127
30.383398056030 25.969249725342 63.930999755859 131 131 131
30.392702102661 25.949207305908 63.882995605469 133 133 133
30.375345230103 25.947238922119 63.837005615234 135 135 135
30.366041183472 25.967285156250 63.790008544922 126 126 126
30.375345230103 25.947238922119 63.742004394531 129 129 129
30.375345230103 25.947238922119 63.695007324219 129 129 129
30.375345230103 25.947238922119 63.647003173828 131 131 131
30.375345230103 25.947238922119 63.600006103516 119 119 119
30.375345230103 25.947238922119 63.552001953125 127 127 127
30.384645462036 25.927196502686 63.503005981445 122 122 122
30.384645462036 25.927196502686 63.456008911133 130 130 130
30.384645462036 25.927196502686 63.408004760742 128 128 128
30.360670089722 25.952610015869 63.361007690430 126 126 126
30.384645462036 25.927196502686 63.311996459961 126 126 126
30.384645462036 25.927196502686 63.262008666992 128 128 128
30.384645462036 25.927196502686 63.214004516602 121 121 121
30.381959915161 25.919860839844 63.165008544922 124 124 124
30.381959915161 25.919860839844 63.117004394531 127 127 127
30.381959915161 25.919860839844 63.069000244141 119 119 119
30.381959915161 25.919860839844 63.020004272461 121 121 121
30.364603042603 25.917896270752 62.972000122070 123 123 123
30.364603042603 25.917896270752 62.921997070313 122 122 122
30.376588821411 25.905187606812 62.873001098633 127 127 127
30.364603042603 25.917896270752 62.824996948242 123 123 123
30.349927902222 25.923267364502 62.777008056641 113 113 113
30.376588821411 25.905187606812 62.722000122070 115 115 115
30.376588821411 25.905187606812 62.671997070313 121 121 121
30.376588821411 25.905187606812 62.622009277344 114 114 114
30.371217727661 25.890514373779 62.570007324219 119 119 119
30.361917495728 25.910556793213 62.525009155273 117 117 117
30.371217727661 25.890514373779 62.471008300781 110 110 110
30.371217727661 25.890514373779 62.419998168945 116 116 116
30.371217727661 25.890514373779 62.369003295898 113 113 113
30.371217727661 25.890514373779 62.316009521484 118 118 118
30.353860855103 25.888549804688 62.266006469727 112 112 112
30.368532180786 25.883178710938 62.212005615234 116 116 116
30.353860855103 25.888549804688 62.162002563477 117 117 117
30.353860855103 25.888549804688 62.111007690430 110 110 110
30.353860855103 25.888549804688 62.057998657227 113 113 113
30.341871261597 25.901256561279 62.016006469727 126 126 126
30.501249313354 25.518459320068 64.839996337891 224 224 224
30.503934860229 25.525794982910 64.886001586914 11 11 11
30.503934860229 25.525794982910 64.932998657227 254 254 254
30.501249313354 25.518459320068 64.979003906250 213 213 213
30.483888626099 25.516490936279 65.026000976563 239 239 239
30.501249313354 25.518459320068 65.072006225586 178 178 178
30.466531753540 25.514526367188 65.350006103516 155 155 155
30.466531753540 25.514526367188 65.397003173828 248 248 248
30.466531753540 25.514526367188 65.443008422852 248 248 248
30.466531753540 25.514526367188 65.490005493164 246 246 246
30.461160659790 25.499855041504 65.535995483398 251 251 251
30.461160659790 25.499855041504 65.583007812500 247 247 247
30.458475112915 25.492519378662 65.628005981445 75 75 75
30.435281753540 25.883703231812 62.958999633789 130 130 130
30.432596206665 25.876367568970 63.011001586914 133 133 133
30.435281753540 25.883703231812 63.057006835938 135 135 135
30.429910659790 25.869029998779 63.104995727539 146 146 146
30.444581985474 25.863658905029 63.152008056641 140 140 140
30.427225112915 25.861694335938 63.201995849609 134 134 134
30.444581985474 25.863658905029 63.247009277344 127 127 127
30.444581985474 25.863658905029 63.294006347656 125 125 125
30.444581985474 25.863658905029 63.341003417969 116 116 116
30.444581985474 25.863658905029 63.389999389648 107 107 107
30.444581985474 25.863658905029 63.434997558594 102 102 102
30.429910659790 25.869029998779 63.485000610352 100 100 100
30.444581985474 25.863658905029 63.531005859375 102 102 102
30.461938858032 25.865625381470 63.576004028320 93 93 93
30.429910659790 25.869029998779 63.625000000000 93 93 93
30.427225112915 25.861694335938 63.673004150391 76 76 76
30.444581985474 25.863658905029 63.718002319336 56 56 56
30.459253311157 25.858287811279 63.763000488281 30 30 30
30.670240402222 25.889209747314 63.829010009766 155 155 155
30.670240402222 25.889209747314 63.876007080078 164 164 164
30.620851516724 25.890651702881 63.928009033203 171 171 171
30.583448410034 25.879383087158 63.979995727539 165 165 165
30.600805282593 25.881347656250 64.025009155273 176 176 176
30.670240402222 25.889209747314 64.066009521484 162 162 162
30.600805282593 25.881347656250 64.119003295898 162 162 162
30.491285324097 25.854883193970 64.176010131836 150 150 150
30.491285324097 25.854883193970 64.222000122070 156 156 156
30.505960464478 25.849512100220 64.266998291016 171 171 171
30.635522842407 25.885280609131 64.304000854492 196 196 196
30.670240402222 25.889209747314 64.348999023438 183 183 183
30.719629287720 25.887769699097 64.393005371094 165 165 165
30.736989974976 25.889736175537 64.440002441406 165 165 165
30.734304428101 25.882398605347 64.486999511719 157 157 157
30.468553543091 25.838245391846 65.003005981445 223 223 223
30.483228683472 25.832874298096 65.048004150391 212 212 212
30.480543136597 25.825536727905 65.094009399414 227 227 227
30.480543136597 25.825536727905 65.139999389648 227 227 227
30.448511123657 25.828943252563 65.184997558594 241 241 241
30.465867996216 25.830907821655 65.231002807617 245 245 245
30.465867996216 25.830907821655 65.277008056641 245 245 245
30.465867996216 25.830907821655 65.322006225586 244 244 244
30.465867996216 25.830907821655 65.367996215820 245 245 245
30.465867996216 25.830907821655 65.414001464844 144 144 144
30.515260696411 25.829467773438 65.742004394531 84 84 84
30.336305618286 25.795141220093 65.766998291016 15 15 15
30.652219772339 26.203628540039 64.012008666992 135 135 135
30.634862899780 26.201660156250 64.061004638672 170 170 170
30.669580459595 26.205593109131 64.104003906250 157 157 157
30.649534225464 26.196289062500 64.152999877930 186 186 186
30.617502212524 26.199695587158 64.201995849609 173 173 173
30.577417373657 26.181091308594 64.251007080078 167 167 167
30.577417373657 26.181091308594 64.296997070313 163 163 163
30.597459793091 26.190393447876 64.341003417969 159 159 159
30.669580459595 26.205593109131 64.382995605469 162 162 162
30.686937332153 26.207557678223 64.428009033203 163 163 163
30.698923110962 26.194850921631 64.473999023438 156 156 156
30.465211868286 26.147291183472 64.936004638672 147 147 147
30.462526321411 26.139953613281 64.981002807617 231 231 231
30.447851181030 26.145324707031 65.026000976563 237 237 237
30.462526321411 26.139953613281 65.070999145508 235 235 235
30.462526321411 26.139953613281 65.115997314453 232 232 232
30.462526321411 26.139953613281 65.160995483398 229 229 229
30.465211868286 26.147291183472 65.206008911133 231 231 231
30.467897415161 26.154626846313 65.251007080078 230 230 230
30.467897415161 26.154626846313 65.296005249023 230 230 230
30.465211868286 26.147291183472 65.341003417969 221 221 221
30.465211868286 26.147291183472 65.387008666992 169 169 169
30.350317001343 26.106151580811 65.600997924805 71 71 71
30.315599441528 26.102222442627 65.641998291016 106 106 106
30.549318313599 26.149780273438 65.712997436523 76 76 76
30.350317001343 26.106151580811 65.735000610352 115 115 115
30.246168136597 26.094358444214 65.766006469727 117 117 117
30.318284988403 26.109558105469 65.820999145508 55 55 55
30.481904983521 26.465637207031 64.735000610352 115 115 115
30.464548110962 26.463672637939 64.779998779297 224 224 224
30.464548110962 26.463672637939 64.824005126953 232 232 232
30.464548110962 26.463672637939 64.867996215820 229 229 229
30.464548110962 26.463672637939 64.912002563477 232 232 232
30.449876785278 26.469043731689 64.957000732422 230 230 230
30.481904983521 26.465637207031 65.001007080078 169 169 169
30.479219436646 26.458301544189 65.311996459961 160 160 160
30.479219436646 26.458301544189 65.356002807617 225 225 225
30.476533889771 26.450965881348 65.401000976563 225 225 225
30.476533889771 26.450965881348 65.445007324219 231 231 231
30.476533889771 26.450965881348 65.490005493164 222 222 222
30.479219436646 26.458301544189 65.535003662109 205 205 205
30.412279129028 26.366333007813 64.766998291016 209 209 209
30.412279129028 26.366333007813 64.811004638672 231 231 231
30.412279129028 26.366333007813 64.856002807617 228 228 228
30.412279129028 26.366333007813 64.900009155273 231 231 231
30.412279129028 26.366333007813 64.945007324219 230 230 230
30.412279129028 26.366333007813 64.988998413086 227 227 227
30.414964675903 26.373668670654 65.033996582031 18 18 18
30.424264907837 26.353626251221 65.212005615234 112 112 112
30.406908035278 26.351657867432 65.257003784180 229 229 229
30.406908035278 26.351657867432 65.301010131836 225 225 225
30.406908035278 26.351657867432 65.346008300781 230 230 230
30.406908035278 26.351657867432 65.389999389648 218 218 218
30.424264907837 26.353626251221 65.436004638672 217 217 217
30.590646743774 26.126331329346 63.865005493164 111 111 111
30.593332290649 26.133666992188 63.910003662109 134 134 134
30.608007431030 26.128295898438 63.956008911133 148 148 148
30.553247451782 26.115064620972 64.009002685547 173 173 173
30.555932998657 26.122400283813 64.055007934570 188 188 188
30.590646743774 26.126331329346 64.098007202148 185 185 185
30.587961196899 26.118993759155 64.145996093750 172 172 172
30.518529891968 26.111133575439 64.197006225586 174 174 174
30.515844345093 26.103796005249 64.242996215820 201 201 201
30.550561904907 26.107727050781 64.287002563477 177 177 177
30.585275650024 26.111658096313 64.330001831055 175 175 175
30.640039443970 26.124893188477 64.374008178711 159 159 159
30.654710769653 26.119522094727 64.419998168945 164 164 164
30.652025222778 26.112182617188 64.466995239258 59 59 59
30.400953292847 26.062656402588 64.973999023438 227 227 227
30.398267745972 26.055320739746 65.018997192383 241 241 241
