16.809074401855 8.216535568237 6.455997467041 177 177 177
16.809074401855 8.216535568237 6.433002471924 176 176 176
16.809074401855 8.216535568237 6.406002044678 179 179 179
16.809074401855 8.216535568237 6.382999420166 179 179 179
16.809074401855 8.216535568237 6.360996246338 179 179 179
16.809074401855 8.216535568237 6.338001251221 178 178 178
16.809074401855 8.216535568237 6.312000274658 179 179 179
16.809074401855 8.216535568237 6.288997650146 181 181 181
16.809074401855 8.216535568237 6.264995574951 178 178 178
16.809074401855 8.216535568237 6.242000579834 181 181 181
16.809074401855 8.216535568237 6.219997406006 180 180 180
16.809074401855 8.216535568237 6.193996429443 179 179 179
16.809074401855 8.216535568237 6.174999237061 183 183 183
16.809074401855 8.216535568237 6.148998260498 179 179 179
16.809074401855 8.216535568237 6.124996185303 180 180 180
16.809074401855 8.216535568237 6.105998992920 179 179 179
16.809074401855 8.216535568237 6.081996917725 180 180 180
16.809074401855 8.216535568237 6.058002471924 182 182 182
16.809074401855 8.216535568237 6.034999847412 180 180 180
16.809074401855 8.216535568237 6.015995025635 183 183 183
16.809074401855 8.216535568237 5.991001129150 178 178 178
16.809074401855 8.216535568237 5.969997406006 181 181 181
16.809074401855 8.216535568237 5.950000762939 180 180 180
16.809074401855 8.216535568237 5.925998687744 179 179 179
16.809074401855 8.216535568237 5.906002044678 181 181 181
16.809074401855 8.216535568237 5.882999420166 178 178 178
16.809074401855 8.216535568237 5.859996795654 179 179 179
16.813739776611 8.388347625732 5.792995452881 93 93 93
16.814165115356 8.403966903687 5.763996124268 69 69 69
16.814590454102 8.419586181641 5.736995697021 75 75 75
16.814590454102 8.419586181641 5.715000152588 86 86 86
16.814590454102 8.419586181641 5.694995880127 96 96 96
16.815013885498 8.435205459595 5.673999786377 109 109 109
16.815013885498 8.435205459595 5.654994964600 99 99 99
16.814165115356 8.403966903687 5.640995025635 92 92 92
16.814165115356 8.403966903687 5.621997833252 93 93 93
16.814165115356 8.403966903687 5.603000640869 83 83 83
16.814165115356 8.403966903687 5.581996917725 90 90 90
16.814165115356 8.403966903687 5.566997528076 127 127 127
16.813739776611 8.388347625732 5.551998138428 159 159 159
16.812892913818 8.357109069824 5.536998748779 143 143 143
16.826391220093 8.278587341309 5.531002044678 143 143 143
16.825542449951 8.247348785400 5.518001556396 138 138 138
16.826391220093 8.278587341309 5.493000030518 143 143 143
16.825119018555 8.231729507446 5.479999542236 169 169 169
16.824695587158 8.216110229492 5.464000701904 173 173 173
16.825119018555 8.231729507446 5.440998077393 179 179 179
16.824695587158 8.216110229492 5.423000335693 178 178 178
16.825119018555 8.231729507446 5.401996612549 183 183 183
16.824695587158 8.216110229492 5.381999969482 183 183 183
16.824695587158 8.216110229492 5.361995697021 181 181 181
16.825119018555 8.231729507446 5.340999603271 181 181 181
16.825119018555 8.231729507446 5.320995330811 183 183 183
16.825119018555 8.231729507446 5.300998687744 182 182 182
16.825119018555 8.231729507446 5.279994964600 179 179 179
16.840312957764 8.215686798096 5.261997222900 181 181 181
16.840312957764 8.215686798096 5.242000579834 181 181 181
16.825119018555 8.231729507446 5.221996307373 182 182 182
16.825119018555 8.231729507446 5.201000213623 183 183 183
16.825119018555 8.231729507446 5.180995941162 184 184 184
16.825119018555 8.231729507446 5.161998748779 181 181 181
16.825119018555 8.231729507446 5.142002105713 184 184 184
16.825119018555 8.231729507446 5.121997833252 180 180 180
16.825119018555 8.231729507446 5.103000640869 179 179 179
16.825119018555 8.231729507446 5.082996368408 182 182 182
16.825119018555 8.231729507446 5.062999725342 182 182 182
16.825119018555 8.231729507446 5.042995452881 182 182 182
16.825119018555 8.231729507446 5.023998260498 183 183 183
16.840312957764 8.215686798096 5.005001068115 183 183 183
16.825119018555 8.231729507446 4.984996795654 181 181 181
16.825119018555 8.231729507446 4.965000152588 182 182 182
16.825119018555 8.231729507446 4.945995330811 185 185 185
16.840738296509 8.231306076050 4.925998687744 180 180 180
16.840738296509 8.231306076050 4.906002044678 181 181 181
16.825119018555 8.231729507446 4.886997222900 184 184 184
16.840738296509 8.231306076050 4.867000579834 182 182 182
16.840738296509 8.231306076050 4.847995758057 183 183 183
16.840738296509 8.231306076050 4.827999114990 181 181 181
16.840738296509 8.231306076050 4.809001922607 180 180 180
16.841587066650 8.262544631958 4.788997650146 161 161 161
16.840738296509 8.231306076050 4.770000457764 165 165 165
16.840738296509 8.231306076050 4.749996185303 175 175 175
16.840738296509 8.231306076050 4.730998992920 178 178 178
16.840738296509 8.231306076050 4.711002349854 162 162 162
16.840738296509 8.231306076050 4.691997528076 165 165 165
16.840738296509 8.231306076050 4.672000885010 176 176 176
16.840738296509 8.231306076050 4.652996063232 180 180 180
16.840738296509 8.231306076050 4.632999420166 180 180 180
16.840738296509 8.231306076050 4.614002227783 181 181 181
16.840738296509 8.231306076050 4.593997955322 180 180 180
16.840738296509 8.231306076050 4.574001312256 180 180 180
16.840738296509 8.231306076050 4.554996490479 180 180 180
16.840738296509 8.231306076050 4.534999847412 177 177 177
16.840738296509 8.231306076050 4.514995574951 178 178 178
16.840738296509 8.231306076050 4.495998382568 176 176 176
16.840738296509 8.231306076050 4.476001739502 182 182 182
16.840738296509 8.231306076050 4.456996917725 174 174 174
16.840738296509 8.231306076050 4.437000274658 174 174 174
16.840738296509 8.231306076050 4.416996002197 178 178 178
16.840738296509 8.231306076050 4.396999359131 179 179 179
16.840738296509 8.231306076050 4.376995086670 180 180 180
16.840738296509 8.231306076050 4.357997894287 178 178 178
16.840738296509 8.231306076050 4.337001800537 174 174 174
16.840738296509 8.231306076050 4.318996429443 170 170 170
16.840738296509 8.231306076050 4.298000335693 170 170 170
16.840738296509 8.231306076050 4.276996612549 173 173 173
16.840738296509 8.231306076050 4.257999420166 167 167 167
16.840738296509 8.231306076050 4.236995697021 170 170 170
16.840738296509 8.231306076050 4.217998504639 167 167 167
16.841587066650 8.262544631958 4.200000762939 166 166 166
16.840738296509 8.231306076050 4.177997589111 169 169 169
16.841587066650 8.262544631958 4.159000396729 167 167 167
16.840738296509 8.231306076050 4.137996673584 169 169 169
16.840738296509 8.231306076050 4.118000030518 168 168 168
16.840738296509 8.231306076050 4.094997406006 175 175 175
16.840738296509 8.231306076050 4.075000762939 167 167 167
16.840738296509 8.231306076050 4.054996490479 175 175 175
16.840738296509 8.231306076050 4.035999298096 175 175 175
16.841587066650 8.262544631958 4.017002105713 167 167 167
16.841587066650 8.262544631958 3.994998931885 160 160 160
16.840738296509 8.231306076050 3.973995208740 163 163 163
16.841587066650 8.262544631958 3.954998016357 159 159 159
16.856781005859 8.246500015259 3.933002471924 160 160 160
16.841587066650 8.262544631958 3.912998199463 159 159 159
16.856781005859 8.246500015259 3.891998291016 161 161 161
16.841587066650 8.262544631958 3.870998382568 158 158 158
16.841587066650 8.262544631958 3.849998474121 157 157 157
16.856781005859 8.246500015259 3.826000213623 157 157 157
16.856781005859 8.246500015259 3.806999206543 156 156 156
16.856781005859 8.246500015259 3.785999298096 157 157 157
16.841587066650 8.262544631958 3.765998840332 155 155 155
16.841587066650 8.262544631958 3.744998931885 152 152 152
16.856781005859 8.246500015259 3.718997955322 155 155 155
16.841587066650 8.262544631958 3.702999114990 153 153 153
16.841587066650 8.262544631958 3.680000305176 153 153 153
16.841587066650 8.262544631958 3.657997131348 155 155 155
16.856781005859 8.246500015259 3.631000518799 172 172 172
16.856781005859 8.246500015259 3.612998962402 154 154 154
16.856781005859 8.246500015259 3.590999603271 163 163 163
16.856781005859 8.246500015259 3.563999176025 175 175 175
16.856781005859 8.246500015259 3.544998168945 169 169 169
16.857204437256 8.262119293213 3.525997161865 154 154 154
16.857204437256 8.262119293213 3.502998352051 145 145 145
16.857204437256 8.262119293213 3.482997894287 144 144 144
16.856781005859 8.246500015259 3.455997467041 125 125 125
16.857204437256 8.262119293213 3.437000274658 117 117 117
16.855934143066 8.215261459351 3.398998260498 156 156 156
16.855934143066 8.215261459351 3.375000000000 166 166 166
16.855508804321 8.199642181396 3.340000152588 177 177 177
16.856781005859 8.246500015259 3.337997436523 133 133 133
16.856357574463 8.230880737305 3.309997558594 175 175 175
16.855508804321 8.199642181396 3.271999359131 205 205 205
16.856781005859 8.246500015259 3.271999359131 138 138 138
16.846675872803 8.449975967407 3.208999633789 188 188 188
16.847948074341 8.496833801270 3.205997467041 190 190 190
17.027744293213 8.210596084595 6.784999847412 176 176 176
17.028167724609 8.226215362549 6.745998382568 171 171 171
17.044212341309 8.241411209106 6.708995819092 162 162 162
17.028167724609 8.226215362549 6.698001861572 165 165 165
17.027744293213 8.210596084595 6.681995391846 174 174 174
17.027320861816 8.194976806641 6.658000946045 176 176 176
17.043363571167 8.210172653198 6.630001068115 174 174 174
17.027320861816 8.194976806641 6.614002227783 180 180 180
17.042514801025 8.178934097290 6.590999603271 175 175 175
17.027320861816 8.194976806641 6.562999725342 178 178 178
17.027320861816 8.194976806641 6.538997650146 176 176 176
17.027320861816 8.194976806641 6.513996124268 175 175 175
17.027320861816 8.194976806641 6.487995147705 179 179 179
17.042514801025 8.178934097290 6.465000152588 180 180 180
17.042514801025 8.178934097290 6.439998626709 179 179 179
17.027320861816 8.194976806641 6.415996551514 177 177 177
17.042938232422 8.194553375244 6.389995574951 180 180 180
17.042938232422 8.194553375244 6.367000579834 177 177 177
17.042938232422 8.194553375244 6.341999053955 179 179 179
17.042938232422 8.194553375244 6.317996978760 178 178 178
17.042938232422 8.194553375244 6.295001983643 179 179 179
17.042514801025 8.178934097290 6.274997711182 177 177 177
17.042938232422 8.194553375244 6.247997283936 179 179 179
17.042938232422 8.194553375244 6.221996307373 176 176 176
17.042938232422 8.194553375244 6.199001312256 179 179 179
17.042514801025 8.178934097290 6.179996490479 181 181 181
17.042938232422 8.194553375244 6.153995513916 179 179 179
17.042938232422 8.194553375244 6.129001617432 177 177 177
17.042938232422 8.194553375244 6.106998443604 179 179 179
17.042938232422 8.194553375244 6.083995819092 177 177 177
17.042514801025 8.178934097290 6.065998077393 184 184 184
17.042938232422 8.194553375244 6.040996551514 177 177 177
17.058559417725 8.194129943848 6.017002105713 180 180 180
17.058559417725 8.194129943848 5.993000030518 178 178 178
17.058559417725 8.194129943848 5.971996307373 176 176 176
17.042938232422 8.194553375244 5.951999664307 181 181 181
17.058559417725 8.194129943848 5.927997589111 177 177 177
17.058559417725 8.194129943848 5.907001495361 178 178 178
17.058559417725 8.194129943848 5.883998870850 177 177 177
17.058559417725 8.194129943848 5.864002227783 178 178 178
17.058559417725 8.194129943848 5.840000152588 178 178 178
17.058134078979 8.178510665894 5.823001861572 182 182 182
17.043363571167 8.210172653198 5.794002532959 166 166 166
17.033258438110 8.413646697998 5.716999053955 84 84 84
17.033681869507 8.429265975952 5.692996978760 100 100 100
17.045484542847 8.288269042969 5.706996917725 114 114 114
17.058982849121 8.209749221802 5.707996368408 171 171 171
17.058559417725 8.194129943848 5.690998077393 178 178 178
17.058559417725 8.194129943848 5.671001434326 178 178 178
17.058559417725 8.194129943848 5.647998809814 175 175 175
17.058559417725 8.194129943848 5.628002166748 178 178 178
17.058559417725 8.194129943848 5.606998443604 178 178 178
17.058559417725 8.194129943848 5.587001800537 175 175 175
17.058559417725 8.194129943848 5.566997528076 179 179 179
17.058559417725 8.194129943848 5.545001983643 175 175 175
17.058559417725 8.194129943848 5.523998260498 173 173 173
17.058559417725 8.194129943848 5.505001068115 172 172 172
17.058559417725 8.194129943848 5.482997894287 173 173 173
17.058559417725 8.194129943848 5.462001800537 171 171 171
17.058559417725 8.194129943848 5.441997528076 170 170 170
17.058559417725 8.194129943848 5.422000885010 171 171 171
17.058559417725 8.194129943848 5.399997711182 166 166 166
17.058559417725 8.194129943848 5.381999969482 172 172 172
17.058559417725 8.194129943848 5.360996246338 171 171 171
17.058559417725 8.194129943848 5.340999603271 167 167 167
17.058559417725 8.194129943848 5.319995880127 170 170 170
17.058559417725 8.194129943848 5.299999237061 164 164 164
17.058559417725 8.194129943848 5.279994964600 167 167 167
17.058982849121 8.209749221802 5.258998870850 164 164 164
17.058559417725 8.194129943848 5.239002227783 168 168 168
17.058559417725 8.194129943848 5.219997406006 164 164 164
17.058559417725 8.194129943848 5.199001312256 165 165 165
17.058559417725 8.194129943848 5.178997039795 162 162 162
17.058559417725 8.194129943848 5.159999847412 162 162 162
17.058559417725 8.194129943848 5.139995574951 161 161 161
17.058559417725 8.194129943848 5.118999481201 161 161 161
17.058982849121 8.209749221802 5.098995208740 161 161 161
17.058982849121 8.209749221802 5.078998565674 158 158 158
17.058559417725 8.194129943848 5.060001373291 158 158 158
17.058559417725 8.194129943848 5.038997650146 158 158 158
17.058559417725 8.194129943848 5.020000457764 155 155 155
17.058559417725 8.194129943848 4.999996185303 157 157 157
17.058559417725 8.194129943848 4.979999542236 155 155 155
17.058559417725 8.194129943848 4.959995269775 156 156 156
17.058559417725 8.194129943848 4.940998077393 151 151 151
17.058559417725 8.194129943848 4.921001434326 152 152 152
17.058559417725 8.194129943848 4.900997161865 148 148 148
17.058559417725 8.194129943848 4.881999969482 165 165 165
17.058559417725 8.194129943848 4.861995697021 156 156 156
17.058559417725 8.194129943848 4.841999053955 159 159 159
17.058134078979 8.178510665894 4.822002410889 182 182 182
17.058559417725 8.194129943848 4.801998138428 190 190 190
17.060255050659 8.256607055664 4.783000946045 151 151 151
17.059406280518 8.225368499756 4.762996673584 168 168 168
17.059406280518 8.225368499756 4.743999481201 179 179 179
17.059406280518 8.225368499756 4.723995208740 179 179 179
17.058559417725 8.194129943848 4.703998565674 132 132 132
17.058559417725 8.194129943848 4.684001922607 121 121 121
17.058559417725 8.194129943848 4.663997650146 109 109 109
17.058559417725 8.194129943848 4.644001007080 106 106 106
17.058559417725 8.194129943848 4.623996734619 98 98 98
17.058982849121 8.209749221802 4.604999542236 81 81 81
17.058982849121 8.209749221802 4.584995269775 70 70 70
17.058982849121 8.209749221802 4.565998077393 51 51 51
17.058982849121 8.209749221802 4.546001434326 47 47 47
17.261608123779 8.188615798950 6.792995452881 144 144 144
17.261608123779 8.188615798950 6.767002105713 175 175 175
17.246414184570 8.204658508301 6.729999542236 168 168 168
17.261184692383 8.172996520996 6.717998504639 129 129 129
17.270866394043 7.953902721405 6.785999298096 166 166 166
17.271289825439 7.969521999359 6.755001068115 173 173 173
17.271289825439 7.969521999359 6.729000091553 175 175 175
17.270442962646 7.938283443451 6.717998504639 151 151 151
17.278924942017 8.250667572021 4.795001983643 91 91 91
17.277652740479 8.203809738159 4.774997711182 161 161 161
17.277652740479 8.203809738159 4.756000518799 174 174 174
17.277652740479 8.203809738159 4.735996246338 173 173 173
17.292846679688 8.187767028809 4.715999603271 157 157 157
17.479431152344 8.151439666748 6.798999786377 111 111 111
17.479431152344 8.151439666748 6.775997161865 176 176 176
17.480701446533 8.198297500610 6.729000091553 168 168 168
17.479431152344 8.151439666748 6.722995758057 149 149 149
17.490806579590 7.994822978973 6.785999298096 166 166 166
17.490383148193 7.979203701019 6.760997772217 174 174 174
17.490383148193 7.979203701019 6.732997894287 174 174 174
17.489959716797 7.963584423065 6.716999053955 145 145 145
17.496746063232 8.213491439819 4.782001495361 160 160 160
17.496322631836 8.197872161865 4.761997222900 170 170 170
17.511940002441 8.197448730469 4.742000579834 176 176 176
17.511940002441 8.197448730469 4.721996307373 165 165 165
17.697675704956 8.129880905151 6.535999298096 120 120 120
17.697675704956 8.129880905151 6.511997222900 144 144 144
17.682479858398 8.145925521851 6.481998443604 155 155 155
17.697675704956 8.129880905151 6.461002349854 170 170 170
17.697675704956 8.129880905151 6.436000823975 177 177 177
17.697675704956 8.129880905151 6.413997650146 177 177 177
17.698101043701 8.145500183105 6.383998870850 180 180 180
17.713718414307 8.145076751709 6.360996246338 179 179 179
17.697675704956 8.129880905151 6.340000152588 171 171 171
17.697675704956 8.129880905151 6.315998077393 173 173 173
17.697250366211 8.114261627197 6.299999237061 174 174 174
17.696403503418 8.083024978638 6.285999298096 179 179 179
17.695554733276 8.051786422729 6.275997161865 177 177 177
17.709901809692 8.004503250122 6.270000457764 167 167 167
17.709476470947 7.988884449005 6.250995635986 158 158 158
17.709476470947 7.988884449005 6.229000091553 109 109 109
17.709901809692 8.004503250122 6.197002410889 69 69 69
17.714992523193 8.191934585571 4.784999847412 157 157 157
17.714567184448 8.176315307617 4.763996124268 172 172 172
17.714567184448 8.176315307617 4.743999481201 172 172 172
17.714567184448 8.176315307617 4.723995208740 172 172 172
17.932811737061 8.154758453369 5.706996917725 135 135 135
17.932388305664 8.139139175415 5.687999725342 149 149 149
17.932388305664 8.139139175415 5.665996551514 163 163 163
17.932388305664 8.139139175415 5.644001007080 177 177 177
17.932388305664 8.139139175415 5.623996734619 177 177 177
17.932388305664 8.139139175415 5.602001190186 178 178 178
17.932388305664 8.139139175415 5.580997467041 179 179 179
17.932811737061 8.154758453369 5.558002471924 179 179 179
17.932388305664 8.139139175415 5.536998748779 184 184 184
17.932811737061 8.154758453369 5.514995574951 176 176 176
17.932388305664 8.139139175415 5.495998382568 178 178 178
17.931539535522 8.107900619507 5.478000640869 174 174 174
17.931539535522 8.107900619507 5.457996368408 169 169 169
17.930267333984 8.061042785645 5.443996429443 156 156 156
17.944190979004 7.998141765594 5.430995941162 138 138 138
17.928569793701 7.998566150665 5.409999847412 112 112 112
17.928569793701 7.998566150665 5.389995574951 80 80 80
17.934085845947 8.201616287231 4.790996551514 125 125 125
17.933235168457 8.170377731323 4.770999908447 167 167 167
17.948431015015 8.154333114624 4.750995635986 173 173 173
17.948431015015 8.154333114624 4.729999542236 173 173 173
17.933235168457 8.170377731323 4.709995269775 100 100 100
18.166677474976 8.132776260376 4.885997772217 123 123 123
18.166252136230 8.117156982422 4.866001129150 161 161 161
18.166677474976 8.132776260376 4.844997406006 178 178 178
18.167526245117 8.164014816284 4.824001312256 254 254 254
18.167100906372 8.148395538330 4.803997039795 254 254 254
18.167526245117 8.164014816284 4.784000396729 178 178 178
18.167100906372 8.148395538330 4.762996673584 165 165 165
18.167526245117 8.164014816284 4.743000030518 175 175 175
18.167100906372 8.148395538330 4.721996307373 170 170 170
18.166677474976 8.132776260376 4.701000213623 165 165 165
18.166677474976 8.132776260376 4.680995941162 177 177 177
18.181873321533 8.116733551025 4.659999847412 176 176 176
18.165828704834 8.101537704468 4.637996673584 169 169 169
18.165828704834 8.101537704468 4.617000579834 153 153 153
18.179752349854 8.038637161255 4.593997955322 133 133 133
18.178903579712 8.007398605347 4.569995880127 97 97 97
18.400541305542 8.110794067383 4.044002532959 107 107 107
18.416160583496 8.110370635986 4.024997711182 132 132 132
18.400966644287 8.126413345337 4.004001617432 143 143 143
18.400966644287 8.126413345337 3.983997344971 152 152 152
18.416160583496 8.110370635986 3.959995269775 151 151 151
18.400966644287 8.126413345337 3.939998626709 162 162 162
18.400966644287 8.126413345337 3.919002532959 167 167 167
18.400966644287 8.126413345337 3.895999908447 168 168 168
18.400966644287 8.126413345337 3.875000000000 164 164 164
18.400966644287 8.126413345337 3.853000640869 165 165 165
18.400966644287 8.126413345337 3.831996917725 151 151 151
18.415311813354 8.079132080078 3.788997650146 196 196 196
18.427114486694 7.938135623932 3.730998992920 1 1 1
18.628118515015 8.432861328125 3.410999298096 130 130 130
18.628541946411 8.448480606079 3.389999389648 178 178 178
18.628541946411 8.448480606079 3.369998931885 181 181 181
18.628541946411 8.448480606079 3.349998474121 188 188 188
18.627693176270 8.417242050171 3.312999725342 187 187 187
18.642040252686 8.369960784912 3.273998260498 190 190 190
18.639072418213 8.260625839233 3.195999145508 179 179 179
18.639495849609 8.276245117188 3.176998138428 175 175 175
18.639919281006 8.291864395142 3.162998199463 177 177 177
18.628967285156 8.464099884033 3.146999359131 171 171 171
16.792606353760 8.185720443726 6.801998138428 168 168 168
16.809499740601 8.232154846191 6.758998870850 169 169 169
16.809923171997 8.247774124146 6.723995208740 164 164 164
16.793031692505 8.201339721680 6.717998504639 155 155 155
16.792606353760 8.185720443726 6.694995880127 176 176 176
16.792606353760 8.185720443726 6.665996551514 175 175 175
16.792606353760 8.185720443726 6.639995574951 174 174 174
16.792606353760 8.185720443726 6.616001129150 177 177 177
16.809074401855 8.216535568237 6.584995269775 176 176 176
16.792606353760 8.185720443726 6.562999725342 175 175 175
16.792606353760 8.185720443726 6.536998748779 176 176 176
16.792606353760 8.185720443726 6.508998870850 175 175 175
16.809074401855 8.216535568237 6.479999542236 178 178 178
16.809074401855 8.216535568237 6.455997467041 173 173 173
16.792606353760 8.185720443726 6.431995391846 176 176 176
16.809074401855 8.216535568237 6.404994964600 176 176 176
16.809074401855 8.216535568237 6.381000518799 178 178 178
16.809074401855 8.216535568237 6.354999542236 176 176 176
16.809074401855 8.216535568237 6.328998565674 174 174 174
16.809074401855 8.216535568237 6.304996490479 174 174 174
16.809074401855 8.216535568237 6.277996063232 172 172 172
16.808650970459 8.200916290283 6.256000518799 174 174 174
16.809074401855 8.216535568237 6.229999542236 176 176 176
16.808650970459 8.200916290283 6.207996368408 176 176 176
16.809074401855 8.216535568237 6.180995941162 176 176 176
16.808650970459 8.200916290283 6.159000396729 175 175 175
16.809074401855 8.216535568237 6.131999969482 177 177 177
16.809074401855 8.216535568237 6.105998992920 175 175 175
16.809074401855 8.216535568237 6.082996368408 177 177 177
16.809074401855 8.216535568237 6.058002471924 178 178 178
16.809074401855 8.216535568237 6.035999298096 177 177 177
16.809074401855 8.216535568237 6.010997772217 176 176 176
16.809074401855 8.216535568237 5.984996795654 175 175 175
16.809074401855 8.216535568237 5.962001800537 177 177 177
16.809074401855 8.216535568237 5.940998077393 176 176 176
16.809074401855 8.216535568237 5.915996551514 178 178 178
16.809074401855 8.216535568237 5.890995025635 178 178 178
16.809074401855 8.216535568237 5.868000030518 175 175 175
16.809074401855 8.216535568237 5.844997406006 176 176 176
16.875370025635 8.355411529541 5.791996002197 116 116 116
16.907455444336 8.385801315308 5.758998870850 73 73 73
16.908729553223 8.432659149170 5.731998443604 90 90 90
16.908306121826 8.417039871216 5.711002349854 104 104 104
16.924346923828 8.432235717773 5.685001373291 118 118 118
16.908729553223 8.432659149170 5.665996551514 138 138 138
16.908306121826 8.417039871216 5.645999908447 139 139 139
16.907455444336 8.385801315308 5.626995086670 140 140 140
16.891412734985 8.370607376099 5.610996246338 93 93 93
16.875370025635 8.355411529541 5.590999603271 93 93 93
16.858055114746 8.293357849121 5.576999664307 124 124 124
16.858478546143 8.308977127075 5.552997589111 128 128 128
16.858055114746 8.293357849121 5.532001495361 86 86 86
16.858055114746 8.293357849121 5.509998321533 99 99 99
16.858478546143 8.308977127075 5.485996246338 140 140 140
16.841161727905 8.246925354004 5.471996307373 155 155 155
16.825119018555 8.231729507446 5.451000213623 166 166 166
16.809074401855 8.216535568237 5.429996490479 174 174 174
16.824695587158 8.216110229492 5.407001495361 177 177 177
16.809074401855 8.216535568237 5.384998321533 180 180 180
16.824695587158 8.216110229492 5.361995697021 182 182 182
16.825119018555 8.231729507446 5.339000701904 179 179 179
16.824695587158 8.216110229492 5.316997528076 178 178 178
16.824695587158 8.216110229492 5.295001983643 179 179 179
16.809074401855 8.216535568237 5.272998809814 181 181 181
16.825119018555 8.231729507446 5.248996734619 179 179 179
16.824695587158 8.216110229492 5.227001190186 180 180 180
16.824695587158 8.216110229492 5.204998016357 179 179 179
16.824695587158 8.216110229492 5.181995391846 180 180 180
16.824695587158 8.216110229492 5.159999847412 180 180 180
16.840312957764 8.215686798096 5.136997222900 179 179 179
16.840312957764 8.215686798096 5.115001678467 180 180 180
16.824695587158 8.216110229492 5.092998504639 181 181 181
16.824695587158 8.216110229492 5.069995880127 181 181 181
16.840312957764 8.215686798096 5.048000335693 180 180 180
16.825119018555 8.231729507446 5.025997161865 179 179 179
16.825119018555 8.231729507446 5.003002166748 180 180 180
16.825119018555 8.231729507446 4.980998992920 178 178 178
16.840312957764 8.215686798096 4.957996368408 180 180 180
16.840312957764 8.215686798096 4.936000823975 180 180 180
16.840312957764 8.215686798096 4.913997650146 180 180 180
16.840738296509 8.231306076050 4.892002105713 180 180 180
16.840312957764 8.215686798096 4.868999481201 179 179 179
16.840738296509 8.231306076050 4.846996307373 181 181 181
16.840312957764 8.215686798096 4.824001312256 181 181 181
16.840312957764 8.215686798096 4.801998138428 171 171 171
16.857629776001 8.277738571167 4.783000946045 157 157 157
16.840738296509 8.231306076050 4.757999420166 170 170 170
16.840738296509 8.231306076050 4.735996246338 172 172 172
16.840312957764 8.215686798096 4.712001800537 160 160 160
16.840312957764 8.215686798096 4.689998626709 163 163 163
16.840738296509 8.231306076050 4.666996002197 175 175 175
16.840312957764 8.215686798096 4.644001007080 177 177 177
16.840738296509 8.231306076050 4.622997283936 177 177 177
16.840738296509 8.231306076050 4.601001739502 176 176 176
16.840738296509 8.231306076050 4.576999664307 178 178 178
16.840738296509 8.231306076050 4.553997039795 179 179 179
16.840738296509 8.231306076050 4.532001495361 174 174 174
16.840738296509 8.231306076050 4.509998321533 176 176 176
16.840738296509 8.231306076050 4.487995147705 173 173 173
16.840738296509 8.231306076050 4.465000152588 168 168 168
16.840738296509 8.231306076050 4.440998077393 167 167 167
16.840738296509 8.231306076050 4.419002532959 170 170 170
16.840738296509 8.231306076050 4.395999908447 170 170 170
16.840738296509 8.231306076050 4.371997833252 165 165 165
16.840738296509 8.231306076050 4.350002288818 162 162 162
16.840738296509 8.231306076050 4.326999664307 160 160 160
16.840738296509 8.231306076050 4.303997039795 162 162 162
16.840738296509 8.231306076050 4.281002044678 162 162 162
16.840738296509 8.231306076050 4.256999969482 158 158 158
16.840738296509 8.231306076050 4.232997894287 157 157 157
16.840738296509 8.231306076050 4.211002349854 156 156 156
16.840738296509 8.231306076050 4.187000274658 155 155 155
16.840738296509 8.231306076050 4.162998199463 157 157 157
16.840738296509 8.231306076050 4.139995574951 156 156 156
16.840738296509 8.231306076050 4.117000579834 154 154 154
16.840738296509 8.231306076050 4.093997955322 151 151 151
16.856781005859 8.246500015259 4.070995330811 152 152 152
16.856781005859 8.246500015259 4.047000885010 156 156 156
16.840738296509 8.231306076050 4.020000457764 156 156 156
16.840738296509 8.231306076050 3.998996734619 142 142 142
16.840738296509 8.231306076050 3.972995758057 145 145 145
16.840738296509 8.231306076050 3.950000762939 149 149 149
16.856781005859 8.246500015259 3.928997039795 147 147 147
16.840738296509 8.231306076050 3.902000427246 149 149 149
16.840738296509 8.231306076050 3.876998901367 146 146 146
16.840738296509 8.231306076050 3.851997375488 144 144 144
16.856781005859 8.246500015259 3.828998565674 144 144 144
16.840738296509 8.231306076050 3.802997589111 142 142 142
16.856781005859 8.246500015259 3.780998229980 140 140 140
16.856781005859 8.246500015259 3.756999969482 137 137 137
16.856781005859 8.246500015259 3.730998992920 136 136 136
16.856781005859 8.246500015259 3.704998016357 135 135 135
16.840738296509 8.231306076050 3.677997589111 133 133 133
16.840738296509 8.231306076050 3.652999877930 131 131 131
16.856781005859 8.246500015259 3.629997253418 126 126 126
16.856781005859 8.246500015259 3.604999542236 127 127 127
16.856781005859 8.246500015259 3.580997467041 141 141 141
16.840738296509 8.231306076050 3.550998687744 135 135 135
16.840738296509 8.231306076050 3.523998260498 120 120 120
16.856357574463 8.230880737305 3.500999450684 115 115 115
16.839889526367 8.200067520142 3.465999603271 121 121 121
16.839889526367 8.200067520142 3.438999176025 130 130 130
16.839889526367 8.200067520142 3.411998748779 128 128 128
16.839889526367 8.200067520142 3.382999420166 135 135 135
16.839466094971 8.184448242188 3.350997924805 142 142 142
16.839466094971 8.184448242188 3.320999145508 140 140 140
16.839466094971 8.184448242188 3.296997070313 153 153 153
16.839466094971 8.184448242188 3.268997192383 161 161 161
16.839042663574 8.168828964233 3.231998443604 153 153 153
16.839042663574 8.168828964233 3.203998565674 162 162 162
17.011276245117 8.179782867432 6.799999237061 163 163 163
17.027320861816 8.194976806641 6.762996673584 173 173 173
17.044212341309 8.241411209106 6.721996307373 159 159 159
17.028167724609 8.226215362549 6.701999664307 150 150 150
17.026895523071 8.179357528687 6.692996978760 157 157 157
16.994810104370 8.148967742920 6.680995941162 183 183 183
16.994810104370 8.148967742920 6.656002044678 182 182 182
16.994384765625 8.133348464966 6.635997772217 186 186 186
16.995235443115 8.164587020874 6.597995758057 163 163 163
17.010852813721 8.164163589478 6.566997528076 157 157 157
17.011276245117 8.179782867432 6.536998748779 154 154 154
17.010852813721 8.164163589478 6.513996124268 156 156 156
17.011276245117 8.179782867432 6.485996246338 157 157 157
17.011276245117 8.179782867432 6.461002349854 156 156 156
17.010852813721 8.164163589478 6.436000823975 159 159 159
17.011276245117 8.179782867432 6.410999298096 159 159 159
17.011276245117 8.179782867432 6.383998870850 158 158 158
17.026895523071 8.179357528687 6.355998992920 159 159 159
17.010852813721 8.164163589478 6.333995819092 163 163 163
17.026895523071 8.179357528687 6.305995941162 164 164 164
17.011276245117 8.179782867432 6.284000396729 167 167 167
17.011276245117 8.179782867432 6.257999420166 165 165 165
17.010852813721 8.164163589478 6.235996246338 166 166 166
17.026895523071 8.179357528687 6.204998016357 165 165 165
17.026895523071 8.179357528687 6.181995391846 169 169 169
17.026895523071 8.179357528687 6.159000396729 167 167 167
17.026895523071 8.179357528687 6.132999420166 171 171 171
17.026895523071 8.179357528687 6.108997344971 169 169 169
17.026895523071 8.179357528687 6.083995819092 173 173 173
17.026895523071 8.179357528687 6.061000823975 175 175 175
17.027320861816 8.194976806641 6.034999847412 173 173 173
17.026895523071 8.179357528687 6.011997222900 175 175 175
17.026895523071 8.179357528687 5.987995147705 177 177 177
17.026472091675 8.163738250732 5.965999603271 174 174 174
17.027320861816 8.194976806641 5.938999176025 175 175 175
17.026895523071 8.179357528687 5.916996002197 175 175 175
17.026895523071 8.179357528687 5.892002105713 176 176 176
17.026895523071 8.179357528687 5.868999481201 176 176 176
17.027320861816 8.194976806641 5.842998504639 175 175 175
17.027320861816 8.194976806641 5.819995880127 172 172 172
17.027320861816 8.194976806641 5.797000885010 173 173 173
17.059406280518 8.225368499756 5.763996124268 141 141 141
17.059406280518 8.225368499756 5.742000579834 129 129 129
17.027744293213 8.210596084595 5.723995208740 163 163 163
17.027320861816 8.194976806641 5.703998565674 174 174 174
17.027320861816 8.194976806641 5.679996490479 172 172 172
17.027320861816 8.194976806641 5.656002044678 173 173 173
17.027320861816 8.194976806641 5.632999420166 172 172 172
17.027320861816 8.194976806641 5.610996246338 174 174 174
17.027320861816 8.194976806641 5.587001800537 175 175 175
17.027320861816 8.194976806641 5.563999176025 175 175 175
17.027320861816 8.194976806641 5.540996551514 177 177 177
17.027320861816 8.194976806641 5.517002105713 174 174 174
17.027320861816 8.194976806641 5.495998382568 175 175 175
17.027320861816 8.194976806641 5.471996307373 174 174 174
17.027320861816 8.194976806641 5.449001312256 176 176 176
17.027320861816 8.194976806641 5.425998687744 177 177 177
17.027320861816 8.194976806641 5.403995513916 176 176 176
17.027320861816 8.194976806641 5.381000518799 176 176 176
17.027320861816 8.194976806641 5.357997894287 177 177 177
17.042938232422 8.194553375244 5.334995269775 175 175 175
17.042938232422 8.194553375244 5.312000274658 175 175 175
17.043363571167 8.210172653198 5.288997650146 175 175 175
17.027320861816 8.194976806641 5.267002105713 175 175 175
17.027320861816 8.194976806641 5.243999481201 177 177 177
17.042938232422 8.194553375244 5.221996307373 176 176 176
17.042938232422 8.194553375244 5.199001312256 175 175 175
17.042938232422 8.194553375244 5.175998687744 174 174 174
17.027320861816 8.194976806641 5.153995513916 176 176 176
17.042938232422 8.194553375244 5.131000518799 173 173 173
17.042938232422 8.194553375244 5.108997344971 175 175 175
17.042938232422 8.194553375244 5.086002349854 175 175 175
17.043363571167 8.210172653198 5.062999725342 174 174 174
17.042938232422 8.194553375244 5.040996551514 177 177 177
17.043363571167 8.210172653198 5.018001556396 176 176 176
17.042938232422 8.194553375244 4.995998382568 177 177 177
17.042938232422 8.194553375244 4.972995758057 176 176 176
17.058559417725 8.194129943848 4.951000213623 176 176 176
17.043363571167 8.210172653198 4.927997589111 176 176 176
17.058559417725 8.194129943848 4.906002044678 179 179 179
17.058982849121 8.209749221802 4.883998870850 172 172 172
17.058982849121 8.209749221802 4.860996246338 175 175 175
17.058982849121 8.209749221802 4.839000701904 175 175 175
17.058982849121 8.209749221802 4.815998077393 177 177 177
17.059406280518 8.225368499756 4.795001983643 154 154 154
17.058982849121 8.209749221802 4.770999908447 154 154 154
17.059406280518 8.225368499756 4.749996185303 176 176 176
17.058982849121 8.209749221802 4.727001190186 173 173 173
17.058559417725 8.194129943848 4.701999664307 172 172 172
17.058982849121 8.209749221802 4.679996490479 176 176 176
17.058559417725 8.194129943848 4.657001495361 173 173 173
17.058559417725 8.194129943848 4.633998870850 176 176 176
17.058982849121 8.209749221802 4.611995697021 178 178 178
17.058559417725 8.194129943848 4.588001251221 174 174 174
17.058559417725 8.194129943848 4.564998626709 173 173 173
17.058559417725 8.194129943848 4.541996002197 173 173 173
17.058982849121 8.209749221802 4.520000457764 172 172 172
17.058559417725 8.194129943848 4.496997833252 167 167 167
17.058559417725 8.194129943848 4.473995208740 167 167 167
17.058559417725 8.194129943848 4.451000213623 165 165 165
17.058982849121 8.209749221802 4.428997039795 163 163 163
17.058559417725 8.194129943848 4.403995513916 160 160 160
17.058559417725 8.194129943848 4.381000518799 138 138 138
16.843631744385 7.762304782867 3.428997039795 207 207 207
16.860523223877 7.808738231659 3.411998748779 193 193 193
16.860523223877 7.808738231659 3.383998870850 175 175 175
17.229946136475 8.173845291138 6.795001983643 159 159 159
17.229946136475 8.173845291138 6.770000457764 175 175 175
17.246837615967 8.220277786255 6.728000640869 161 161 161
17.213903427124 8.158649444580 6.725002288818 85 85 85
17.097782135010 7.911711215973 6.779994964600 166 166 166
17.098628997803 7.942949771881 6.749996185303 166 166 166
17.097782135010 7.911711215973 6.727001190186 154 154 154
17.065269470215 7.865701198578 6.720996856689 35 35 35
17.113401412964 7.911286830902 4.783000946045 159 159 159
17.278499603271 8.235048294067 4.783000946045 159 159 159
17.262033462524 8.204235076904 4.757999420166 171 171 171
17.262033462524 8.204235076904 4.734996795654 174 174 174
17.262458801270 8.219854354858 4.714000701904 124 124 124
17.416530609131 8.137516021729 6.806995391846 153 153 153
17.416954040527 8.153135299683 6.773998260498 177 177 177
17.433845520020 8.199569702148 6.729999542236 162 162 162
17.432147979736 8.137092590332 6.723995208740 103 103 103
17.317724227905 7.952630519867 6.785999298096 171 171 171
17.317724227905 7.952630519867 6.756000518799 168 168 168
17.317724227905 7.952630519867 6.729000091553 161 161 161
17.300832748413 7.906197071075 6.721996307373 95 95 95
17.332071304321 7.905348300934 4.790996551514 126 126 126
17.465507507324 8.214340209961 4.787998199463 161 161 161
17.465084075928 8.198720932007 4.763996124268 166 166 166
17.464658737183 8.183101654053 4.740001678467 170 170 170
17.464658737183 8.183101654053 4.717998504639 143 143 143
17.619579315186 8.132001876831 6.799999237061 162 162 162
17.619579315186 8.132001876831 6.771999359131 162 162 162
17.620002746582 8.147621154785 6.741001129150 159 159 159
17.619579315186 8.132001876831 6.716999053955 162 162 162
17.619579315186 8.132001876831 6.691997528076 166 166 166
17.619579315186 8.132001876831 6.663997650146 164 164 164
17.619579315186 8.132001876831 6.636997222900 165 165 165
17.619579315186 8.132001876831 6.612995147705 150 150 150
17.619579315186 8.132001876831 6.583995819092 143 143 143
17.619579315186 8.132001876831 6.556995391846 48 48 48
17.651664733887 8.162391662598 4.789997100830 169 169 169
17.652090072632 8.178010940552 4.768001556396 159 159 159
17.652090072632 8.178010940552 4.744998931885 164 164 164
17.652090072632 8.178010940552 4.721996307373 153 153 153
17.771953582764 7.987187862396 6.305995941162 73 73 73
17.772378921509 8.002807617188 6.275997161865 99 99 99
17.772378921509 8.002807617188 6.247997283936 120 120 120
17.772378921509 8.002807617188 6.218997955322 142 142 142
17.804889678955 8.048816680908 6.183002471924 143 143 143
17.805313110352 8.064435958862 6.153995513916 136 136 136
17.805738449097 8.080055236816 6.121997833252 140 140 140
17.837825775146 8.110445022583 6.090000152588 143 143 143
17.837825775146 8.110445022583 6.062999725342 154 154 154
17.838249206543 8.126064300537 6.036998748779 158 158 158
17.838249206543 8.126064300537 6.007999420166 162 162 162
17.838249206543 8.126064300537 5.984996795654 171 171 171
17.838249206543 8.126064300537 5.958995819092 168 168 168
17.838249206543 8.126064300537 5.934001922607 170 170 170
17.838249206543 8.126064300537 5.910999298096 172 172 172
17.838249206543 8.126064300537 5.884998321533 170 170 170
17.838672637939 8.141683578491 5.859996795654 172 172 172
17.838249206543 8.126064300537 5.838001251221 157 157 157
17.838249206543 8.126064300537 5.812999725342 151 151 151
17.838249206543 8.126064300537 5.788997650146 142 142 142
17.838249206543 8.126064300537 5.764995574951 61 61 61
17.771530151367 7.971568584442 4.787998199463 146 146 146
17.870758056641 8.172073364258 4.776996612549 158 158 158
17.870758056641 8.172073364258 4.753002166748 168 168 168
17.870758056641 8.172073364258 4.729999542236 172 172 172
17.990623474121 7.981250286102 5.485996246338 72 72 72
18.006668090820 7.996445178986 5.459995269775 96 96 96
18.006668090820 7.996445178986 5.435001373291 111 111 111
18.022710800171 8.011640548706 5.409999847412 138 138 138
18.023134231567 8.027259826660 5.383998870850 139 139 139
18.023559570313 8.042879104614 5.358997344971 144 144 144
18.039602279663 8.058074951172 5.332996368408 146 146 146
18.024406433105 8.074117660522 5.308002471924 148 148 148
18.040874481201 8.104930877686 5.283000946045 150 150 150
18.056919097900 8.120126724243 5.257999420166 156 156 156
18.056919097900 8.120126724243 5.233997344971 160 160 160
18.056919097900 8.120126724243 5.211002349854 167 167 167
18.057342529297 8.135746002197 5.187000274658 174 174 174
18.072961807251 8.135320663452 5.162998199463 176 176 176
18.072961807251 8.135320663452 5.139995574951 168 168 168
18.072961807251 8.135320663452 5.117000579834 167 167 167
18.072961807251 8.135320663452 5.092998504639 158 158 158
18.072961807251 8.135320663452 5.069995880127 162 162 162
18.056919097900 8.120126724243 5.046001434326 162 162 162
18.072961807251 8.135320663452 5.022998809814 156 156 156
18.072961807251 8.135320663452 4.999996185303 147 147 147
18.056919097900 8.120126724243 4.976001739502 132 132 132
18.056493759155 8.104507446289 4.786998748779 162 162 162
18.072961807251 8.135320663452 4.765995025635 158 158 158
18.088581085205 8.134897232056 4.743000030518 173 173 173
18.072961807251 8.135320663452 4.718997955322 164 164 164
18.191978454590 7.913259029388 4.867000579834 143 143 143
18.208021163940 7.928453922272 4.842998504639 157 157 157
18.208446502686 7.944073200226 4.818996429443 164 164 164
18.208869934082 7.959692478180 4.795001983643 163 163 163
18.209293365479 7.975311756134 4.770000457764 145 145 145
18.225337982178 7.990507602692 4.698001861572 74 74 74
18.241380691528 8.005702972412 4.674999237061 94 94 94
18.241380691528 8.005702972412 4.650997161865 111 111 111
18.241380691528 8.005702972412 4.626995086670 134 134 134
18.241804122925 8.021322250366 4.603000640869 137 137 137
18.242652893066 8.052560806274 4.581996917725 136 136 136
18.258272171021 8.052135467529 4.559001922607 137 137 137
18.273891448975 8.051712036133 4.536998748779 145 145 145
18.274314880371 8.067331314087 4.514995574951 140 140 140
18.275163650513 8.098567962646 4.492000579834 134 134 134
18.291206359863 8.113763809204 4.470996856689 144 144 144
18.291206359863 8.113763809204 4.448001861572 146 146 146
18.291206359863 8.113763809204 4.423999786377 151 151 151
18.291629791260 8.129383087158 4.401996612549 163 163 163
18.306825637817 8.113340377808 4.376995086670 172 172 172
18.291629791260 8.129383087158 4.354000091553 171 171 171
18.291629791260 8.129383087158 4.329998016357 172 172 172
18.291629791260 8.129383087158 4.304996490479 175 175 175
18.306825637817 8.113340377808 4.279994964600 172 172 172
18.291629791260 8.129383087158 4.256999969482 169 169 169
18.306825637817 8.113340377808 4.231998443604 156 156 156
18.291206359863 8.113763809204 4.205997467041 152 152 152
18.307250976563 8.128959655762 4.184001922607 98 98 98
18.537796020508 8.560359954834 3.307998657227 218 218 218
18.505708694458 8.529970169067 3.266998291016 237 237 237
18.620983123779 8.745670318604 3.287998199463 118 118 118
18.621406555176 8.761289596558 3.266998291016 143 143 143
18.411071777344 7.922940731049 3.882999420166 173 173 173
18.444005966187 7.984569072723 3.875000000000 135 135 135
18.444854736328 8.015808105469 3.855998992920 126 126 126
18.460897445679 8.031003952026 3.833000183105 130 130 130
18.476940155029 8.046197891235 3.813999176025 129 129 129
18.476940155029 8.046197891235 3.788997650146 124 124 124
18.493408203125 8.077011108398 3.770999908447 127 127 127
18.493408203125 8.077011108398 3.746997833252 129 129 129
18.494256973267 8.108249664307 3.726997375488 123 123 123
18.510299682617 8.123445510864 3.704998016357 132 132 132
18.510299682617 8.123445510864 3.680999755859 144 144 144
18.525920867920 8.123022079468 3.659000396729 154 154 154
18.525920867920 8.123022079468 3.634998321533 163 163 163
18.525920867920 8.123022079468 3.607997894287 156 156 156
18.525920867920 8.123022079468 3.580997467041 153 153 153
18.525920867920 8.123022079468 3.551998138428 158 158 158
18.525920867920 8.123022079468 3.527999877930 161 161 161
18.525920867920 8.123022079468 3.500999450684 160 160 160
18.525920867920 8.123022079468 3.472000122070 166 166 166
18.494256973267 8.108249664307 3.430999755859 196 196 196
18.525920867920 8.123022079468 3.423999786377 107 107 107
18.674976348877 8.431589126587 3.406997680664 91 91 91
18.625572204590 8.339145660400 3.328998565674 245 245 245
18.625572204590 8.339145660400 3.303997039795 186 186 186
18.625148773193 8.323526382446 3.270999908447 170 170 170
18.625572204590 8.339145660400 3.249000549316 195 195 195
18.625572204590 8.339145660400 3.222000122070 212 212 212
18.642463684082 8.385580062866 3.213996887207 218 218 218
18.658508300781 8.400775909424 3.202999114990 226 226 226
18.658931732178 8.416395187378 3.156997680664 213 213 213
18.615043640137 8.527000427246 3.177997589111 199 199 199
18.600273132324 8.558662414551 3.226997375488 193 193 193
18.599849700928 8.543043136597 3.237998962402 164 164 164
18.569881439209 8.590749740601 3.301998138428 180 180 180
18.599849700928 8.543043136597 3.277000427246 152 152 152
18.630662918091 8.526576995850 3.278999328613 178 178 178
18.615043640137 8.527000427246 3.302997589111 152 152 152
18.630237579346 8.510957717896 3.319000244141 155 155 155
18.599849700928 8.543043136597 3.363998413086 144 144 144
18.599849700928 8.543043136597 3.388999938965 151 151 151
18.585426330566 8.011991500854 3.209999084473 140 140 140
18.585851669312 8.027610778809 3.237998962402 140 140 140
18.585851669312 8.027610778809 3.263000488281 143 143 143
18.585851669312 8.027610778809 3.287998199463 141 141 141
18.586277008057 8.043230056763 3.317996978760 140 140 140
18.541114807129 8.106977462769 3.383998870850 144 144 144
18.525920867920 8.123022079468 3.418998718262 153 153 153
18.510723114014 8.139064788818 3.455997467041 155 155 155
18.510723114014 8.139064788818 3.480998992920 159 159 159
18.510723114014 8.139064788818 3.503997802734 164 164 164
18.510723114014 8.139064788818 3.527000427246 165 165 165
18.510723114014 8.139064788818 3.545997619629 159 159 159
18.510723114014 8.139064788818 3.569999694824 151 151 151
18.510723114014 8.139064788818 3.591999053955 154 154 154
18.510723114014 8.139064788818 3.612998962402 154 154 154
18.525920867920 8.123022079468 3.631999969482 154 154 154
18.525920867920 8.123022079468 3.646999359131 168 168 168
18.555885314941 8.075315475464 3.639999389648 213 213 213
18.288238525391 8.004430770874 4.201999664307 116 116 116
18.273042678833 8.020473480225 4.222995758057 122 122 122
18.288238525391 8.004430770874 4.242000579834 138 138 138
18.273042678833 8.020473480225 4.262996673584 147 147 147
18.273042678833 8.020473480225 4.284000396729 151 151 151
18.273042678833 8.020473480225 4.302997589111 152 152 152
18.273042678833 8.020473480225 4.324001312256 149 149 149
18.273042678833 8.020473480225 4.341999053955 154 154 154
18.273042678833 8.020473480225 4.361995697021 144 144 144
18.273042678833 8.020473480225 4.381999969482 154 154 154
18.273042678833 8.020473480225 4.401996612549 149 149 149
18.242652893066 8.052560806274 4.429996490479 142 142 142
18.243499755859 8.083797454834 4.456996917725 156 156 156
18.228305816650 8.099842071533 4.479000091553 162 162 162
18.213535308838 8.131504058838 4.503002166748 163 163 163
18.213958740234 8.147123336792 4.521999359131 168 168 168
18.198339462280 8.147546768188 4.541996002197 169 169 169
18.198339462280 8.147546768188 4.560001373291 166 166 166
18.198339462280 8.147546768188 4.577999114990 171 171 171
18.198339462280 8.147546768188 4.595996856689 168 168 168
18.198339462280 8.147546768188 4.614002227783 171 171 171
18.198339462280 8.147546768188 4.632999420166 172 172 172
18.198339462280 8.147546768188 4.650997161865 171 171 171
18.198339462280 8.147546768188 4.669002532959 168 168 168
18.198339462280 8.147546768188 4.687000274658 153 153 153
