19.843616485596 4.577129364014 4.437988281250 65 65 65
19.843616485596 4.577129364014 4.391998291016 56 56 56
19.843616485596 4.577129364014 4.259979248047 44 44 44
19.843616485596 4.577129364014 4.085998535156 59 59 59
19.843616485596 4.577129364014 4.042999267578 64 64 64
19.720130920410 4.435174942017 3.553985595703 59 59 59
19.966100692749 4.812829971313 3.550994873047 162 162 162
19.966100692749 4.812829971313 3.510986328125 145 145 145
19.966266632080 4.797204971313 3.466979980469 139 139 139
19.965932846069 4.828453063965 3.430999755859 162 162 162
19.966266632080 4.797204971313 3.386993408203 168 168 168
19.966266632080 4.797204971313 3.345977783203 153 153 153
19.720464706421 4.403926849365 1.600982666016 170 170 170
19.844453811646 4.499008178711 7.364990234375 140 140 140
19.968275070190 4.609716415405 8.928985595703 109 109 109
19.968275070190 4.609716415405 8.815979003906 144 144 144
19.968275070190 4.609716415405 8.671997070313 138 138 138
19.968109130859 4.625339508057 8.530975341797 135 135 135
20.092597961426 4.673551559448 8.339996337891 134 134 134
20.092597961426 4.673551559448 8.225982666016 152 152 152
20.092765808105 4.657926559448 8.156982421875 152 152 152
20.092765808105 4.657926559448 8.061981201172 165 165 165
20.092765808105 4.657926559448 7.950988769531 160 160 160
20.092597961426 4.673551559448 7.846984863281 163 163 163
20.092597961426 4.673551559448 7.754974365234 179 179 179
20.092597961426 4.673551559448 7.653991699219 175 175 175
20.092597961426 4.673551559448 7.563995361328 179 179 179
20.092432022095 4.689174652100 7.477996826172 182 182 182
20.092432022095 4.689174652100 7.389984130859 183 183 183
20.092432022095 4.689174652100 7.311981201172 180 180 180
20.092432022095 4.689174652100 7.232971191406 181 181 181
20.092432022095 4.689174652100 7.152984619141 182 182 182
20.092432022095 4.689174652100 7.073974609375 182 182 182
20.092432022095 4.689174652100 7.002990722656 185 185 185
20.092432022095 4.689174652100 6.923980712891 186 186 186
20.092432022095 4.689174652100 6.851989746094 178 178 178
20.092098236084 4.720422744751 6.761993408203 149 149 149
20.092098236084 4.720422744751 6.705993652344 149 149 149
20.092264175415 4.704799652100 6.641998291016 182 182 182
20.092098236084 4.720422744751 6.574981689453 186 186 186
20.092098236084 4.720422744751 6.505981445313 181 181 181
20.092098236084 4.720422744751 6.444976806641 172 172 172
20.092264175415 4.704799652100 6.388000488281 149 149 149
20.092098236084 4.720422744751 6.314971923828 188 188 188
20.091930389404 4.736047744751 6.250000000000 191 191 191
20.092098236084 4.720422744751 6.194976806641 186 186 186
20.091930389404 4.736047744751 6.132995605469 190 190 190
20.091930389404 4.736047744751 6.074981689453 184 184 184
20.092098236084 4.720422744751 6.021972656250 189 189 189
20.091930389404 4.736047744751 5.959991455078 194 194 194
20.091930389404 4.736047744751 5.903991699219 187 187 187
20.092098236084 4.720422744751 5.855987548828 191 191 191
20.091930389404 4.736047744751 5.794982910156 187 187 187
20.091930389404 4.736047744751 5.737976074219 189 189 189
20.091930389404 4.736047744751 5.687988281250 191 191 191
20.091930389404 4.736047744751 5.634979248047 189 189 189
20.091930389404 4.736047744751 5.584991455078 191 191 191
20.091930389404 4.736047744751 5.535980224609 189 189 189
20.091930389404 4.736047744751 5.485992431641 191 191 191
20.091594696045 4.767295837402 5.423980712891 180 180 180
20.091762542725 4.751670837402 5.381988525391 164 164 164
20.091762542725 4.751670837402 5.335998535156 182 182 182
20.091762542725 4.751670837402 5.286987304688 194 194 194
20.091762542725 4.751670837402 5.237976074219 189 189 189
20.091762542725 4.751670837402 5.191986083984 189 189 189
20.091762542725 4.751670837402 5.143981933594 189 189 189
20.091762542725 4.751670837402 5.100982666016 187 187 187
20.091762542725 4.751670837402 5.053985595703 187 187 187
20.091594696045 4.767295837402 5.003997802734 188 188 188
20.091762542725 4.751670837402 4.961975097656 189 189 189
20.091762542725 4.751670837402 4.916992187500 189 189 189
20.091594696045 4.767295837402 4.869995117188 189 189 189
20.091762542725 4.751670837402 4.828979492188 193 193 193
20.091594696045 4.767295837402 4.782989501953 191 191 191
20.091594696045 4.767295837402 4.739990234375 191 191 191
20.091594696045 4.767295837402 4.696990966797 187 187 187
20.091594696045 4.767295837402 4.653991699219 183 183 183
20.091594696045 4.767295837402 4.611999511719 184 184 184
20.091426849365 4.782918930054 4.569000244141 182 182 182
20.091426849365 4.782918930054 4.526977539063 179 179 179
20.091426849365 4.782918930054 4.483978271484 177 177 177
20.091426849365 4.782918930054 4.442993164063 175 175 175
20.091426849365 4.782918930054 4.401000976563 167 167 167
20.091260910034 4.798543930054 4.358978271484 165 165 165
20.091426849365 4.782918930054 4.317993164063 163 163 163
20.091260910034 4.798543930054 4.276977539063 157 157 157
20.091260910034 4.798543930054 4.235992431641 159 159 159
20.091426849365 4.782918930054 4.195983886719 154 154 154
20.091426849365 4.782918930054 4.154998779297 149 149 149
20.091260910034 4.798543930054 4.113983154297 143 143 143
20.091260910034 4.798543930054 4.073974609375 140 140 140
20.091260910034 4.798543930054 4.032989501953 136 136 136
20.091260910034 4.798543930054 3.992980957031 131 131 131
20.091260910034 4.798543930054 3.951995849609 125 125 125
20.091093063354 4.814168930054 3.911987304688 116 116 116
20.091260910034 4.798543930054 3.871978759766 103 103 103
20.091093063354 4.814168930054 3.832000732422 86 86 86
20.091093063354 4.814168930054 3.791992187500 59 59 59
19.969614028931 4.484722137451 3.556976318359 103 103 103
19.969614028931 4.484722137451 3.511993408203 160 160 160
19.968442916870 4.594091415405 3.481994628906 177 177 177
20.091260910034 4.798543930054 3.466979980469 140 140 140
20.090927124023 4.829792022705 3.430999755859 169 169 169
20.090927124023 4.829792022705 3.390991210938 154 154 154
19.845792770386 4.374015808105 1.580993652344 195 195 195
20.215250015259 4.893627166748 1.882995605469 168 168 168
20.214412689209 4.971748352051 1.877990722656 179 179 179
20.214244842529 4.987371444702 1.841979980469 181 181 181
20.214244842529 4.987371444702 1.790985107422 189 189 189
20.214244842529 4.987371444702 1.734985351563 188 188 188
20.214244842529 4.987371444702 1.685974121094 187 187 187
20.214244842529 4.987371444702 1.622985839844 179 179 179
20.094104766846 4.532934188843 8.231994628906 62 62 62
20.094606399536 4.486061096191 8.213989257813 141 141 141
20.094440460205 4.501686096191 7.705993652344 46 46 46
20.094440460205 4.501686096191 7.613983154297 87 87 87
20.094440460205 4.501686096191 7.530975341797 105 105 105
20.094440460205 4.501686096191 7.440979003906 119 119 119
20.094272613525 4.517309188843 7.342987060547 125 125 125
20.094104766846 4.532934188843 7.255981445313 144 144 144
20.094104766846 4.532934188843 7.176971435547 152 152 152
20.094104766846 4.532934188843 7.100982666016 158 158 158
20.094104766846 4.532934188843 7.027984619141 164 164 164
20.094272613525 4.517309188843 6.955993652344 166 166 166
20.094272613525 4.517309188843 6.882995605469 169 169 169
20.094272613525 4.517309188843 6.819000244141 174 174 174
20.094272613525 4.517309188843 6.753997802734 178 178 178
20.094272613525 4.517309188843 6.682983398438 181 181 181
20.094440460205 4.501686096191 6.621978759766 181 181 181
20.094440460205 4.501686096191 6.560974121094 177 177 177
20.094440460205 4.501686096191 6.496978759766 179 179 179
20.094440460205 4.501686096191 6.433990478516 179 179 179
20.094440460205 4.501686096191 6.368988037109 172 172 172
20.094440460205 4.501686096191 6.303985595703 172 172 172
20.093101501465 4.626678466797 6.157989501953 159 159 159
20.217926025391 4.643642425537 6.088989257813 155 155 155
20.093435287476 4.595430374146 6.056976318359 167 167 167
20.094440460205 4.501686096191 6.059997558594 176 176 176
20.094272613525 4.517309188843 5.997985839844 173 173 173
20.094104766846 4.532934188843 5.928985595703 175 175 175
20.093936920166 4.548559188843 5.862976074219 181 181 181
20.093603134155 4.579807281494 5.795989990234 181 181 181
20.093435287476 4.595430374146 5.727996826172 183 183 183
20.093269348145 4.611055374146 5.665985107422 183 183 183
20.093269348145 4.611055374146 5.606994628906 182 182 182
20.217926025391 4.643642425537 5.551971435547 181 181 181
20.217926025391 4.643642425537 5.495971679688 181 181 181
20.217926025391 4.643642425537 5.436981201172 182 182 182
20.217758178711 4.659265518188 5.379974365234 176 176 176
20.217592239380 4.674890518188 5.323974609375 173 173 173
20.217592239380 4.674890518188 5.273986816406 172 172 172
20.217424392700 4.690513610840 5.218994140625 170 170 170
20.217258453369 4.706138610840 5.168975830078 171 171 171
20.217090606689 4.721761703491 5.117980957031 167 167 167
20.217090606689 4.721761703491 5.069000244141 158 158 158
20.216922760010 4.737386703491 5.015991210938 157 157 157
20.216922760010 4.737386703491 4.970977783203 162 162 162
20.216922760010 4.737386703491 4.928985595703 162 162 162
20.216754913330 4.753009796143 4.878997802734 164 164 164
20.216754913330 4.753009796143 4.833984375000 168 168 168
20.216754913330 4.753009796143 4.787994384766 171 171 171
20.216754913330 4.753009796143 4.744995117188 171 171 171
20.216754913330 4.753009796143 4.701995849609 176 176 176
20.216754913330 4.753009796143 4.658996582031 177 177 177
20.216587066650 4.768634796143 4.612976074219 177 177 177
20.216421127319 4.784257888794 4.569976806641 175 175 175
20.216587066650 4.768634796143 4.528991699219 177 177 177
20.216587066650 4.768634796143 4.486999511719 180 180 180
20.216421127319 4.784257888794 4.444976806641 179 179 179
20.216421127319 4.784257888794 4.403991699219 184 184 184
20.216253280640 4.799882888794 4.360992431641 183 183 183
20.216253280640 4.799882888794 4.319976806641 186 186 186
20.216253280640 4.799882888794 4.277984619141 184 184 184
20.216253280640 4.799882888794 4.237976074219 185 185 185
20.216421127319 4.784257888794 4.196990966797 189 189 189
20.216253280640 4.799882888794 4.155975341797 188 188 188
20.216253280640 4.799882888794 4.114990234375 186 186 186
20.216253280640 4.799882888794 4.074981689453 192 192 192
20.216253280640 4.799882888794 4.033996582031 192 192 192
20.216253280640 4.799882888794 3.993988037109 191 191 191
20.216253280640 4.799882888794 3.953979492188 191 191 191
20.216253280640 4.799882888794 3.912994384766 191 191 191
20.216253280640 4.799882888794 3.872985839844 190 190 190
20.216253280640 4.799882888794 3.832977294922 191 191 191
20.216085433960 4.815507888794 3.792999267578 191 191 191
20.216253280640 4.799882888794 3.751983642578 192 192 192
20.216253280640 4.799882888794 3.711975097656 189 189 189
20.216085433960 4.815507888794 3.672973632813 190 190 190
20.216085433960 4.815507888794 3.631988525391 191 191 191
20.216253280640 4.799882888794 3.590972900391 189 189 189
20.216085433960 4.815507888794 3.551971435547 189 189 189
20.216085433960 4.815507888794 3.510986328125 191 191 191
20.216085433960 4.815507888794 3.470977783203 187 187 187
20.216085433960 4.815507888794 3.431976318359 165 165 165
20.215919494629 4.831130981445 3.391998291016 170 170 170
20.216085433960 4.815507888794 3.348999023438 180 180 180
20.216085433960 4.815507888794 3.307983398438 185 185 185
20.216085433960 4.815507888794 3.267974853516 184 184 184
20.216085433960 4.815507888794 3.225982666016 188 188 188
20.216085433960 4.815507888794 3.182983398438 185 185 185
20.215919494629 4.831130981445 3.144989013672 184 184 184
20.216085433960 4.815507888794 3.101989746094 184 184 184
20.216085433960 4.815507888794 3.058990478516 185 185 185
20.216085433960 4.815507888794 3.016998291016 185 185 185
20.215919494629 4.831130981445 2.976989746094 186 186 186
20.215919494629 4.831130981445 2.934997558594 183 183 183
20.215919494629 4.831130981445 2.890991210938 183 183 183
20.215919494629 4.831130981445 2.846984863281 181 181 181
20.215919494629 4.831130981445 2.803985595703 184 184 184
20.215919494629 4.831130981445 2.763000488281 186 186 186
20.215919494629 4.831130981445 2.720001220703 180 180 180
20.215919494629 4.831130981445 2.673980712891 182 182 182
20.215919494629 4.831130981445 2.630981445313 183 183 183
20.215583801270 4.862379074097 2.586975097656 182 182 182
20.215583801270 4.862379074097 2.543975830078 182 182 182
20.215583801270 4.862379074097 2.495971679688 182 182 182
20.215583801270 4.862379074097 2.449981689453 184 184 184
20.215583801270 4.862379074097 2.401977539063 180 180 180
20.215583801270 4.862379074097 2.357971191406 183 183 183
20.215583801270 4.862379074097 2.310974121094 181 181 181
20.215583801270 4.862379074097 2.263977050781 183 183 183
20.215583801270 4.862379074097 2.216979980469 182 182 182
20.215583801270 4.862379074097 2.165985107422 184 184 184
20.215583801270 4.862379074097 2.116973876953 183 183 183
20.215583801270 4.862379074097 2.067993164063 180 180 180
20.215583801270 4.862379074097 2.016998291016 172 172 172
20.215415954590 4.878004074097 1.970977783203 172 172 172
20.215415954590 4.878004074097 1.917999267578 168 168 168
20.215082168579 4.909252166748 1.891998291016 176 176 176
20.339405059814 4.973087310791 1.875976562500 165 165 165
20.339237213135 4.988710403442 1.843994140625 172 172 172
20.339237213135 4.988710403442 1.784973144531 173 173 173
20.339237213135 4.988710403442 1.739990234375 175 175 175
20.339237213135 4.988710403442 1.679992675781 177 177 177
20.339071273804 5.004335403442 1.632995605469 179 179 179
20.219600677490 4.487400054932 5.413970947266 52 52 52
20.219432830811 4.503025054932 5.358978271484 92 92 92
20.219432830811 4.503025054932 5.308990478516 103 103 103
20.219432830811 4.503025054932 5.255981445313 115 115 115
20.219432830811 4.503025054932 5.207000732422 121 121 121
20.219432830811 4.503025054932 5.157989501953 131 131 131
20.219432830811 4.503025054932 5.105987548828 137 137 137
20.219264984131 4.518648147583 5.055999755859 140 140 140
20.219432830811 4.503025054932 5.008972167969 146 146 146
20.219264984131 4.518648147583 4.957000732422 152 152 152
20.219264984131 4.518648147583 4.908996582031 159 159 159
20.219264984131 4.518648147583 4.862976074219 162 162 162
20.219264984131 4.518648147583 4.814971923828 161 161 161
20.218929290771 4.549898147583 4.763977050781 166 166 166
20.219097137451 4.534273147583 4.718994140625 167 167 167
20.219264984131 4.518648147583 4.674987792969 171 171 171
20.219264984131 4.518648147583 4.630981445313 173 173 173
20.219264984131 4.518648147583 4.585998535156 169 169 169
20.219264984131 4.518648147583 4.538970947266 171 171 171
20.219264984131 4.518648147583 4.494995117188 168 168 168
20.219264984131 4.518648147583 4.449981689453 175 175 175
20.219264984131 4.518648147583 4.403991699219 175 175 175
20.219264984131 4.518648147583 4.359985351563 177 177 177
20.219264984131 4.518648147583 4.315979003906 176 176 176
20.219432830811 4.503025054932 4.271972656250 172 172 172
20.219432830811 4.503025054932 4.227996826172 172 172 172
20.219600677490 4.487400054932 4.183990478516 173 173 173
20.219600677490 4.487400054932 4.139984130859 173 173 173
20.219432830811 4.503025054932 4.095001220703 173 173 173
20.219600677490 4.487400054932 4.050994873047 171 171 171
20.219600677490 4.487400054932 4.005981445313 174 174 174
20.219432830811 4.503025054932 3.961975097656 177 177 177
20.219432830811 4.503025054932 3.916992187500 177 177 177
20.219432830811 4.503025054932 3.872985839844 176 176 176
20.219432830811 4.503025054932 3.828979492188 176 176 176
20.219432830811 4.503025054932 3.783996582031 179 179 179
20.218595504761 4.581146240234 3.742980957031 169 169 169
20.342918395996 4.644981384277 3.702972412109 167 167 167
20.342918395996 4.644981384277 3.660980224609 165 165 165
20.342752456665 4.660604476929 3.618988037109 160 160 160
20.219432830811 4.503025054932 3.561981201172 173 173 173
20.219600677490 4.487400054932 3.515991210938 177 177 177
20.219600677490 4.487400054932 3.471984863281 182 182 182
20.219432830811 4.503025054932 3.427978515625 172 172 172
20.219600677490 4.487400054932 3.380981445313 168 168 168
20.219600677490 4.487400054932 3.336975097656 169 169 169
20.219600677490 4.487400054932 3.291992187500 169 169 169
20.219432830811 4.503025054932 3.246978759766 170 170 170
20.219600677490 4.487400054932 3.199981689453 172 172 172
20.219600677490 4.487400054932 3.153991699219 174 174 174
20.219600677490 4.487400054932 3.108978271484 169 169 169
20.219600677490 4.487400054932 3.060974121094 171 171 171
20.219600677490 4.487400054932 3.013000488281 171 171 171
20.219600677490 4.487400054932 2.967987060547 168 168 168
20.219432830811 4.503025054932 2.922973632813 168 168 168
20.219600677490 4.487400054932 2.872985839844 166 166 166
20.219600677490 4.487400054932 2.824981689453 163 163 163
20.219600677490 4.487400054932 2.776977539063 160 160 160
20.219600677490 4.487400054932 2.729980468750 157 157 157
20.219600677490 4.487400054932 2.680999755859 155 155 155
20.219432830811 4.503025054932 2.634979248047 156 156 156
20.219432830811 4.503025054932 2.584991455078 157 157 157
20.219600677490 4.487400054932 2.533996582031 155 155 155
20.342082977295 4.723100662231 2.577972412109 154 154 154
20.342082977295 4.723100662231 2.536987304688 152 152 152
20.342082977295 4.723100662231 2.486999511719 159 159 159
20.342752456665 4.660604476929 2.402984619141 149 149 149
20.219432830811 4.503025054932 2.287994384766 144 144 144
20.219097137451 4.534273147583 2.239990234375 151 151 151
20.219097137451 4.534273147583 2.187988281250 151 151 151
20.219097137451 4.534273147583 2.134979248047 149 149 149
20.219097137451 4.534273147583 2.083984375000 151 151 151
20.218929290771 4.549898147583 2.035980224609 148 148 148
20.218929290771 4.549898147583 1.982971191406 150 150 150
20.219097137451 4.534273147583 1.918975830078 152 152 152
20.218763351440 4.565521240234 1.885986328125 155 155 155
20.342584609985 4.676229476929 1.895996093750 163 163 163
20.341581344604 4.769973754883 1.901977539063 127 127 127
20.340911865234 4.832469940186 1.897979736328 131 131 131
20.340242385864 4.894966125488 1.893981933594 168 168 168
20.464565277100 4.958799362183 1.881988525391 173 173 173
20.464397430420 4.974424362183 1.840972900391 182 182 182
20.464397430420 4.974424362183 1.791992187500 184 184 184
20.464397430420 4.974424362183 1.734985351563 178 178 178
20.464231491089 4.990047454834 1.684997558594 182 182 182
20.464231491089 4.990047454834 1.633972167969 182 182 182
20.344593048096 4.488739013672 2.967987060547 40 40 40
20.344425201416 4.504364013672 2.921997070313 67 67 67
20.344593048096 4.488739013672 2.871978759766 91 91 91
20.344425201416 4.504364013672 2.826995849609 103 103 103
20.344593048096 4.488739013672 2.776977539063 110 110 110
20.344593048096 4.488739013672 2.728973388672 114 114 114
20.344425201416 4.504364013672 2.683990478516 122 122 122
20.344425201416 4.504364013672 2.635986328125 131 131 131
20.344425201416 4.504364013672 2.589996337891 137 137 137
20.344425201416 4.504364013672 2.533996582031 139 139 139
20.344425201416 4.504364013672 2.490997314453 143 143 143
20.344425201416 4.504364013672 2.438995361328 145 145 145
20.344257354736 4.519987106323 2.392974853516 149 149 149
20.344257354736 4.519987106323 2.340972900391 152 152 152
20.344089508057 4.535612106323 2.293975830078 153 153 153
20.344089508057 4.535612106323 2.240997314453 150 150 150
20.343923568726 4.551237106323 2.192993164063 144 144 144
20.344089508057 4.535612106323 2.139984130859 136 136 136
20.344089508057 4.535612106323 2.084991455078 135 135 135
20.344257354736 4.519987106323 2.022979736328 144 144 144
20.344089508057 4.535612106323 1.972991943359 149 149 149
20.344089508057 4.535612106323 1.917999267578 148 148 148
20.343421936035 4.598108291626 1.901000976563 161 161 161
20.342584609985 4.676229476929 1.897979736328 165 165 165
20.466907501221 4.740062713623 1.895996093750 158 158 158
20.466239929199 4.802558898926 1.888000488281 166 166 166
20.465568542480 4.865055084229 1.862976074219 171 171 171
20.465568542480 4.865055084229 1.817993164063 169 169 169
20.465568542480 4.865055084229 1.757995605469 172 172 172
20.465568542480 4.865055084229 1.701995849609 169 169 169
20.465568542480 4.865055084229 1.649993896484 174 174 174
20.465568542480 4.865055084229 1.595001220703 172 172 172
20.345764160156 4.379371643066 1.881988525391 90 90 90
20.344425201416 4.504364013672 1.897979736328 133 133 133
20.468750000000 4.568197250366 1.889984130859 160 160 160
20.467912673950 4.646318435669 1.873992919922 171 171 171
20.467744827271 4.661941528320 1.829986572266 166 166 166
20.467912673950 4.646318435669 1.772979736328 168 168 168
20.467912673950 4.646318435669 1.714996337891 172 172 172
20.467912673950 4.646318435669 1.657989501953 171 171 171
20.467744827271 4.661941528320 1.608978271484 173 173 173
20.470420837402 4.411956787109 1.855987548828 148 148 148
20.470420837402 4.411956787109 1.797973632813 169 169 169
20.470420837402 4.411956787109 1.739990234375 172 172 172
20.470254898071 4.427579879761 1.681976318359 177 177 177
20.470420837402 4.411956787109 1.616973876953 171 171 171
20.044244766235 9.188917160034 7.478973388672 72 72 72
20.043910980225 9.220165252686 7.467987060547 147 147 147
20.046922683716 8.938932418823 7.498992919922 66 66 66
20.046586990356 8.970180511475 7.473999023438 169 169 169
20.046421051025 8.985803604126 7.396972656250 145 145 145
19.805133819580 8.170673370361 8.427978515625 57 57 57
20.049430847168 8.704570770264 7.485992431641 106 106 106
20.049097061157 8.735818862915 7.485992431641 146 146 146
20.049097061157 8.735818862915 7.385986328125 112 112 112
19.930128097534 8.172012329102 8.422973632813 121 121 121
19.928621292114 8.312627792358 8.349975585938 59 59 59
19.928119659424 8.359500885010 8.343994140625 187 187 187
20.052108764648 8.454584121704 7.574981689453 46 46 46
20.051940917969 8.470209121704 7.486999511719 150 150 150
20.051607131958 8.501457214355 7.489990234375 108 108 108
20.175930023193 8.565292358398 7.345977783203 92 92 92
19.931131362915 8.078266143799 8.358978271484 106 106 106
20.055454254150 8.142101287842 8.352996826172 171 171 171
20.055120468140 8.173351287842 8.285980224609 131 131 131
20.054618835449 8.220222473145 7.543975830078 142 142 142
20.054283142090 8.251470565796 7.489990234375 162 162 162
20.054618835449 8.220222473145 8.265991210938 132 132 132
19.933307647705 7.875152587891 8.362976074219 139 139 139
20.057796478271 7.923364639282 8.361999511719 161 161 161
20.057296752930 7.970237731934 8.172973632813 83 83 83
20.056793212891 8.017108917236 7.496978759766 157 157 157
20.056459426880 8.048357009888 7.500976562500 124 124 124
20.180112838745 8.174690246582 8.423980712891 73 73 73
20.059135437012 7.798372268677 8.053985595703 107 107 107
20.059135437012 7.798372268677 7.494995117188 144 144 144
18.094888687134 4.449022293091 1.555999755859 174 174 174
18.094888687134 4.449022293091 1.615997314453 180 180 180
18.094722747803 4.464645385742 1.679992675781 174 174 174
18.094888687134 4.449022293091 1.734985351563 160 160 160
18.095056533813 4.433397293091 1.776000976563 169 169 169
17.966884613037 4.728916168213 7.638000488281 124 124 124
17.967052459717 4.713293075562 7.819000244141 122 122 122
17.967052459717 4.713293075562 8.010986328125 113 113 113
18.092380523682 4.683383941650 1.598999023438 178 178 178
18.092380523682 4.683383941650 1.656982421875 176 176 176
18.092380523682 4.683383941650 1.712982177734 170 170 170
18.092546463013 4.667758941650 1.763977050781 165 165 165
18.093215942383 4.605262756348 1.778991699219 169 169 169
18.219045639038 4.528480529785 1.783996582031 163 163 163
18.220048904419 4.434734344482 1.786987304688 164 164 164
18.221054077148 4.340990066528 1.779998779297 118 118 118
18.092380523682 4.683383941650 7.583984375000 66 66 66
18.092212677002 4.699007034302 7.746978759766 113 113 113
18.092212677002 4.699007034302 7.836975097656 126 126 126
18.090372085571 4.870872497559 1.580993652344 178 178 178
18.090372085571 4.870872497559 1.639984130859 180 180 180
18.090372085571 4.870872497559 1.694000244141 175 175 175
18.090372085571 4.870872497559 1.750976562500 169 169 169
18.090538024902 4.855249404907 1.783996582031 174 174 174
18.091375350952 4.777128219604 1.790985107422 171 171 171
18.217037200928 4.715969085693 1.793975830078 169 169 169
18.217874526978 4.637847900391 1.799987792969 167 167 167
18.343536376953 4.576690673828 1.802978515625 159 159 159
18.344707489014 4.467321395874 1.795989990234 164 164 164
18.345710754395 4.373577117920 1.796997070313 82 82 82
18.217372894287 4.684720993042 7.591979980469 103 103 103
18.089366912842 4.964616775513 1.602996826172 185 185 185
18.089366912842 4.964616775513 1.658996582031 180 180 180
18.089366912842 4.964616775513 1.715972900391 184 184 184
18.089366912842 4.964616775513 1.763000488281 184 184 184
18.090036392212 4.902120590210 1.777984619141 174 174 174
18.215364456177 4.872209548950 1.785980224609 168 168 168
18.216033935547 4.809713363647 1.801971435547 172 172 172
18.341695785522 4.748556137085 1.804992675781 173 173 173
18.342533111572 4.670434951782 1.806976318359 161 161 161
18.468360900879 4.593654632568 1.806976318359 161 161 161
18.469532012939 4.484285354614 1.796997070313 176 176 176
18.342365264893 4.686059951782 7.597991943359 97 97 97
18.214361190796 4.965953826904 1.596984863281 182 182 182
18.214361190796 4.965953826904 1.652984619141 177 177 177
18.214361190796 4.965953826904 1.710998535156 180 180 180
18.214361190796 4.965953826904 1.763000488281 177 177 177
18.214862823486 4.919082641602 1.782989501953 170 170 170
18.340190887451 4.889173507690 1.787994384766 174 174 174
18.341026306152 4.811052322388 1.795989990234 171 171 171
18.466688156128 4.749895095825 1.796997070313 171 171 171
18.466688156128 4.749895095825 1.849975585938 180 180 180
18.466688156128 4.749895095825 1.904998779297 180 180 180
18.466856002808 4.734270095825 1.952972412109 183 183 183
18.466856002808 4.734270095825 2.002990722656 176 176 176
18.467021942139 4.718647003174 2.047973632813 172 172 172
18.467189788818 4.703022003174 2.087982177734 168 168 168
18.467357635498 4.687398910522 2.131988525391 164 164 164
18.467525482178 4.671773910522 2.175994873047 164 164 164
18.467859268188 4.640525817871 2.215972900391 171 171 171
18.468027114868 4.624902725220 2.258972167969 173 173 173
18.468027114868 4.624902725220 2.307983398438 173 173 173
18.468360900879 4.593654632568 2.345977783203 170 170 170
18.593521118164 4.579368591309 2.379974365234 180 180 180
18.593521118164 4.579368591309 2.429992675781 131 131 131
18.593353271484 4.594993591309 2.484985351563 54 54 54
18.467357635498 4.687398910522 7.596984863281 72 72 72
18.339353561401 4.967292785645 1.589996337891 181 181 181
18.339353561401 4.967292785645 1.643981933594 177 177 177
18.339353561401 4.967292785645 1.704986572266 177 177 177
18.339521408081 4.951669692993 1.741973876953 167 167 167
18.339687347412 4.936044692993 1.777984619141 172 172 172
18.465349197388 4.874887466431 1.771972656250 173 173 173
18.592016220093 4.719985961914 2.302978515625 117 117 117
18.592016220093 4.719985961914 2.350982666016 169 169 169
18.592016220093 4.719985961914 2.403991699219 183 183 183
18.592016220093 4.719985961914 2.452972412109 184 184 184
18.592016220093 4.719985961914 2.498992919922 185 185 185
18.592016220093 4.719985961914 2.542999267578 184 184 184
18.592016220093 4.719985961914 2.591979980469 181 181 181
18.592182159424 4.704360961914 2.631988525391 179 179 179
18.592350006104 4.688737869263 2.673980712891 174 174 174
18.592517852783 4.673112869263 2.714996337891 172 172 172
18.592517852783 4.673112869263 2.755981445313 173 173 173
18.592851638794 4.641864776611 2.793975830078 171 171 171
18.592851638794 4.641864776611 2.837982177734 170 170 170
18.593187332153 4.610616683960 2.875000000000 171 171 171
18.593187332153 4.610616683960 2.918975830078 172 172 172
18.718347549438 4.596330642700 2.957000732422 173 173 173
18.718347549438 4.596330642700 3.000976562500 169 169 169
18.718681335449 4.565084457397 3.038970947266 152 152 152
18.718681335449 4.565084457397 3.084991455078 118 118 118
18.717008590698 4.721323013306 2.904998779297 55 55 55
18.717008590698 4.721323013306 2.946990966797 129 129 129
18.717176437378 4.705698013306 2.986999511719 166 166 166
18.717008590698 4.721323013306 3.032989501953 181 181 181
18.717008590698 4.721323013306 3.076995849609 185 185 185
18.717176437378 4.705698013306 3.116973876953 184 184 184
18.717008590698 4.721323013306 3.161987304688 186 186 186
18.717176437378 4.705698013306 3.202972412109 183 183 183
18.717176437378 4.705698013306 3.244995117188 182 182 182
18.717176437378 4.705698013306 3.286987304688 178 178 178
18.717510223389 4.674451828003 3.323974609375 174 174 174
18.717510223389 4.674451828003 3.364990234375 173 173 173
18.717678070068 4.658826828003 3.404998779297 170 170 170
18.717845916748 4.643201828003 3.444976806641 170 170 170
18.843006134033 4.628917694092 3.483978271484 165 165 165
18.843172073364 4.613292694092 3.524993896484 161 161 161
18.843339920044 4.597669601440 3.566986083984 164 164 164
18.843507766724 4.582044601440 3.607971191406 167 167 167
18.843673706055 4.566421508789 3.649993896484 145 145 145
18.843673706055 4.566421508789 3.692993164063 131 131 131
18.843841552734 4.550796508789 3.734985351563 58 58 58
18.843172073364 4.613292694092 8.031982421875 42 42 42
18.842000961304 4.722661972046 3.329986572266 177 177 177
18.842000961304 4.722661972046 3.371978759766 177 177 177
18.968667984009 4.567760467529 3.386993408203 181 181 181
18.842168807983 4.707036972046 3.575988769531 124 124 124
18.842336654663 4.691413879395 3.616973876953 158 158 158
18.842168807983 4.707036972046 3.658996582031 178 178 178
18.842168807983 4.707036972046 3.700988769531 183 183 183
18.842168807983 4.707036972046 3.741973876953 184 184 184
18.842168807983 4.707036972046 3.782989501953 184 184 184
18.842168807983 4.707036972046 3.823974609375 183 183 183
18.842336654663 4.691413879395 3.864990234375 180 180 180
18.842168807983 4.707036972046 3.905975341797 176 176 176
18.842502593994 4.675788879395 3.946990966797 173 173 173
18.842670440674 4.660165786743 3.988983154297 166 166 166
18.842838287354 4.644540786743 4.030975341797 167 167 167
18.967830657959 4.645879745483 4.073974609375 168 168 168
18.967998504639 4.630256652832 4.116973876953 168 168 168
18.968166351318 4.614631652832 4.160980224609 169 169 169
18.968500137329 4.583383560181 4.204986572266 167 167 167
18.968500137329 4.583383560181 4.248992919922 155 155 155
18.968667984009 4.567760467529 4.292999267578 127 127 127
18.968667984009 4.567760467529 4.337982177734 111 111 111
18.967998504639 4.630256652832 7.577972412109 64 64 64
18.968166351318 4.614631652832 8.040985107422 76 76 76
18.966827392578 4.739624023438 3.330993652344 173 173 173
18.966827392578 4.739624023438 3.372985839844 173 173 173
19.093994140625 4.537851333618 3.383972167969 182 182 182
18.967329025269 4.692752838135 4.194976806641 119 119 119
18.967329025269 4.692752838135 4.236999511719 147 147 147
18.967161178589 4.708375930786 4.277984619141 173 173 173
18.967161178589 4.708375930786 4.319976806641 183 183 183
18.967161178589 4.708375930786 4.361999511719 183 183 183
18.967161178589 4.708375930786 4.402984619141 184 184 184
18.967161178589 4.708375930786 4.444976806641 183 183 183
18.967329025269 4.692752838135 4.488983154297 181 181 181
18.967329025269 4.692752838135 4.532989501953 179 179 179
18.967494964600 4.677127838135 4.577972412109 174 174 174
19.092823028564 4.647218704224 4.627990722656 166 166 166
19.093158721924 4.615970611572 4.675994873047 166 166 166
19.093326568604 4.600347518921 4.724975585938 167 167 167
19.093492507935 4.584722518921 4.771972656250 170 170 170
19.093492507935 4.584722518921 4.820983886719 168 168 168
19.093828201294 4.553474426270 4.871978759766 151 151 151
19.093994140625 4.537851333618 4.922973632813 129 129 129
19.093994140625 4.537851333618 4.970977783203 87 87 87
19.093326568604 4.600347518921 7.588989257813 99 99 99
19.093326568604 4.600347518921 8.057983398438 105 105 105
19.091987609863 4.725339889526 3.332000732422 158 158 158
19.091819763184 4.740962982178 3.373992919922 174 174 174
19.218986511230 4.539190292358 3.382995605469 183 183 183
19.217481613159 4.679805755615 4.839996337891 140 140 140
19.092655181885 4.662843704224 4.882995605469 163 163 163
19.092489242554 4.678466796875 4.924987792969 183 183 183
19.092489242554 4.678466796875 4.970977783203 183 183 183
19.092489242554 4.678466796875 5.015991210938 184 184 184
19.217315673828 4.695430755615 5.061981201172 184 184 184
19.217315673828 4.695430755615 5.108978271484 180 180 180
19.217481613159 4.679805755615 5.158996582031 177 177 177
19.217649459839 4.664182662964 5.212982177734 170 170 170
19.217983245850 4.632934570313 5.270996093750 167 167 167
19.218318939209 4.601686477661 5.330993652344 166 166 166
19.218486785889 4.586061477661 5.389984130859 160 160 160
19.218652725220 4.570438385010 5.447998046875 159 159 159
19.218986511230 4.539190292358 5.509979248047 137 137 137
19.218986511230 4.539190292358 5.569000244141 112 112 112
19.218318939209 4.601686477661 8.076995849609 63 63 63
19.216644287109 4.757926940918 3.333984375000 135 135 135
19.216644287109 4.757926940918 3.375000000000 175 175 175
19.343647003174 4.571775436401 3.388000488281 183 183 183
19.344482421875 4.493654251099 3.420989990234 86 86 86
19.469141006470 4.526241302490 5.372985839844 174 174 174
19.343812942505 4.556150436401 5.405975341797 177 177 177
19.342140197754 4.712390899658 5.388977050781 181 181 181
19.342308044434 4.696767807007 5.446990966797 130 130 130
19.342475891113 4.681142807007 5.501983642578 161 161 161
19.342475891113 4.681142807007 5.548980712891 181 181 181
19.342308044434 4.696767807007 5.595977783203 182 182 182
19.342475891113 4.681142807007 5.649993896484 182 182 182
19.342475891113 4.681142807007 5.700988769531 182 182 182
19.342475891113 4.681142807007 5.757995605469 178 178 178
19.342641830444 4.665519714355 5.819000244141 171 171 171
19.342975616455 4.634271621704 5.891998291016 150 150 150
19.343311309814 4.603023529053 5.964996337891 147 147 147
19.343479156494 4.587398529053 6.033996582031 142 142 142
19.343647003174 4.571775436401 6.111999511719 131 131 131
19.343812942505 4.556150436401 6.177978515625 105 105 105
19.343479156494 4.587398529053 7.569000244141 69 69 69
19.343647003174 4.571775436401 7.664978027344 85 85 85
19.343311309814 4.603023529053 7.723999023438 134 134 134
19.343479156494 4.587398529053 7.913970947266 133 133 133
19.343311309814 4.603023529053 8.003997802734 94 94 94
19.341470718384 4.774887084961 3.335998535156 53 53 53
19.341638565063 4.759263992310 3.376983642578 176 176 176
19.342641830444 4.665519714355 3.403991699219 179 179 179
19.469474792480 4.494993209839 3.420989990234 162 162 162
19.594301223755 4.511955261230 5.379974365234 177 177 177
19.594467163086 4.496332168579 5.439971923828 171 171 171
19.341972351074 4.728015899658 5.378997802734 177 177 177
19.467132568359 4.713729858398 5.440979003906 148 148 148
19.467468261719 4.682481765747 6.032989501953 80 80 80
19.467634201050 4.666858673096 6.098999023438 140 140 140
19.467468261719 4.682481765747 6.148986816406 178 178 178
19.467468261719 4.682481765747 6.204986572266 183 183 183
19.467468261719 4.682481765747 6.266998291016 185 185 185
19.467468261719 4.682481765747 6.326995849609 183 183 183
19.467468261719 4.682481765747 6.394989013672 177 177 177
19.467802047729 4.651233673096 6.477996826172 157 157 157
19.468135833740 4.619985580444 6.561981201172 139 139 139
19.593631744385 4.574453353882 6.660980224609 138 138 138
19.593965530396 4.543205261230 6.753997802734 117 117 117
19.594133377075 4.527580261230 6.840972900391 82 82 82
19.593631744385 4.574453353882 7.563995361328 130 130 130
19.593631744385 4.574453353882 7.662994384766 146 146 146
19.593631744385 4.574453353882 7.830993652344 147 147 147
19.468303680420 4.604362487793 7.886993408203 115 115 115
19.468471527100 4.588737487793 8.014984130859 120 120 120
19.468303680420 4.604362487793 8.085998535156 56 56 56
19.720464706421 4.403926849365 1.591979980469 81 81 81
19.593799591064 4.558828353882 3.295989990234 41 41 41
19.466463088989 4.776226043701 3.377990722656 177 177 177
19.466463088989 4.776226043701 3.419982910156 171 171 171
19.594301223755 4.511955261230 3.420989990234 177 177 177
19.719627380371 4.482046127319 3.503997802734 138 138 138
19.594133377075 4.527580261230 3.556976318359 67 67 67
19.593965530396 4.543205261230 3.601989746094 82 82 82
19.593965530396 4.543205261230 3.645996093750 79 79 79
19.593965530396 4.543205261230 3.688995361328 51 51 51
19.593965530396 4.543205261230 3.731994628906 75 75 75
19.593965530396 4.543205261230 3.776000976563 114 114 114
19.594133377075 4.527580261230 3.819000244141 93 93 93
19.593965530396 4.543205261230 3.862976074219 56 56 56
19.594133377075 4.527580261230 3.905975341797 67 67 67
19.594133377075 4.527580261230 3.948974609375 72 72 72
19.593965530396 4.543205261230 3.992980957031 122 122 122
19.593799591064 4.558828353882 4.034973144531 118 118 118
19.593965530396 4.543205261230 4.079986572266 125 125 125
19.593965530396 4.543205261230 4.122985839844 92 92 92
19.594133377075 4.527580261230 4.166992187500 91 91 91
19.594133377075 4.527580261230 4.210998535156 86 86 86
19.594133377075 4.527580261230 4.253997802734 100 100 100
19.594133377075 4.527580261230 4.298980712891 129 129 129
19.593965530396 4.543205261230 4.340972900391 123 123 123
19.593965530396 4.543205261230 4.385986328125 127 127 127
19.593965530396 4.543205261230 4.428985595703 107 107 107
19.593965530396 4.543205261230 4.471984863281 107 107 107
19.593965530396 4.543205261230 4.516998291016 106 106 106
19.593799591064 4.558828353882 4.560974121094 115 115 115
19.593799591064 4.558828353882 4.603973388672 145 145 145
19.593799591064 4.558828353882 4.648986816406 154 154 154
19.593799591064 4.558828353882 4.694000244141 144 144 144
19.593799591064 4.558828353882 4.737976074219 128 128 128
19.593799591064 4.558828353882 4.782989501953 125 125 125
19.593799591064 4.558828353882 4.829986572266 122 122 122
19.593965530396 4.543205261230 4.881988525391 142 142 142
19.593965530396 4.543205261230 4.925994873047 143 143 143
19.593799591064 4.558828353882 4.970977783203 150 150 150
19.593799591064 4.558828353882 5.013977050781 144 144 144
19.593631744385 4.574453353882 5.057983398438 161 161 161
19.593463897705 4.590076446533 5.101989746094 167 167 167
19.593631744385 4.574453353882 5.152984619141 159 159 159
19.593631744385 4.574453353882 5.199981689453 169 169 169
19.593463897705 4.590076446533 5.243988037109 164 164 164
19.593463897705 4.590076446533 5.293975830078 165 165 165
19.719461441040 4.497671127319 5.391998291016 133 133 133
19.719293594360 4.513294219971 5.436981201172 119 119 119
19.466798782349 4.744977951050 5.366973876953 156 156 156
19.467132568359 4.713729858398 5.426971435547 178 178 178
19.592794418335 4.652572631836 6.659973144531 69 69 69
19.592794418335 4.652572631836 6.729980468750 145 145 145
19.592628479004 4.668197631836 6.785980224609 181 181 181
19.592628479004 4.668197631836 6.859985351563 189 189 189
19.592628479004 4.668197631836 6.930999755859 186 186 186
19.592794418335 4.652572631836 7.005981445313 182 182 182
19.592962265015 4.636949539185 7.099975585938 166 166 166
19.593463897705 4.590076446533 7.214996337891 130 130 130
19.718624114990 4.575792312622 7.326995849609 163 163 163
19.593463897705 4.590076446533 7.398986816406 164 164 164
19.593463897705 4.590076446533 7.475982666016 152 152 152
19.593296051025 4.605701446533 7.542999267578 139 139 139
19.593296051025 4.605701446533 7.625000000000 156 156 156
19.718624114990 4.575792312622 7.747985839844 94 94 94
19.718791961670 4.560167312622 7.964996337891 86 86 86
19.593130111694 4.621324539185 7.981994628906 116 116 116
19.845457077026 4.405263900757 1.586975097656 123 123 123
19.846462249756 4.311519622803 1.587982177734 53 53 53
19.592794418335 4.652572631836 2.500976562500 170 170 170
19.592794418335 4.652572631836 2.547973632813 172 172 172
19.592794418335 4.652572631836 2.597991943359 176 176 176
19.592794418335 4.652572631836 2.644989013672 174 174 174
19.592794418335 4.652572631836 2.690979003906 175 175 175
19.592794418335 4.652572631836 2.736999511719 175 175 175
19.592794418335 4.652572631836 2.782989501953 167 167 167
19.592794418335 4.652572631836 2.828979492188 175 175 175
19.592794418335 4.652572631836 2.875976562500 175 175 175
19.592962265015 4.636949539185 2.914978027344 168 168 168
19.592794418335 4.652572631836 2.962982177734 175 175 175
19.592962265015 4.636949539185 3.005981445313 176 176 176
19.592794418335 4.652572631836 3.050994873047 173 173 173
19.592794418335 4.652572631836 3.095977783203 176 176 176
19.592794418335 4.652572631836 3.139984130859 176 176 176
19.592794418335 4.652572631836 3.183990478516 178 178 178
19.592962265015 4.636949539185 3.223999023438 163 163 163
19.592962265015 4.636949539185 3.267974853516 177 177 177
19.592962265015 4.636949539185 3.311981201172 175 175 175
19.591289520264 4.793190002441 3.377990722656 176 176 176
19.591289520264 4.793190002441 3.422973632813 177 177 177
19.592794418335 4.652572631836 3.440979003906 178 178 178
19.592794418335 4.652572631836 3.484985351563 177 177 177
19.592962265015 4.636949539185 3.524993896484 168 168 168
19.592794418335 4.652572631836 3.569000244141 175 175 175
19.592794418335 4.652572631836 3.610992431641 173 173 173
19.592794418335 4.652572631836 3.652984619141 175 175 175
19.592962265015 4.636949539185 3.694000244141 169 169 169
19.717788696289 4.653911590576 3.735992431641 169 169 169
19.717788696289 4.653911590576 3.777984619141 168 168 168
19.592962265015 4.636949539185 3.820983886719 132 132 132
19.717788696289 4.653911590576 3.862976074219 169 169 169
19.592794418335 4.652572631836 3.904998779297 172 172 172
19.717788696289 4.653911590576 3.946990966797 162 162 162
19.717788696289 4.653911590576 3.988983154297 146 146 146
19.717788696289 4.653911590576 4.030975341797 166 166 166
19.717620849609 4.669536590576 4.072998046875 167 167 167
19.717788696289 4.653911590576 4.115997314453 158 158 158
19.717788696289 4.653911590576 4.157989501953 166 166 166
19.717788696289 4.653911590576 4.199981689453 167 167 167
19.717788696289 4.653911590576 4.241973876953 169 169 169
19.717788696289 4.653911590576 4.284973144531 158 158 158
19.717954635620 4.638288497925 4.327972412109 166 166 166
19.717788696289 4.653911590576 4.369995117188 161 161 161
19.717788696289 4.653911590576 4.413970947266 148 148 148
19.717788696289 4.653911590576 4.457000732422 165 165 165
19.717954635620 4.638288497925 4.500976562500 168 168 168
19.717788696289 4.653911590576 4.542999267578 164 164 164
19.717788696289 4.653911590576 4.584991455078 152 152 152
19.717620849609 4.669536590576 4.625976562500 169 169 169
19.717620849609 4.669536590576 4.670989990234 165 165 165
19.717788696289 4.653911590576 4.716979980469 147 147 147
19.717620849609 4.669536590576 4.758972167969 176 176 176
19.717620849609 4.669536590576 4.800994873047 176 176 176
19.717620849609 4.669536590576 4.845977783203 167 167 167
19.717620849609 4.669536590576 4.891998291016 169 169 169
19.717620849609 4.669536590576 4.935974121094 177 177 177
19.717620849609 4.669536590576 4.980987548828 174 174 174
19.717620849609 4.669536590576 5.029998779297 146 146 146
19.717453002930 4.685159683228 5.070983886719 170 170 170
19.717620849609 4.669536590576 5.120971679688 167 167 167
19.717620849609 4.669536590576 5.169982910156 168 168 168
19.717620849609 4.669536590576 5.215972900391 174 174 174
19.717620849609 4.669536590576 5.260986328125 157 157 157
19.592292785645 4.699445724487 5.290985107422 170 170 170
19.591791152954 4.746316909790 5.321990966797 136 136 136
19.592124938965 4.715068817139 5.378997802734 158 158 158
19.591958999634 4.730693817139 5.418975830078 185 185 185
19.591958999634 4.730693817139 5.472991943359 172 172 172
19.718456268311 4.591415405273 5.596984863281 106 106 106
19.718624114990 4.575792312622 5.653991699219 101 101 101
19.718456268311 4.591415405273 5.701995849609 78 78 78
19.718456268311 4.591415405273 5.755981445313 67 67 67
19.718456268311 4.591415405273 5.808990478516 66 66 66
19.718456268311 4.591415405273 5.865997314453 61 61 61
19.718290328979 4.607040405273 5.912994384766 108 108 108
19.718624114990 4.575792312622 5.986999511719 69 69 69
19.718456268311 4.591415405273 6.033996582031 40 40 40
19.844285964966 4.514631271362 7.329986572266 161 161 161
19.844285964966 4.514631271362 7.410980224609 163 163 163
19.717620849609 4.669536590576 7.307983398438 183 183 183
19.717620849609 4.669536590576 7.385986328125 188 188 188
19.717620849609 4.669536590576 7.471984863281 185 185 185
19.717620849609 4.669536590576 7.555999755859 184 184 184
19.717788696289 4.653911590576 7.649993896484 181 181 181
19.843784332275 4.561504364014 8.147979736328 109 109 109
19.844453811646 4.499008178711 8.457000732422 52 52 52
19.844285964966 4.514631271362 8.544982910156 98 98 98
19.844285964966 4.514631271362 8.655975341797 124 124 124
19.844120025635 4.530256271362 8.756988525391 137 137 137
19.843952178955 4.545881271362 8.855987548828 145 145 145
19.843952178955 4.545881271362 8.974975585938 143 143 143
19.717285156250 4.700784683228 2.515991210938 174 174 174
19.717285156250 4.700784683228 2.564971923828 177 177 177
19.717285156250 4.700784683228 2.610992431641 180 180 180
19.717119216919 4.716407775879 2.658996582031 178 178 178
19.717285156250 4.700784683228 2.703979492188 175 175 175
19.717119216919 4.716407775879 2.751983642578 177 177 177
19.717285156250 4.700784683228 2.794982910156 173 173 173
19.717119216919 4.716407775879 2.841979980469 177 177 177
19.717285156250 4.700784683228 2.885986328125 178 178 178
19.717453002930 4.685159683228 2.924987792969 166 166 166
19.717285156250 4.700784683228 2.971984863281 176 176 176
19.717285156250 4.700784683228 3.016998291016 180 180 180
19.717285156250 4.700784683228 3.057983398438 176 176 176
19.717285156250 4.700784683228 3.101989746094 177 177 177
19.717285156250 4.700784683228 3.146972656250 178 178 178
19.717285156250 4.700784683228 3.188995361328 176 176 176
19.717285156250 4.700784683228 3.231994628906 173 173 173
19.717285156250 4.700784683228 3.276000976563 179 179 179
19.716617584229 4.763280868530 3.327972412109 178 178 178
19.716281890869 4.794528961182 3.376983642578 177 177 177
19.716281890869 4.794528961182 3.418975830078 177 177 177
19.716617584229 4.763280868530 3.453979492188 160 160 160
19.716617584229 4.763280868530 3.494995117188 169 169 169
19.717285156250 4.700784683228 3.528991699219 167 167 167
19.717285156250 4.700784683228 3.570983886719 178 178 178
19.717285156250 4.700784683228 3.611999511719 178 178 178
19.717285156250 4.700784683228 3.652984619141 175 175 175
19.717453002930 4.685159683228 3.694976806641 171 171 171
19.717453002930 4.685159683228 3.735992431641 172 172 172
19.717453002930 4.685159683228 3.777984619141 170 170 170
19.717620849609 4.669536590576 3.819000244141 163 163 163
19.717453002930 4.685159683228 3.860992431641 175 175 175
19.717453002930 4.685159683228 3.901977539063 171 171 171
19.717453002930 4.685159683228 3.944000244141 173 173 173
19.717453002930 4.685159683228 3.985992431641 169 169 169
19.717453002930 4.685159683228 4.026977539063 172 172 172
19.717620849609 4.669536590576 4.069976806641 172 172 172
19.717620849609 4.669536590576 4.110992431641 170 170 170
19.717620849609 4.669536590576 4.153991699219 167 167 167
19.717620849609 4.669536590576 4.195983886719 169 169 169
19.717620849609 4.669536590576 4.237976074219 168 168 168
19.842613220215 4.670873641968 4.281982421875 144 144 144
19.842613220215 4.670873641968 4.323974609375 160 160 160
