25.386035919189 20.749469757080 62.651000976563 154 154 154
25.386035919189 20.749469757080 62.614997863770 154 154 154
25.386035919189 20.749469757080 62.578998565674 156 156 156
25.386035919189 20.749469757080 62.544002532959 156 156 156
25.386035919189 20.749469757080 62.508003234863 158 158 158
25.386035919189 20.749469757080 62.472999572754 148 148 148
25.386035919189 20.749469757080 62.437000274658 156 156 156
25.386035919189 20.749469757080 62.401000976563 155 155 155
25.386035919189 20.749469757080 62.366001129150 154 154 154
25.386035919189 20.749469757080 62.329998016357 151 151 151
25.386035919189 20.749469757080 62.294002532959 146 146 146
25.386035919189 20.749469757080 62.259002685547 154 154 154
25.386035919189 20.749469757080 62.222999572754 152 152 152
25.386035919189 20.749469757080 62.187000274658 150 150 150
25.386035919189 20.749469757080 62.151000976563 154 154 154
25.386035919189 20.749469757080 62.114997863770 142 142 142
25.386035919189 20.749469757080 62.078998565674 155 155 155
25.386035919189 20.749469757080 62.041999816895 154 154 154
25.386035919189 20.749469757080 62.006999969482 154 154 154
25.386035919189 20.749469757080 61.970001220703 156 156 156
25.386035919189 20.749469757080 61.934001922607 153 153 153
25.386035919189 20.749469757080 61.897003173828 152 152 152
25.386035919189 20.749469757080 61.861000061035 152 152 152
25.386035919189 20.749469757080 61.824001312256 152 152 152
25.386035919189 20.749469757080 61.787002563477 150 150 150
25.386035919189 20.749469757080 61.748001098633 130 130 130
25.386035919189 20.749469757080 61.711997985840 120 120 120
25.386035919189 20.749469757080 61.673999786377 157 157 157
25.386035919189 20.749469757080 61.636001586914 141 141 141
25.386035919189 20.749469757080 61.598999023438 159 159 159
25.386035919189 20.749469757080 61.559001922607 160 160 160
25.386035919189 20.749469757080 61.524002075195 157 157 157
25.386035919189 20.749469757080 61.485000610352 156 156 156
25.386035919189 20.749469757080 61.443000793457 147 147 147
25.386035919189 20.749469757080 61.402999877930 152 152 152
25.386035919189 20.749469757080 61.363998413086 157 157 157
25.386035919189 20.749469757080 61.319999694824 122 122 122
25.386035919189 20.749469757080 61.282001495361 128 128 128
25.386035919189 20.749469757080 61.244003295898 151 151 151
25.386035919189 20.749469757080 61.200000762939 153 153 153
25.386035919189 20.749469757080 61.161003112793 157 157 157
25.386035919189 20.749469757080 61.117000579834 160 160 160
25.386035919189 20.749469757080 61.073001861572 149 149 149
25.386035919189 20.749469757080 61.034999847412 149 149 149
25.386035919189 20.749469757080 60.994003295898 124 124 124
25.386035919189 20.749469757080 60.944999694824 140 140 140
25.386035919189 20.749469757080 60.900001525879 115 115 115
25.386035919189 20.749469757080 60.859001159668 108 108 108
25.386035919189 20.749469757080 60.809001922607 99 99 99
25.386035919189 20.749469757080 60.763999938965 111 111 111
25.386035919189 20.749469757080 60.714000701904 116 116 116
25.386035919189 20.749469757080 60.670001983643 109 109 109
25.386035919189 20.749469757080 60.625000000000 110 110 110
25.386035919189 20.749469757080 60.571998596191 93 93 93
25.386035919189 20.749469757080 60.527000427246 91 91 91
25.386035919189 20.749469757080 60.477001190186 102 102 102
25.386035919189 20.749469757080 60.430000305176 92 92 92
25.386035919189 20.749469757080 60.380001068115 95 95 95
25.386035919189 20.749469757080 60.336997985840 90 90 90
25.386035919189 20.749469757080 60.312000274658 97 97 97
25.511030197144 20.750631332397 65.152000427246 153 153 153
25.511030197144 20.750631332397 65.077003479004 147 147 147
25.511030197144 20.750631332397 65.015998840332 149 149 149
25.511030197144 20.750631332397 64.944999694824 149 149 149
25.511030197144 20.750631332397 64.887001037598 151 151 151
25.511030197144 20.750631332397 64.825996398926 148 148 148
25.511030197144 20.750631332397 64.777999877930 151 151 151
25.511030197144 20.750631332397 64.695999145508 151 151 151
25.510450363159 20.813129425049 64.613998413086 131 131 131
25.510450363159 20.813129425049 64.558998107910 137 137 137
25.511030197144 20.750631332397 64.523002624512 133 133 133
25.511030197144 20.750631332397 64.486000061035 130 130 130
25.511030197144 20.750631332397 64.424003601074 129 129 129
25.511030197144 20.750631332397 64.367996215820 136 136 136
25.511030197144 20.750631332397 64.319999694824 135 135 135
25.511030197144 20.750631332397 64.264999389648 137 137 137
25.511030197144 20.750631332397 64.218002319336 143 143 143
25.511030197144 20.750631332397 64.174003601074 140 140 140
25.511030197144 20.750631332397 64.125000000000 148 148 148
25.511030197144 20.750631332397 64.078002929688 142 142 142
25.511030197144 20.750631332397 64.031997680664 142 142 142
25.511030197144 20.750631332397 63.980003356934 145 145 145
25.511030197144 20.750631332397 63.941001892090 146 146 146
25.511030197144 20.750631332397 63.893001556396 146 146 146
25.511030197144 20.750631332397 63.849998474121 140 140 140
25.511030197144 20.750631332397 63.807003021240 143 143 143
25.511030197144 20.750631332397 63.763999938965 144 144 144
25.511030197144 20.750631332397 63.721000671387 135 135 135
25.511030197144 20.750631332397 63.679000854492 143 143 143
25.511030197144 20.750631332397 63.640003204346 141 141 141
25.511030197144 20.750631332397 63.597999572754 143 143 143
25.511030197144 20.750631332397 63.555999755859 147 147 147
25.511030197144 20.750631332397 63.513000488281 149 149 149
25.511030197144 20.750631332397 63.471000671387 153 153 153
25.511030197144 20.750631332397 63.432003021240 150 150 150
25.511030197144 20.750631332397 63.395999908447 150 150 150
25.511030197144 20.750631332397 63.352001190186 153 153 153
25.511030197144 20.750631332397 63.316001892090 153 153 153
25.511030197144 20.750631332397 63.277999877930 151 151 151
25.511030197144 20.750631332397 63.238998413086 147 147 147
25.511030197144 20.750631332397 63.201999664307 145 145 145
25.511030197144 20.750631332397 63.163002014160 146 146 146
25.511030197144 20.750631332397 63.125000000000 150 150 150
25.511030197144 20.750631332397 63.089000701904 150 150 150
25.511030197144 20.750631332397 63.050003051758 150 150 150
25.511030197144 20.750631332397 63.015003204346 149 149 149
25.511030197144 20.750631332397 62.977001190186 151 151 151
25.511030197144 20.750631332397 62.940002441406 152 152 152
25.511030197144 20.750631332397 62.902999877930 152 152 152
25.511030197144 20.750631332397 62.868000030518 159 159 159
25.511030197144 20.750631332397 62.831001281738 160 160 160
25.511030197144 20.750631332397 62.794002532959 154 154 154
25.511030197144 20.750631332397 62.759002685547 157 157 157
25.511030197144 20.750631332397 62.722000122070 156 156 156
25.511030197144 20.750631332397 62.685001373291 150 150 150
25.511030197144 20.750631332397 62.651000976563 157 157 157
25.511030197144 20.750631332397 62.614997863770 153 153 153
25.511030197144 20.750631332397 62.578998565674 156 156 156
25.511030197144 20.750631332397 62.543003082275 155 155 155
25.511030197144 20.750631332397 62.508003234863 151 151 151
25.511030197144 20.750631332397 62.472000122070 153 153 153
25.511030197144 20.750631332397 62.436000823975 152 152 152
25.511030197144 20.750631332397 62.400001525879 155 155 155
25.511030197144 20.750631332397 62.364997863770 155 155 155
25.511030197144 20.750631332397 62.328998565674 153 153 153
25.511030197144 20.750631332397 62.293003082275 154 154 154
25.511030197144 20.750631332397 62.256999969482 153 153 153
25.511030197144 20.750631332397 62.222000122070 152 152 152
25.511030197144 20.750631332397 62.186000823975 154 154 154
25.511030197144 20.750631332397 62.150001525879 153 153 153
25.511030197144 20.750631332397 62.113002777100 145 145 145
25.511030197144 20.750631332397 62.077999114990 152 152 152
25.511030197144 20.750631332397 62.041999816895 152 152 152
25.511030197144 20.750631332397 62.006000518799 154 154 154
25.511030197144 20.750631332397 61.967998504639 151 151 151
25.511030197144 20.750631332397 61.933002471924 156 156 156
25.511030197144 20.750631332397 61.895000457764 157 157 157
25.511030197144 20.750631332397 61.859001159668 154 154 154
25.511030197144 20.750631332397 61.823001861572 153 153 153
25.511030197144 20.750631332397 61.784999847412 149 149 149
25.511030197144 20.750631332397 61.748001098633 156 156 156
25.511030197144 20.750631332397 61.708999633789 128 128 128
25.511030197144 20.750631332397 61.673000335693 151 151 151
25.511030197144 20.750631332397 61.635002136230 140 140 140
25.511030197144 20.750631332397 61.597000122070 150 150 150
25.511030197144 20.750631332397 61.558002471924 152 152 152
25.511030197144 20.750631332397 61.519001007080 149 149 149
25.511030197144 20.750631332397 61.480998992920 158 158 158
25.511030197144 20.750631332397 61.443000793457 148 148 148
25.511030197144 20.750631332397 61.401000976563 151 151 151
25.511030197144 20.750631332397 61.361000061035 154 154 154
25.511030197144 20.750631332397 61.327999114990 133 133 133
25.511030197144 20.750631332397 61.283000946045 119 119 119
25.511030197144 20.750631332397 61.239997863770 148 148 148
25.511030197144 20.750631332397 61.201000213623 148 148 148
25.511030197144 20.750631332397 61.159000396729 154 154 154
25.511030197144 20.750631332397 61.120002746582 149 149 149
25.511030197144 20.750631332397 61.077999114990 155 155 155
25.511030197144 20.750631332397 61.032001495361 149 149 149
25.511030197144 20.750631332397 60.986000061035 151 151 151
25.511030197144 20.750631332397 60.945999145508 101 101 101
25.511030197144 20.750631332397 60.900001525879 119 119 119
25.511030197144 20.750631332397 60.856998443604 125 125 125
25.511030197144 20.750631332397 60.809001922607 149 149 149
25.511030197144 20.750631332397 60.762001037598 142 142 142
25.511610031128 20.688135147095 60.711997985840 146 146 146
25.511030197144 20.750631332397 60.670001983643 139 139 139
25.511030197144 20.750631332397 60.627002716064 138 138 138
25.511030197144 20.750631332397 60.576000213623 115 115 115
25.511030197144 20.750631332397 60.527000427246 95 95 95
25.511610031128 20.688135147095 60.473999023438 111 111 111
25.511030197144 20.750631332397 60.432003021240 96 96 96
25.511030197144 20.750631332397 60.381000518799 95 95 95
25.511030197144 20.750631332397 60.333999633789 85 85 85
25.512191772461 20.625637054443 65.131004333496 151 151 151
25.512191772461 20.625637054443 65.067001342773 150 150 150
25.512191772461 20.625637054443 65.008003234863 150 150 150
25.512191772461 20.625637054443 64.958000183105 151 151 151
25.512191772461 20.625637054443 64.892997741699 154 154 154
25.512191772461 20.625637054443 64.836997985840 152 152 152
25.512191772461 20.625637054443 64.775001525879 151 151 151
25.511610031128 20.688135147095 64.652999877930 133 133 133
25.511610031128 20.688135147095 64.600997924805 123 123 123
25.511610031128 20.688135147095 64.569999694824 135 135 135
25.512191772461 20.625637054443 64.573997497559 153 153 153
25.512191772461 20.625637054443 64.513000488281 154 154 154
25.512191772461 20.625637054443 64.462997436523 160 160 160
25.512191772461 20.625637054443 64.409004211426 163 163 163
25.512191772461 20.625637054443 64.353996276855 155 155 155
25.512191772461 20.625637054443 64.311004638672 169 169 169
25.512191772461 20.625637054443 64.260002136230 168 168 168
25.512771606445 20.563140869141 64.210998535156 165 165 165
25.512771606445 20.563140869141 64.164001464844 167 167 167
25.512771606445 20.563140869141 64.114997863770 161 161 161
25.512771606445 20.563140869141 64.066001892090 162 162 162
25.512771606445 20.563140869141 64.020004272461 164 164 164
25.512771606445 20.563140869141 63.974998474121 165 165 165
25.512771606445 20.563140869141 63.930999755859 164 164 164
25.512771606445 20.563140869141 63.881999969482 165 165 165
25.512771606445 20.563140869141 63.839000701904 168 168 168
25.512771606445 20.563140869141 63.794002532959 167 167 167
25.512771606445 20.563140869141 63.750000000000 163 163 163
25.512771606445 20.563140869141 63.704998016357 166 166 166
25.512771606445 20.563140869141 63.661003112793 163 163 163
25.512771606445 20.563140869141 63.620002746582 163 163 163
25.512771606445 20.563140869141 63.575000762939 165 165 165
25.512771606445 20.563140869141 63.523002624512 162 162 162
25.511610031128 20.688135147095 63.428001403809 155 155 155
25.511610031128 20.688135147095 63.388000488281 150 150 150
25.511610031128 20.688135147095 63.347000122070 152 152 152
25.512191772461 20.625637054443 63.331001281738 154 154 154
25.512771606445 20.563140869141 63.319999694824 158 158 158
25.512771606445 20.563140869141 63.281002044678 159 159 159
25.512771606445 20.563140869141 63.239997863770 158 158 158
25.512771606445 20.563140869141 63.199001312256 162 162 162
25.512771606445 20.563140869141 63.155002593994 157 157 157
25.513353347778 20.500642776489 63.118000030518 157 157 157
25.513353347778 20.500642776489 63.076999664307 156 156 156
25.513353347778 20.500642776489 63.036003112793 151 151 151
25.513353347778 20.500642776489 62.995002746582 154 154 154
25.513353347778 20.500642776489 62.954998016357 151 151 151
25.513353347778 20.500642776489 62.915000915527 145 145 145
25.513353347778 20.500642776489 62.876003265381 148 148 148
25.513353347778 20.500642776489 62.838001251221 147 147 147
25.513353347778 20.500642776489 62.796001434326 149 149 149
25.513353347778 20.500642776489 62.758003234863 145 145 145
25.513353347778 20.500642776489 62.716999053955 141 141 141
25.513353347778 20.500642776489 62.678001403809 143 143 143
25.513353347778 20.500642776489 62.640003204346 137 137 137
25.513353347778 20.500642776489 62.599998474121 135 135 135
25.513353347778 20.500642776489 62.561000823975 135 135 135
25.513353347778 20.500642776489 62.522003173828 140 140 140
25.513353347778 20.500642776489 62.482997894287 147 147 147
25.513353347778 20.500642776489 62.443000793457 152 152 152
25.513353347778 20.500642776489 62.404003143311 144 144 144
25.513353347778 20.500642776489 62.364997863770 146 146 146
25.513353347778 20.500642776489 62.326000213623 147 147 147
25.513353347778 20.500642776489 62.287002563477 143 143 143
25.511610031128 20.688135147095 62.253997802734 149 149 149
25.511610031128 20.688135147095 62.216999053955 150 150 150
25.511610031128 20.688135147095 62.180000305176 154 154 154
25.511610031128 20.688135147095 62.144001007080 155 155 155
25.512771606445 20.563140869141 62.093997955322 125 125 125
25.513353347778 20.500642776489 62.051002502441 117 117 117
25.513353347778 20.500642776489 62.011001586914 117 117 117
25.513353347778 20.500642776489 61.971000671387 117 117 117
25.513353347778 20.500642776489 61.930999755859 118 118 118
25.513353347778 20.500642776489 61.891002655029 89 89 89
25.513353347778 20.500642776489 61.852001190186 80 80 80
25.513353347778 20.500642776489 61.812999725342 97 97 97
25.513353347778 20.500642776489 61.772003173828 91 91 91
25.513353347778 20.500642776489 61.729000091553 92 92 92
25.513353347778 20.500642776489 61.687000274658 87 87 87
25.513353347778 20.500642776489 61.650001525879 83 83 83
25.513353347778 20.500642776489 61.603000640869 99 99 99
25.513353347778 20.500642776489 61.565002441406 101 101 101
25.513353347778 20.500642776489 61.523002624512 95 95 95
25.513353347778 20.500642776489 61.480998992920 81 81 81
25.513353347778 20.500642776489 61.438999176025 92 92 92
25.513353347778 20.500642776489 61.397003173828 84 84 84
25.513353347778 20.500642776489 61.352001190186 82 82 82
25.513353347778 20.500642776489 61.305999755859 83 83 83
25.513353347778 20.500642776489 61.265003204346 86 86 86
25.388359069824 20.499481201172 61.215999603271 88 88 88
25.513353347778 20.500642776489 61.173000335693 101 101 101
25.513353347778 20.500642776489 61.131999969482 64 64 64
25.513353347778 20.500642776489 61.088001251221 91 91 91
25.512191772461 20.625637054443 61.092998504639 116 116 116
25.511610031128 20.688135147095 61.083000183105 153 153 153
25.511610031128 20.688135147095 61.034999847412 145 145 145
25.511610031128 20.688135147095 60.988002777100 135 135 135
25.388938903809 20.436983108521 60.839000701904 119 119 119
25.388938903809 20.436983108521 60.777999877930 123 123 123
25.389520645142 20.374486923218 60.708999633789 127 127 127
25.388938903809 20.436983108521 60.678001403809 137 137 137
25.389520645142 20.374486923218 60.620002746582 152 152 152
25.389520645142 20.374486923218 60.565002441406 155 155 155
25.388938903809 20.436983108521 60.526000976563 135 135 135
25.388938903809 20.436983108521 60.480998992920 119 119 119
25.388938903809 20.436983108521 60.429000854492 113 113 113
25.637186050415 20.626798629761 64.665000915527 84 84 84
25.637186050415 20.626798629761 64.617004394531 87 87 87
25.637186050415 20.626798629761 64.562004089355 94 94 94
25.637186050415 20.626798629761 64.519004821777 71 71 71
25.637186050415 20.626798629761 64.460998535156 87 87 87
25.637186050415 20.626798629761 64.408004760742 75 75 75
25.637186050415 20.626798629761 64.353996276855 80 80 80
25.637186050415 20.626798629761 64.302001953125 103 103 103
25.637186050415 20.626798629761 64.247001647949 115 115 115
25.637186050415 20.626798629761 64.208000183105 116 116 116
25.637186050415 20.626798629761 64.150001525879 109 109 109
25.637186050415 20.626798629761 64.102996826172 126 126 126
25.637186050415 20.626798629761 64.055999755859 133 133 133
25.637186050415 20.626798629761 64.013999938965 140 140 140
25.637186050415 20.626798629761 63.964000701904 132 132 132
25.637186050415 20.626798629761 63.916000366211 135 135 135
25.637186050415 20.626798629761 63.871002197266 139 139 139
25.637186050415 20.626798629761 63.826000213623 131 131 131
25.512771606445 20.563140869141 63.783000946045 137 137 137
25.637186050415 20.626798629761 63.734001159668 124 124 124
25.512771606445 20.563140869141 63.693000793457 129 129 129
25.512771606445 20.563140869141 63.648002624512 131 131 131
25.512771606445 20.563140869141 63.611000061035 143 143 143
25.512771606445 20.563140869141 63.567001342773 142 142 142
25.512771606445 20.563140869141 63.523002624512 146 146 146
25.512771606445 20.563140869141 63.475997924805 136 136 136
25.637186050415 20.626798629761 63.427001953125 155 155 155
25.637186050415 20.626798629761 63.387001037598 153 153 153
25.637186050415 20.626798629761 63.343997955322 152 152 152
25.512771606445 20.563140869141 63.317001342773 154 154 154
25.512771606445 20.563140869141 63.276000976563 152 152 152
25.512771606445 20.563140869141 63.236000061035 153 153 153
25.512771606445 20.563140869141 63.193000793457 156 156 156
25.513353347778 20.500642776489 63.157001495361 161 161 161
25.513353347778 20.500642776489 63.116001129150 150 150 150
25.513353347778 20.500642776489 63.076999664307 162 162 162
25.513353347778 20.500642776489 63.037002563477 146 146 146
25.513353347778 20.500642776489 62.995002746582 160 160 160
25.513353347778 20.500642776489 62.954998016357 151 151 151
25.513353347778 20.500642776489 62.916000366211 161 161 161
25.513353347778 20.500642776489 62.877002716064 155 155 155
25.513353347778 20.500642776489 62.839000701904 163 163 163
25.513353347778 20.500642776489 62.798999786377 162 162 162
25.513353347778 20.500642776489 62.760002136230 171 171 171
25.513353347778 20.500642776489 62.720001220703 165 165 165
25.513353347778 20.500642776489 62.680000305176 162 162 162
25.513353347778 20.500642776489 62.642002105713 164 164 164
25.513353347778 20.500642776489 62.603000640869 164 164 164
25.513353347778 20.500642776489 62.562999725342 169 169 169
25.513353347778 20.500642776489 62.524002075195 164 164 164
25.513353347778 20.500642776489 62.484001159668 167 167 167
25.513353347778 20.500642776489 62.444999694824 168 168 168
25.513353347778 20.500642776489 62.406002044678 166 166 166
25.513353347778 20.500642776489 62.366001129150 170 170 170
25.513353347778 20.500642776489 62.326999664307 164 164 164
25.513353347778 20.500642776489 62.287002563477 162 162 162
25.512771606445 20.563140869141 62.251003265381 150 150 150
25.637186050415 20.626798629761 62.214000701904 160 160 160
25.637186050415 20.626798629761 62.176002502441 161 161 161
25.512771606445 20.563140869141 62.136001586914 149 149 149
25.513353347778 20.500642776489 62.088001251221 165 165 165
25.513353347778 20.500642776489 62.047000885010 167 167 167
25.513933181763 20.438144683838 62.006000518799 160 160 160
25.513933181763 20.438144683838 61.966999053955 167 167 167
25.513933181763 20.438144683838 61.926002502441 174 174 174
25.513933181763 20.438144683838 61.886001586914 171 171 171
25.513933181763 20.438144683838 61.845001220703 167 167 167
25.513933181763 20.438144683838 61.804000854492 169 169 169
25.513933181763 20.438144683838 61.762001037598 172 172 172
25.513933181763 20.438144683838 61.718997955322 173 173 173
25.513933181763 20.438144683838 61.678001403809 171 171 171
25.513933181763 20.438144683838 61.635002136230 156 156 156
25.513933181763 20.438144683838 61.595001220703 153 153 153
25.513933181763 20.438144683838 61.552001953125 166 166 166
25.513933181763 20.438144683838 61.510002136230 164 164 164
25.513933181763 20.438144683838 61.464000701904 160 160 160
25.513933181763 20.438144683838 61.421001434326 162 162 162
25.513933181763 20.438144683838 61.378997802734 168 168 168
25.513933181763 20.438144683838 61.334999084473 163 163 163
25.513933181763 20.438144683838 61.289001464844 170 170 170
25.388359069824 20.499481201172 61.246997833252 169 169 169
25.388938903809 20.436983108521 61.199001312256 164 164 164
25.388938903809 20.436983108521 61.155002593994 163 163 163
25.388938903809 20.436983108521 61.109001159668 161 161 161
25.513353347778 20.500642776489 61.086997985840 148 148 148
25.512771606445 20.563140869141 61.075000762939 144 144 144
25.512771606445 20.563140869141 61.026000976563 155 155 155
25.512771606445 20.563140869141 60.960998535156 138 138 138
25.388938903809 20.436983108521 60.869003295898 151 151 151
25.388938903809 20.436983108521 60.823001861572 149 149 149
25.388938903809 20.436983108521 60.774002075195 131 131 131
25.388938903809 20.436983108521 60.723999023438 141 141 141
25.388938903809 20.436983108521 60.675003051758 142 142 142
25.388938903809 20.436983108521 60.625000000000 148 148 148
25.388938903809 20.436983108521 60.573001861572 142 142 142
25.388938903809 20.436983108521 60.518001556396 131 131 131
25.388938903809 20.436983108521 60.473999023438 134 134 134
25.388938903809 20.436983108521 60.428001403809 168 168 168
25.513353347778 20.500642776489 62.760002136230 41 41 41
25.513353347778 20.500642776489 62.721000671387 45 45 45
25.513353347778 20.500642776489 62.682003021240 49 49 49
25.513353347778 20.500642776489 62.641002655029 52 52 52
25.513353347778 20.500642776489 62.602001190186 52 52 52
25.513353347778 20.500642776489 62.562999725342 71 71 71
25.513353347778 20.500642776489 62.523002624512 90 90 90
25.513353347778 20.500642776489 62.484001159668 79 79 79
25.513353347778 20.500642776489 62.444000244141 92 92 92
25.513353347778 20.500642776489 62.405002593994 91 91 91
25.513353347778 20.500642776489 62.364997863770 82 82 82
25.513353347778 20.500642776489 62.326000213623 83 83 83
25.513353347778 20.500642776489 62.286003112793 98 98 98
25.513353347778 20.500642776489 62.246997833252 149 149 149
25.513353347778 20.500642776489 62.207000732422 140 140 140
25.513353347778 20.500642776489 62.169002532959 145 145 145
25.513353347778 20.500642776489 62.128997802734 140 140 140
25.513353347778 20.500642776489 62.088001251221 100 100 100
25.513353347778 20.500642776489 62.050003051758 96 96 96
25.513353347778 20.500642776489 62.009002685547 109 109 109
25.513353347778 20.500642776489 61.967998504639 114 114 114
25.513353347778 20.500642776489 61.928001403809 118 118 118
25.513353347778 20.500642776489 61.888000488281 119 119 119
25.513353347778 20.500642776489 61.846000671387 118 118 118
25.513353347778 20.500642776489 61.810001373291 124 124 124
25.513353347778 20.500642776489 61.763999938965 110 110 110
25.513353347778 20.500642776489 61.722999572754 110 110 110
25.513353347778 20.500642776489 61.683002471924 118 118 118
25.513353347778 20.500642776489 61.638999938965 113 113 113
25.513353347778 20.500642776489 61.597999572754 129 129 129
25.513353347778 20.500642776489 61.554000854492 142 142 142
25.513353347778 20.500642776489 61.512001037598 130 130 130
25.513353347778 20.500642776489 61.470001220703 132 132 132
25.513353347778 20.500642776489 61.427001953125 128 128 128
25.513353347778 20.500642776489 61.385002136230 130 130 130
25.513353347778 20.500642776489 61.343997955322 122 122 122
25.513353347778 20.500642776489 61.298000335693 126 126 126
25.513353347778 20.500642776489 61.251003265381 127 127 127
25.513353347778 20.500642776489 61.209999084473 120 120 120
25.513353347778 20.500642776489 61.163002014160 128 128 128
25.513353347778 20.500642776489 61.118000030518 130 130 130
25.513353347778 20.500642776489 61.075000762939 149 149 149
25.513353347778 20.500642776489 61.031002044678 151 151 151
25.513353347778 20.500642776489 60.980003356934 152 152 152
25.513933181763 20.438144683838 60.922000885010 126 126 126
25.513933181763 20.438144683838 60.878997802734 127 127 127
25.513353347778 20.500642776489 60.833999633789 112 112 112
25.513933181763 20.438144683838 60.773002624512 103 103 103
25.514514923096 20.375648498535 60.710998535156 141 141 141
25.514514923096 20.375648498535 60.657001495361 173 173 173
25.513933181763 20.438144683838 60.623001098633 120 120 120
25.513933181763 20.438144683838 60.566001892090 95 95 95
25.514514923096 20.375648498535 60.499000549316 83 83 83
25.388938903809 20.436983108521 60.651000976563 72 72 72
25.388938903809 20.436983108521 60.561000823975 73 73 73
25.388938903809 20.436983108521 60.506000518799 103 103 103
25.388938903809 20.436983108521 60.456001281738 140 140 140
25.510450363159 20.813129425049 65.167999267578 145 145 145
25.510450363159 20.813129425049 65.099998474121 145 145 145
25.510450363159 20.813129425049 65.028999328613 143 143 143
25.510450363159 20.813129425049 64.965995788574 112 112 112
25.510450363159 20.813129425049 64.903999328613 130 130 130
25.510450363159 20.813129425049 64.846000671387 140 140 140
25.510450363159 20.813129425049 64.789001464844 145 145 145
25.510450363159 20.813129425049 64.722999572754 143 143 143
25.510450363159 20.813129425049 64.669998168945 146 146 146
25.510450363159 20.813129425049 64.609001159668 145 145 145
25.510450363159 20.813129425049 64.558998107910 152 152 152
25.510450363159 20.813129425049 64.496002197266 153 153 153
25.510450363159 20.813129425049 64.442001342773 157 157 157
25.510450363159 20.813129425049 64.395004272461 157 157 157
25.510450363159 20.813129425049 64.335998535156 163 163 163
25.510450363159 20.813129425049 64.288002014160 165 165 165
25.510450363159 20.813129425049 64.236999511719 165 165 165
25.510450363159 20.813129425049 64.191001892090 161 161 161
25.510450363159 20.813129425049 64.141998291016 167 167 167
25.511030197144 20.750631332397 64.097999572754 168 168 168
25.510450363159 20.813129425049 64.048004150391 164 164 164
25.510450363159 20.813129425049 64.002998352051 164 164 164
25.510450363159 20.813129425049 63.956001281738 161 161 161
25.511030197144 20.750631332397 63.913002014160 162 162 162
25.511030197144 20.750631332397 63.873001098633 154 154 154
25.511030197144 20.750631332397 63.826000213623 155 155 155
25.511030197144 20.750631332397 63.787002563477 153 153 153
25.511030197144 20.750631332397 63.741001129150 155 155 155
25.511030197144 20.750631332397 63.701999664307 155 155 155
25.511030197144 20.750631332397 63.663002014160 151 151 151
25.511030197144 20.750631332397 63.623001098633 156 156 156
25.511030197144 20.750631332397 63.577999114990 160 160 160
25.511030197144 20.750631332397 63.538002014160 158 158 158
25.511030197144 20.750631332397 63.498001098633 164 164 164
25.511030197144 20.750631332397 63.463001251221 168 168 168
25.386035919189 20.749469757080 63.429000854492 165 165 165
25.511030197144 20.750631332397 63.388000488281 158 158 158
25.386035919189 20.749469757080 63.352001190186 165 165 165
25.386035919189 20.749469757080 63.318000793457 163 163 163
25.511030197144 20.750631332397 63.277000427246 158 158 158
25.386035919189 20.749469757080 63.242000579834 158 158 158
25.386035919189 20.749469757080 63.208000183105 153 153 153
25.386035919189 20.749469757080 63.173999786377 152 152 152
25.386035919189 20.749469757080 63.137001037598 151 151 151
25.386035919189 20.749469757080 63.103000640869 151 151 151
25.386035919189 20.749469757080 63.069999694824 152 152 152
25.386035919189 20.749469757080 63.030002593994 153 153 153
25.386035919189 20.749469757080 62.999000549316 158 158 158
25.386035919189 20.749469757080 62.964000701904 158 158 158
25.386035919189 20.749469757080 62.929000854492 162 162 162
25.386035919189 20.749469757080 62.897003173828 164 164 164
25.386035919189 20.749469757080 62.863998413086 163 163 163
25.386035919189 20.749469757080 62.831001281738 163 163 163
25.386035919189 20.749469757080 62.797000885010 164 164 164
25.386035919189 20.749469757080 62.765003204346 164 164 164
25.386035919189 20.749469757080 62.731998443604 165 165 165
25.386035919189 20.749469757080 62.699001312256 165 165 165
25.386035919189 20.749469757080 62.666999816895 166 166 166
25.386035919189 20.749469757080 62.634002685547 167 167 167
25.386035919189 20.749469757080 62.602001190186 176 176 176
25.386035919189 20.749469757080 62.569999694824 168 168 168
25.386035919189 20.749469757080 62.538002014160 167 167 167
25.386035919189 20.749469757080 62.506999969482 171 171 171
25.386035919189 20.749469757080 62.475997924805 169 169 169
25.386035919189 20.749469757080 62.443000793457 178 178 178
25.386035919189 20.749469757080 62.412002563477 184 184 184
25.386035919189 20.749469757080 62.381000518799 179 179 179
25.386035919189 20.749469757080 62.349998474121 209 209 209
25.386035919189 20.749469757080 62.318000793457 206 206 206
25.386035919189 20.749469757080 62.287002563477 210 210 210
25.386035919189 20.749469757080 62.256000518799 219 219 219
25.386035919189 20.749469757080 62.223999023438 214 214 214
25.386035919189 20.749469757080 62.193000793457 194 194 194
25.386035919189 20.749469757080 62.161003112793 248 248 248
25.386035919189 20.749469757080 62.130001068115 248 248 248
25.386035919189 20.749469757080 62.098999023438 247 247 247
25.386035919189 20.749469757080 62.067001342773 247 247 247
25.386035919189 20.749469757080 62.036003112793 190 190 190
25.386035919189 20.749469757080 62.005001068115 170 170 170
25.386035919189 20.749469757080 61.972999572754 184 184 184
25.386035919189 20.749469757080 61.942001342773 180 180 180
25.386035919189 20.749469757080 61.911003112793 180 180 180
25.386035919189 20.749469757080 61.878002166748 175 175 175
25.386035919189 20.749469757080 61.847000122070 174 174 174
25.386035919189 20.749469757080 61.816001892090 174 174 174
25.386035919189 20.749469757080 61.783000946045 167 167 167
25.386035919189 20.749469757080 61.750000000000 143 143 143
25.386035919189 20.749469757080 61.718997955322 150 150 150
25.386035919189 20.749469757080 61.686000823975 167 167 167
25.386035919189 20.749469757080 61.654003143311 168 168 168
25.386035919189 20.749469757080 61.621997833252 164 164 164
25.386035919189 20.749469757080 61.588001251221 183 183 183
25.386035919189 20.749469757080 61.557003021240 177 177 177
25.386035919189 20.749469757080 61.524002075195 170 170 170
25.386035919189 20.749469757080 61.488998413086 173 173 173
25.386035919189 20.749469757080 61.456001281738 176 176 176
25.386035919189 20.749469757080 61.422000885010 161 161 161
25.386035919189 20.749469757080 61.388999938965 171 171 171
25.386035919189 20.749469757080 61.355003356934 167 167 167
25.386035919189 20.749469757080 61.319000244141 141 141 141
25.386035919189 20.749469757080 61.283000946045 139 139 139
25.386035919189 20.749469757080 61.249000549316 163 163 163
25.386035919189 20.749469757080 61.215000152588 166 166 166
25.386035919189 20.749469757080 61.180000305176 170 170 170
25.386035919189 20.749469757080 61.144001007080 168 168 168
25.386035919189 20.749469757080 61.107997894287 167 167 167
25.386035919189 20.749469757080 61.071998596191 156 156 156
25.386035919189 20.749469757080 61.034000396729 164 164 164
25.386035919189 20.749469757080 60.994003295898 152 152 152
25.386035919189 20.749469757080 60.954998016357 141 141 141
25.386035919189 20.749469757080 60.916999816895 158 158 158
25.386035919189 20.749469757080 60.878997802734 133 133 133
25.386035919189 20.749469757080 60.840000152588 124 124 124
25.386035919189 20.749469757080 60.804000854492 121 121 121
25.386035919189 20.749469757080 60.758003234863 133 133 133
25.386035919189 20.749469757080 60.718997955322 143 143 143
25.386035919189 20.749469757080 60.682003021240 125 125 125
25.386035919189 20.749469757080 60.640003204346 129 129 129
25.386035919189 20.749469757080 60.596000671387 143 143 143
25.386035919189 20.749469757080 60.553001403809 112 112 112
25.386035919189 20.749469757080 60.505001068115 116 116 116
25.386035919189 20.749469757080 60.470001220703 119 119 119
25.386035919189 20.749469757080 60.430999755859 117 117 117
25.386035919189 20.749469757080 60.383003234863 123 123 123
25.386035919189 20.749469757080 60.340999603271 116 116 116
25.386035919189 20.749469757080 60.298000335693 113 113 113
25.510450363159 20.813129425049 65.173004150391 140 140 140
25.510450363159 20.813129425049 65.100997924805 143 143 143
25.509868621826 20.875627517700 65.030998229980 139 139 139
25.509868621826 20.875627517700 64.963996887207 118 118 118
25.510450363159 20.813129425049 64.904998779297 147 147 147
25.510450363159 20.813129425049 64.842002868652 148 148 148
25.510450363159 20.813129425049 64.785003662109 150 150 150
25.510450363159 20.813129425049 64.723999023438 151 151 151
25.510450363159 20.813129425049 64.661003112793 146 146 146
25.510450363159 20.813129425049 64.608001708984 148 148 148
25.509868621826 20.875627517700 64.546005249023 151 151 151
25.509868621826 20.875627517700 64.489997863770 157 157 157
25.510450363159 20.813129425049 64.441001892090 159 159 159
25.510450363159 20.813129425049 64.386001586914 157 157 157
25.510450363159 20.813129425049 64.335998535156 160 160 160
25.510450363159 20.813129425049 64.285003662109 161 161 161
25.510450363159 20.813129425049 64.236000061035 163 163 163
25.510450363159 20.813129425049 64.183998107910 163 163 163
25.510450363159 20.813129425049 64.138000488281 165 165 165
25.510450363159 20.813129425049 64.092002868652 168 168 168
25.510450363159 20.813129425049 64.044998168945 169 169 169
25.510450363159 20.813129425049 64.000000000000 164 164 164
25.511030197144 20.750631332397 63.958999633789 164 164 164
25.511030197144 20.750631332397 63.913002014160 159 159 159
25.510450363159 20.813129425049 63.863998413086 160 160 160
25.511030197144 20.750631332397 63.825000762939 161 161 161
25.511030197144 20.750631332397 63.783000946045 159 159 159
25.511030197144 20.750631332397 63.744003295898 157 157 157
25.511030197144 20.750631332397 63.701000213623 164 164 164
25.511030197144 20.750631332397 63.659999847412 163 163 163
25.511030197144 20.750631332397 63.616001129150 162 162 162
25.511030197144 20.750631332397 63.578998565674 164 164 164
25.511030197144 20.750631332397 63.541000366211 165 165 165
25.511030197144 20.750631332397 63.502002716064 168 168 168
25.511030197144 20.750631332397 63.461997985840 170 170 170
25.511030197144 20.750631332397 63.421001434326 169 169 169
25.511030197144 20.750631332397 63.388000488281 171 171 171
25.511030197144 20.750631332397 63.350997924805 168 168 168
25.511030197144 20.750631332397 63.315002441406 166 166 166
25.511030197144 20.750631332397 63.275001525879 165 165 165
25.511030197144 20.750631332397 63.242000579834 162 162 162
25.511030197144 20.750631332397 63.208000183105 159 159 159
25.511030197144 20.750631332397 63.173000335693 156 156 156
25.511030197144 20.750631332397 63.135002136230 156 156 156
25.511030197144 20.750631332397 63.105003356934 154 154 154
25.511030197144 20.750631332397 63.068000793457 156 156 156
25.511030197144 20.750631332397 63.032001495361 158 158 158
25.511030197144 20.750631332397 62.996002197266 161 161 161
25.511030197144 20.750631332397 62.963001251221 163 163 163
25.511030197144 20.750631332397 62.928001403809 167 167 167
25.511030197144 20.750631332397 62.894001007080 167 167 167
25.511030197144 20.750631332397 62.863002777100 163 163 163
25.511030197144 20.750631332397 62.827999114990 161 161 161
25.511030197144 20.750631332397 62.795001983643 165 165 165
25.511030197144 20.750631332397 62.763999938965 166 166 166
25.511030197144 20.750631332397 62.730003356934 167 167 167
25.511030197144 20.750631332397 62.698001861572 165 165 165
25.511030197144 20.750631332397 62.665000915527 167 167 167
25.511030197144 20.750631332397 62.633003234863 170 170 170
25.511030197144 20.750631332397 62.602001190186 172 172 172
25.511030197144 20.750631332397 62.569000244141 174 174 174
25.511030197144 20.750631332397 62.536003112793 170 170 170
25.511030197144 20.750631332397 62.505001068115 166 166 166
25.511030197144 20.750631332397 62.474998474121 166 166 166
25.511030197144 20.750631332397 62.443000793457 170 170 170
25.511030197144 20.750631332397 62.411003112793 170 170 170
25.511030197144 20.750631332397 62.378997802734 178 178 178
25.511030197144 20.750631332397 62.347999572754 194 194 194
25.511030197144 20.750631332397 62.317001342773 187 187 187
25.511030197144 20.750631332397 62.286003112793 192 192 192
25.511030197144 20.750631332397 62.255001068115 210 210 210
25.511030197144 20.750631332397 62.222999572754 248 248 248
25.511030197144 20.750631332397 62.191001892090 247 247 247
25.511030197144 20.750631332397 62.159999847412 248 248 248
25.511030197144 20.750631332397 62.128997802734 242 242 242
25.511030197144 20.750631332397 62.097999572754 247 247 247
25.511030197144 20.750631332397 62.066001892090 230 230 230
25.511030197144 20.750631332397 62.034999847412 191 191 191
25.511030197144 20.750631332397 62.003997802734 187 187 187
25.511030197144 20.750631332397 61.972000122070 175 175 175
25.511030197144 20.750631332397 61.941001892090 173 173 173
25.511030197144 20.750631332397 61.909000396729 173 173 173
25.511030197144 20.750631332397 61.877002716064 173 173 173
25.511030197144 20.750631332397 61.846000671387 170 170 170
25.511030197144 20.750631332397 61.813999176025 173 173 173
25.511030197144 20.750631332397 61.783000946045 167 167 167
25.511030197144 20.750631332397 61.750000000000 170 170 170
25.511030197144 20.750631332397 61.716999053955 143 143 143
25.511030197144 20.750631332397 61.685001373291 164 164 164
25.511030197144 20.750631332397 61.652999877930 154 154 154
25.511030197144 20.750631332397 61.620002746582 171 171 171
25.511030197144 20.750631332397 61.588001251221 169 169 169
25.511030197144 20.750631332397 61.555000305176 165 165 165
25.511030197144 20.750631332397 61.522003173828 162 162 162
25.511030197144 20.750631332397 61.489997863770 168 168 168
25.511030197144 20.750631332397 61.456001281738 169 169 169
25.511030197144 20.750631332397 61.421001434326 162 162 162
25.511030197144 20.750631332397 61.388999938965 165 165 165
25.511030197144 20.750631332397 61.354000091553 166 166 166
25.511030197144 20.750631332397 61.316001892090 141 141 141
25.511030197144 20.750631332397 61.284000396729 139 139 139
25.511030197144 20.750631332397 61.249000549316 165 165 165
25.511030197144 20.750631332397 61.214000701904 168 168 168
25.511030197144 20.750631332397 61.177001953125 167 167 167
25.511030197144 20.750631332397 61.145000457764 168 168 168
25.511030197144 20.750631332397 61.106998443604 162 162 162
25.511030197144 20.750631332397 61.069999694824 174 174 174
25.511030197144 20.750631332397 61.033000946045 162 162 162
25.511030197144 20.750631332397 60.992000579834 163 163 163
25.511030197144 20.750631332397 60.952999114990 142 142 142
25.511030197144 20.750631332397 60.918003082275 136 136 136
25.511030197144 20.750631332397 60.878002166748 133 133 133
25.511030197144 20.750631332397 60.840999603271 162 162 162
25.511030197144 20.750631332397 60.803001403809 162 162 162
25.511030197144 20.750631332397 60.762001037598 153 153 153
25.511030197144 20.750631332397 60.721000671387 158 158 158
25.511030197144 20.750631332397 60.682003021240 156 156 156
25.511610031128 20.688135147095 60.634002685547 162 162 162
25.511610031128 20.688135147095 60.592998504639 154 154 154
25.511610031128 20.688135147095 60.552001953125 121 121 121
25.511610031128 20.688135147095 60.506999969482 149 149 149
25.511610031128 20.688135147095 60.465000152588 144 144 144
25.511610031128 20.688135147095 60.415000915527 136 136 136
25.511030197144 20.750631332397 60.381999969482 121 121 121
25.511610031128 20.688135147095 60.333999633789 139 139 139
25.386035919189 20.749469757080 60.307003021240 144 144 144
25.389520645142 20.374486923218 60.509002685547 61 61 61
25.388938903809 20.436983108521 60.429000854492 178 178 178
25.388938903809 20.436983108521 60.481998443604 134 134 134
25.388938903809 20.436983108521 60.534999847412 125 125 125
25.514514923096 20.375648498535 60.582000732422 133 133 133
25.388938903809 20.436983108521 60.638999938965 137 137 137
25.388938903809 20.436983108521 60.688999176025 143 143 143
25.388938903809 20.436983108521 60.741001129150 137 137 137
25.388938903809 20.436983108521 60.793003082275 131 131 131
25.388938903809 20.436983108521 60.843997955322 127 127 127
25.388938903809 20.436983108521 60.893001556396 123 123 123
25.388938903809 20.436983108521 60.937999725342 139 139 139
25.388359069824 20.499481201172 61.017002105713 84 84 84
25.388359069824 20.499481201172 61.059001922607 117 117 117
25.388359069824 20.499481201172 61.107997894287 130 130 130
25.388938903809 20.436983108521 61.137001037598 138 138 138
25.388938903809 20.436983108521 61.183002471924 145 145 145
25.388938903809 20.436983108521 61.229000091553 144 144 144
25.388938903809 20.436983108521 61.277999877930 132 132 132
25.388938903809 20.436983108521 61.321998596191 139 139 139
25.388938903809 20.436983108521 61.369003295898 133 133 133
25.388938903809 20.436983108521 61.412002563477 128 128 128
25.388938903809 20.436983108521 61.452999114990 125 125 125
25.388938903809 20.436983108521 61.496997833252 131 131 131
25.388938903809 20.436983108521 61.541999816895 127 127 127
25.388359069824 20.499481201172 61.585998535156 116 116 116
25.388938903809 20.436983108521 61.625000000000 90 90 90
25.388359069824 20.499481201172 61.671001434326 89 89 89
25.388938903809 20.436983108521 61.710998535156 89 89 89
25.388938903809 20.436983108521 61.753002166748 95 95 95
25.388938903809 20.436983108521 61.794002532959 109 109 109
25.388938903809 20.436983108521 61.836997985840 101 101 101
25.388359069824 20.499481201172 61.880001068115 69 69 69
25.388359069824 20.499481201172 61.921001434326 99 99 99
25.388359069824 20.499481201172 61.961997985840 105 105 105
25.388359069824 20.499481201172 62.003002166748 108 108 108
25.388359069824 20.499481201172 62.045001983643 110 110 110
25.388359069824 20.499481201172 62.085998535156 89 89 89
25.388359069824 20.499481201172 62.126003265381 71 71 71
25.513353347778 20.500642776489 62.169002532959 112 112 112
25.388359069824 20.499481201172 62.208999633789 98 98 98
25.513353347778 20.500642776489 62.249000549316 88 88 88
25.388359069824 20.499481201172 62.289001464844 50 50 50
25.513353347778 20.500642776489 60.405002593994 102 102 102
25.513933181763 20.438144683838 60.444000244141 156 156 156
25.513933181763 20.438144683838 60.502002716064 109 109 109
25.513933181763 20.438144683838 60.548999786377 99 99 99
25.513933181763 20.438144683838 60.597000122070 111 111 111
25.513933181763 20.438144683838 60.649002075195 119 119 119
25.513933181763 20.438144683838 60.694999694824 135 135 135
25.513933181763 20.438144683838 60.738998413086 143 143 143
25.513933181763 20.438144683838 60.791999816895 146 146 146
25.513933181763 20.438144683838 60.841999053955 148 148 148
25.513933181763 20.438144683838 60.891002655029 164 164 164
25.388359069824 20.499481201172 60.998001098633 89 89 89
25.387777328491 20.561979293823 61.052001953125 83 83 83
25.387777328491 20.561979293823 61.098999023438 103 103 103
25.513933181763 20.438144683838 61.082000732422 163 163 163
25.513933181763 20.438144683838 61.127002716064 166 166 166
25.513933181763 20.438144683838 61.172000885010 158 158 158
25.513933181763 20.438144683838 61.221000671387 155 155 155
25.513933181763 20.438144683838 61.265003204346 167 167 167
25.513933181763 20.438144683838 61.312999725342 170 170 170
25.513933181763 20.438144683838 61.357997894287 171 171 171
25.513933181763 20.438144683838 61.402999877930 169 169 169
25.513933181763 20.438144683838 61.445999145508 138 138 138
25.513933181763 20.438144683838 61.491001129150 158 158 158
25.513933181763 20.438144683838 61.536003112793 135 135 135
25.513933181763 20.438144683838 61.579998016357 155 155 155
25.513933181763 20.438144683838 61.621997833252 165 165 165
25.513933181763 20.438144683838 61.666000366211 137 137 137
25.513933181763 20.438144683838 61.709999084473 175 175 175
25.513933181763 20.438144683838 61.751003265381 170 170 170
25.513933181763 20.438144683838 61.795001983643 174 174 174
25.513933181763 20.438144683838 61.834999084473 163 163 163
25.513933181763 20.438144683838 61.878002166748 170 170 170
25.513933181763 20.438144683838 61.920001983643 170 170 170
25.513933181763 20.438144683838 61.960998535156 169 169 169
25.513933181763 20.438144683838 62.003002166748 168 168 168
25.513353347778 20.500642776489 62.045001983643 173 173 173
25.513353347778 20.500642776489 62.086997985840 177 177 177
25.387777328491 20.561979293823 62.135002136230 143 143 143
25.387777328491 20.561979293823 62.175003051758 135 135 135
25.387777328491 20.561979293823 62.214000701904 131 131 131
25.387777328491 20.561979293823 62.253997802734 128 128 128
25.513353347778 20.500642776489 62.290000915527 173 173 173
25.513353347778 20.500642776489 62.329998016357 172 172 172
25.513353347778 20.500642776489 62.371002197266 172 172 172
25.513353347778 20.500642776489 62.411003112793 169 169 169
25.513353347778 20.500642776489 62.451000213623 173 173 173
25.513353347778 20.500642776489 62.491001129150 173 173 173
25.513353347778 20.500642776489 62.532001495361 170 170 170
25.513353347778 20.500642776489 62.571998596191 169 169 169
25.513353347778 20.500642776489 62.611000061035 170 170 170
25.513353347778 20.500642776489 62.651000976563 159 159 159
25.513353347778 20.500642776489 62.692001342773 167 167 167
25.513353347778 20.500642776489 62.731998443604 165 165 165
25.513353347778 20.500642776489 62.773002624512 164 164 164
25.513353347778 20.500642776489 62.812000274658 164 164 164
25.513353347778 20.500642776489 62.852001190186 168 168 168
25.513353347778 20.500642776489 62.894001007080 167 167 167
25.513353347778 20.500642776489 62.933002471924 166 166 166
25.513353347778 20.500642776489 62.973999023438 165 165 165
25.513353347778 20.500642776489 63.015003204346 160 160 160
25.513353347778 20.500642776489 63.055999755859 152 152 152
25.513353347778 20.500642776489 63.097999572754 161 161 161
25.513353347778 20.500642776489 63.137001037598 158 158 158
25.512771606445 20.563140869141 63.177001953125 151 151 151
25.512771606445 20.563140869141 63.216999053955 140 140 140
25.512771606445 20.563140869141 63.259002685547 145 145 145
25.387777328491 20.561979293823 63.298999786377 140 140 140
25.387777328491 20.561979293823 63.335998535156 135 135 135
25.387777328491 20.561979293823 63.374000549316 121 121 121
25.387777328491 20.561979293823 63.418003082275 124 124 124
25.387777328491 20.561979293823 63.459999084473 119 119 119
25.387777328491 20.561979293823 63.506000518799 120 120 120
