15.971661567688 5.220247268677 62.479003906250 125 125 125
15.973726272583 5.907743453979 63.562011718750 141 141 141
15.847037315369 5.345622062683 62.276000976563 34 34 34
15.722600936890 5.533496856689 63.637023925781 53 53 53
15.722414016724 5.470996856689 63.645996093750 118 118 118
15.722038269043 5.345997810364 63.722015380859 243 243 243
15.722038269043 5.345997810364 63.640014648438 54 54 54
15.722038269043 5.345997810364 62.292999267578 80 80 80
16.962083816528 2.029758453369 56.605010986328 129 129 129
16.962083816528 2.029758453369 56.559997558594 156 156 156
17.087270736694 2.091882705688 56.540008544922 133 133 133
16.962083816528 2.029758453369 56.432006835938 167 167 167
17.087459564209 2.154382705688 56.428009033203 165 165 165
17.087459564209 2.154382705688 56.398010253906 173 173 173
17.087459564209 2.154382705688 56.335998535156 181 181 181
17.213396072388 2.466505050659 63.667999267578 39 39 39
17.213209152222 2.404005050659 63.611999511719 135 135 135
17.213209152222 2.404005050659 63.542022705078 146 146 146
17.088022232056 2.341882705688 63.522003173828 22 22 22
17.213396072388 2.466505050659 61.649017333984 66 66 66
17.213396072388 2.466505050659 61.611022949219 151 151 151
17.213209152222 2.404005050659 61.549011230469 153 153 153
17.213209152222 2.404005050659 61.520019531250 144 144 144
16.837083816528 2.030132293701 56.752014160156 91 91 91
16.837083816528 2.030132293701 56.693023681641 127 127 127
16.837083816528 2.030132293701 56.632995605469 156 156 156
16.837083816528 2.030132293701 56.578002929688 160 160 160
16.837272644043 2.092632293701 56.539001464844 145 145 145
16.962459564209 2.154758453369 56.544006347656 151 151 151
16.962835311890 2.279758453369 56.546020507813 151 151 151
16.963022232056 2.342258453369 56.529998779297 144 144 144
16.962835311890 2.279758453369 56.430023193359 172 172 172
16.963022232056 2.342258453369 56.423004150391 169 169 169
17.088209152222 2.404380798340 56.402008056641 170 170 170
17.088209152222 2.404380798340 56.346008300781 173 173 173
17.214147567749 2.716505050659 63.684997558594 160 160 160
17.213958740234 2.654005050659 63.652008056641 167 167 167
17.088771820068 2.591880798340 63.654998779297 158 158 158
16.963022232056 2.342258453369 63.641021728516 146 146 146
16.963022232056 2.342258453369 63.598022460938 94 94 94
17.214147567749 2.716505050659 61.850006103516 114 114 114
17.214147567749 2.716505050659 61.815002441406 175 175 175
17.213958740234 2.654005050659 61.775024414063 177 177 177
17.088771820068 2.591880798340 61.756011962891 133 133 133
16.837459564209 2.155132293701 62.205017089844 64 64 64
16.837459564209 2.155132293701 62.115020751953 70 70 70
16.837459564209 2.155132293701 62.046020507813 80 80 80
16.837459564209 2.155132293701 61.970001220703 83 83 83
16.963211059570 2.404756546021 61.635009765625 148 148 148
16.963022232056 2.342258453369 61.592010498047 135 135 135
16.963022232056 2.342258453369 61.526000976563 148 148 148
16.837272644043 2.092632293701 61.675018310547 102 102 102
16.837459564209 2.155132293701 61.601013183594 108 108 108
16.837459564209 2.155132293701 61.531005859375 114 114 114
16.837459564209 2.155132293701 61.463012695313 114 114 114
16.837459564209 2.155132293701 61.394012451172 118 118 118
16.837459564209 2.155132293701 61.326995849609 121 121 121
16.837272644043 2.092632293701 61.270996093750 124 124 124
16.837459564209 2.155132293701 61.199005126953 128 128 128
16.837272644043 2.092632293701 61.137023925781 131 131 131
16.837459564209 2.155132293701 61.072021484375 132 132 132
16.837272644043 2.092632293701 61.019012451172 135 135 135
16.837272644043 2.092632293701 60.955017089844 137 137 137
16.837272644043 2.092632293701 60.895996093750 137 137 137
16.837272644043 2.092632293701 60.838012695313 139 139 139
16.837272644043 2.092632293701 60.776000976563 139 139 139
16.837272644043 2.092632293701 60.720001220703 138 138 138
16.837272644043 2.092632293701 60.663024902344 142 142 142
16.837459564209 2.155132293701 60.604003906250 140 140 140
16.837459564209 2.155132293701 60.545013427734 137 137 137
16.837459564209 2.155132293701 60.490997314453 141 141 141
16.837459564209 2.155132293701 60.441009521484 139 139 139
16.837459564209 2.155132293701 60.387023925781 141 141 141
16.837272644043 2.092632293701 60.335998535156 144 144 144
16.837272644043 2.092632293701 60.287017822266 146 146 146
16.837272644043 2.092632293701 60.232025146484 150 150 150
16.837272644043 2.092632293701 60.186004638672 147 147 147
16.837272644043 2.092632293701 60.132995605469 152 152 152
16.837272644043 2.092632293701 60.084014892578 150 150 150
16.837272644043 2.092632293701 60.031005859375 148 148 148
16.837272644043 2.092632293701 59.982025146484 149 149 149
16.837272644043 2.092632293701 59.937011718750 151 151 151
16.837272644043 2.092632293701 59.887023925781 153 153 153
16.837272644043 2.092632293701 59.839996337891 152 152 152
16.837272644043 2.092632293701 59.789001464844 153 153 153
16.837272644043 2.092632293701 59.745025634766 151 151 151
16.837272644043 2.092632293701 59.695007324219 155 155 155
16.837272644043 2.092632293701 59.648010253906 151 151 151
16.837272644043 2.092632293701 59.600006103516 153 153 153
16.837272644043 2.092632293701 59.553009033203 155 155 155
16.837272644043 2.092632293701 59.507995605469 158 158 158
16.837272644043 2.092632293701 59.460021972656 155 155 155
16.837272644043 2.092632293701 59.416015625000 154 154 154
16.837646484375 2.217632293701 59.347015380859 140 140 140
16.837646484375 2.217632293701 59.301025390625 167 167 167
16.837646484375 2.217632293701 59.255004882813 165 165 165
16.837459564209 2.155132293701 59.220001220703 124 124 124
16.837272644043 2.092632293701 59.186004638672 154 154 154
16.837272644043 2.092632293701 59.140014648438 151 151 151
16.837272644043 2.092632293701 59.094024658203 156 156 156
16.837272644043 2.092632293701 59.049011230469 156 156 156
16.837272644043 2.092632293701 59.003021240234 157 157 157
16.837272644043 2.092632293701 58.958007812500 156 156 156
16.837272644043 2.092632293701 58.912017822266 157 157 157
16.837272644043 2.092632293701 58.867004394531 158 158 158
16.837272644043 2.092632293701 58.821014404297 153 153 153
16.837272644043 2.092632293701 58.775024414063 154 154 154
16.712085723877 2.030508041382 58.730010986328 158 158 158
16.712085723877 2.030508041382 58.684020996094 156 156 156
16.837272644043 2.092632293701 58.639007568359 152 152 152
16.837272644043 2.092632293701 58.593017578125 152 152 152
16.837272644043 2.092632293701 58.548004150391 148 148 148
16.712085723877 2.030508041382 58.501007080078 154 154 154
16.712085723877 2.030508041382 58.455017089844 155 155 155
16.712085723877 2.030508041382 58.408996582031 155 155 155
16.712085723877 2.030508041382 58.364013671875 153 153 153
16.712085723877 2.030508041382 58.318023681641 155 155 155
16.712085723877 2.030508041382 58.270019531250 154 154 154
16.712085723877 2.030508041382 58.226013183594 151 151 151
16.837459564209 2.155132293701 58.197998046875 101 101 101
16.837459564209 2.155132293701 58.152008056641 130 130 130
16.837459564209 2.155132293701 58.108001708984 133 133 133
16.712272644043 2.093008041382 58.037017822266 159 159 159
16.712272644043 2.093008041382 57.990997314453 161 161 161
16.712272644043 2.093008041382 57.943023681641 161 161 161
16.712272644043 2.093008041382 57.897003173828 151 151 151
16.712272644043 2.093008041382 57.847015380859 157 157 157
16.712272644043 2.093008041382 57.800018310547 154 154 154
16.712272644043 2.093008041382 57.752014160156 154 154 154
16.712272644043 2.093008041382 57.705017089844 160 160 160
16.712272644043 2.093008041382 57.654022216797 164 164 164
16.712272644043 2.093008041382 57.606018066406 158 158 158
16.712272644043 2.093008041382 57.555023193359 157 157 157
16.712085723877 2.030508041382 57.501007080078 155 155 155
16.712272644043 2.093008041382 57.453002929688 149 149 149
16.712272644043 2.093008041382 57.401000976563 159 159 159
16.712272644043 2.093008041382 57.351013183594 155 155 155
16.712085723877 2.030508041382 57.296997070313 146 146 146
16.712085723877 2.030508041382 57.245025634766 160 160 160
16.712085723877 2.030508041382 57.193023681641 161 161 161
16.712272644043 2.093008041382 57.174011230469 139 139 139
16.837646484375 2.217632293701 57.166015625000 103 103 103
16.837646484375 2.217632293701 57.110015869141 123 123 123
16.712272644043 2.093008041382 57.015014648438 151 151 151
16.712085723877 2.030508041382 56.923004150391 163 163 163
16.712085723877 2.030508041382 56.864013671875 158 158 158
16.712085723877 2.030508041382 56.811004638672 165 165 165
16.712085723877 2.030508041382 56.753021240234 150 150 150
16.712085723877 2.030508041382 56.695007324219 141 141 141
16.712085723877 2.030508041382 56.631011962891 152 152 152
16.712085723877 2.030508041382 56.572021484375 163 163 163
16.712272644043 2.093008041382 56.542999267578 151 151 151
16.712459564209 2.155508041382 56.544006347656 150 150 150
16.837835311890 2.280132293701 56.544006347656 148 148 148
16.838024139404 2.342632293701 56.552001953125 146 146 146
16.963584899902 2.529756546021 56.585998535156 165 165 165
16.963584899902 2.529756546021 56.561004638672 157 157 157
16.963584899902 2.529756546021 56.510009765625 152 152 152
16.963584899902 2.529756546021 56.430023193359 163 163 163
16.963773727417 2.592256546021 56.416015625000 186 186 186
16.963773727417 2.592256546021 56.376007080078 169 169 169
16.963773727417 2.592256546021 56.314025878906 180 180 180
17.214897155762 2.966503143311 63.700012207031 96 96 96
17.089899063110 2.966878890991 63.673004150391 146 146 146
17.089523315430 2.841878890991 63.682006835938 129 129 129
16.837835311890 2.280132293701 64.632995605469 94 94 94
16.838024139404 2.342632293701 64.415008544922 92 92 92
16.838024139404 2.342632293701 64.270019531250 80 80 80
16.838024139404 2.342632293701 64.127014160156 85 85 85
16.838024139404 2.342632293701 63.986999511719 88 88 88
16.838024139404 2.342632293701 63.856018066406 85 85 85
16.838024139404 2.342632293701 63.650024414063 142 142 142
16.838024139404 2.342632293701 63.555999755859 118 118 118
16.838024139404 2.342632293701 63.485015869141 101 101 101
16.838024139404 2.342632293701 63.375000000000 98 98 98
16.838024139404 2.342632293701 63.253021240234 98 98 98
16.838024139404 2.342632293701 63.145996093750 89 89 89
16.713024139404 2.343008041382 63.036010742188 109 109 109
16.713024139404 2.343008041382 62.933013916016 116 116 116
17.089899063110 2.966878890991 62.020996093750 149 149 149
17.089899063110 2.966878890991 61.975006103516 168 168 168
17.089710235596 2.904378890991 61.947998046875 143 143 143
16.838024139404 2.342632293701 62.548004150391 110 110 110
16.838024139404 2.342632293701 62.459014892578 107 107 107
16.713024139404 2.343008041382 62.378021240234 112 112 112
16.838024139404 2.342632293701 62.287017822266 109 109 109
16.838024139404 2.342632293701 62.206024169922 120 120 120
16.838024139404 2.342632293701 62.124023437500 113 113 113
16.838024139404 2.342632293701 62.041015625000 109 109 109
16.838024139404 2.342632293701 61.957000732422 116 116 116
16.838024139404 2.342632293701 61.891021728516 133 133 133
16.838024139404 2.342632293701 61.811004638672 124 124 124
16.838024139404 2.342632293701 61.740020751953 122 122 122
16.838211059570 2.405130386353 61.625000000000 141 141 141
16.838211059570 2.405130386353 61.584014892578 141 141 141
16.838211059570 2.405130386353 61.524017333984 155 155 155
16.838024139404 2.342632293701 61.462005615234 122 122 122
16.838024139404 2.342632293701 61.397003173828 128 128 128
16.838024139404 2.342632293701 61.329010009766 127 127 127
16.838024139404 2.342632293701 61.270996093750 125 125 125
16.838024139404 2.342632293701 61.205017089844 126 126 126
16.838024139404 2.342632293701 61.141021728516 129 129 129
16.838024139404 2.342632293701 61.083007812500 129 129 129
16.838024139404 2.342632293701 61.023010253906 126 126 126
16.838211059570 2.405130386353 60.956024169922 130 130 130
16.838211059570 2.405130386353 60.902008056641 135 135 135
16.838211059570 2.405130386353 60.845001220703 137 137 137
16.838024139404 2.342632293701 60.790008544922 137 137 137
16.838211059570 2.405130386353 60.733001708984 136 136 136
16.838024139404 2.342632293701 60.680023193359 139 139 139
16.838211059570 2.405130386353 60.620025634766 136 136 136
16.838211059570 2.405130386353 60.571014404297 136 136 136
16.838211059570 2.405130386353 60.516998291016 137 137 137
16.838024139404 2.342632293701 60.468017578125 139 139 139
16.838211059570 2.405130386353 60.414001464844 140 140 140
16.838211059570 2.405130386353 60.364013671875 142 142 142
16.838211059570 2.405130386353 60.313018798828 142 142 142
16.838211059570 2.405130386353 60.259002685547 141 141 141
16.838211059570 2.405130386353 60.213012695313 141 141 141
16.838211059570 2.405130386353 60.165008544922 143 143 143
16.838211059570 2.405130386353 60.115997314453 147 147 147
16.838211059570 2.405130386353 60.066009521484 157 157 157
16.838211059570 2.405130386353 60.019012451172 149 149 149
16.838211059570 2.405130386353 59.972015380859 143 143 143
16.838211059570 2.405130386353 59.923004150391 147 147 147
16.838211059570 2.405130386353 59.880004882813 151 151 151
16.838211059570 2.405130386353 59.834014892578 152 152 152
16.838211059570 2.405130386353 59.787017822266 144 144 144
16.838211059570 2.405130386353 59.739013671875 143 143 143
16.838211059570 2.405130386353 59.697998046875 149 149 149
16.838211059570 2.405130386353 59.654022216797 152 152 152
16.838211059570 2.405130386353 59.607025146484 148 148 148
16.838211059570 2.405130386353 59.565002441406 149 149 149
16.838211059570 2.405130386353 59.522003173828 148 148 148
16.838211059570 2.405130386353 59.479003906250 148 148 148
16.838211059570 2.405130386353 59.434997558594 150 150 150
16.838211059570 2.405130386353 59.391998291016 153 153 153
16.838211059570 2.405130386353 59.347015380859 148 148 148
16.838211059570 2.405130386353 59.307006835938 151 151 151
16.838211059570 2.405130386353 59.263000488281 157 157 157
16.838211059570 2.405130386353 59.222015380859 150 150 150
16.838211059570 2.405130386353 59.179016113281 151 151 151
16.838211059570 2.405130386353 59.138000488281 151 151 151
16.838211059570 2.405130386353 59.096008300781 154 154 154
16.838211059570 2.405130386353 59.055023193359 153 153 153
16.838211059570 2.405130386353 59.014007568359 155 155 155
16.838211059570 2.405130386353 58.972015380859 152 152 152
16.838211059570 2.405130386353 58.930999755859 151 151 151
16.838211059570 2.405130386353 58.890014648438 152 152 152
16.838211059570 2.405130386353 58.848999023438 155 155 155
16.838211059570 2.405130386353 58.808013916016 156 156 156
16.838211059570 2.405130386353 58.766021728516 156 156 156
16.838211059570 2.405130386353 58.726013183594 155 155 155
16.838211059570 2.405130386353 58.684997558594 154 154 154
16.838211059570 2.405130386353 58.644012451172 154 154 154
16.838211059570 2.405130386353 58.602996826172 154 154 154
16.838211059570 2.405130386353 58.562011718750 153 153 153
16.838211059570 2.405130386353 58.520996093750 154 154 154
16.838211059570 2.405130386353 58.480010986328 153 153 153
16.838211059570 2.405130386353 58.439025878906 150 150 150
16.838211059570 2.405130386353 58.397003173828 157 157 157
16.838211059570 2.405130386353 58.357025146484 156 156 156
16.838211059570 2.405130386353 58.316009521484 154 154 154
16.838211059570 2.405130386353 58.273010253906 153 153 153
16.838211059570 2.405130386353 58.232025146484 150 150 150
16.838211059570 2.405130386353 58.191009521484 153 153 153
16.838211059570 2.405130386353 58.150024414063 155 155 155
16.838211059570 2.405130386353 58.107025146484 156 156 156
16.838211059570 2.405130386353 58.066009521484 154 154 154
16.838211059570 2.405130386353 58.022003173828 150 150 150
16.838211059570 2.405130386353 57.979003906250 150 150 150
16.838211059570 2.405130386353 57.941009521484 152 152 152
16.838211059570 2.405130386353 57.895019531250 149 149 149
16.838211059570 2.405130386353 57.854003906250 149 149 149
16.838211059570 2.405130386353 57.809997558594 147 147 147
16.838211059570 2.405130386353 57.765014648438 144 144 144
16.838211059570 2.405130386353 57.723022460938 150 150 150
16.838211059570 2.405130386353 57.679016113281 150 150 150
16.838211059570 2.405130386353 57.635009765625 144 144 144
16.838211059570 2.405130386353 57.589019775391 149 149 149
16.838211059570 2.405130386353 57.546997070313 155 155 155
16.713397979736 2.468006134033 57.502014160156 154 154 154
16.713397979736 2.468006134033 57.456024169922 150 150 150
16.713397979736 2.468006134033 57.408996582031 153 153 153
16.713397979736 2.468006134033 57.363006591797 147 147 147
16.713397979736 2.468006134033 57.316009521484 142 142 142
16.713397979736 2.468006134033 57.272003173828 137 137 137
16.713397979736 2.468006134033 57.225006103516 143 143 143
16.713397979736 2.468006134033 57.171997070313 142 142 142
16.713397979736 2.468006134033 57.127014160156 142 142 142
16.713397979736 2.468006134033 57.075012207031 140 140 140
16.713397979736 2.468006134033 57.029998779297 141 141 141
16.713397979736 2.468006134033 56.979003906250 139 139 139
16.713397979736 2.468006134033 56.930023193359 151 151 151
16.713397979736 2.468006134033 56.881011962891 146 146 146
16.713397979736 2.468006134033 56.828002929688 151 151 151
16.713397979736 2.468006134033 56.775024414063 150 150 150
16.713397979736 2.468006134033 56.723022460938 149 149 149
16.713397979736 2.468006134033 56.669006347656 152 152 152
16.713397979736 2.468006134033 56.611022949219 159 159 159
16.713397979736 2.468006134033 56.565002441406 159 159 159
16.713586807251 2.530506134033 56.542022705078 150 150 150
16.713397979736 2.468006134033 56.464996337891 181 181 181
16.713586807251 2.530506134033 56.427001953125 187 187 187
16.838773727417 2.592630386353 56.417022705078 193 193 193
16.838773727417 2.592630386353 56.373016357422 169 169 169
16.838773727417 2.592630386353 56.314025878906 174 174 174
17.090650558472 3.216878890991 63.710021972656 43 43 43
17.090650558472 3.216878890991 63.695007324219 127 127 127
16.713024139404 2.343008041382 64.550018310547 14 14 14
16.713024139404 2.343008041382 64.410003662109 26 26 26
16.712835311890 2.280508041382 64.270996093750 30 30 30
16.713024139404 2.343008041382 64.123016357422 22 22 22
16.588024139404 2.343383789063 63.999023437500 23 23 23
16.588024139404 2.343383789063 63.839019775391 28 28 28
16.588211059570 2.405881881714 63.648010253906 151 151 151
17.090650558472 3.216878890991 62.207000732422 102 102 102
17.090650558472 3.216878890991 62.177001953125 178 178 178
17.090461730957 3.154378890991 62.141021728516 111 111 111
16.588024139404 2.343383789063 63.250000000000 33 33 33
16.588024139404 2.343383789063 63.139007568359 33 33 33
16.588024139404 2.343383789063 63.033996582031 44 44 44
16.588024139404 2.343383789063 62.926025390625 60 60 60
16.588024139404 2.343383789063 62.828002929688 59 59 59
16.588024139404 2.343383789063 62.736999511719 61 61 61
16.588024139404 2.343383789063 62.647003173828 65 65 65
16.588024139404 2.343383789063 62.545013427734 60 60 60
16.588024139404 2.343383789063 62.456024169922 51 51 51
16.588024139404 2.343383789063 62.368011474609 48 48 48
16.588024139404 2.343383789063 62.288024902344 58 58 58
16.588024139404 2.343383789063 62.193023681641 60 60 60
16.588024139404 2.343383789063 62.117004394531 63 63 63
16.588024139404 2.343383789063 62.045013427734 64 64 64
16.588024139404 2.343383789063 61.959014892578 70 70 70
16.588024139404 2.343383789063 61.882995605469 79 79 79
16.588024139404 2.343383789063 61.805999755859 71 71 71
16.588024139404 2.343383789063 61.733001708984 70 70 70
16.588211059570 2.405881881714 61.638000488281 133 133 133
16.588024139404 2.343383789063 61.587005615234 143 143 143
16.588024139404 2.343383789063 61.518005371094 151 151 151
16.588024139404 2.343383789063 61.455017089844 70 70 70
16.588024139404 2.343383789063 61.391021728516 76 76 76
16.588024139404 2.343383789063 61.329010009766 77 77 77
16.588024139404 2.343383789063 61.263000488281 73 73 73
16.588024139404 2.343383789063 61.196014404297 78 78 78
16.588024139404 2.343383789063 61.135009765625 80 80 80
16.588024139404 2.343383789063 61.076995849609 81 81 81
16.588024139404 2.343383789063 61.022003173828 82 82 82
16.588024139404 2.343383789063 60.958007812500 82 82 82
16.588211059570 2.405881881714 60.893005371094 81 81 81
16.588211059570 2.405881881714 60.835021972656 78 78 78
16.588211059570 2.405881881714 60.781005859375 79 79 79
16.588024139404 2.343383789063 60.731018066406 84 84 84
16.588211059570 2.405881881714 60.666015625000 85 85 85
16.588211059570 2.405881881714 60.615020751953 91 91 91
16.588211059570 2.405881881714 60.561004638672 86 86 86
16.588024139404 2.343383789063 60.514007568359 88 88 88
16.588211059570 2.405881881714 60.460021972656 89 89 89
16.588024139404 2.343383789063 60.413024902344 91 91 91
16.588024139404 2.343383789063 60.359008789063 97 97 97
16.588211059570 2.405881881714 60.303009033203 88 88 88
16.588024139404 2.343383789063 60.261016845703 96 96 96
16.588024139404 2.343383789063 60.210998535156 94 94 94
16.588211059570 2.405881881714 60.160003662109 93 93 93
16.588024139404 2.343383789063 60.113006591797 105 105 105
16.588211059570 2.405881881714 60.058013916016 103 103 103
16.588211059570 2.405881881714 60.016998291016 93 93 93
16.588211059570 2.405881881714 59.966003417969 94 94 94
16.588211059570 2.405881881714 59.921020507813 100 100 100
16.588211059570 2.405881881714 59.877014160156 100 100 100
16.588211059570 2.405881881714 59.831024169922 106 106 106
16.588211059570 2.405881881714 59.787017822266 99 99 99
16.588211059570 2.405881881714 59.739013671875 94 94 94
16.588211059570 2.405881881714 59.693023681641 95 95 95
16.588211059570 2.405881881714 59.650024414063 98 98 98
16.588211059570 2.405881881714 59.606018066406 92 92 92
16.588211059570 2.405881881714 59.563018798828 97 97 97
16.588211059570 2.405881881714 59.516998291016 97 97 97
16.588211059570 2.405881881714 59.473999023438 98 98 98
16.588211059570 2.405881881714 59.432006835938 92 92 92
16.588211059570 2.405881881714 59.389007568359 99 99 99
16.588211059570 2.405881881714 59.348999023438 108 108 108
16.588211059570 2.405881881714 59.307006835938 121 121 121
16.588211059570 2.405881881714 59.265014648438 120 120 120
16.588211059570 2.405881881714 59.220001220703 109 109 109
16.588211059570 2.405881881714 59.177001953125 95 95 95
16.588211059570 2.405881881714 59.136016845703 97 97 97
16.588211059570 2.405881881714 59.095001220703 94 94 94
16.588211059570 2.405881881714 59.052001953125 90 90 90
16.588211059570 2.405881881714 59.012023925781 97 97 97
16.588211059570 2.405881881714 58.971008300781 93 93 93
16.588211059570 2.405881881714 58.929016113281 90 90 90
16.588211059570 2.405881881714 58.888000488281 86 86 86
16.588211059570 2.405881881714 58.847015380859 93 93 93
16.588211059570 2.405881881714 58.805999755859 93 93 93
16.588211059570 2.405881881714 58.766021728516 97 97 97
16.588211059570 2.405881881714 58.725006103516 97 97 97
16.588211059570 2.405881881714 58.684020996094 97 97 97
16.588211059570 2.405881881714 58.643005371094 95 95 95
16.588211059570 2.405881881714 58.602020263672 88 88 88
16.588211059570 2.405881881714 58.561004638672 86 86 86
16.588211059570 2.405881881714 58.520019531250 86 86 86
16.588211059570 2.405881881714 58.479003906250 92 92 92
16.588211059570 2.405881881714 58.439025878906 95 95 95
16.588211059570 2.405881881714 58.397003173828 91 91 91
16.588211059570 2.405881881714 58.356018066406 92 92 92
16.588211059570 2.405881881714 58.315002441406 91 91 91
16.588211059570 2.405881881714 58.275024414063 86 86 86
16.588211059570 2.405881881714 58.233001708984 90 90 90
16.588399887085 2.468381881714 58.193023681641 87 87 87
16.588211059570 2.405881881714 58.151000976563 82 82 82
16.588399887085 2.468381881714 58.107025146484 90 90 90
16.588399887085 2.468381881714 58.065002441406 86 86 86
16.588399887085 2.468381881714 58.020996093750 91 91 91
16.588399887085 2.468381881714 57.982025146484 85 85 85
16.588399887085 2.468381881714 57.938018798828 90 90 90
16.588399887085 2.468381881714 57.893005371094 92 92 92
16.588211059570 2.405881881714 57.839996337891 160 160 160
16.588024139404 2.343383789063 57.792999267578 175 175 175
16.588399887085 2.468381881714 57.766998291016 88 88 88
16.588399887085 2.468381881714 57.723022460938 85 85 85
16.588399887085 2.468381881714 57.683013916016 75 75 75
16.588399887085 2.468381881714 57.631011962891 78 78 78
16.588399887085 2.468381881714 57.589996337891 87 87 87
16.588399887085 2.468381881714 57.542022705078 84 84 84
16.588399887085 2.468381881714 57.178009033203 83 83 83
16.588399887085 2.468381881714 56.723999023438 135 135 135
16.588399887085 2.468381881714 56.669006347656 138 138 138
16.588399887085 2.468381881714 56.615020751953 156 156 156
16.588399887085 2.468381881714 56.562011718750 163 163 163
16.588586807251 2.530881881714 56.546020507813 151 151 151
16.588399887085 2.468381881714 56.464996337891 185 185 185
16.588399887085 2.468381881714 56.426025390625 186 186 186
16.588775634766 2.593381881714 56.424011230469 189 189 189
16.713773727417 2.593006134033 56.373016357422 176 176 176
16.713773727417 2.593006134033 56.309997558594 167 167 167
16.588024139404 2.343383789063 63.628997802734 83 83 83
17.091588973999 3.529376983643 63.713012695313 118 118 118
17.091400146484 3.466876983643 63.706024169922 91 91 91
17.091400146484 3.466876983643 62.387023925781 54 54 54
17.091400146484 3.466876983643 62.358001708984 168 168 168
17.091400146484 3.466876983643 62.333007812500 136 136 136
16.588211059570 2.405881881714 63.637023925781 153 153 153
16.463024139404 2.343759536743 63.581024169922 91 91 91
16.588211059570 2.405881881714 61.636016845703 144 144 144
16.588211059570 2.405881881714 61.585021972656 122 122 122
16.588024139404 2.343383789063 61.518005371094 144 144 144
16.463024139404 2.343759536743 56.531005859375 170 170 170
16.463399887085 2.468757629395 56.558013916016 145 145 145
16.588586807251 2.530881881714 56.548004150391 152 152 152
16.463399887085 2.468757629395 56.477996826172 170 170 170
16.463588714600 2.531257629395 56.430023193359 188 188 188
16.588775634766 2.593381881714 56.421997070313 182 182 182
16.588775634766 2.593381881714 56.375000000000 160 160 160
16.588775634766 2.593381881714 56.312011718750 160 160 160
17.217338562012 3.778999328613 63.743011474609 48 48 48
17.092338562012 3.779375076294 63.717010498047 144 144 144
17.092151641846 3.716875076294 62.535003662109 149 149 149
17.092151641846 3.716875076294 62.496002197266 154 154 154
16.338026046753 2.344135284424 63.649017333984 154 154 154
16.338026046753 2.344135284424 63.559997558594 127 127 127
16.338026046753 2.344135284424 61.639007568359 148 148 148
16.338026046753 2.344135284424 61.581024169922 125 125 125
16.338026046753 2.344135284424 61.518005371094 147 147 147
16.338588714600 2.531633377075 56.417022705078 114 114 114
16.338588714600 2.531633377075 56.358001708984 104 104 104
16.338588714600 2.531633377075 56.295013427734 103 103 103
17.093090057373 4.029375076294 63.734008789063 155 155 155
17.092903137207 3.966875076294 63.736999511719 49 49 49
17.092903137207 3.966875076294 62.736999511719 119 119 119
17.092903137207 3.966875076294 62.671997070313 158 158 158
17.092903137207 3.966875076294 62.493011474609 152 152 152
17.092714309692 3.904375076294 62.482025146484 87 87 87
16.338775634766 2.594133377075 63.686004638672 120 120 120
16.338775634766 2.594133377075 63.638000488281 168 168 168
16.338588714600 2.531633377075 63.640014648438 77 77 77
16.338964462280 2.656633377075 61.775024414063 52 52 52
16.338775634766 2.594133377075 61.748016357422 157 157 157
16.338775634766 2.594133377075 61.710021972656 184 184 184
16.338588714600 2.531633377075 61.682006835938 87 87 87
17.093841552734 4.279373168945 63.753021240234 159 159 159
17.093652725220 4.216873168945 63.752014160156 73 73 73
17.093652725220 4.216873168945 62.887023925781 154 154 154
17.093465805054 4.154373168945 62.822021484375 114 114 114
17.093652725220 4.216873168945 62.485015869141 151 151 151
17.093652725220 4.216873168945 62.475006103516 120 120 120
16.339527130127 2.844131469727 63.691009521484 120 120 120
16.339527130127 2.844131469727 63.623016357422 170 170 170
16.214151382446 2.719509124756 63.626007080078 161 161 161
16.339527130127 2.844131469727 61.854003906250 176 176 176
16.339340209961 2.781633377075 61.825012207031 176 176 176
16.214151382446 2.719509124756 61.805023193359 128 128 128
17.094779968262 4.591871261597 63.775024414063 165 165 165
17.094404220581 4.466873168945 63.774017333984 74 74 74
17.094404220581 4.466873168945 63.085998535156 95 95 95
16.969404220581 4.467248916626 63.057006835938 150 150 150
17.094591140747 4.529371261597 62.527008056641 86 86 86
17.094404220581 4.466873168945 62.468017578125 162 162 162
17.094404220581 4.466873168945 62.470001220703 94 94 94
16.215278625488 3.094507217407 63.652008056641 59 59 59
16.215091705322 3.032007217407 63.637023925781 142 142 142
16.215091705322 3.032007217407 61.964996337891 161 161 161
16.215091705322 3.032007217407 61.933013916016 129 129 129
16.214902877808 2.969507217407 61.908996582031 45 45 45
17.095531463623 4.841869354248 63.781005859375 183 183 183
17.095342636108 4.779370307922 63.772003173828 52 52 52
16.970155715942 4.717247009277 63.253997802734 102 102 102
16.970155715942 4.717247009277 63.218017578125 144 144 144
17.095531463623 4.841869354248 62.466003417969 146 146 146
16.970342636108 4.779746055603 62.451995849609 161 161 161
16.340841293335 3.281629562378 63.632019042969 136 136 136
16.340841293335 3.281629562378 62.102996826172 122 122 122
16.215654373169 3.219507217407 62.070007324219 166 166 166
16.215654373169 3.219507217407 62.049011230469 56 56 56
17.347406387329 5.466115951538 63.907012939453 54 54 54
17.347406387329 5.466115951538 62.312011718750 80 80 80
17.096281051636 5.091868400574 63.825012207031 52 52 52
17.096281051636 5.091868400574 63.796020507813 192 192 192
17.095905303955 4.966869354248 63.436004638672 73 73 73
17.096094131470 5.029369354248 62.459014892578 116 116 116
17.095905303955 4.966869354248 62.442016601563 177 177 177
17.095905303955 4.966869354248 62.453002929688 80 80 80
16.216403961182 3.469505310059 63.624023437500 113 113 113
16.216403961182 3.469505310059 63.611999511719 87 87 87
16.216403961182 3.469505310059 62.231018066406 63 63 63
16.216403961182 3.469505310059 62.180999755859 174 174 174
16.216217041016 3.407005310059 62.162017822266 114 114 114
17.095905303955 4.966869354248 63.463012695313 116 116 116
17.222406387329 5.466491699219 63.890014648438 58 58 58
17.097219467163 5.404367446899 63.832000732422 88 88 88
17.097032546997 5.341867446899 63.808013916016 173 173 173
17.097032546997 5.341867446899 62.446014404297 90 90 90
17.096843719482 5.279367446899 62.426025390625 180 180 180
17.096656799316 5.216868400574 62.437011718750 115 115 115
16.217155456543 3.719503402710 63.609008789063 105 105 105
16.217155456543 3.719503402710 63.605010986328 110 110 110
16.217155456543 3.719503402710 62.316009521484 175 175 175
16.216968536377 3.657005310059 62.301025390625 143 143 143
17.097782135010 5.591866493225 62.499023437500 128 128 128
17.097782135010 5.591866493225 62.421020507813 184 184 184
16.972595214844 5.529742240906 62.456024169922 151 151 151
16.972408294678 5.467242240906 62.437011718750 151 151 151
16.972408294678 5.467242240906 63.714996337891 26 26 26
16.217906951904 3.969503402710 63.595001220703 102 102 102
16.092720031738 3.907377243042 63.588012695313 110 110 110
16.092720031738 3.907377243042 62.413024902344 158 158 158
16.092720031738 3.907377243042 62.384002685547 146 146 146
16.092531204224 3.844877243042 62.388000488281 69 69 69
16.973346710205 5.779741287231 63.934997558594 106 106 106
16.973159790039 5.717241287231 63.919006347656 31 31 31
16.093658447266 4.219875335693 63.592010498047 142 142 142
16.093469619751 4.157375335693 63.593017578125 71 71 71
16.093469619751 4.157375335693 62.557006835938 143 143 143
16.093469619751 4.157375335693 62.464019775391 171 171 171
16.093282699585 4.094875335693 62.378021240234 167 167 167
16.094221115112 4.407375335693 63.572021484375 154 154 154
16.094032287598 4.344875335693 62.671020507813 108 108 108
16.094032287598 4.344875335693 62.630004882813 172 172 172
16.094032287598 4.344875335693 62.403015136719 168 168 168
16.094032287598 4.344875335693 62.393005371094 140 140 140
16.597408294678 5.468368530273 63.899017333984 56 56 56
16.094970703125 4.657373428345 63.576019287109 109 109 109
16.094783782959 4.594873428345 63.571014404297 137 137 137
16.094783782959 4.594873428345 62.790008544922 53 53 53
16.094783782959 4.594873428345 62.759002685547 169 169 169
16.094783782959 4.594873428345 62.473022460938 165 165 165
16.094783782959 4.594873428345 62.420013427734 174 174 174
16.472410202026 5.468744277954 63.865997314453 41 41 41
16.095535278320 4.844873428345 63.558013916016 170 170 170
16.095535278320 4.844873428345 62.887023925781 153 153 153
16.095535278320 4.844873428345 62.540008544922 172 172 172
15.970347404480 4.782749176025 62.437011718750 180 180 180
16.222412109375 5.469494819641 63.860015869141 52 52 52
16.096284866333 5.094872474670 63.555999755859 175 175 175
15.971286773682 5.095247268677 63.552001953125 86 86 86
15.971286773682 5.095247268677 63.027008056641 67 67 67
15.971097946167 5.032748222351 62.632995605469 195 195 195
15.971097946167 5.032748222351 62.460021972656 199 199 199
16.097412109375 5.469870567322 63.855010986328 62 62 62
15.972037315369 5.345246315002 63.546997070313 135 135 135
15.971849441528 5.282746315002 63.550018310547 144 144 144
15.971849441528 5.282746315002 62.541015625000 116 116 116
15.971661567688 5.220247268677 62.484008789063 191 191 191
15.971661567688 5.220247268677 62.488006591797 53 53 53
16.097787857056 5.594870567322 63.559997558594 61 61 61
15.972599983215 5.532745361328 63.598022460938 170 170 170
15.972225189209 5.407746315002 62.529998779297 90 90 90
15.972225189209 5.407746315002 62.273010253906 68 68 68
15.972412109375 5.470245361328 63.268005371094 112 112 112
15.972975730896 5.657745361328 63.341003417969 129 129 129
15.847413063049 5.470621109009 63.848999023438 55 55 55
15.722226142883 5.408497810364 62.263000488281 77 77 77
15.721850395203 5.283497810364 63.615020751953 81 81 81
15.722414016724 5.470996856689 63.801025390625 95 95 95
17.223720550537 5.903989791870 63.536010742188 77 77 77
17.348531723022 5.841114997864 62.029022216797 175 175 175
17.098720550537 5.904364585876 63.549011230469 73 73 73
17.223344802856 5.778990745544 62.035003662109 177 177 177
17.347406387329 5.466115951538 63.891998291016 64 64 64
16.973722457886 5.904740333557 63.557006835938 84 84 84
17.098346710205 5.779365539551 63.960021972656 96 96 96
17.098157882690 5.716865539551 63.844024658203 44 44 44
17.097970962524 5.654366493225 63.843017578125 187 187 187
16.848722457886 5.905116081238 63.562011718750 88 88 88
17.097782135010 5.591866493225 63.814025878906 111 111 111
17.097782135010 5.591866493225 62.469024658203 163 163 163
17.097595214844 5.529366493225 62.433013916016 180 180 180
17.097408294678 5.466866493225 62.412017822266 94 94 94
17.097408294678 5.466866493225 62.361999511719 118 118 118
17.097219467163 5.404367446899 63.857025146484 114 114 114
16.723722457886 5.905490875244 63.580017089844 88 88 88
16.972408294678 5.467242240906 62.312011718750 60 60 60
17.097032546997 5.341867446899 63.663024902344 65 65 65
17.096843719482 5.279367446899 63.618011474609 130 130 130
16.473724365234 5.906242370605 63.585998535156 86 86 86
16.847408294678 5.467617988586 62.301025390625 65 65 65
16.722408294678 5.467992782593 62.307006835938 58 58 58
16.348724365234 5.906617164612 63.636016845703 86 86 86
16.472410202026 5.468744277954 62.288024902344 51 51 51
15.849477767944 6.158118247986 63.607025146484 63 63 63
15.974289894104 6.095242500305 63.591003417969 147 147 147
15.974289894104 6.095242500305 63.575012207031 43 43 43
15.974102020264 6.032743453979 63.528015136719 125 125 125
15.973914146423 5.970243453979 63.532012939453 178 178 178
16.098726272583 5.907368659973 63.532012939453 110 110 110
16.347410202026 5.469119071960 62.278015136719 41 41 41
15.973538398743 5.845244407654 63.492004394531 127 127 127
15.973350524902 5.782744407654 63.407012939453 56 56 56
15.973163604736 5.720244407654 63.542022705078 85 85 85
16.097974777222 5.657370567322 63.533996582031 188 188 188
16.097974777222 5.657370567322 63.551025390625 50 50 50
16.097412109375 5.469870567322 62.582000732422 121 121 121
15.972037315369 5.345246315002 63.548004150391 186 186 186
16.097036361694 5.344871520996 63.572998046875 88 88 88
15.847225189209 5.408122062683 63.835021972656 61 61 61
15.971661567688 5.220247268677 63.135009765625 99 99 99
15.722414016724 5.470996856689 63.845001220703 98 98 98
15.722226142883 5.408497810364 63.731018066406 247 247 247
15.722038269043 5.345997810364 63.619018554688 62 62 62
17.098157882690 5.716865539551 63.856018066406 77 77 77
17.098157882690 5.716865539551 63.850006103516 72 72 72
17.097782135010 5.591866493225 63.834014892578 66 66 66
17.097782135010 5.591866493225 63.832000732422 61 61 61
17.097408294678 5.466866493225 63.826995849609 149 149 149
17.097408294678 5.466866493225 62.322021484375 137 137 137
17.222030639648 5.341492652893 63.826995849609 50 50 50
17.096843719482 5.279367446899 63.820007324219 37 37 37
17.221656799316 5.216493606567 63.818023681641 34 34 34
17.221279144287 5.091493606567 63.798004150391 25 25 25
17.215085983276 3.029003143311 63.707000732422 45 45 45
17.214334487915 2.779005050659 63.680999755859 133 133 133
17.214147567749 2.716505050659 63.679016113281 131 131 131
17.213958740234 2.654005050659 63.678009033203 133 133 133
17.213771820068 2.591505050659 63.654998779297 29 29 29
17.214147567749 2.716505050659 61.872009277344 32 32 32
17.213771820068 2.591505050659 61.739013671875 51 51 51
16.972408294678 5.467242240906 63.898010253906 145 145 145
16.972408294678 5.467242240906 62.303009033203 86 86 86
17.088022232056 2.341882705688 63.624023437500 174 174 174
17.088022232056 2.341882705688 63.509002685547 103 103 103
17.088397979736 2.466880798340 61.621002197266 167 167 167
17.088209152222 2.404380798340 61.598022460938 163 163 163
17.088209152222 2.404380798340 61.533020019531 149 149 149
17.086894989014 1.966884613037 56.544006347656 148 148 148
17.087083816528 2.029382705688 56.539001464844 152 152 152
17.087459564209 2.154382705688 56.539001464844 155 155 155
16.962646484375 2.217258453369 56.537017822266 161 161 161
17.088022232056 2.341882705688 56.536010742188 161 161 161
16.963211059570 2.404756546021 56.537017822266 162 162 162
16.963397979736 2.467256546021 56.535003662109 159 159 159
16.963584899902 2.529756546021 56.529998779297 173 173 173
17.088397979736 2.466880798340 56.420013427734 189 189 189
16.963584899902 2.529756546021 56.417999267578 180 180 180
17.088771820068 2.591880798340 56.411010742188 194 194 194
17.088771820068 2.591880798340 56.361022949219 179 179 179
16.963773727417 2.592256546021 56.312011718750 193 193 193
16.722597122192 5.530492782593 63.913024902344 20 20 20
16.847408294678 5.467617988586 62.296020507813 79 79 79
16.963022232056 2.342258453369 63.621002197266 173 173 173
16.963022232056 2.342258453369 63.507019042969 116 116 116
16.838211059570 2.405130386353 61.627014160156 161 161 161
16.838024139404 2.342632293701 61.602020263672 163 163 163
16.838024139404 2.342632293701 61.529998779297 147 147 147
16.837083816528 2.030132293701 56.695007324219 157 157 157
16.837083816528 2.030132293701 56.638000488281 150 150 150
16.837083816528 2.030132293701 56.588012695313 161 161 161
16.837083816528 2.030132293701 56.544006347656 174 174 174
16.838397979736 2.467630386353 56.710998535156 167 167 167
16.838397979736 2.467630386353 56.674011230469 160 160 160
16.838397979736 2.467630386353 56.628021240234 159 159 159
16.838397979736 2.467630386353 56.576019287109 169 169 169
16.838397979736 2.467630386353 56.544006347656 169 169 169
16.838586807251 2.530130386353 56.540008544922 165 165 165
16.838397979736 2.467630386353 56.425018310547 196 196 196
16.838586807251 2.530130386353 56.417999267578 198 198 198
16.838773727417 2.592630386353 56.411010742188 202 202 202
16.838773727417 2.592630386353 56.365020751953 183 183 183
16.838773727417 2.592630386353 56.309020996094 184 184 184
16.722221374512 5.405493736267 62.294006347656 83 83 83
16.713024139404 2.343008041382 64.592010498047 105 105 105
16.712835311890 2.280508041382 64.425018310547 97 97 97
16.713024139404 2.343008041382 64.246002197266 97 97 97
16.713024139404 2.343008041382 64.080017089844 90 90 90
16.713024139404 2.343008041382 63.929016113281 91 91 91
16.713024139404 2.343008041382 63.791015625000 104 104 104
16.713024139404 2.343008041382 63.624023437500 173 173 173
16.713024139404 2.343008041382 63.499023437500 152 152 152
16.713024139404 2.343008041382 63.370025634766 112 112 112
16.713024139404 2.343008041382 63.249023437500 111 111 111
16.713024139404 2.343008041382 63.119018554688 119 119 119
16.713024139404 2.343008041382 63.010009765625 139 139 139
16.713024139404 2.343008041382 62.895019531250 154 154 154
16.713024139404 2.343008041382 62.779022216797 158 158 158
16.713024139404 2.343008041382 62.666015625000 160 160 160
16.713024139404 2.343008041382 62.575012207031 158 158 158
16.713024139404 2.343008041382 62.473022460938 133 133 133
16.713024139404 2.343008041382 62.371002197266 127 127 127
16.713024139404 2.343008041382 62.279022216797 135 135 135
16.713024139404 2.343008041382 62.194000244141 139 139 139
16.713024139404 2.343008041382 62.095001220703 127 127 127
16.713024139404 2.343008041382 62.024017333984 147 147 147
16.713024139404 2.343008041382 61.930999755859 147 147 147
16.713024139404 2.343008041382 61.845001220703 150 150 150
16.713024139404 2.343008041382 61.770019531250 151 151 151
16.713211059570 2.405506134033 61.632019042969 170 170 170
16.713024139404 2.343008041382 61.606018066406 165 165 165
16.713024139404 2.343008041382 61.536010742188 144 144 144
16.713024139404 2.343008041382 61.469024658203 151 151 151
16.713024139404 2.343008041382 61.404022216797 153 153 153
16.713024139404 2.343008041382 61.326019287109 155 155 155
16.713024139404 2.343008041382 61.261016845703 153 153 153
16.713211059570 2.405506134033 61.191009521484 158 158 158
16.713024139404 2.343008041382 61.131011962891 156 156 156
16.713024139404 2.343008041382 61.067016601563 158 158 158
16.713024139404 2.343008041382 61.007019042969 159 159 159
16.713024139404 2.343008041382 60.949005126953 159 159 159
16.713024139404 2.343008041382 60.890014648438 162 162 162
16.713211059570 2.405506134033 60.821014404297 158 158 158
16.713211059570 2.405506134033 60.768005371094 154 154 154
16.713211059570 2.405506134033 60.712005615234 157 157 157
16.713211059570 2.405506134033 60.658996582031 155 155 155
16.713211059570 2.405506134033 60.602996826172 152 152 152
16.713211059570 2.405506134033 60.542999267578 157 157 157
16.713211059570 2.405506134033 60.493011474609 157 157 157
16.713211059570 2.405506134033 60.440002441406 156 156 156
16.713211059570 2.405506134033 60.395019531250 159 159 159
16.713211059570 2.405506134033 60.342010498047 158 158 158
16.713211059570 2.405506134033 60.289001464844 161 161 161
16.713211059570 2.405506134033 60.247009277344 161 161 161
16.713211059570 2.405506134033 60.196014404297 160 160 160
16.713211059570 2.405506134033 60.149017333984 166 166 166
16.713211059570 2.405506134033 60.100006103516 171 171 171
16.713211059570 2.405506134033 60.055999755859 175 175 175
16.713211059570 2.405506134033 60.010009765625 176 176 176
16.713211059570 2.405506134033 59.964996337891 177 177 177
16.713211059570 2.405506134033 59.919006347656 173 173 173
16.713211059570 2.405506134033 59.874023437500 181 181 181
16.713211059570 2.405506134033 59.831024169922 176 176 176
16.713211059570 2.405506134033 59.787017822266 176 176 176
16.713211059570 2.405506134033 59.744018554688 179 179 179
16.713211059570 2.405506134033 59.704010009766 182 182 182
16.713211059570 2.405506134033 59.661010742188 183 183 183
16.713211059570 2.405506134033 59.619018554688 182 182 182
16.713211059570 2.405506134033 59.579010009766 187 187 187
16.713211059570 2.405506134033 59.540008544922 185 185 185
16.713211059570 2.405506134033 59.500000000000 184 184 184
16.713211059570 2.405506134033 59.458007812500 186 186 186
16.713211059570 2.405506134033 59.419006347656 188 188 188
16.713211059570 2.405506134033 59.380004882813 188 188 188
16.713211059570 2.405506134033 59.341003417969 189 189 189
16.713211059570 2.405506134033 59.300018310547 193 193 193
16.713211059570 2.405506134033 59.262023925781 191 191 191
16.713211059570 2.405506134033 59.223999023438 194 194 194
16.713211059570 2.405506134033 59.186004638672 195 195 195
16.713211059570 2.405506134033 59.150024414063 193 193 193
16.713211059570 2.405506134033 59.113006591797 199 199 199
16.713211059570 2.405506134033 59.075012207031 198 198 198
16.713211059570 2.405506134033 59.038024902344 199 199 199
16.713211059570 2.405506134033 59.000000000000 198 198 198
16.713211059570 2.405506134033 58.964996337891 201 201 201
16.713211059570 2.405506134033 58.928009033203 204 204 204
16.713211059570 2.405506134033 58.891998291016 207 207 207
16.713211059570 2.405506134033 58.856018066406 211 211 211
16.713211059570 2.405506134033 58.820007324219 211 211 211
16.713211059570 2.405506134033 58.783020019531 218 218 218
16.713211059570 2.405506134033 58.747009277344 215 215 215
16.713211059570 2.405506134033 58.710998535156 220 220 220
16.713211059570 2.405506134033 58.675018310547 214 214 214
16.713211059570 2.405506134033 58.640014648438 220 220 220
16.713211059570 2.405506134033 58.604003906250 219 219 219
16.713211059570 2.405506134033 58.568023681641 228 228 228
16.713211059570 2.405506134033 58.533020019531 236 236 236
16.713211059570 2.405506134033 58.497009277344 233 233 233
16.713211059570 2.405506134033 58.462005615234 250 250 250
16.713211059570 2.405506134033 58.426025390625 250 250 250
16.713211059570 2.405506134033 58.391021728516 250 250 250
16.713211059570 2.405506134033 58.355010986328 250 250 250
16.713211059570 2.405506134033 58.320007324219 243 243 243
16.713211059570 2.405506134033 58.283996582031 240 240 240
16.713211059570 2.405506134033 58.249023437500 250 250 250
16.713211059570 2.405506134033 58.213012695313 239 239 239
16.713211059570 2.405506134033 58.178009033203 215 215 215
16.713211059570 2.405506134033 58.141998291016 209 209 209
16.713211059570 2.405506134033 58.106018066406 207 207 207
16.713211059570 2.405506134033 58.070007324219 211 211 211
16.713211059570 2.405506134033 58.035003662109 208 208 208
16.713211059570 2.405506134033 57.998016357422 205 205 205
16.713211059570 2.405506134033 57.962005615234 205 205 205
16.713211059570 2.405506134033 57.925018310547 203 203 203
16.713211059570 2.405506134033 57.889007568359 200 200 200
16.713211059570 2.405506134033 57.852020263672 201 201 201
16.713397979736 2.468006134033 57.817016601563 200 200 200
16.713211059570 2.405506134033 57.777008056641 203 203 203
16.713211059570 2.405506134033 57.740997314453 201 201 201
16.713397979736 2.468006134033 57.705017089844 199 199 199
16.713397979736 2.468006134033 57.669006347656 198 198 198
16.713397979736 2.468006134033 57.628997802734 197 197 197
16.713397979736 2.468006134033 57.594024658203 192 192 192
16.713397979736 2.468006134033 57.554016113281 190 190 190
16.713397979736 2.468006134033 57.516998291016 186 186 186
16.713397979736 2.468006134033 57.477996826172 182 182 182
16.713397979736 2.468006134033 57.438018798828 185 185 185
16.713397979736 2.468006134033 57.401000976563 180 180 180
16.713397979736 2.468006134033 57.359008789063 180 180 180
