19.772111892700 5.850212097168 3.615001678467 157 157 157
19.772247314453 5.865837097168 3.637996673584 155 155 155
19.772111892700 5.850212097168 3.661998748779 155 155 155
19.772111892700 5.850212097168 3.685001373291 155 155 155
19.772247314453 5.865837097168 3.708003997803 156 156 156
19.772111892700 5.850212097168 3.730998992920 156 156 156
19.772247314453 5.865837097168 3.754001617432 155 155 155
19.772247314453 5.865837097168 3.775997161865 156 156 156
19.772247314453 5.865837097168 3.799999237061 156 156 156
19.772247314453 5.865837097168 3.823001861572 156 156 156
19.772247314453 5.865837097168 3.845996856689 155 155 155
19.772247314453 5.865837097168 3.868999481201 155 155 155
19.772247314453 5.865837097168 3.892002105713 155 155 155
19.772247314453 5.865837097168 3.914997100830 156 156 156
19.756759643555 5.881597518921 3.937999725342 156 156 156
19.772247314453 5.865837097168 3.961002349854 157 157 157
19.772247314453 5.865837097168 3.984996795654 155 155 155
19.772247314453 5.865837097168 4.006999969482 155 155 155
19.772247314453 5.865837097168 4.031002044678 154 154 154
19.756759643555 5.881597518921 4.052997589111 155 155 155
19.756759643555 5.881597518921 4.076999664307 153 153 153
19.756759643555 5.881597518921 4.099002838135 154 154 154
19.710563659668 5.960124969482 4.109996795654 156 156 156
19.602954864502 6.164192199707 4.102001190186 155 155 155
19.587600708008 6.195577621460 4.118000030518 255 255 255
19.572113037109 6.211336135864 4.136997222900 255 255 255
19.572113037109 6.211336135864 4.158000946045 255 255 255
19.572113037109 6.211336135864 4.178997039795 255 255 255
19.572113037109 6.211336135864 4.200000762939 255 255 255
19.572113037109 6.211336135864 4.222003936768 255 255 255
19.572113037109 6.211336135864 4.243000030518 255 255 255
19.572113037109 6.211336135864 4.264003753662 255 255 255
19.572113037109 6.211336135864 4.286998748779 255 255 255
19.572113037109 6.211336135864 4.308002471924 255 255 255
19.572113037109 6.211336135864 4.327999114990 255 255 255
19.572113037109 6.211336135864 4.351001739502 255 255 255
19.572113037109 6.211336135864 4.371997833252 255 255 255
19.587600708008 6.195577621460 4.395999908447 255 255 255
19.572113037109 6.211336135864 4.417003631592 255 255 255
19.572113037109 6.211336135864 4.438999176025 255 255 255
19.572113037109 6.211336135864 4.461002349854 255 255 255
19.572113037109 6.211336135864 4.481998443604 255 255 255
19.572113037109 6.211336135864 4.503002166748 255 255 255
19.572113037109 6.211336135864 4.525997161865 255 255 255
19.587600708008 6.195577621460 4.549999237061 0 0 0
19.587600708008 6.195577621460 4.573001861572 0 0 0
19.587600708008 6.195577621460 4.598003387451 0 0 0
19.587600708008 6.195577621460 4.618000030518 0 0 0
19.587465286255 6.179952621460 4.643001556396 0 0 0
19.587465286255 6.179952621460 4.667003631592 0 0 0
19.664367675781 6.038654327393 4.742000579834 142 142 142
19.741405487061 5.912981033325 4.811000823975 150 150 150
19.741405487061 5.912981033325 4.836002349854 149 149 149
19.741405487061 5.912981033325 4.856998443604 149 149 149
19.741405487061 5.912981033325 4.882999420166 149 149 149
19.741405487061 5.912981033325 4.908000946045 150 150 150
19.725780487061 5.913116455078 4.931003570557 148 148 148
19.741405487061 5.912981033325 4.958003997803 149 149 149
19.741405487061 5.912981033325 4.984996795654 150 150 150
19.741405487061 5.912981033325 5.009998321533 146 146 146
19.725780487061 5.913116455078 5.029003143311 147 147 147
19.725780487061 5.913116455078 5.060001373291 144 144 144
19.725780487061 5.913116455078 5.085002899170 144 144 144
19.725780487061 5.913116455078 5.108997344971 145 145 145
19.725780487061 5.913116455078 5.133998870850 145 145 145
19.725780487061 5.913116455078 5.159000396729 144 144 144
19.725915908813 5.928741455078 5.182003021240 144 144 144
19.725780487061 5.913116455078 5.210002899170 146 146 146
19.725915908813 5.928741455078 5.232997894287 144 144 144
19.725780487061 5.913116455078 5.262996673584 142 142 142
19.725915908813 5.928741455078 5.284999847412 142 142 142
19.725915908813 5.928741455078 5.312000274658 145 145 145
19.725915908813 5.928741455078 5.336002349854 142 142 142
19.725915908813 5.928741455078 5.366001129150 142 142 142
19.725915908813 5.928741455078 5.393001556396 144 144 144
19.726186752319 5.959989547729 5.414997100830 140 140 140
19.710563659668 5.960124969482 5.437000274658 131 131 131
19.726186752319 5.959989547729 5.468997955322 132 132 132
19.710563659668 5.960124969482 5.492000579834 133 133 133
19.726186752319 5.959989547729 5.521999359131 136 136 136
19.726186752319 5.959989547729 5.551998138428 139 139 139
19.726186752319 5.959989547729 5.579998016357 136 136 136
19.726186752319 5.959989547729 5.611003875732 138 138 138
19.726186752319 5.959989547729 5.640003204346 138 138 138
19.726186752319 5.959989547729 5.664997100830 132 132 132
19.725915908813 5.928741455078 5.699001312256 133 133 133
19.726186752319 5.959989547729 5.725002288818 133 133 133
19.726186752319 5.959989547729 5.750003814697 131 131 131
19.726186752319 5.959989547729 5.785999298096 130 130 130
19.726186752319 5.959989547729 5.812000274658 127 127 127
19.725915908813 5.928741455078 5.845996856689 122 122 122
19.726186752319 5.959989547729 5.870998382568 125 125 125
19.726186752319 5.959989547729 5.903003692627 122 122 122
19.726186752319 5.959989547729 5.935001373291 123 123 123
19.725915908813 5.928741455078 5.967998504639 122 122 122
19.666671752930 6.304269790649 1.538002014160 166 166 166
19.666671752930 6.304269790649 1.557998657227 148 148 148
19.682025909424 6.272884368896 1.557998657227 144 144 144
19.713003158569 6.241365432739 1.563999176025 162 162 162
19.713003158569 6.241365432739 1.591999053955 157 157 157
19.713003158569 6.241365432739 1.615001678467 161 161 161
19.713003158569 6.241365432739 1.644001007080 162 162 162
19.713003158569 6.241365432739 1.670001983643 163 163 163
19.713003158569 6.241365432739 1.696998596191 163 163 163
19.713003158569 6.241365432739 1.723999023438 162 162 162
19.713003158569 6.241365432739 1.750000000000 162 162 162
19.713003158569 6.241365432739 1.775001525879 162 162 162
19.713003158569 6.241365432739 1.798999786377 165 165 165
19.713003158569 6.241365432739 1.826000213623 162 162 162
19.713003158569 6.241365432739 1.852001190186 161 161 161
19.712867736816 6.225740432739 1.874000549316 160 160 160
19.713003158569 6.241365432739 1.902999877930 161 161 161
19.713003158569 6.241365432739 1.929000854492 163 163 163
19.713003158569 6.241365432739 1.952999114990 163 163 163
19.713003158569 6.241365432739 1.978000640869 161 161 161
19.713003158569 6.241365432739 2.001998901367 165 165 165
19.712867736816 6.225740432739 2.025001525879 165 165 165
19.712867736816 6.225740432739 2.046001434326 165 165 165
19.712867736816 6.225740432739 2.073001861572 166 166 166
19.713003158569 6.241365432739 2.101001739502 164 164 164
19.713003158569 6.241365432739 2.125000000000 162 162 162
19.712867736816 6.225740432739 2.147998809814 162 162 162
19.712867736816 6.225740432739 2.173000335693 166 166 166
19.712867736816 6.225740432739 2.193000793457 167 167 167
19.712867736816 6.225740432739 2.215000152588 164 164 164
19.712867736816 6.225740432739 2.243999481201 166 166 166
19.712867736816 6.225740432739 2.267002105713 165 165 165
19.712867736816 6.225740432739 2.288002014160 167 167 167
19.712867736816 6.225740432739 2.312999725342 165 165 165
19.712867736816 6.225740432739 2.337001800537 165 165 165
19.712867736816 6.225740432739 2.361000061035 164 164 164
19.712867736816 6.225740432739 2.381000518799 164 164 164
19.712867736816 6.225740432739 2.402999877930 163 163 163
19.712867736816 6.225740432739 2.427001953125 163 163 163
19.712867736816 6.225740432739 2.451999664307 164 164 164
19.712867736816 6.225740432739 2.472000122070 165 165 165
19.728355407715 6.209980010986 2.493000030518 163 163 163
19.728355407715 6.209980010986 2.517002105713 163 163 163
19.712867736816 6.225740432739 2.541999816895 163 163 163
19.728355407715 6.209980010986 2.562000274658 163 163 163
19.712867736816 6.225740432739 2.584999084473 164 164 164
19.712867736816 6.225740432739 2.609001159668 164 164 164
19.728355407715 6.209980010986 2.629001617432 165 165 165
19.712867736816 6.225740432739 2.652000427246 163 163 163
19.728355407715 6.209980010986 2.673999786377 164 164 164
19.712867736816 6.225740432739 2.696998596191 165 165 165
19.728355407715 6.209980010986 2.716999053955 162 162 162
19.728355407715 6.209980010986 2.740001678467 161 161 161
19.728355407715 6.209980010986 2.761001586914 163 163 163
19.728355407715 6.209980010986 2.783000946045 162 162 162
19.728355407715 6.209980010986 2.805000305176 164 164 164
19.728355407715 6.209980010986 2.826000213623 164 164 164
19.728355407715 6.209980010986 2.848999023438 164 164 164
19.728355407715 6.209980010986 2.868000030518 165 165 165
19.728355407715 6.209980010986 2.892002105713 164 164 164
19.728355407715 6.209980010986 2.911998748779 162 162 162
19.728355407715 6.209980010986 2.935001373291 160 160 160
19.728355407715 6.209980010986 2.956001281738 163 163 163
19.728355407715 6.209980010986 2.977001190186 163 163 163
19.728355407715 6.209980010986 2.998001098633 164 164 164
19.728355407715 6.209980010986 3.020000457764 164 164 164
19.728355407715 6.209980010986 3.041000366211 163 163 163
19.728355407715 6.209980010986 3.062999725342 165 165 165
19.728355407715 6.209980010986 3.083999633789 163 163 163
19.712867736816 6.225740432739 3.105998992920 161 161 161
19.728355407715 6.209980010986 3.125999450684 161 161 161
19.728355407715 6.209980010986 3.146999359131 161 161 161
19.728355407715 6.209980010986 3.166999816895 163 163 163
19.728355407715 6.209980010986 3.188999176025 162 162 162
19.728355407715 6.209980010986 3.208999633789 162 162 162
19.728355407715 6.209980010986 3.230998992920 162 162 162
19.728355407715 6.209980010986 3.251998901367 162 162 162
19.728355407715 6.209980010986 3.271999359131 165 165 165
19.728355407715 6.209980010986 3.292999267578 160 160 160
19.728355407715 6.209980010986 3.313999176025 161 161 161
19.728355407715 6.209980010986 3.335002899170 161 161 161
19.728355407715 6.209980010986 3.355998992920 162 162 162
19.728355407715 6.209980010986 3.377002716064 162 162 162
19.743844985962 6.194221496582 3.396999359131 160 160 160
19.743844985962 6.194221496582 3.418003082275 161 161 161
19.728355407715 6.209980010986 3.438999176025 160 160 160
19.743844985962 6.194221496582 3.460002899170 160 160 160
19.743844985962 6.194221496582 3.480998992920 161 161 161
19.743844985962 6.194221496582 3.501003265381 161 161 161
19.743844985962 6.194221496582 3.521999359131 161 161 161
19.743844985962 6.194221496582 3.543003082275 162 162 162
19.743844985962 6.194221496582 3.563999176025 162 162 162
19.728355407715 6.209980010986 3.585002899170 161 161 161
19.728355407715 6.209980010986 3.604999542236 161 161 161
19.743844985962 6.194221496582 3.626003265381 159 159 159
19.743844985962 6.194221496582 3.646999359131 159 159 159
19.743844985962 6.194221496582 3.668003082275 159 159 159
19.743844985962 6.194221496582 3.688999176025 160 160 160
19.743844985962 6.194221496582 3.709003448486 161 161 161
19.743844985962 6.194221496582 3.729999542236 160 160 160
19.743844985962 6.194221496582 3.751003265381 161 161 161
19.743844985962 6.194221496582 3.771999359131 160 160 160
19.743844985962 6.194221496582 3.793003082275 161 161 161
19.743844985962 6.194221496582 3.812999725342 158 158 158
19.743844985962 6.194221496582 3.834003448486 160 160 160
19.743844985962 6.194221496582 3.854999542236 159 159 159
19.743844985962 6.194221496582 3.876003265381 159 159 159
19.743844985962 6.194221496582 3.896999359131 160 160 160
19.743844985962 6.194221496582 3.918003082275 158 158 158
19.743844985962 6.194221496582 3.938999176025 161 161 161
19.743844985962 6.194221496582 3.961002349854 162 162 162
19.743844985962 6.194221496582 3.980998992920 160 160 160
19.743844985962 6.194221496582 4.002002716064 160 160 160
19.743844985962 6.194221496582 4.023998260498 162 162 162
19.743844985962 6.194221496582 4.044002532959 160 160 160
19.743844985962 6.194221496582 4.065998077393 161 161 161
19.743844985962 6.194221496582 4.088001251221 163 163 163
19.743844985962 6.194221496582 4.107997894287 160 160 160
19.743844985962 6.194221496582 4.129001617432 160 160 160
19.743844985962 6.194221496582 4.149997711182 160 160 160
19.743844985962 6.194221496582 4.173000335693 157 157 157
19.743844985962 6.194221496582 4.191997528076 157 157 157
19.743844985962 6.194221496582 4.215000152588 160 160 160
19.743844985962 6.194221496582 4.234996795654 160 160 160
19.743844985962 6.194221496582 4.256000518799 159 159 159
19.743844985962 6.194221496582 4.279003143311 158 158 158
19.743844985962 6.194221496582 4.298999786377 156 156 156
19.743844985962 6.194221496582 4.321002960205 158 158 158
19.743844985962 6.194221496582 4.342998504639 158 158 158
19.743844985962 6.194221496582 4.366001129150 159 159 159
19.743844985962 6.194221496582 4.389003753662 156 156 156
19.743844985962 6.194221496582 4.410999298096 158 158 158
19.743844985962 6.194221496582 4.432003021240 158 158 158
19.743844985962 6.194221496582 4.452999114990 160 160 160
19.743844985962 6.194221496582 4.477001190186 160 160 160
19.743844985962 6.194221496582 4.496997833252 159 159 159
19.743844985962 6.194221496582 4.520999908447 158 158 158
19.743844985962 6.194221496582 4.544002532959 157 157 157
19.743844985962 6.194221496582 4.563999176025 158 158 158
19.743844985962 6.194221496582 4.588001251221 158 158 158
19.743844985962 6.194221496582 4.607997894287 163 163 163
19.743844985962 6.194221496582 4.632999420166 159 159 159
19.743844985962 6.194221496582 4.656002044678 160 160 160
19.743844985962 6.194221496582 4.678997039795 159 159 159
19.743844985962 6.194221496582 4.699001312256 155 155 155
19.743844985962 6.194221496582 4.722003936768 157 157 157
19.743844985962 6.194221496582 4.747997283936 159 159 159
19.743844985962 6.194221496582 4.770999908447 163 163 163
19.743844985962 6.194221496582 4.790996551514 163 163 163
19.743844985962 6.194221496582 4.815998077393 158 158 158
19.743844985962 6.194221496582 4.840999603271 161 161 161
19.743844985962 6.194221496582 4.865001678467 162 162 162
19.743844985962 6.194221496582 4.883998870850 160 160 160
19.743844985962 6.194221496582 4.907001495361 160 160 160
19.743844985962 6.194221496582 4.932003021240 159 159 159
19.743844985962 6.194221496582 4.955997467041 161 161 161
19.743844985962 6.194221496582 4.980998992920 161 161 161
19.743844985962 6.194221496582 5.006999969482 163 163 163
19.743844985962 6.194221496582 5.030002593994 160 160 160
19.743844985962 6.194221496582 5.052997589111 160 160 160
19.743844985962 6.194221496582 5.078998565674 162 162 162
19.743844985962 6.194221496582 5.100002288818 156 156 156
19.743844985962 6.194221496582 5.127002716064 158 158 158
19.743844985962 6.194221496582 5.153003692627 158 158 158
19.743844985962 6.194221496582 5.175998687744 160 160 160
19.743844985962 6.194221496582 5.201999664307 159 159 159
19.743844985962 6.194221496582 5.226001739502 158 158 158
19.743844985962 6.194221496582 5.252002716064 159 159 159
19.743844985962 6.194221496582 5.276996612549 156 156 156
19.743844985962 6.194221496582 5.303997039795 155 155 155
19.743844985962 6.194221496582 5.328998565674 158 158 158
19.743844985962 6.194221496582 5.354999542236 162 162 162
19.743844985962 6.194221496582 5.381999969482 161 161 161
19.743709564209 6.178596496582 5.408000946045 159 159 159
19.743709564209 6.178596496582 5.435001373291 161 161 161
19.743844985962 6.194221496582 5.456996917725 158 158 158
19.743844985962 6.194221496582 5.486003875732 160 160 160
19.743844985962 6.194221496582 5.510997772217 158 158 158
19.743709564209 6.178596496582 5.545001983643 156 156 156
19.743709564209 6.178596496582 5.568996429443 158 158 158
19.743709564209 6.178596496582 5.598003387451 158 158 158
19.743709564209 6.178596496582 5.621997833252 158 158 158
19.743709564209 6.178596496582 5.650997161865 157 157 157
19.743844985962 6.194221496582 5.674999237061 157 157 157
19.743709564209 6.178596496582 5.706996917725 155 155 155
19.743709564209 6.178596496582 5.736003875732 155 155 155
19.743709564209 6.178596496582 5.765003204346 156 156 156
19.743709564209 6.178596496582 5.789997100830 156 156 156
19.743709564209 6.178596496582 5.822002410889 156 156 156
19.743709564209 6.178596496582 5.848003387451 155 155 155
19.743709564209 6.178596496582 5.878002166748 154 154 154
19.743709564209 6.178596496582 5.909999847412 155 155 155
19.743709564209 6.178596496582 5.937999725342 157 157 157
19.807563781738 6.334299087524 1.550998687744 165 165 165
19.838405609131 6.287155151367 1.557998657227 142 142 142
19.853759765625 6.255767822266 1.559001922607 154 154 154
19.869247436523 6.240009307861 1.573001861572 159 159 159
19.869247436523 6.240009307861 1.604999542236 155 155 155
19.869247436523 6.240009307861 1.630001068115 157 157 157
19.869247436523 6.240009307861 1.658000946045 158 158 158
19.869112014771 6.224384307861 1.680000305176 159 159 159
19.869247436523 6.240009307861 1.708000183105 157 157 157
19.869247436523 6.240009307861 1.736000061035 159 159 159
19.869112014771 6.224384307861 1.755001068115 153 153 153
19.900089263916 6.192865371704 3.111999511719 62 62 62
19.899953842163 6.177240371704 3.131999969482 90 90 90
19.899953842163 6.177240371704 3.152999877930 93 93 93
19.899953842163 6.177240371704 3.174999237061 94 94 94
19.899953842163 6.177240371704 3.196998596191 95 95 95
19.899953842163 6.177240371704 3.216999053955 94 94 94
20.007968902588 6.020048141479 4.080997467041 113 113 113
20.007833480835 6.004423141479 4.106998443604 127 127 127
20.007833480835 6.004423141479 4.128002166748 126 126 126
20.007833480835 6.004423141479 4.150997161865 124 124 124
20.007833480835 6.004423141479 4.173999786377 124 124 124
20.007833480835 6.004423141479 4.196002960205 126 126 126
20.007833480835 6.004423141479 4.218997955322 126 126 126
20.007833480835 6.004423141479 4.242000579834 129 129 129
20.007833480835 6.004423141479 4.266002655029 129 129 129
20.007968902588 6.020048141479 4.285999298096 122 122 122
20.007833480835 6.004423141479 4.311000823975 124 124 124
20.007833480835 6.004423141479 4.334003448486 124 124 124
20.007968902588 6.020048141479 4.354999542236 120 120 120
20.007833480835 6.004423141479 4.379001617432 127 127 127
19.961637496948 6.082952499390 4.381000518799 153 153 153
19.930931091309 6.145721435547 4.391002655029 151 151 151
19.930931091309 6.145721435547 4.412998199463 142 142 142
19.961502075195 6.067327499390 4.455997467041 126 126 126
20.007968902588 6.020048141479 4.492000579834 129 129 129
20.007968902588 6.020048141479 4.516002655029 128 128 128
20.007968902588 6.020048141479 4.536998748779 128 128 128
19.992343902588 6.020183563232 4.559001922607 126 126 126
20.007968902588 6.020048141479 4.585002899170 123 123 123
19.992343902588 6.020183563232 4.606998443604 127 127 127
19.992343902588 6.020183563232 4.629001617432 128 128 128
19.992343902588 6.020183563232 4.651996612549 120 120 120
20.007968902588 6.020048141479 4.679996490479 127 127 127
19.992343902588 6.020183563232 4.701000213623 128 128 128
19.992343902588 6.020183563232 4.723003387451 129 129 129
19.961637496948 6.082952499390 4.727001190186 67 67 67
19.979431152344 6.332807540894 1.532001495361 162 162 162
19.979160308838 6.301559448242 1.553001403809 159 159 159
19.994647979736 6.285799026489 1.560001373291 167 167 167
20.010137557983 6.270038604736 1.580001831055 159 159 159
20.025356292725 6.223030090332 1.577999114990 144 144 144
20.071823120117 6.175748825073 1.560001373291 121 121 121
20.010137557983 6.270038604736 4.157001495361 84 84 84
19.994785308838 6.301424026489 4.175998687744 125 125 125
19.994785308838 6.301424026489 4.193996429443 156 156 156
19.994785308838 6.301424026489 4.214000701904 150 150 150
19.979160308838 6.301559448242 4.231998443604 147 147 147
19.979160308838 6.301559448242 4.252002716064 140 140 140
19.994785308838 6.301424026489 4.280002593994 134 134 134
19.994785308838 6.301424026489 4.300998687744 132 132 132
20.010137557983 6.270038604736 4.324001312256 128 128 128
20.010137557983 6.270038604736 4.345996856689 130 130 130
20.010137557983 6.270038604736 4.367000579834 132 132 132
19.979431152344 6.332807540894 4.373996734619 123 123 123
19.979431152344 6.332807540894 4.395999908447 124 124 124
19.963941574097 6.348567962646 4.412998199463 140 140 140
19.994785308838 6.301424026489 4.450000762939 130 130 130
19.994785308838 6.301424026489 4.472003936768 130 130 130
19.994785308838 6.301424026489 4.492000579834 127 127 127
19.994785308838 6.301424026489 4.514003753662 132 132 132
19.994785308838 6.301424026489 4.534999847412 129 129 129
19.979431152344 6.332807540894 4.546001434326 135 135 135
19.979160308838 6.301559448242 4.567996978760 141 141 141
19.979160308838 6.301559448242 4.590999603271 136 136 136
19.994785308838 6.301424026489 4.621997833252 88 88 88
19.509885787964 6.243127822876 1.620998382568 165 165 165
19.525781631470 6.274240493774 1.610000610352 167 167 167
19.541675567627 6.305355072021 1.592998504639 169 169 169
19.541675567627 6.305355072021 1.568000793457 165 165 165
19.557437896729 6.320842742920 1.554000854492 159 159 159
19.541542053223 6.289730072021 1.509998321533 172 172 172
19.588142395020 6.258073806763 4.636997222900 45 45 45
19.588142395020 6.258073806763 4.613002777100 134 134 134
19.603767395020 6.257938385010 4.590999603271 141 141 141
19.587871551514 6.226825714111 4.574001312256 132 132 132
19.587871551514 6.226825714111 4.553997039795 127 127 127
19.587871551514 6.226825714111 4.534000396729 130 130 130
19.587871551514 6.226825714111 4.511997222900 130 130 130
19.587871551514 6.226825714111 4.489002227783 131 131 131
19.587871551514 6.226825714111 4.466999053955 133 133 133
19.587871551514 6.226825714111 4.446002960205 131 131 131
19.619527816772 6.273427963257 4.411998748779 133 133 133
19.619256973267 6.242179870605 4.394001007080 136 136 136
19.588006973267 6.242450714111 4.376003265381 126 126 126
19.587600708008 6.195577621460 4.362003326416 133 133 133
19.587600708008 6.195577621460 4.339000701904 129 129 129
19.587600708008 6.195577621460 4.317996978760 133 133 133
19.587600708008 6.195577621460 4.296001434326 132 132 132
19.587600708008 6.195577621460 4.273998260498 129 129 129
19.571975708008 6.195713043213 4.255001068115 130 130 130
19.587600708008 6.195577621460 4.231998443604 131 131 131
19.587736129761 6.211200714111 4.206996917725 137 137 137
19.588006973267 6.242450714111 4.183002471924 140 140 140
19.603361129761 6.211065292358 4.162998199463 145 145 145
19.603361129761 6.211065292358 4.143001556396 139 139 139
19.571840286255 6.180088043213 4.127002716064 106 106 106
19.618442535400 6.148433685303 1.731998443604 162 162 162
19.650234222412 6.210657119751 1.749000549316 155 155 155
19.650234222412 6.210657119751 1.722000122070 158 158 158
19.650234222412 6.210657119751 1.694000244141 159 159 159
19.650234222412 6.210657119751 1.666000366211 158 158 158
19.650234222412 6.210657119751 1.643001556396 154 154 154
19.650234222412 6.210657119751 1.609001159668 148 148 148
19.650234222412 6.210657119751 1.584999084473 154 154 154
19.665859222412 6.210521697998 1.562999725342 156 156 156
19.681890487671 6.257259368896 1.559001922607 143 143 143
19.698057174683 6.319622039795 1.563999176025 152 152 152
19.713409423828 6.288238525391 1.529998779297 167 167 167
19.712459564209 6.178867340088 4.889003753662 42 42 42
19.712459564209 6.178867340088 4.857997894287 68 68 68
19.712459564209 6.178867340088 4.838001251221 78 78 78
19.712459564209 6.178867340088 4.817996978760 100 100 100
19.712459564209 6.178867340088 4.790996551514 105 105 105
19.712459564209 6.178867340088 4.769001007080 115 115 115
19.712459564209 6.178867340088 4.747997283936 123 123 123
19.712459564209 6.178867340088 4.725002288818 128 128 128
19.712459564209 6.178867340088 4.699001312256 131 131 131
19.696701049805 6.163377761841 4.683002471924 141 141 141
19.696701049805 6.163377761841 4.659999847412 151 151 151
19.712459564209 6.178867340088 4.632999420166 149 149 149
19.712188720703 6.147619247437 4.614002227783 149 149 149
19.712459564209 6.178867340088 4.587001800537 148 148 148
19.712326049805 6.163242340088 4.565998077393 149 149 149
19.712326049805 6.163242340088 4.543003082275 151 151 151
19.712459564209 6.178867340088 4.518001556396 149 149 149
19.712459564209 6.178867340088 4.496997833252 151 151 151
19.712459564209 6.178867340088 4.474002838135 152 152 152
19.712459564209 6.178867340088 4.451000213623 152 152 152
19.712459564209 6.178867340088 4.425998687744 153 153 153
19.743844985962 6.194221496582 4.399997711182 156 156 156
19.728084564209 6.178731918335 4.381000518799 157 157 157
19.712459564209 6.178867340088 4.362003326416 155 155 155
19.712459564209 6.178867340088 4.339000701904 155 155 155
19.743844985962 6.194221496582 4.312000274658 155 155 155
19.728084564209 6.178731918335 4.293003082275 156 156 156
19.728084564209 6.178731918335 4.270999908447 155 155 155
19.743844985962 6.194221496582 4.247997283936 156 156 156
19.728084564209 6.178731918335 4.226001739502 156 156 156
19.728084564209 6.178731918335 4.206996917725 157 157 157
19.743844985962 6.194221496582 4.182003021240 157 157 157
19.743844985962 6.194221496582 4.159999847412 157 157 157
19.728084564209 6.178731918335 4.140003204346 157 157 157
19.743844985962 6.194221496582 4.118000030518 157 157 157
19.743844985962 6.194221496582 4.097003936768 159 159 159
19.743844985962 6.194221496582 4.075000762939 157 157 157
19.743844985962 6.194221496582 4.052997589111 157 157 157
19.743844985962 6.194221496582 4.032001495361 157 157 157
19.743844985962 6.194221496582 4.010997772217 159 159 159
19.743844985962 6.194221496582 3.989002227783 156 156 156
19.743844985962 6.194221496582 3.967998504639 157 157 157
19.743844985962 6.194221496582 3.946002960205 157 157 157
19.743844985962 6.194221496582 3.925998687744 159 159 159
19.743844985962 6.194221496582 3.903003692627 157 157 157
19.743844985962 6.194221496582 3.881999969482 158 158 158
19.743844985962 6.194221496582 3.862003326416 158 158 158
19.743844985962 6.194221496582 3.840000152588 159 159 159
19.743844985962 6.194221496582 3.818996429443 159 159 159
19.743844985962 6.194221496582 3.798000335693 160 160 160
19.743844985962 6.194221496582 3.776996612549 159 159 159
19.743844985962 6.194221496582 3.756000518799 158 158 158
19.743844985962 6.194221496582 3.734996795654 160 160 160
19.743844985962 6.194221496582 3.713001251221 160 160 160
19.743844985962 6.194221496582 3.691997528076 157 157 157
19.743844985962 6.194221496582 3.671001434326 159 159 159
19.743844985962 6.194221496582 3.649997711182 157 157 157
19.743844985962 6.194221496582 3.629001617432 159 159 159
19.743844985962 6.194221496582 3.607997894287 158 158 158
19.743844985962 6.194221496582 3.587001800537 159 159 159
19.743844985962 6.194221496582 3.565998077393 159 159 159
19.743844985962 6.194221496582 3.545001983643 158 158 158
19.743844985962 6.194221496582 3.523998260498 157 157 157
19.743844985962 6.194221496582 3.503002166748 158 158 158
19.743844985962 6.194221496582 3.481998443604 159 159 159
19.759605407715 6.209709167480 3.462001800537 160 160 160
19.759605407715 6.209709167480 3.439998626709 158 158 158
19.743844985962 6.194221496582 3.419002532959 159 159 159
19.759605407715 6.209709167480 3.397998809814 158 158 158
19.743844985962 6.194221496582 3.377002716064 159 159 159
19.759605407715 6.209709167480 3.355998992920 158 158 158
19.759605407715 6.209709167480 3.335002899170 159 159 159
19.759605407715 6.209709167480 3.312999725342 160 160 160
19.759605407715 6.209709167480 3.291999816895 160 160 160
19.759605407715 6.209709167480 3.271999359131 159 159 159
19.759605407715 6.209709167480 3.250999450684 160 160 160
19.759605407715 6.209709167480 3.229000091553 160 160 160
19.759605407715 6.209709167480 3.208000183105 158 158 158
19.759605407715 6.209709167480 3.187000274658 159 159 159
19.759605407715 6.209709167480 3.166000366211 159 159 159
19.775230407715 6.209573745728 3.145999908447 156 156 156
19.759334564209 6.178461074829 3.122001647949 158 158 158
19.775230407715 6.209573745728 3.103000640869 157 157 157
19.759605407715 6.209709167480 3.080001831055 158 158 158
19.775230407715 6.209573745728 3.060001373291 158 158 158
19.775230407715 6.209573745728 3.038002014160 156 156 156
19.775230407715 6.209573745728 3.017002105713 158 158 158
19.775093078613 6.193950653076 2.994998931885 158 158 158
19.775230407715 6.209573745728 2.973999023438 160 160 160
19.775230407715 6.209573745728 2.952999114990 157 157 157
19.775093078613 6.193950653076 2.929000854492 159 159 159
19.775093078613 6.193950653076 2.909000396729 157 157 157
19.775230407715 6.209573745728 2.888000488281 157 157 157
19.775093078613 6.193950653076 2.865001678467 158 158 158
19.775230407715 6.209573745728 2.844001770020 156 156 156
19.775230407715 6.209573745728 2.824001312256 159 159 159
19.775093078613 6.193950653076 2.798999786377 157 157 157
19.775363922119 6.225198745728 2.779998779297 160 160 160
19.775230407715 6.209573745728 2.755001068115 159 159 159
19.775230407715 6.209573745728 2.735000610352 159 159 159
19.775363922119 6.225198745728 2.714000701904 157 157 157
19.775363922119 6.225198745728 2.691001892090 157 157 157
19.775230407715 6.209573745728 2.666999816895 159 159 159
19.790853500366 6.209438323975 2.646999359131 156 156 156
19.790853500366 6.209438323975 2.624000549316 157 157 157
19.775230407715 6.209573745728 2.599998474121 158 158 158
19.775230407715 6.209573745728 2.577999114990 159 159 159
19.790853500366 6.209438323975 2.555000305176 159 159 159
19.775230407715 6.209573745728 2.529998779297 157 157 157
19.790853500366 6.209438323975 2.509998321533 158 158 158
19.790853500366 6.209438323975 2.487998962402 157 157 157
19.790853500366 6.209438323975 2.464000701904 157 157 157
19.790853500366 6.209438323975 2.444000244141 159 159 159
19.790853500366 6.209438323975 2.418998718262 160 160 160
19.790853500366 6.209438323975 2.395999908447 159 159 159
19.790853500366 6.209438323975 2.372001647949 160 160 160
19.790853500366 6.209438323975 2.347000122070 158 158 158
19.790853500366 6.209438323975 2.326000213623 158 158 158
19.790853500366 6.209438323975 2.304000854492 158 158 158
19.790853500366 6.209438323975 2.282001495361 160 160 160
19.790853500366 6.209438323975 2.257999420166 158 158 158
19.806478500366 6.209302902222 2.235000610352 159 159 159
19.790853500366 6.209438323975 2.207000732422 159 159 159
19.790853500366 6.209438323975 2.182998657227 159 159 159
19.790853500366 6.209438323975 2.159999847412 158 158 158
19.806613922119 6.224927902222 2.140998840332 157 157 157
19.790853500366 6.209438323975 2.111000061035 159 159 159
19.790853500366 6.209438323975 2.088001251221 160 160 160
19.806613922119 6.224927902222 2.069000244141 158 158 158
19.806478500366 6.209302902222 2.040000915527 158 158 158
19.806478500366 6.209302902222 2.015998840332 159 159 159
19.806613922119 6.224927902222 1.992000579834 158 158 158
19.806613922119 6.224927902222 1.966999053955 159 159 159
19.806613922119 6.224927902222 1.941001892090 159 159 159
19.806613922119 6.224927902222 1.918998718262 159 159 159
19.806478500366 6.209302902222 1.888999938965 159 159 159
19.806613922119 6.224927902222 1.863998413086 157 157 157
19.806613922119 6.224927902222 1.840999603271 157 157 157
19.806613922119 6.224927902222 1.813999176025 158 158 158
19.806613922119 6.224927902222 1.785999298096 158 158 158
19.806613922119 6.224927902222 1.767002105713 159 159 159
19.822238922119 6.224792480469 1.741001129150 157 157 157
19.806613922119 6.224927902222 1.712001800537 158 158 158
19.806613922119 6.224927902222 1.685001373291 156 156 156
19.822238922119 6.224792480469 1.660999298096 156 156 156
19.806613922119 6.224927902222 1.629001617432 157 157 157
19.822238922119 6.224792480469 1.610000610352 155 155 155
19.806613922119 6.224927902222 1.576999664307 155 155 155
19.822374343872 6.240417480469 1.557998657227 151 151 151
19.853893280029 6.271392822266 1.559001922607 143 143 143
19.869789123535 6.302507400513 1.555999755859 156 156 156
19.837455749512 6.177783966064 5.936000823975 155 155 155
19.837455749512 6.177783966064 5.909999847412 153 153 153
19.837455749512 6.177783966064 5.878002166748 155 155 155
19.837455749512 6.177783966064 5.851001739502 153 153 153
19.837455749512 6.177783966064 5.822002410889 152 152 152
19.837455749512 6.177783966064 5.795001983643 152 152 152
19.837455749512 6.177783966064 5.762996673584 153 153 153
19.852809906006 6.146398544312 5.737003326416 154 154 154
19.837455749512 6.177783966064 5.703998565674 153 153 153
19.852809906006 6.146398544312 5.678997039795 152 152 152
19.837455749512 6.177783966064 5.648998260498 154 154 154
19.837455749512 6.177783966064 5.619998931885 154 154 154
19.837455749512 6.177783966064 5.591999053955 153 153 153
19.853080749512 6.177646636963 5.560001373291 156 156 156
19.852809906006 6.146398544312 5.539997100830 155 155 155
19.853080749512 6.177646636963 5.508998870850 156 156 156
19.853080749512 6.177646636963 5.477001190186 155 155 155
19.868568420410 6.161886215210 5.455997467041 156 156 156
19.868568420410 6.161886215210 5.432003021240 157 157 157
19.868568420410 6.161886215210 5.403003692627 156 156 156
19.853080749512 6.177646636963 5.372997283936 158 158 158
19.868568420410 6.161886215210 5.349002838135 155 155 155
19.868568420410 6.161886215210 5.324001312256 157 157 157
19.868568420410 6.161886215210 5.299999237061 157 157 157
19.853080749512 6.177646636963 5.268001556396 160 160 160
19.868568420410 6.161886215210 5.245998382568 157 157 157
19.868568420410 6.161886215210 5.220996856689 156 156 156
19.853080749512 6.177646636963 5.190998077393 159 159 159
19.868568420410 6.161886215210 5.169002532959 156 156 156
19.868568420410 6.161886215210 5.145000457764 156 156 156
19.868568420410 6.161886215210 5.117000579834 156 156 156
19.868568420410 6.161886215210 5.093997955322 158 158 158
19.868568420410 6.161886215210 5.072002410889 157 157 157
19.868568420410 6.161886215210 5.044002532959 157 157 157
19.868568420410 6.161886215210 5.019001007080 155 155 155
19.868568420410 6.161886215210 4.995998382568 158 158 158
19.884328842163 6.177375793457 4.968997955322 157 157 157
19.884328842163 6.177375793457 4.945003509521 156 156 156
19.884328842163 6.177375793457 4.922000885010 159 159 159
19.884328842163 6.177375793457 4.896999359131 156 156 156
19.884328842163 6.177375793457 4.872997283936 159 159 159
19.884328842163 6.177375793457 4.850002288818 155 155 155
19.884328842163 6.177375793457 4.826000213623 153 153 153
19.884328842163 6.177375793457 4.801998138428 153 153 153
19.884328842163 6.177375793457 4.780002593994 152 152 152
19.884328842163 6.177375793457 4.756000518799 150 150 150
19.884328842163 6.177375793457 4.731998443604 150 150 150
19.884328842163 6.177375793457 4.710002899170 150 150 150
19.884328842163 6.177375793457 4.686000823975 149 149 149
19.884328842163 6.177375793457 4.663997650146 146 146 146
19.868568420410 6.161886215210 4.643001556396 146 146 146
19.884328842163 6.177375793457 4.618000030518 145 145 145
19.916120529175 6.239603042603 4.573001861572 150 150 150
19.963399887085 6.286069869995 4.533000946045 155 155 155
19.963670730591 6.317317962646 4.506000518799 159 159 159
19.979431152344 6.332807540894 4.479000091553 162 162 162
19.979566574097 6.348432540894 4.452999114990 163 163 163
19.979566574097 6.348432540894 4.432003021240 170 170 170
19.995326995850 6.363920211792 4.408000946045 174 174 174
19.995326995850 6.363920211792 4.384998321533 178 178 178
19.979566574097 6.348432540894 4.369998931885 181 181 181
19.979566574097 6.348432540894 4.349002838135 177 177 177
19.979431152344 6.332807540894 4.330997467041 168 168 168
19.979431152344 6.332807540894 4.310001373291 160 160 160
19.979431152344 6.332807540894 4.292003631592 154 154 154
19.963535308838 6.301694869995 4.274997711182 153 153 153
19.915985107422 6.223978042603 4.271999359131 140 140 140
19.884057998657 6.146127700806 4.262996673584 136 136 136
19.884057998657 6.146127700806 4.241001129150 136 136 136
19.884057998657 6.146127700806 4.219997406006 136 136 136
19.868434906006 6.146263122559 4.200000762939 134 134 134
19.868434906006 6.146263122559 4.177997589111 136 136 136
19.868434906006 6.146263122559 4.156002044678 134 134 134
19.868434906006 6.146263122559 4.134998321533 134 134 134
19.868162155151 6.115013122559 4.114002227783 135 135 135
19.868434906006 6.146263122559 4.090999603271 134 134 134
19.868434906006 6.146263122559 4.068996429443 136 136 136
19.868434906006 6.146263122559 4.047000885010 133 133 133
19.868297576904 6.130638122559 4.025997161865 134 134 134
19.868162155151 6.115013122559 4.006000518799 129 129 129
19.868297576904 6.130638122559 3.982997894287 132 132 132
19.868162155151 6.115013122559 3.962001800537 132 132 132
19.868162155151 6.115013122559 3.940998077393 133 133 133
19.868162155151 6.115013122559 3.920001983643 135 135 135
19.868162155151 6.115013122559 3.897998809814 137 137 137
19.867891311646 6.083765029907 3.878002166748 136 136 136
19.852268218994 6.083900451660 3.856998443604 141 141 141
19.852268218994 6.083900451660 3.835002899170 138 138 138
19.836505889893 6.068412780762 3.813999176025 141 141 141
19.836505889893 6.068412780762 3.792003631592 145 145 145
19.836505889893 6.068412780762 3.770999908447 144 144 144
19.836505889893 6.068412780762 3.750003814697 141 141 141
19.836505889893 6.068412780762 3.728000640869 142 142 142
19.820747375488 6.052923202515 3.705997467041 143 143 143
19.820611953735 6.037300109863 3.684001922607 146 146 146
19.820611953735 6.037300109863 3.661998748779 143 143 143
19.836235046387 6.037164688110 3.640003204346 146 146 146
19.820476531982 6.021675109863 3.618000030518 146 146 146
19.804851531982 6.021810531616 3.595996856689 144 144 144
19.820341110229 6.006050109863 3.573001861572 144 144 144
19.820341110229 6.006050109863 3.550998687744 144 144 144
19.804580688477 5.990562438965 3.529003143311 148 148 148
19.804580688477 5.990562438965 3.506000518799 148 148 148
19.804580688477 5.990562438965 3.483997344971 148 148 148
19.788684844971 5.959447860718 3.460002899170 150 150 150
19.804309844971 5.959312438965 3.437999725342 152 152 152
19.788684844971 5.959447860718 3.414997100830 152 152 152
19.772924423218 5.943960189819 3.391002655029 151 151 151
19.757165908813 5.928470611572 3.367000579834 153 153 153
19.756893157959 5.897222518921 3.340999603271 152 152 152
19.725374221802 5.866243362427 3.314998626709 152 152 152
19.725238800049 5.850618362427 3.291000366211 154 154 154
19.709613800049 5.850753784180 3.267002105713 156 156 156
19.725238800049 5.850618362427 3.243999481201 154 154 154
19.852268218994 6.083900451660 3.247001647949 136 136 136
19.899682998657 6.145992279053 3.233001708984 153 153 153
19.899682998657 6.145992279053 3.212001800537 172 172 172
19.899682998657 6.145992279053 3.189998626709 173 173 173
19.899682998657 6.145992279053 3.167999267578 163 163 163
19.899682998657 6.145992279053 3.146999359131 168 168 168
19.883922576904 6.130502700806 3.123001098633 152 152 152
19.725103378296 5.834995269775 3.054000854492 153 153 153
19.725103378296 5.834995269775 3.029998779297 154 154 154
19.725103378296 5.834995269775 3.006000518799 155 155 155
19.725103378296 5.834995269775 2.980998992920 155 155 155
19.709478378296 5.835130691528 2.956001281738 155 155 155
19.725103378296 5.834995269775 2.932998657227 153 153 153
19.709478378296 5.835130691528 2.908000946045 154 154 154
19.709478378296 5.835130691528 2.884998321533 154 154 154
19.725103378296 5.834995269775 2.861000061035 153 153 153
19.709478378296 5.835130691528 2.835998535156 156 156 156
19.709478378296 5.835130691528 2.811000823975 154 154 154
19.709478378296 5.835130691528 2.786998748779 155 155 155
19.709478378296 5.835130691528 2.761001586914 154 154 154
19.725103378296 5.834995269775 2.738998413086 155 155 155
19.709478378296 5.835130691528 2.714000701904 154 154 154
19.709478378296 5.835130691528 2.687999725342 154 154 154
19.724967956543 5.819370269775 2.663002014160 153 153 153
19.709478378296 5.835130691528 2.638999938965 153 153 153
19.724967956543 5.819370269775 2.612998962402 153 153 153
19.724830627441 5.803745269775 2.588001251221 156 156 156
19.724830627441 5.803745269775 2.562000274658 153 153 153
19.724967956543 5.819370269775 2.538002014160 154 154 154
19.724830627441 5.803745269775 2.511001586914 154 154 154
19.724967956543 5.819370269775 2.487998962402 155 155 155
19.724830627441 5.803745269775 2.460998535156 155 155 155
19.724967956543 5.819370269775 2.437000274658 153 153 153
19.724967956543 5.819370269775 2.411998748779 158 158 158
19.724967956543 5.819370269775 2.386001586914 156 156 156
19.724830627441 5.803745269775 2.358001708984 156 156 156
19.724967956543 5.819370269775 2.333999633789 156 156 156
19.724830627441 5.803745269775 2.305999755859 158 158 158
19.724967956543 5.819370269775 2.282001495361 156 156 156
19.724830627441 5.803745269775 2.255001068115 156 156 156
19.724830627441 5.803745269775 2.228000640869 156 156 156
19.724830627441 5.803745269775 2.201000213623 154 154 154
19.724967956543 5.819370269775 2.178001403809 156 156 156
19.772518157959 5.897087097168 2.182998657227 108 108 108
19.851589202881 6.005777359009 2.208999633789 143 143 143
19.867485046387 6.036891937256 2.192001342773 131 131 131
19.867485046387 6.036891937256 2.165000915527 128 128 128
19.851860046387 6.037027359009 2.139999389648 133 133 133
19.851860046387 6.037027359009 2.113998413086 129 129 129
19.851589202881 6.005777359009 2.083000183105 137 137 137
19.756351470947 5.834724426270 1.973999023438 153 153 153
19.740455627441 5.803609848022 1.930999755859 152 152 152
19.740455627441 5.803609848022 1.900001525879 154 154 154
19.740455627441 5.803609848022 1.873001098633 152 152 152
19.740455627441 5.803609848022 1.847000122070 155 155 155
19.740592956543 5.819234848022 1.819999694824 155 155 155
19.740455627441 5.803609848022 1.790000915527 153 153 153
19.740592956543 5.819234848022 1.763999938965 154 154 154
19.740455627441 5.803609848022 1.729999542236 152 152 152
19.772518157959 5.897087097168 1.750999450684 145 145 145
19.772247314453 5.865837097168 1.703998565674 143 143 143
19.772382736206 5.881462097168 1.692001342773 154 154 154
19.740455627441 5.803609848022 1.616001129150 154 154 154
19.740592956543 5.819234848022 1.588001251221 152 152 152
19.740592956543 5.819234848022 1.566001892090 153 153 153
19.772111892700 5.850212097168 1.560001373291 138 138 138
19.803901672363 5.912439346313 1.561000823975 138 138 138
19.819934844971 5.959177017212 1.554000854492 140 140 140
19.835557937622 5.959041595459 1.529998779297 168 168 168
19.883243560791 6.052379608154 1.564998626709 144 144 144
19.899141311646 6.083494186401 1.556999206543 141 141 141
19.930931091309 6.145721435547 1.562999725342 143 143 143
19.978347778320 6.207811355591 1.581001281738 146 146 146
20.010137557983 6.270038604736 1.594001770020 153 153 153
20.010137557983 6.270038604736 1.571998596191 160 160 160
20.026168823242 6.316776275635 1.564998626709 159 159 159
20.026168823242 6.316776275635 1.539001464844 158 158 158
19.850776672363 5.912031173706 5.979000091553 150 150 150
19.850776672363 5.912031173706 5.947002410889 150 150 150
19.866399765015 5.911895751953 5.909999847412 151 151 151
19.866399765015 5.911895751953 5.879001617432 151 151 151
19.866399765015 5.911895751953 5.852001190186 150 150 150
19.850776672363 5.912031173706 5.823001861572 149 149 149
19.850776672363 5.912031173706 5.794002532959 149 149 149
19.866399765015 5.911895751953 5.758998870850 149 149 149
19.866399765015 5.911895751953 5.731998443604 151 151 151
19.866535186768 5.927520751953 5.700000762939 151 151 151
19.866535186768 5.927520751953 5.670001983643 149 149 149
19.866399765015 5.911895751953 5.645000457764 150 150 150
19.866535186768 5.927520751953 5.609996795654 146 146 146
19.882431030273 5.958633422852 5.562000274658 133 133 133
19.882160186768 5.927385330200 5.538997650146 136 136 136
19.882295608521 5.943010330200 5.508998870850 136 136 136
19.882295608521 5.943010330200 5.480998992920 138 138 138
19.866535186768 5.927520751953 5.461002349854 139 139 139
19.866535186768 5.927520751953 5.438999176025 145 145 145
19.882160186768 5.927385330200 5.414997100830 148 148 148
19.866399765015 5.911895751953 5.391002655029 144 144 144
19.866399765015 5.911895751953 5.363002777100 144 144 144
19.882160186768 5.927385330200 5.333003997803 145 145 145
19.882160186768 5.927385330200 5.306003570557 145 145 145
19.882160186768 5.927385330200 5.280002593994 147 147 147
19.866399765015 5.911895751953 5.255001068115 143 143 143
19.866399765015 5.911895751953 5.227001190186 146 146 146
19.882160186768 5.927385330200 5.197002410889 143 143 143
19.866399765015 5.911895751953 5.174999237061 144 144 144
19.866399765015 5.911895751953 5.148998260498 143 143 143
19.882160186768 5.927385330200 5.118999481201 141 141 141
19.866399765015 5.911895751953 5.094997406006 140 140 140
19.866399765015 5.911895751953 5.067996978760 140 140 140
19.882160186768 5.927385330200 5.039997100830 144 144 144
19.866399765015 5.911895751953 5.017002105713 140 140 140
19.882160186768 5.927385330200 4.987003326416 142 142 142
19.882160186768 5.927385330200 4.963001251221 141 141 141
19.882160186768 5.927385330200 4.939998626709 138 138 138
19.882160186768 5.927385330200 4.913997650146 141 141 141
19.866399765015 5.911895751953 4.889003753662 137 137 137
19.882160186768 5.927385330200 4.861003875732 140 140 140
19.881889343262 5.896137237549 4.838001251221 138 138 138
19.882160186768 5.927385330200 4.809001922607 138 138 138
19.993293762207 6.129554748535 4.712001800537 1 1 1
20.008918762207 6.129419326782 4.687999725342 1 1 1
20.008918762207 6.129419326782 4.662998199463 1 1 1
20.024543762207 6.129283905029 4.637996673584 1 1 1
20.008918762207 6.129419326782 4.617000579834 1 1 1
20.008918762207 6.129419326782 4.593997955322 1 1 1
20.008918762207 6.129419326782 4.572002410889 1 1 1
20.008781433105 6.113794326782 4.552997589111 1 1 1
19.993158340454 6.113929748535 4.533000946045 190 190 190
20.024677276611 6.144908905029 4.500003814697 0 0 0
20.024677276611 6.144908905029 4.476001739502 0 0 0
20.008918762207 6.129419326782 4.456996917725 0 0 0
20.024543762207 6.129283905029 4.433002471924 0 0 0
20.024543762207 6.129283905029 4.410999298096 0 0 0
20.024543762207 6.129283905029 4.390003204346 0 0 0
20.024543762207 6.129283905029 4.367000579834 0 0 0
20.024543762207 6.129283905029 4.345996856689 0 0 0
20.024543762207 6.129283905029 4.322002410889 0 0 0
20.024677276611 6.144908905029 4.298000335693 0 0 0
20.008646011353 6.098171234131 4.284000396729 154 154 154
20.024543762207 6.129283905029 4.256000518799 0 0 0
20.024543762207 6.129283905029 4.233997344971 0 0 0
20.024543762207 6.129283905029 4.212001800537 0 0 0
20.024543762207 6.129283905029 4.189998626709 0 0 0
20.024543762207 6.129283905029 4.169002532959 0 0 0
20.024543762207 6.129283905029 4.146999359131 0 0 0
20.024543762207 6.129283905029 4.123996734619 0 0 0
20.024543762207 6.129283905029 4.104000091553 0 0 0
20.008918762207 6.129419326782 4.083003997803 0 0 0
19.897785186768 5.927249908447 4.088001251221 135 135 135
19.865993499756 5.865022659302 4.070003509521 133 133 133
19.865993499756 5.865022659302 4.048000335693 133 133 133
19.865993499756 5.865022659302 4.023998260498 127 127 127
19.865993499756 5.865022659302 4.001003265381 129 129 129
19.865993499756 5.865022659302 3.978000640869 128 128 128
19.881481170654 5.849262237549 3.953998565674 132 132 132
19.865993499756 5.865022659302 3.931003570557 129 129 129
19.865993499756 5.865022659302 3.907001495361 132 132 132
19.881481170654 5.849262237549 3.883998870850 133 133 133
