29.203960418701 13.251095771790 28.908002853394 20 20 20
29.282491683960 13.135493278503 28.584001541138 24 24 24
29.158597946167 13.118908882141 28.901000976563 31 31 31
29.237131118774 13.003306388855 28.577001571655 32 32 32
29.183475494385 12.933066368103 28.898000717163 36 36 36
29.262006759644 12.817463874817 28.575002670288 32 32 32
29.191768646240 12.871119499207 28.897001266479 42 42 42
29.278593063354 12.693570137024 28.573001861572 27 27 27
29.154699325562 12.676983833313 28.892000198364 43 43 43
29.224937438965 12.623330116272 28.577001571655 41 41 41
29.233230590820 12.561383247375 28.727003097534 24 24 24
29.233230590820 12.561383247375 28.892000198364 67 67 67
29.187868118286 12.429194450378 28.888000488281 73 73 73
29.212745666504 12.243352890015 28.883001327515 52 52 52
29.229330062866 12.119457244873 28.879001617432 49 49 49
29.245914459229 11.995562553406 28.867002487183 33 33 33
29.200550079346 11.863375663757 28.857002258301 22 22 22
29.081047058105 11.342918395996 25.378000259399 26 26 26
29.081047058105 11.342918395996 25.531000137329 31 31 31
28.804479598999 11.053667068481 23.737001419067 60 60 60
28.829357147217 10.867824554443 23.747001647949 97 97 97
28.883012771606 10.938064575195 24.044000625610 100 100 100
28.883012771606 10.938064575195 24.197000503540 178 178 178
28.883012771606 10.938064575195 24.347000122070 176 176 176
28.883012771606 10.938064575195 24.495000839233 185 185 185
28.883012771606 10.938064575195 24.645000457764 178 178 178
28.883012771606 10.938064575195 24.792999267578 180 180 180
28.874719619751 11.000011444092 24.942001342773 174 174 174
28.874719619751 11.000011444092 25.090000152588 180 180 180
28.874719619751 11.000011444092 25.240001678467 181 181 181
28.874719619751 11.000011444092 25.388999938965 174 174 174
28.928373336792 11.070252418518 25.538999557495 183 183 183
28.928373336792 11.070252418518 25.689001083374 183 183 183
28.928373336792 11.070252418518 25.839000701904 175 175 175
28.982030868530 11.140491485596 25.989999771118 175 175 175
28.982030868530 11.140491485596 26.140001296997 169 169 169
28.982030868530 11.140491485596 26.291000366211 160 160 160
28.982030868530 11.140491485596 26.444000244141 170 170 170
28.982030868530 11.140491485596 26.597000122070 164 164 164
28.982030868530 11.140491485596 26.749000549316 167 167 167
28.982030868530 11.140491485596 26.902999877930 170 170 170
28.982030868530 11.140491485596 27.058000564575 159 159 159
29.035684585571 11.210731506348 27.211999893188 158 158 158
29.035684585571 11.210731506348 27.369001388550 156 156 156
29.097631454468 11.219023704529 27.527000427246 156 156 156
29.089340209961 11.280971527100 27.685001373291 151 151 151
29.089340209961 11.280971527100 27.844001770020 151 151 151
29.089340209961 11.280971527100 28.005001068115 135 135 135
29.081047058105 11.342918395996 28.163999557495 129 129 129
29.081047058105 11.342918395996 28.328002929688 129 129 129
29.081047058105 11.342918395996 28.492002487183 121 121 121
29.213235855103 11.297556877136 28.658002853394 112 112 112
29.213235855103 11.297556877136 28.822002410889 104 104 104
29.213235855103 11.297556877136 28.989002227783 101 101 101
29.196649551392 11.421450614929 29.159000396729 103 103 103
29.196649551392 11.421450614929 29.334001541138 107 107 107
29.258596420288 11.429743766785 29.506000518799 92 92 92
29.258596420288 11.429743766785 29.685001373291 83 83 83
29.258596420288 11.429743766785 29.849002838135 21 21 21
29.258596420288 11.429743766785 30.027000427246 1 1 1
28.767410278320 10.859532356262 23.600000381470 145 145 145
28.829357147217 10.867824554443 23.895999908447 105 105 105
29.015199661255 10.892702102661 23.568000793457 181 181 181
29.015199661255 10.892702102661 23.721000671387 185 185 185
29.015199661255 10.892702102661 24.030000686646 255 255 255
29.015199661255 10.892702102661 24.340000152588 114 114 114
29.015199661255 10.892702102661 24.491001129150 118 118 118
29.015199661255 10.892702102661 24.640001296997 121 121 121
29.015199661255 10.892702102661 24.791000366211 116 116 116
29.015199661255 10.892702102661 24.940999984741 121 121 121
29.006908416748 10.954649925232 25.090000152588 134 134 134
29.006908416748 10.954649925232 25.240001678467 129 129 129
29.006908416748 10.954649925232 25.390001296997 140 140 140
29.006908416748 10.954649925232 25.541000366211 134 134 134
28.998615264893 11.016596794128 25.692001342773 142 142 142
28.998615264893 11.016596794128 25.843000411987 134 134 134
28.998615264893 11.016596794128 25.993999481201 132 132 132
28.998615264893 11.016596794128 26.145999908447 130 130 130
29.114215850830 11.095129013062 26.298000335693 140 140 140
29.114215850830 11.095129013062 26.450000762939 129 129 129
29.114215850830 11.095129013062 26.604000091553 132 132 132
29.114215850830 11.095129013062 26.758001327515 136 136 136
29.114215850830 11.095129013062 26.913000106812 134 134 134
29.114215850830 11.095129013062 27.067001342773 117 117 117
29.114215850830 11.095129013062 27.222999572754 117 117 117
29.114215850830 11.095129013062 27.379001617432 124 124 124
29.167873382568 11.165368080139 27.538999557495 127 127 127
29.167873382568 11.165368080139 27.697002410889 122 122 122
29.159580230713 11.227315902710 27.858001708984 121 121 121
29.159580230713 11.227315902710 28.017999649048 120 120 120
29.159580230713 11.227315902710 28.180002212524 123 123 123
29.213235855103 11.297556877136 28.344001770020 130 130 130
29.213235855103 11.297556877136 28.508001327515 129 129 129
29.213235855103 11.297556877136 28.672002792358 129 129 129
29.275182723999 11.305849075317 28.841001510620 139 139 139
29.275182723999 11.305849075317 29.008001327515 132 132 132
29.275182723999 11.305849075317 29.176002502441 139 139 139
29.275182723999 11.305849075317 29.348001480103 148 148 148
29.275182723999 11.305849075317 29.515001296997 144 144 144
29.266889572144 11.367795944214 29.690002441406 139 139 139
29.266889572144 11.367795944214 29.865001678467 132 132 132
29.320545196533 11.438035964966 30.045001983643 134 134 134
29.015199661255 10.892702102661 24.188001632690 70 70 70
29.217107772827 19.747776031494 30.544002532959 41 41 41
29.155160903931 19.739482879639 30.350002288818 18 18 18
29.047851562500 19.599006652832 30.702001571655 10 10 10
29.109800338745 19.607295989990 30.516000747681 135 135 135
29.047851562500 19.599006652832 30.326002120972 136 136 136
29.047851562500 19.599006652832 30.137001037598 146 146 146
29.047851562500 19.599006652832 29.951002120972 140 140 140
29.047851562500 19.599006652832 29.770000457764 151 151 151
29.047851562500 19.599006652832 29.586002349854 157 157 157
29.047851562500 19.599006652832 29.404003143311 152 152 152
29.047851562500 19.599006652832 29.222002029419 154 154 154
29.047851562500 19.599006652832 29.045001983643 153 153 153
29.109800338745 19.607295989990 28.869001388550 148 148 148
29.101507186890 19.669242858887 28.690002441406 156 156 156
29.101507186890 19.669242858887 28.512001037598 134 134 134
29.101507186890 19.669242858887 28.338003158569 144 144 144
29.101507186890 19.669242858887 28.159999847412 125 125 125
29.101507186890 19.669242858887 27.986001968384 117 117 117
29.101507186890 19.669242858887 27.813001632690 118 118 118
29.163454055786 19.677536010742 27.641000747681 92 92 92
29.163454055786 19.677536010742 27.467002868652 103 103 103
29.163454055786 19.677536010742 27.295999526978 90 90 90
29.163454055786 19.677536010742 27.125000000000 66 66 66
29.188331604004 19.491695404053 29.967002868652 13 13 13
29.118091583252 19.545349121094 29.392000198364 12 12 12
29.118091583252 19.545349121094 29.218002319336 49 49 49
29.118091583252 19.545349121094 29.034000396729 78 78 78
29.118091583252 19.545349121094 28.855001449585 85 85 85
29.118091583252 19.545349121094 28.677999496460 104 104 104
29.118091583252 19.545349121094 28.500001907349 112 112 112
29.118091583252 19.545349121094 28.322002410889 121 121 121
29.118091583252 19.545349121094 28.148000717163 128 128 128
29.118091583252 19.545349121094 27.977003097534 151 151 151
29.118091583252 19.545349121094 27.802001953125 161 161 161
29.118091583252 19.545349121094 27.629001617432 172 172 172
29.118091583252 19.545349121094 27.457002639771 178 178 178
29.118091583252 19.545349121094 27.284000396729 180 180 180
29.118091583252 19.545349121094 27.114000320435 180 180 180
29.118091583252 19.545349121094 26.942001342773 180 180 180
29.250278472900 19.499984741211 24.722000122070 220 220 220
29.180038452148 19.553642272949 24.555000305176 13 13 13
29.118091583252 19.545349121094 26.770999908447 111 111 111
29.109800338745 19.607295989990 24.901000976563 29 29 29
29.126384735107 19.483402252197 26.770000457764 46 46 46
29.126384735107 19.483402252197 26.600000381470 90 90 90
29.064435958862 19.475109100342 26.429000854492 114 114 114
29.064435958862 19.475109100342 25.750999450684 173 173 173
29.064435958862 19.475109100342 25.582000732422 163 163 163
29.056142807007 19.537055969238 25.413000106812 182 182 182
29.064435958862 19.475109100342 25.244001388550 182 182 182
29.056142807007 19.537055969238 25.075000762939 178 178 178
29.056142807007 19.537055969238 24.906000137329 175 175 175
29.064435958862 19.475109100342 24.735000610352 170 170 170
29.056142807007 19.537055969238 24.565999984741 164 164 164
29.064435958862 19.475109100342 24.394001007080 161 161 161
29.126384735107 19.483402252197 24.218000411987 110 110 110
29.064435958862 19.475109100342 26.260000228882 51 51 51
29.213209152222 19.305850982666 25.065999984741 70 70 70
29.213209152222 19.305850982666 24.895999908447 255 255 255
29.213209152222 19.305850982666 24.724000930786 255 255 255
29.081020355225 19.351215362549 24.564001083374 98 98 98
29.142969131470 19.359508514404 24.221000671387 113 113 113
29.081020355225 19.351215362549 24.051000595093 123 123 123
29.142969131470 19.359508514404 23.702001571655 125 125 125
29.167846679688 19.173664093018 23.520000457764 16 16 16
29.114189147949 19.103424072266 23.541999816895 17 17 17
29.242967605591 17.670341491699 28.843002319336 39 39 39
29.276138305664 17.422550201416 28.666002273560 14 14 14
29.301013946533 17.236709594727 28.669002532959 11 11 11
29.247360229492 17.166469573975 28.661003112793 6 6 6
29.280529022217 16.918678283691 29.000001907349 4 4 4
29.272237777710 16.980625152588 28.666002273560 13 13 13
29.218582153320 16.910388946533 28.992002487183 30 30 30
29.288822174072 16.856731414795 28.663000106812 9 9 9
29.313699722290 16.670890808105 28.658002853394 13 13 13
29.260044097900 16.600650787354 28.652000427246 7 7 7
29.338575363159 16.485046386719 28.651000976563 14 14 14
29.293214797974 16.352859497070 28.648000717163 30 30 30
29.309799194336 16.228965759277 28.812002182007 74 74 74
29.309799194336 16.228965759277 28.645000457764 108 108 108
29.326383590698 16.105072021484 28.807003021240 182 182 182
29.334676742554 16.043121337891 28.644001007080 184 184 184
29.342967987061 15.981175422668 28.806001663208 145 145 145
29.342967987061 15.981175422668 28.642000198364 191 191 191
29.297605514526 15.848988533020 28.807003021240 155 155 155
29.359552383423 15.857281684875 28.642000198364 186 186 186
29.252243041992 15.716801643372 28.805002212524 166 166 166
29.376138687134 15.733386039734 28.641000747681 193 193 193
29.330774307251 15.601199150085 28.805002212524 162 162 162
29.330774307251 15.601199150085 28.641000747681 197 197 197
29.347358703613 15.477303504944 28.804002761841 163 163 163
29.339067459106 15.539250373840 28.641000747681 190 190 190
29.293704986572 15.407063484192 28.802999496460 181 181 181
29.363943099976 15.353407859802 28.642000198364 187 187 187
29.310289382935 15.283169746399 28.802001953125 156 156 156
29.372236251831 15.291460990906 28.638999938965 178 178 178
29.326873779297 15.159274101257 28.798002243042 143 143 143
29.388820648193 15.167567253113 28.636001586914 187 187 187
29.343458175659 15.035378456116 28.795001983643 164 164 164
29.351751327515 14.973431587219 28.634000778198 190 190 190
29.298097610474 14.903191566467 28.791999816895 164 164 164
29.368335723877 14.849535942078 28.630001068115 189 189 189
29.376628875732 14.787589073181 28.788000106812 171 171 171
29.376628875732 14.787589073181 28.625001907349 194 194 194
29.339559555054 14.593455314636 28.784999847412 169 169 169
29.339559555054 14.593455314636 28.622001647949 185 185 185
29.285902023315 14.523213386536 28.781999588013 169 169 169
29.401506423950 14.601746559143 28.618001937866 189 189 189
29.302486419678 14.399319648743 28.780000686646 151 151 151
29.364435195923 14.407612800598 28.619001388550 186 186 186
29.319070816040 14.275425910950 28.781000137329 175 175 175
29.442968368530 14.292010307312 28.621002197266 197 197 197
29.389312744141 14.221770286560 28.781000137329 191 191 191
29.397605895996 14.159823417664 28.621002197266 193 193 193
29.352241516113 14.027634620667 28.781999588013 198 198 198
29.352241516113 14.027634620667 28.618001937866 172 172 172
29.422483444214 13.973980903625 28.619001388550 22 22 22
29.315172195435 13.833500862122 28.607002258301 11 11 11
29.261516571045 13.763260841370 28.925003051758 56 56 56
29.331756591797 13.709607124329 28.602003097534 20 20 20
29.286394119263 13.577418327332 28.913000106812 15 15 15
29.278100967407 13.639365196228 28.596002578735 62 62 62
29.294687271118 13.515471458435 28.906999588013 17 17 17
29.302978515625 13.453522682190 28.591001510620 31 31 31
29.249322891235 13.383284568787 28.899999618530 25 25 25
29.319562911987 13.329628944397 28.587001800537 39 39 39
29.265907287598 13.259388923645 28.902000427246 39 39 39
29.327856063843 13.267680168152 28.580001831055 49 49 49
29.282491683960 13.135493278503 28.898000717163 31 31 31
29.352733612061 13.081839561462 28.582002639771 43 43 43
29.299077987671 13.011599540710 28.898000717163 33 33 33
29.290784835815 13.073546409607 28.582002639771 42 42 42
29.315662384033 12.887703895569 28.902000427246 46 46 46
29.315662384033 12.887703895569 28.580001831055 39 39 39
29.262006759644 12.817463874817 28.899000167847 40 40 40
29.332246780396 12.763810157776 28.585002899170 36 36 36
29.278593063354 12.693570137024 28.899999618530 17 17 17
29.340539932251 12.701861381531 28.582002639771 24 24 24
29.295177459717 12.569674491882 28.894001007080 54 54 54
29.303468704224 12.507727622986 28.740001678467 43 43 43
29.303468704224 12.507727622986 28.581003189087 58 58 58
29.249814987183 12.437487602234 28.895000457764 78 78 78
29.328346252441 12.321885108948 28.892999649048 49 49 49
29.221036911011 12.181405067444 28.888000488281 47 47 47
29.299568176270 12.065802574158 28.884000778198 57 57 57
29.316154479980 11.941907882690 28.887001037598 55 55 55
29.270792007446 11.809720039368 28.880001068115 65 65 65
29.349323272705 11.694117546082 28.882001876831 61 61 61
29.374200820923 11.508275032043 30.080001831055 10 10 10
29.436147689819 11.516567230225 29.918003082275 34 34 34
29.303960800171 11.561930656433 28.881000518799 62 62 62
29.382492065430 11.446328163147 30.060001373291 84 84 84
29.374200820923 11.508275032043 29.884000778198 130 130 130
29.374200820923 11.508275032043 29.716001510620 144 144 144
29.374200820923 11.508275032043 29.548999786377 148 148 148
29.374200820923 11.508275032043 29.380001068115 136 136 136
29.312253952026 11.499982833862 29.212001800537 107 107 107
29.374200820923 11.508275032043 29.050003051758 72 72 72
29.312253952026 11.499982833862 28.878002166748 75 75 75
29.275182723999 11.305849075317 29.538000106812 71 71 71
29.275182723999 11.305849075317 29.370002746582 98 98 98
29.266889572144 11.367795944214 29.198001861572 140 140 140
29.266889572144 11.367795944214 29.034999847412 153 153 153
29.204942703247 11.359503746033 28.867002487183 138 138 138
29.204942703247 11.359503746033 28.705001831055 149 149 149
29.204942703247 11.359503746033 28.545999526978 140 140 140
29.204942703247 11.359503746033 28.387001037598 120 120 120
29.204942703247 11.359503746033 28.228002548218 102 102 102
29.204942703247 11.359503746033 28.071002960205 80 80 80
29.221527099609 11.235608100891 28.704002380371 18 18 18
29.213235855103 11.297556877136 28.538999557495 100 100 100
29.213235855103 11.297556877136 28.377000808716 115 115 115
29.213235855103 11.297556877136 28.217002868652 142 142 142
29.151288986206 11.289263725281 28.057003021240 153 153 153
29.151288986206 11.289263725281 27.899999618530 153 153 153
29.151288986206 11.289263725281 27.745002746582 150 150 150
29.151288986206 11.289263725281 27.589002609253 150 150 150
29.151288986206 11.289263725281 27.435001373291 131 131 131
29.151288986206 11.289263725281 27.281999588013 98 98 98
29.151288986206 11.289263725281 27.128999710083 65 65 65
29.213235855103 11.297556877136 25.456001281738 80 80 80
29.213235855103 11.297556877136 25.302999496460 8 8 8
29.159580230713 11.227315902710 27.743001937866 78 78 78
29.097631454468 11.219023704529 27.585002899170 112 112 112
29.097631454468 11.219023704529 27.430002212524 148 148 148
29.097631454468 11.219023704529 27.274999618530 168 168 168
29.097631454468 11.219023704529 27.121000289917 166 166 166
29.097631454468 11.219023704529 26.968000411987 174 174 174
29.097631454468 11.219023704529 26.817001342773 168 168 168
29.097631454468 11.219023704529 26.666000366211 163 163 163
29.097631454468 11.219023704529 26.515001296997 137 137 137
29.089340209961 11.280971527100 26.363000869751 106 106 106
29.097631454468 11.219023704529 26.214000701904 83 83 83
29.097631454468 11.219023704529 26.062999725342 11 11 11
29.097631454468 11.219023704529 25.461000442505 179 179 179
29.114215850830 11.095129013062 26.967000961304 15 15 15
29.114215850830 11.095129013062 26.814001083374 108 108 108
29.052268981934 11.086836814880 26.662000656128 133 133 133
29.052268981934 11.086836814880 26.510999679565 178 178 178
29.052268981934 11.086836814880 26.360000610352 177 177 177
29.052268981934 11.086836814880 26.210000991821 181 181 181
29.043977737427 11.148783683777 26.059999465942 173 173 173
29.043977737427 11.148783683777 25.911001205444 181 181 181
29.043977737427 11.148783683777 25.762001037598 173 173 173
29.043977737427 11.148783683777 25.613000869751 167 167 167
29.043977737427 11.148783683777 25.464000701904 158 158 158
28.982030868530 11.140491485596 25.315000534058 119 119 119
29.043977737427 11.148783683777 25.164999008179 99 99 99
29.043977737427 11.148783683777 25.015001296997 63 63 63
28.998615264893 11.016596794128 25.912000656128 84 84 84
28.998615264893 11.016596794128 25.763000488281 121 121 121
28.998615264893 11.016596794128 25.614000320435 147 147 147
28.998615264893 11.016596794128 25.466001510620 180 180 180
28.998615264893 11.016596794128 25.318000793457 188 188 188
28.998615264893 11.016596794128 25.170000076294 179 179 179
28.990322113037 11.078544616699 25.021999359131 183 183 183
28.990322113037 11.078544616699 24.873001098633 182 182 182
28.928373336792 11.070252418518 24.727001190186 175 175 175
28.928373336792 11.070252418518 24.577001571655 164 164 164
28.928373336792 11.070252418518 24.427000045776 177 177 177
28.928373336792 11.070252418518 24.277999877930 135 135 135
28.928373336792 11.070252418518 24.128000259399 109 109 109
28.928373336792 11.070252418518 23.978000640869 90 90 90
29.114215850830 11.095129013062 23.809000015259 194 194 194
29.006908416748 10.954649925232 24.873001098633 63 63 63
28.953250885010 10.884409904480 24.727001190186 118 118 118
28.953250885010 10.884409904480 24.579999923706 134 134 134
28.953250885010 10.884409904480 24.431999206543 157 157 157
28.953250885010 10.884409904480 24.284000396729 174 174 174
28.883012771606 10.938064575195 24.138000488281 180 180 180
28.883012771606 10.938064575195 23.991001129150 172 172 172
28.883012771606 10.938064575195 23.842000961304 172 172 172
28.883012771606 10.938064575195 23.692001342773 172 172 172
28.961544036865 10.822461128235 23.685001373291 125 125 125
28.899597167969 10.814168930054 23.534999847412 190 190 190
29.101507186890 19.669242858887 30.548999786377 72 72 72
29.163454055786 19.677536010742 30.365001678467 41 41 41
29.163454055786 19.677536010742 30.176002502441 26 26 26
29.163454055786 19.677536010742 29.989002227783 15 15 15
29.118091583252 19.545349121094 30.513999938965 103 103 103
29.118091583252 19.545349121094 30.326002120972 110 110 110
29.118091583252 19.545349121094 30.138000488281 121 121 121
29.118091583252 19.545349121094 29.954002380371 137 137 137
29.118091583252 19.545349121094 29.772001266479 140 140 140
29.118091583252 19.545349121094 29.584001541138 151 151 151
29.118091583252 19.545349121094 29.408002853394 155 155 155
29.118091583252 19.545349121094 29.224002838135 161 161 161
29.118091583252 19.545349121094 29.045001983643 153 153 153
29.118091583252 19.545349121094 28.867002487183 152 152 152
29.118091583252 19.545349121094 28.686002731323 156 156 156
29.118091583252 19.545349121094 28.512001037598 154 154 154
29.118091583252 19.545349121094 28.335002899170 159 159 159
29.118091583252 19.545349121094 28.162002563477 154 154 154
29.118091583252 19.545349121094 27.985002517700 151 151 151
29.118091583252 19.545349121094 27.813001632690 154 154 154
29.118091583252 19.545349121094 27.638000488281 144 144 144
29.118091583252 19.545349121094 27.465002059937 146 146 146
29.118091583252 19.545349121094 27.293001174927 128 128 128
29.118091583252 19.545349121094 27.121000289917 123 123 123
29.142969131470 19.359508514404 29.971002578735 9 9 9
29.002489089966 19.466815948486 29.029003143311 7 7 7
29.002489089966 19.466815948486 28.152000427246 10 10 10
29.002489089966 19.466815948486 27.978002548218 57 57 57
29.002489089966 19.466815948486 27.802001953125 82 82 82
29.002489089966 19.466815948486 27.631000518799 100 100 100
29.002489089966 19.466815948486 27.458002090454 116 116 116
29.002489089966 19.466815948486 27.286001205444 125 125 125
29.002489089966 19.466815948486 27.114000320435 137 137 137
29.002489089966 19.466815948486 26.943000793457 156 156 156
29.002489089966 19.466815948486 26.773000717163 173 173 173
29.002489089966 19.466815948486 26.602001190186 167 167 167
29.002489089966 19.466815948486 26.432001113892 123 123 123
29.064435958862 19.475109100342 25.072999954224 146 146 146
29.064435958862 19.475109100342 24.902000427246 182 182 182
29.126384735107 19.483402252197 24.730001449585 163 163 163
29.064435958862 19.475109100342 26.262001037598 44 44 44
29.056142807007 19.537055969238 25.583000183105 17 17 17
29.056142807007 19.537055969238 25.413000106812 67 67 67
29.056142807007 19.537055969238 25.243000030518 106 106 106
29.126384735107 19.483402252197 24.559000015259 117 117 117
29.081020355225 19.351215362549 25.416000366211 43 43 43
29.081020355225 19.351215362549 25.246000289917 96 96 96
29.081020355225 19.351215362549 25.077001571655 120 120 120
29.081020355225 19.351215362549 24.906999588013 169 169 169
29.081020355225 19.351215362549 24.737001419067 179 179 179
29.081020355225 19.351215362549 24.570001602173 148 148 148
29.081020355225 19.351215362549 24.399000167847 168 168 168
29.081020355225 19.351215362549 24.228000640869 169 169 169
29.081020355225 19.351215362549 24.051000595093 122 122 122
29.081020355225 19.351215362549 23.880001068115 116 116 116
29.251260757446 17.608394622803 28.853002548218 24 24 24
29.251260757446 17.608394622803 28.683002471924 11 11 11
29.218582153320 16.910388946533 29.013999938965 11 11 11
29.164926528931 16.840145111084 29.001001358032 20 20 20
29.260044097900 16.600650787354 28.841001510620 20 20 20
29.260044097900 16.600650787354 28.673999786377 47 47 47
29.301506042480 16.290912628174 28.656000137329 4 4 4
29.256143569946 16.158725738525 28.820001602173 51 51 51
29.318090438843 16.167018890381 28.652999877930 94 94 94
29.281019210815 15.972882270813 28.812002182007 161 161 161
29.281019210815 15.972882270813 28.645999908447 184 184 184
29.289312362671 15.910935401917 28.808002471924 144 144 144
29.297605514526 15.848988533020 28.642000198364 179 179 179
29.252243041992 15.716801643372 28.804002761841 139 139 139
29.252243041992 15.716801643372 28.641000747681 182 182 182
29.268827438354 15.592905998230 28.804002761841 153 153 153
29.268827438354 15.592905998230 28.640001296997 187 187 187
29.293704986572 15.407063484192 28.805002212524 150 150 150
29.293704986572 15.407063484192 28.641000747681 180 180 180
29.301996231079 15.345116615295 28.808002471924 157 157 157
29.310289382935 15.283169746399 28.645999908447 184 184 184
29.264926910400 15.150982856750 28.808002471924 143 143 143
29.326873779297 15.159274101257 28.645999908447 181 181 181
29.343458175659 15.035378456116 28.808002471924 150 150 150
29.343458175659 15.035378456116 28.645000457764 191 191 191
29.298097610474 14.903191566467 28.805002212524 174 174 174
29.298097610474 14.903191566467 28.642000198364 181 181 181
29.322973251343 14.717349052429 28.802999496460 168 168 168
29.322973251343 14.717349052429 28.638999938965 192 192 192
29.339559555054 14.593455314636 28.794002532959 164 164 164
29.339559555054 14.593455314636 28.635000228882 193 193 193
29.302486419678 14.399319648743 28.791999816895 140 140 140
29.302486419678 14.399319648743 28.628002166748 186 186 186
29.310779571533 14.337372779846 28.784999847412 170 170 170
29.319070816040 14.275425910950 28.624002456665 185 185 185
29.335657119751 14.151530265808 28.781000137329 191 191 191
29.343948364258 14.089581489563 28.619001388550 184 184 184
29.352241516113 14.027634620667 28.774000167847 146 146 146
29.352241516113 14.027634620667 28.613002777100 131 131 131
29.315172195435 13.833500862122 28.610002517700 17 17 17
29.261516571045 13.763260841370 28.927001953125 15 15 15
29.331756591797 13.709607124329 28.614002227783 6 6 6
29.286394119263 13.577418327332 28.930002212524 11 11 11
29.220544815063 13.127202033997 28.909000396729 4 4 4
29.290784835815 13.073546409607 28.601001739502 15 15 15
29.237131118774 13.003306388855 28.912002563477 17 17 17
29.307369232178 12.949650764465 28.596002578735 31 31 31
29.200059890747 12.809172630310 28.901000976563 18 18 18
29.262006759644 12.817463874817 28.589002609253 39 39 39
29.278593063354 12.693570137024 28.897001266479 56 56 56
29.278593063354 12.693570137024 28.580001831055 40 40 40
29.233230590820 12.561383247375 28.888999938965 54 54 54
29.303468704224 12.507727622986 28.578002929688 74 74 74
29.249814987183 12.437487602234 28.886001586914 74 74 74
29.212745666504 12.243352890015 28.886001586914 67 67 67
29.229330062866 12.119457244873 28.886001586914 58 58 58
29.254207611084 11.933615684509 28.888000488281 51 51 51
29.270792007446 11.809720039368 28.888000488281 55 55 55
29.287376403809 11.685825347900 28.894001007080 62 62 62
29.303960800171 11.561930656433 28.891000747681 61 61 61
29.328838348389 11.376088142395 30.069002151489 94 94 94
29.328838348389 11.376088142395 29.892000198364 137 137 137
29.328838348389 11.376088142395 29.722002029419 142 142 142
29.320545196533 11.438035964966 29.550003051758 135 135 135
29.320545196533 11.438035964966 29.385000228882 136 136 136
29.320545196533 11.438035964966 29.216001510620 111 111 111
29.320545196533 11.438035964966 29.051002502441 84 84 84
29.258596420288 11.429743766785 28.885000228882 69 69 69
29.283473968506 11.243901252747 29.368001937866 24 24 24
29.283473968506 11.243901252747 29.203002929688 93 93 93
29.275182723999 11.305849075317 29.031999588013 104 104 104
29.275182723999 11.305849075317 28.865001678467 132 132 132
29.213235855103 11.297556877136 28.701002120972 139 139 139
29.213235855103 11.297556877136 28.541999816895 150 150 150
29.213235855103 11.297556877136 28.381000518799 140 140 140
29.213235855103 11.297556877136 28.223001480103 139 139 139
29.213235855103 11.297556877136 28.065002441406 115 115 115
29.213235855103 11.297556877136 27.906999588013 94 94 94
29.213235855103 11.297556877136 27.753002166748 78 78 78
29.213235855103 11.297556877136 25.604000091553 69 69 69
29.213235855103 11.297556877136 25.299999237061 10 10 10
29.167873382568 11.165368080139 28.216001510620 21 21 21
29.167873382568 11.165368080139 28.054002761841 92 92 92
29.167873382568 11.165368080139 27.895999908447 119 119 119
29.167873382568 11.165368080139 27.738002777100 153 153 153
29.105924606323 11.157075881958 27.581003189087 162 162 162
29.105924606323 11.157075881958 27.425003051758 159 159 159
29.105924606323 11.157075881958 27.272001266479 155 155 155
29.105924606323 11.157075881958 27.118000030518 158 158 158
29.105924606323 11.157075881958 26.967000961304 147 147 147
29.105924606323 11.157075881958 26.814001083374 126 126 126
29.105924606323 11.157075881958 26.662000656128 94 94 94
29.097631454468 11.219023704529 26.512001037598 52 52 52
29.097631454468 11.219023704529 25.453001022339 190 190 190
29.114215850830 11.095129013062 27.111999511719 61 61 61
29.114215850830 11.095129013062 26.958999633789 117 117 117
29.052268981934 11.086836814880 26.805999755859 131 131 131
29.052268981934 11.086836814880 26.655000686646 166 166 166
29.052268981934 11.086836814880 26.503999710083 174 174 174
29.052268981934 11.086836814880 26.353000640869 173 173 173
29.052268981934 11.086836814880 26.203001022339 170 170 170
29.043977737427 11.148783683777 26.052999496460 171 171 171
29.043977737427 11.148783683777 25.904001235962 169 169 169
29.052268981934 11.086836814880 25.753999710083 157 157 157
29.052268981934 11.086836814880 25.604999542236 126 126 126
29.052268981934 11.086836814880 25.454999923706 162 162 162
29.043977737427 11.148783683777 25.306001663208 86 86 86
29.052268981934 11.086836814880 25.156000137329 64 64 64
29.006908416748 10.954649925232 25.906000137329 96 96 96
29.006908416748 10.954649925232 25.756999969482 121 121 121
28.944959640503 10.946356773376 25.607999801636 148 148 148
28.944959640503 10.946356773376 25.459001541138 166 166 166
28.944959640503 10.946356773376 25.311000823975 176 176 176
28.944959640503 10.946356773376 25.163000106812 176 176 176
28.874719619751 11.000011444092 25.016000747681 178 178 178
28.936666488647 11.008303642273 24.867000579834 175 175 175
28.874719619751 11.000011444092 24.718000411987 175 175 175
28.874719619751 11.000011444092 24.570001602173 164 164 164
28.874719619751 11.000011444092 24.420000076294 163 163 163
28.874719619751 11.000011444092 24.270999908447 136 136 136
28.874719619751 11.000011444092 24.122001647949 113 113 113
28.874719619751 11.000011444092 23.972000122070 93 93 93
28.961544036865 10.822461128235 24.721000671387 8 8 8
28.899597167969 10.814168930054 24.575000762939 106 106 106
28.899597167969 10.814168930054 24.427999496460 124 124 124
28.899597167969 10.814168930054 24.281000137329 129 129 129
28.891304016113 10.876116752625 24.133001327515 164 164 164
28.891304016113 10.876116752625 23.985000610352 170 170 170
28.891304016113 10.876116752625 23.837001800537 166 166 166
28.891304016113 10.876116752625 23.681999206543 140 140 140
29.027366638184 19.280975341797 24.229000091553 162 162 162
29.081020355225 19.351215362549 24.399000167847 175 175 175
29.081020355225 19.351215362549 24.571001052856 179 179 179
29.081020355225 19.351215362549 24.742000579834 175 175 175
29.019073486328 19.342922210693 24.913000106812 186 186 186
29.019073486328 19.342922210693 25.084001541138 170 170 170
29.019073486328 19.342922210693 25.254001617432 166 166 166
29.019073486328 19.342922210693 25.424999237061 170 170 170
29.010780334473 19.404869079590 25.595001220703 191 191 191
29.002489089966 19.466815948486 25.766000747681 186 186 186
29.010780334473 19.404869079590 25.937000274658 191 191 191
29.002489089966 19.466815948486 26.107999801636 172 172 172
29.002489089966 19.466815948486 26.280000686646 181 181 181
29.002489089966 19.466815948486 26.451000213623 185 185 185
29.002489089966 19.466815948486 26.623001098633 179 179 179
29.002489089966 19.466815948486 26.795000076294 179 179 179
29.002489089966 19.466815948486 26.967000961304 171 171 171
29.002489089966 19.466815948486 27.140001296997 167 167 167
29.002489089966 19.466815948486 27.313001632690 168 168 168
29.002489089966 19.466815948486 27.486001968384 173 173 173
29.002489089966 19.466815948486 27.661003112793 173 173 173
29.056142807007 19.537055969238 27.836002349854 159 159 159
29.056142807007 19.537055969238 28.012001037598 170 170 170
29.056142807007 19.537055969238 28.187002182007 165 165 165
29.056142807007 19.537055969238 28.365001678467 163 163 163
29.056142807007 19.537055969238 28.541999816895 165 165 165
28.994195938110 19.528762817383 28.719001770020 164 164 164
28.994195938110 19.528762817383 28.899999618530 154 154 154
28.994195938110 19.528762817383 29.080001831055 158 158 158
28.994195938110 19.528762817383 29.263000488281 161 161 161
28.994195938110 19.528762817383 29.445001602173 152 152 152
28.994195938110 19.528762817383 29.628002166748 156 156 156
28.994195938110 19.528762817383 29.812002182007 148 148 148
29.056142807007 19.537055969238 30.002000808716 142 142 142
29.047851562500 19.599006652832 30.185001373291 133 133 133
28.985904693604 19.590713500977 30.369001388550 128 128 128
29.047851562500 19.599006652832 30.565002441406 118 118 118
29.151262283325 19.297557830811 24.390001296997 65 65 65
29.151262283325 19.297557830811 24.561000823975 32 32 32
29.142969131470 19.359508514404 24.733001708984 82 82 82
29.142969131470 19.359508514404 24.906000137329 69 69 69
29.151262283325 19.297557830811 25.253000259399 9 9 9
29.142969131470 19.359508514404 25.424999237061 30 30 30
29.151262283325 19.297557830811 25.597000122070 23 23 23
29.188331604004 19.491695404053 28.938001632690 19 19 19
29.126384735107 19.483402252197 29.114002227783 19 19 19
29.126384735107 19.483402252197 29.294002532959 26 26 26
29.126384735107 19.483402252197 29.477003097534 35 35 35
29.126384735107 19.483402252197 29.659000396729 45 45 45
29.126384735107 19.483402252197 29.847002029419 53 53 53
29.126384735107 19.483402252197 30.030000686646 78 78 78
29.126384735107 19.483402252197 30.219001770020 77 77 77
29.126384735107 19.483402252197 30.409000396729 81 81 81
29.126384735107 19.483402252197 30.595003128052 83 83 83
29.181510925293 16.716251373291 28.847002029419 11 11 11
29.189804077148 16.654304504395 28.848001480103 17 17 17
29.264434814453 16.096778869629 28.675003051758 139 139 139
29.264434814453 16.096778869629 28.845003128052 77 77 77
29.227365493774 15.902644157410 28.669002532959 166 166 166
29.219072341919 15.964591026306 28.833002090454 113 113 113
29.305896759033 15.787041664124 28.659999847412 173 173 173
29.190296173096 15.708508491516 28.824003219604 130 130 130
29.268827438354 15.592905998230 28.647001266479 172 172 172
29.268827438354 15.592905998230 28.816001892090 140 140 140
29.293704986572 15.407063484192 28.641000747681 172 172 172
29.240049362183 15.336823463440 28.804002761841 142 142 142
29.256635665894 15.212929725647 28.636001586914 165 165 165
29.256635665894 15.212929725647 28.801002502441 148 148 148
29.343458175659 15.035378456116 28.636001586914 173 173 173
29.281511306763 15.027087211609 28.798002243042 139 139 139
29.298097610474 14.903191566467 28.636001586914 177 177 177
29.244440078735 14.832951545715 28.800003051758 162 162 162
29.322973251343 14.717349052429 28.636001586914 176 176 176
29.269317626953 14.647110939026 28.798999786377 146 146 146
29.339559555054 14.593455314636 28.636001586914 171 171 171
29.277608871460 14.585162162781 28.795999526978 132 132 132
29.310779571533 14.337372779846 28.635000228882 173 173 173
29.310779571533 14.337372779846 28.795999526978 133 133 133
29.327363967896 14.213477134705 28.632001876831 177 177 177
29.273710250854 14.143239021301 28.795001983643 143 143 143
29.352241516113 14.027634620667 28.627000808716 169 169 169
29.290294647217 14.019343376160 28.791999816895 138 138 138
29.216154098511 13.631073951721 28.927001953125 31 31 31
29.241029739380 13.445231437683 28.593002319336 32 32 32
29.179082870483 13.436938285828 28.902999877930 7 7 7
29.265907287598 13.259388923645 28.579002380371 24 24 24
29.265907287598 13.259388923645 28.894001007080 36 36 36
29.228837966919 13.065255165100 28.575002670288 28 28 28
29.228837966919 13.065255165100 28.891000747681 28 28 28
29.245422363281 12.941359519958 28.569002151489 29 29 29
29.191768646240 12.871119499207 28.887001037598 39 39 39
29.262006759644 12.817463874817 28.566001892090 28 28 28
29.208353042603 12.747225761414 28.888000488281 41 41 41
29.295177459717 12.569674491882 28.572002410889 31 31 31
29.233230590820 12.561383247375 28.886001586914 50 50 50
29.196161270142 12.367247581482 28.884000778198 57 57 57
29.212745666504 12.243352890015 28.888000488281 49 49 49
29.237621307373 12.057510375977 28.880001068115 49 49 49
29.262498855591 11.871667861938 28.871002197266 46 46 46
29.225427627563 11.677533149719 28.864002227783 32 32 32
28.812772750854 10.991719245911 24.056999206543 23 23 23
29.081047058105 11.342918395996 25.384000778198 65 65 65
29.081047058105 11.342918395996 25.537000656128 68 68 68
29.303960800171 11.561930656433 28.855001449585 15 15 15
28.837650299072 10.805876731873 23.600000381470 164 164 164
28.837650299072 10.805876731873 23.901000976563 155 155 155
28.899597167969 10.814168930054 24.048999786377 174 174 174
28.899597167969 10.814168930054 24.348001480103 163 163 163
28.899597167969 10.814168930054 24.496000289917 172 172 172
28.953250885010 10.884409904480 24.644001007080 168 168 168
28.953250885010 10.884409904480 24.792999267578 170 170 170
28.953250885010 10.884409904480 24.943000793457 174 174 174
28.953250885010 10.884409904480 25.092000961304 174 174 174
28.944959640503 10.946356773376 25.241001129150 172 172 172
28.944959640503 10.946356773376 25.391000747681 168 168 168
28.944959640503 10.946356773376 25.540000915527 177 177 177
28.944959640503 10.946356773376 25.690000534058 173 173 173
28.998615264893 11.016596794128 25.840000152588 171 171 171
28.998615264893 11.016596794128 25.991001129150 175 175 175
28.998615264893 11.016596794128 26.142000198364 167 167 167
28.998615264893 11.016596794128 26.293001174927 168 168 168
29.052268981934 11.086836814880 26.444999694824 162 162 162
29.052268981934 11.086836814880 26.597999572754 159 159 159
29.052268981934 11.086836814880 26.750000000000 162 162 162
29.052268981934 11.086836814880 26.905000686646 166 166 166
29.052268981934 11.086836814880 27.059000015259 161 161 161
29.052268981934 11.086836814880 27.213001251221 155 155 155
29.052268981934 11.086836814880 27.371002197266 154 154 154
29.105924606323 11.157075881958 27.527999877930 149 149 149
29.105924606323 11.157075881958 27.684001922607 145 145 145
29.105924606323 11.157075881958 27.845003128052 154 154 154
29.097631454468 11.219023704529 28.006000518799 150 150 150
29.097631454468 11.219023704529 28.163999557495 144 144 144
29.097631454468 11.219023704529 28.328002929688 147 147 147
29.151288986206 11.289263725281 28.492002487183 146 146 146
29.213235855103 11.297556877136 28.659000396729 148 148 148
29.213235855103 11.297556877136 28.824003219604 141 141 141
29.213235855103 11.297556877136 28.993001937866 150 150 150
29.213235855103 11.297556877136 29.162002563477 147 147 147
29.213235855103 11.297556877136 29.331003189087 131 131 131
29.204942703247 11.359503746033 29.504001617432 131 131 131
29.266889572144 11.367795944214 29.681001663208 133 133 133
29.320545196533 11.438035964966 29.853002548218 87 87 87
29.320545196533 11.438035964966 30.027000427246 94 94 94
28.837650299072 10.805876731873 23.750000000000 142 142 142
28.953250885010 10.884409904480 24.192001342773 114 114 114
29.353715896606 11.190245628357 29.183002471924 22 22 22
29.353715896606 11.190245628357 29.354001998901 50 50 50
29.353715896606 11.190245628357 29.524999618530 67 67 67
29.337131500244 11.314141273499 29.697002410889 70 70 70
29.337131500244 11.314141273499 29.875001907349 84 84 84
29.337131500244 11.314141273499 30.048002243042 89 89 89
29.047851562500 19.599006652832 30.552001953125 141 141 141
29.056142807007 19.537055969238 30.380001068115 138 138 138
29.056142807007 19.537055969238 30.209001541138 139 139 139
29.056142807007 19.537055969238 30.045001983643 145 145 145
29.056142807007 19.537055969238 29.879001617432 146 146 146
29.056142807007 19.537055969238 29.713003158569 151 151 151
29.118091583252 19.545349121094 29.552001953125 158 158 158
29.056142807007 19.537055969238 29.386001586914 159 159 159
29.118091583252 19.545349121094 29.228002548218 163 163 163
29.118091583252 19.545349121094 29.070001602173 162 162 162
29.118091583252 19.545349121094 28.909000396729 159 159 159
29.056142807007 19.537055969238 28.750001907349 162 162 162
29.118091583252 19.545349121094 28.594001770020 162 162 162
29.118091583252 19.545349121094 28.439002990723 164 164 164
29.118091583252 19.545349121094 28.283002853394 161 161 161
29.118091583252 19.545349121094 28.130001068115 171 171 171
29.118091583252 19.545349121094 27.975002288818 160 160 160
29.118091583252 19.545349121094 27.822002410889 151 151 151
29.118091583252 19.545349121094 27.670999526978 147 147 147
29.118091583252 19.545349121094 27.519001007080 157 157 157
29.118091583252 19.545349121094 27.368001937866 150 150 150
29.118091583252 19.545349121094 27.218000411987 151 151 151
29.118091583252 19.545349121094 27.068000793457 145 145 145
29.118091583252 19.545349121094 26.918001174927 133 133 133
29.118091583252 19.545349121094 26.770999908447 144 144 144
29.118091583252 19.545349121094 26.621000289917 136 136 136
29.118091583252 19.545349121094 26.472000122070 130 130 130
29.118091583252 19.545349121094 26.324001312256 122 122 122
29.118091583252 19.545349121094 26.177000045776 106 106 106
29.118091583252 19.545349121094 26.029001235962 114 114 114
29.118091583252 19.545349121094 25.881000518799 79 79 79
29.118091583252 19.545349121094 25.734001159668 94 94 94
29.118091583252 19.545349121094 25.586000442505 46 46 46
29.118091583252 19.545349121094 25.439001083374 50 50 50
29.118091583252 19.545349121094 25.291000366211 13 13 13
29.072727203369 19.413162231445 28.134000778198 5 5 5
29.126384735107 19.483402252197 27.985002517700 27 27 27
29.126384735107 19.483402252197 27.831003189087 32 32 32
29.072727203369 19.413162231445 27.676002502441 68 68 68
29.072727203369 19.413162231445 27.523000717163 73 73 73
29.072727203369 19.413162231445 27.372001647949 82 82 82
29.072727203369 19.413162231445 27.220001220703 96 96 96
29.072727203369 19.413162231445 27.069000244141 105 105 105
29.072727203369 19.413162231445 26.918001174927 114 114 114
29.072727203369 19.413162231445 26.769001007080 124 124 124
29.072727203369 19.413162231445 26.620000839233 132 132 132
29.072727203369 19.413162231445 26.471000671387 152 152 152
29.072727203369 19.413162231445 26.324001312256 165 165 165
29.072727203369 19.413162231445 26.175001144409 176 176 176
29.072727203369 19.413162231445 26.027999877930 191 191 191
29.072727203369 19.413162231445 25.880001068115 187 187 187
29.072727203369 19.413162231445 25.732999801636 195 195 195
29.072727203369 19.413162231445 25.585000991821 188 188 188
29.081020355225 19.351215362549 25.438001632690 189 189 189
29.081020355225 19.351215362549 25.291000366211 184 184 184
29.081020355225 19.351215362549 25.142999649048 187 187 187
29.081020355225 19.351215362549 24.996000289917 196 196 196
29.081020355225 19.351215362549 24.849000930786 201 201 201
29.081020355225 19.351215362549 24.702001571655 199 199 199
29.081020355225 19.351215362549 24.554000854492 196 196 196
29.081020355225 19.351215362549 24.259000778198 193 193 193
29.081020355225 19.351215362549 24.108001708984 173 173 173
29.081020355225 19.351215362549 23.506999969482 143 143 143
29.081020355225 19.351215362549 24.403999328613 144 144 144
29.081020355225 19.351215362549 23.959001541138 132 132 132
29.081020355225 19.351215362549 23.808000564575 158 158 158
29.081020355225 19.351215362549 23.660999298096 137 137 137
29.151262283325 19.297557830811 29.882001876831 4 4 4
29.167846679688 19.173664093018 24.694000244141 8 8 8
29.155651092529 18.793689727783 29.694002151489 7 7 7
29.160043716431 18.289813995361 29.524999618530 5 5 5
29.168336868286 18.227867126465 28.890001296997 45 45 45
29.193214416504 18.042026519775 28.888999938965 20 20 20
29.147851943970 17.909839630127 29.359003067017 4 4 4
29.147851943970 17.909839630127 28.888999938965 16 16 16
29.181020736694 17.662048339844 28.882001876831 16 16 16
29.135658264160 17.529861450195 28.876001358032 11 11 11
29.321498870850 17.554740905762 28.594001770020 30 30 30
29.160535812378 17.344020843506 29.179002761841 7 7 7
29.160535812378 17.344020843506 28.863002777100 4 4 4
29.284429550171 17.360603332520 28.585002899170 7 7 7
29.156633377075 16.902095794678 29.005001068115 20 20 20
29.243459701538 16.724544525146 28.852003097534 16 16 16
29.260044097900 16.600650787354 28.849002838135 90 90 90
29.260044097900 16.600650787354 28.714002609253 92 92 92
29.231266021729 16.344566345215 28.845003128052 31 31 31
29.222972869873 16.406513214111 28.564002990723 30 30 30
29.177610397339 16.274330139160 28.844001770020 15 15 15
29.301506042480 16.290912628174 28.566001892090 15 15 15
29.264434814453 16.096778869629 28.847002029419 95 95 95
29.326383590698 16.105072021484 28.712001800537 203 203 203
29.326383590698 16.105072021484 28.564002990723 47 47 47
29.219072341919 15.964591026306 28.847002029419 55 55 55
29.289312362671 15.910935401917 28.709001541138 172 172 172
29.289312362671 15.910935401917 28.561002731323 20 20 20
29.235658645630 15.840695381165 28.843002319336 71 71 71
29.305896759033 15.787041664124 28.701002120972 141 141 141
29.305896759033 15.787041664124 28.555002212524 16 16 16
29.198587417603 15.646561622620 28.835002899170 94 94 94
29.330774307251 15.601199150085 28.694002151489 186 186 186
29.285411834717 15.469012260437 28.831003189087 111 111 111
29.347358703613 15.477303504944 28.689002990723 196 196 196
29.301996231079 15.345116615295 28.823001861572 123 123 123
29.310289382935 15.283169746399 28.681001663208 142 142 142
29.264926910400 15.150982856750 28.817003250122 140 140 140
29.273220062256 15.089034080505 28.677999496460 193 193 193
29.281511306763 15.027087211609 28.815002441406 132 132 132
29.281511306763 15.027087211609 28.673999786377 190 190 190
29.306388854980 14.841244697571 28.813001632690 116 116 116
29.306388854980 14.841244697571 28.676002502441 172 172 172
29.269317626953 14.647110939026 28.811002731323 96 96 96
29.269317626953 14.647110939026 28.673999786377 167 167 167
29.285902023315 14.523213386536 28.812002182007 101 101 101
29.285902023315 14.523213386536 28.676002502441 145 145 145
29.310779571533 14.337372779846 28.810001373291 93 93 93
29.310779571533 14.337372779846 28.670999526978 204 204 204
29.327363967896 14.213477134705 28.809001922607 129 129 129
29.327363967896 14.213477134705 28.670001983643 174 174 174
29.290294647217 14.019343376160 28.802999496460 141 141 141
29.352241516113 14.027634620667 28.659999847412 197 197 197
29.261516571045 13.763260841370 28.920999526978 17 17 17
29.232738494873 13.507178306580 28.906000137329 9 9 9
29.232738494873 13.507178306580 28.767000198364 17 17 17
29.249322891235 13.383284568787 28.892999649048 7 7 7
29.336149215698 13.205733299255 29.056001663208 9 9 9
29.274200439453 13.197442054749 28.891000747681 19 19 19
29.228837966919 13.065255165100 28.888999938965 21 21 21
29.245422363281 12.941359519958 28.884000778198 40 40 40
29.332246780396 12.763810157776 29.205001831055 5 5 5
29.262006759644 12.817463874817 28.885000228882 45 45 45
29.233230590820 12.561383247375 28.881000518799 65 65 65
29.311761856079 12.445778846741 29.344001770020 9 9 9
29.187868118286 12.429194450378 28.875001907349 82 82 82
29.212745666504 12.243352890015 28.868001937866 87 87 87
29.229330062866 12.119457244873 28.865001678467 85 85 85
29.316154479980 11.941907882690 28.854001998901 93 93 93
29.270792007446 11.809720039368 28.849002838135 77 77 77
29.419563293457 11.640462875366 29.614002227783 8 8 8
29.295669555664 11.623878479004 28.840002059937 66 66 66
29.382492065430 11.446328163147 29.613002777100 5 5 5
29.312253952026 11.499982833862 28.839002609253 45 45 45
