10.138177871704 13.393774986267 61.104000091553 186 186 186
10.138177871704 13.393774986267 61.238002777100 181 181 181
9.998996734619 13.381127357483 61.372001647949 183 183 183
9.998996734619 13.381127357483 61.507999420166 197 197 197
9.998996734619 13.381127357483 61.643001556396 190 190 190
9.998996734619 13.381127357483 61.780002593994 202 202 202
9.998996734619 13.381127357483 61.916000366211 198 198 198
9.998996734619 13.381127357483 62.054000854492 195 195 195
9.998996734619 13.381127357483 62.193000793457 195 195 195
9.998996734619 13.381127357483 62.330001831055 196 196 196
9.998996734619 13.381127357483 62.471000671387 203 203 203
9.998996734619 13.381127357483 62.611003875732 198 198 198
9.998996734619 13.381127357483 62.752002716064 186 186 186
9.998996734619 13.381127357483 62.894001007080 179 179 179
9.998996734619 13.381127357483 63.036998748779 176 176 176
9.998996734619 13.381127357483 63.179000854492 141 141 141
9.998996734619 13.381127357483 63.326999664307 182 182 182
9.940793991089 13.403904914856 63.475002288818 181 181 181
9.940793991089 13.403904914856 63.622001647949 170 170 170
9.940793991089 13.403904914856 63.767002105713 166 166 166
9.940793991089 13.403904914856 63.920001983643 156 156 156
9.940793991089 13.403904914856 64.070999145508 149 149 149
9.940793991089 13.403904914856 64.222000122070 146 146 146
10.290006637573 13.267242431641 57.660999298096 196 196 196
10.290006637573 13.267242431641 57.791000366211 164 164 164
10.290006637573 13.267242431641 57.924999237061 169 169 169
10.290006637573 13.267242431641 58.331001281738 173 173 173
10.290006637573 13.267242431641 58.465000152588 183 183 183
10.231803894043 13.290019989014 58.597000122070 195 195 195
10.231803894043 13.290019989014 58.730003356934 184 184 184
10.231803894043 13.290019989014 58.861000061035 182 182 182
10.231803894043 13.290019989014 58.991001129150 190 190 190
10.231803894043 13.290019989014 59.123001098633 203 203 203
10.231803894043 13.290019989014 59.255001068115 202 202 202
10.231803894043 13.290019989014 59.386001586914 212 212 212
10.173603057861 13.312796592712 59.517002105713 199 199 199
10.173603057861 13.312796592712 59.648002624512 203 203 203
10.173603057861 13.312796592712 59.778999328613 177 177 177
10.173603057861 13.312796592712 59.910999298096 166 166 166
10.173603057861 13.312796592712 60.041999816895 164 164 164
10.173603057861 13.312796592712 60.173000335693 161 161 161
10.173603057861 13.312796592712 60.305000305176 156 156 156
10.069847106934 13.219170570374 60.437000274658 131 131 131
10.069847106934 13.219170570374 60.569000244141 117 117 117
10.069847106934 13.219170570374 60.701999664307 103 103 103
10.069847106934 13.219170570374 60.834999084473 63 63 63
9.814262390137 13.252076148987 64.070999145508 21 21 21
10.290006637573 13.267242431641 57.670001983643 114 114 114
10.290006637573 13.267242431641 57.803001403809 115 115 115
10.186250686646 13.173616409302 57.926002502441 178 178 178
10.290006637573 13.267242431641 58.067001342773 46 46 46
10.290006637573 13.267242431641 58.209999084473 5 5 5
9.966091156006 13.125543594360 63.166000366211 17 17 17
9.920537948608 13.009140014648 63.152000427246 42 42 42
9.920537948608 13.009140014648 64.038002014160 28 28 28
9.955961227417 12.928160667419 63.136001586914 83 83 83
9.945833206177 12.730777740479 63.129001617432 100 100 100
10.004034042358 12.708001136780 63.120002746582 117 117 117
9.935703277588 12.533395767212 63.105998992920 117 117 117
10.029331207275 12.429639816284 63.095001220703 102 102 102
9.912927627563 12.475193977356 63.813999176025 40 40 40
9.983776092529 12.313236236572 63.082000732422 30 30 30
9.925575256348 12.336012840271 63.797000885010 40 40 40
9.938222885132 12.196831703186 63.069000244141 13 13 13
9.917964935303 11.802066802979 63.593002319336 12 12 12
9.872411727905 11.685663223267 62.907001495361 38 38 38
9.930612564087 11.662886619568 63.033000946045 58 58 58
10.034368515015 11.756513595581 63.152999877930 37 37 37
9.930612564087 11.662886619568 63.578998565674 48 48 48
9.966037750244 11.581907272339 63.143001556396 69 69 69
10.001462936401 11.500927925110 63.131000518799 97 97 97
9.933132171631 11.326322555542 63.120002746582 111 111 111
9.968557357788 11.245344161987 63.115001678467 126 126 126
9.968557357788 11.245344161987 63.387001037598 29 29 29
10.039405822754 11.083386421204 63.104003906250 124 124 124
9.923002243042 11.128940582275 63.381000518799 38 38 38
9.993852615356 10.966982841492 63.096000671387 105 105 105
10.006500244141 10.827800750732 63.083000183105 92 92 92
9.902744293213 10.734174728394 62.824001312256 23 23 23
10.006500244141 10.827800750732 63.076999664307 38 38 38
9.938169479370 10.653196334839 62.813999176025 30 30 30
9.938169479370 10.653196334839 63.062999725342 14 14 14
9.938169479370 10.653196334839 63.198001861572 40 40 40
9.928039550781 10.455813407898 62.802001953125 69 69 69
9.928039550781 10.455813407898 63.184001922607 44 44 44
9.986242294312 10.433036804199 62.786998748779 79 79 79
9.998889923096 10.293855667114 62.777000427246 87 87 87
10.057092666626 10.271079063416 63.147998809814 36 36 36
9.953336715698 10.177451133728 62.769001007080 6 6 6
9.953336715698 10.177451133728 62.895999908447 162 162 162
9.953336715698 10.177451133728 63.024002075195 128 128 128
10.011537551880 10.154674530029 63.135002136230 77 77 77
9.965984344482 10.038270950317 62.881999969482 101 101 101
9.907783508301 10.061047554016 63.013000488281 188 188 188
10.069740295410 10.131896972656 63.121002197266 115 115 115
9.920431137085 9.921867370605 62.875999450684 180 180 180
9.920431137085 9.921867370605 63.000999450684 197 197 197
10.001409530640 9.957292556763 63.108001708984 128 128 128
9.933078765869 9.782686233521 62.864002227783 206 206 206
9.955856323242 9.840888977051 62.992000579834 196 196 196
9.933078765869 9.782686233521 63.098999023438 122 122 122
9.991279602051 9.759909629822 62.851001739502 207 207 207
9.991279602051 9.759909629822 62.980003356934 168 168 168
9.991279602051 9.759909629822 63.087001800537 90 90 90
9.981151580811 9.562526702881 62.841999053955 215 215 215
9.981151580811 9.562526702881 62.970001220703 150 150 150
10.003927230835 9.620729446411 63.073001861572 45 45 45
10.016576766968 9.481548309326 62.828998565674 209 209 209
10.016576766968 9.481548309326 62.956001281738 142 142 142
9.971021652222 9.365144729614 62.818000793457 183 183 183
9.971021652222 9.365144729614 62.942001342773 124 124 124
9.971021652222 9.365144729614 63.063999176025 20 20 20
9.925468444824 9.248741149902 62.805000305176 141 141 141
9.925468444824 9.248741149902 62.931999206543 190 190 190
9.925468444824 9.248741149902 63.054000854492 79 79 79
10.064647674561 9.261388778687 63.151000976563 66 66 66
9.938116073608 9.109560012817 62.791999816895 83 83 83
9.938116073608 9.109560012817 62.914001464844 150 150 150
9.938116073608 9.109560012817 63.034000396729 163 163 163
9.996316909790 9.086783409119 63.136001586914 120 120 120
9.950763702393 8.970379829407 62.779998779297 22 22 22
9.950763702393 8.970379829407 62.900001525879 201 201 201
9.950763702393 8.970379829407 63.018001556396 196 196 196
10.031742095947 9.005804061890 63.120002746582 123 123 123
9.986188888550 8.889399528503 62.885002136230 207 207 207
9.986188888550 8.889399528503 63.007999420166 201 201 201
10.067169189453 8.924825668335 63.108001708984 122 122 122
9.976060867310 8.692017555237 62.868000030518 215 215 215
9.976060867310 8.692017555237 62.990001678467 166 166 166
10.079816818237 8.785644531250 63.095001220703 82 82 82
10.011486053467 8.611038208008 62.852001190186 212 212 212
10.011486053467 8.611038208008 62.973999023438 170 170 170
10.011486053467 8.611038208008 63.082000732422 27 27 27
9.988708496094 8.552837371826 62.838001251221 201 201 201
9.988708496094 8.552837371826 62.958999633789 168 168 168
9.988708496094 8.552837371826 63.076999664307 22 22 22
10.001356124878 8.413656234741 62.824001312256 139 139 139
10.001356124878 8.413656234741 62.943000793457 136 136 136
10.001356124878 8.413656234741 63.067001342773 88 88 88
10.059558868408 8.390878677368 63.168998718262 45 45 45
9.955802917480 8.297252655029 62.810001373291 84 84 84
9.955802917480 8.297252655029 62.930999755859 144 144 144
9.955802917480 8.297252655029 63.048999786377 150 150 150
10.036781311035 8.332676887512 63.154998779297 103 103 103
9.968450546265 8.158071517944 62.792999267578 11 11 11
9.968450546265 8.158071517944 62.916000366211 100 100 100
9.968450546265 8.158071517944 63.038002014160 202 202 202
10.130407333374 8.228921890259 63.136001586914 113 113 113
9.981098175049 8.018890380859 62.900001525879 213 213 213
9.981098175049 8.018890380859 63.020000457764 215 215 215
10.062076568604 8.054315567017 63.123001098633 124 124 124
10.062076568604 8.054315567017 63.247001647949 63 63 63
10.016523361206 7.937911987305 63.108001708984 60 60 60
10.051946640015 7.856933593750 62.861003875732 74 74 74
10.051946640015 7.856933593750 63.333000183105 58 58 58
10.064596176147 7.717752456665 62.850002288818 104 104 104
10.064596176147 7.717752456665 63.185001373291 44 44 44
10.019041061401 7.601348876953 62.833000183105 86 86 86
10.135444641113 7.555794715881 63.164001464844 124 124 124
10.031688690186 7.462167739868 62.814998626709 39 39 39
10.089891433716 7.439391136169 63.145000457764 138 138 138
10.089891433716 7.439391136169 63.504001617432 70 70 70
10.044336318970 7.322987079620 63.131000518799 112 112 112
10.056985855103 7.183806419373 63.117000579834 46 46 46
9.998783111572 7.206583499908 63.583999633789 61 61 61
10.046857833862 6.986423492432 62.864002227783 70 70 70
10.069633483887 7.044625282288 63.189998626709 80 80 80
10.140483856201 6.882668018341 62.854003906250 105 105 105
10.140483856201 6.882668018341 63.172000885010 131 131 131
10.140483856201 6.882668018341 63.763000488281 73 73 73
10.094928741455 6.766264438629 62.833999633789 66 66 66
10.153131484985 6.743487358093 63.159000396729 132 132 132
10.130353927612 6.685285091400 63.142002105713 103 103 103
10.062023162842 6.510679721832 62.911998748779 83 83 83
10.062023162842 6.510679721832 63.021999359131 79 79 79
10.062023162842 6.510679721832 63.135002136230 70 70 70
10.062023162842 6.510679721832 63.930000305176 66 66 66
10.097448348999 6.429700851440 63.214000701904 37 37 37
10.016469955444 6.394275665283 64.018997192383 36 36 36
10.029117584229 6.255095005035 63.193000793457 114 114 114
10.122743606567 6.151339530945 63.173999786377 153 153 153
10.145521163940 6.209541320801 64.093002319336 23 23 23
10.158168792725 6.070360660553 63.161998748779 113 113 113
10.077190399170 6.034935474396 64.187004089355 76 76 76
10.125263214111 5.814775943756 63.227001190186 64 64 64
10.079708099365 5.698371887207 63.206001281738 126 126 126
10.079708099365 5.698371887207 64.355003356934 38 38 38
10.150560379028 5.536414623260 63.192001342773 127 127 127
10.034154891968 5.581968307495 64.441001892090 40 40 40
10.127782821655 5.478212833405 63.178001403809 67 67 67
10.105005264282 5.420010566711 64.300003051758 27 27 27
10.105005264282 5.420010566711 64.434997558594 104 104 104
10.185983657837 5.455435752869 64.485000610352 80 80 80
10.127782821655 5.478212833405 64.650001525879 18 18 18
10.117652893066 5.280829906464 62.239002227783 21 21 21
10.117652893066 5.280829906464 62.338001251221 72 72 72
10.163208007813 5.397233486176 62.433002471924 82 82 82
10.163208007813 5.397233486176 62.532001495361 109 109 109
10.163208007813 5.397233486176 62.631000518799 112 112 112
10.163208007813 5.397233486176 62.730998992920 124 124 124
10.163208007813 5.397233486176 62.832000732422 126 126 126
10.163208007813 5.397233486176 62.936000823975 143 143 143
10.163208007813 5.397233486176 63.039001464844 152 152 152
10.163208007813 5.397233486176 63.144001007080 148 148 148
10.163208007813 5.397233486176 63.244003295898 125 125 125
10.163208007813 5.397233486176 63.353000640869 154 154 154
10.163208007813 5.397233486176 63.463001251221 159 159 159
10.163208007813 5.397233486176 63.568000793457 153 153 153
10.163208007813 5.397233486176 63.679000854492 161 161 161
10.163208007813 5.397233486176 63.788002014160 161 161 161
10.163208007813 5.397233486176 63.902000427246 161 161 161
10.163208007813 5.397233486176 64.015998840332 164 164 164
10.163208007813 5.397233486176 64.128997802734 156 156 156
10.163208007813 5.397233486176 64.244003295898 168 168 168
10.163208007813 5.397233486176 64.368003845215 177 177 177
10.163208007813 5.397233486176 64.480003356934 115 115 115
10.163208007813 5.397233486176 64.606002807617 169 169 169
10.175855636597 5.258052825928 58.553001403809 131 131 131
10.175855636597 5.258052825928 58.631999969482 67 67 67
10.175855636597 5.258052825928 58.733001708984 128 128 128
10.175855636597 5.258052825928 59.303001403809 137 137 137
10.175855636597 5.258052825928 59.396999359131 146 146 146
10.175855636597 5.258052825928 59.492000579834 155 155 155
10.175855636597 5.258052825928 59.584999084473 170 170 170
10.175855636597 5.258052825928 59.869003295898 27 27 27
10.175855636597 5.258052825928 59.961002349854 89 89 89
10.175855636597 5.258052825928 60.054000854492 131 131 131
10.175855636597 5.258052825928 60.146999359131 153 153 153
10.175855636597 5.258052825928 60.239002227783 170 170 170
10.175855636597 5.258052825928 60.331001281738 173 173 173
10.175855636597 5.258052825928 60.423000335693 184 184 184
10.175855636597 5.258052825928 60.514999389648 184 184 184
10.175855636597 5.258052825928 60.607002258301 201 201 201
10.175855636597 5.258052825928 60.699001312256 203 203 203
10.175855636597 5.258052825928 60.791000366211 206 206 206
10.175855636597 5.258052825928 60.884002685547 205 205 205
10.175855636597 5.258052825928 61.160999298096 202 202 202
10.175855636597 5.258052825928 61.255001068115 199 199 199
10.175855636597 5.258052825928 61.347999572754 200 200 200
10.175855636597 5.258052825928 61.442001342773 186 186 186
10.175855636597 5.258052825928 61.535999298096 195 195 195
10.175855636597 5.258052825928 61.630001068115 187 187 187
10.175855636597 5.258052825928 62.013000488281 175 175 175
10.175855636597 5.258052825928 62.110000610352 183 183 183
10.175855636597 5.258052825928 62.209999084473 186 186 186
10.175855636597 5.258052825928 62.310001373291 188 188 188
10.175855636597 5.258052825928 62.405002593994 176 176 176
10.175855636597 5.258052825928 62.506999969482 178 178 178
10.175855636597 5.258052825928 62.609001159668 183 183 183
10.175855636597 5.258052825928 62.710998535156 180 180 180
10.175855636597 5.258052825928 62.811000823975 153 153 153
10.153078079224 5.199851036072 62.920001983643 120 120 120
10.153078079224 5.199851036072 63.020999908447 123 123 123
10.175855636597 5.258052825928 63.130001068115 106 106 106
10.153078079224 5.199851036072 63.234001159668 34 34 34
10.153078079224 5.199851036072 63.339000701904 20 20 20
10.153078079224 5.199851036072 61.926002502441 138 138 138
10.246704101563 5.096095561981 58.489002227783 201 201 201
10.188503265381 5.118872642517 58.576999664307 203 203 203
10.188503265381 5.118872642517 58.673000335693 201 201 201
10.246704101563 5.096095561981 58.768001556396 204 204 204
10.246704101563 5.096095561981 58.865001678467 198 198 198
10.246704101563 5.096095561981 58.958000183105 193 193 193
10.246704101563 5.096095561981 59.051002502441 191 191 191
10.246704101563 5.096095561981 59.143001556396 198 198 198
10.246704101563 5.096095561981 59.235000610352 186 186 186
10.246704101563 5.096095561981 59.326999664307 186 186 186
10.246704101563 5.096095561981 59.419002532959 193 193 193
10.246704101563 5.096095561981 59.511001586914 192 192 192
10.246704101563 5.096095561981 59.602001190186 195 195 195
10.246704101563 5.096095561981 59.693000793457 203 203 203
10.188503265381 5.118872642517 59.784000396729 196 196 196
10.188503265381 5.118872642517 59.875000000000 199 199 199
10.188503265381 5.118872642517 59.965999603271 206 206 206
10.188503265381 5.118872642517 60.056999206543 207 207 207
10.188503265381 5.118872642517 60.148002624512 203 203 203
10.188503265381 5.118872642517 60.238002777100 207 207 207
10.188503265381 5.118872642517 60.329002380371 207 207 207
10.188503265381 5.118872642517 60.421001434326 207 207 207
10.188503265381 5.118872642517 60.512001037598 206 206 206
10.188503265381 5.118872642517 60.604000091553 207 207 207
10.188503265381 5.118872642517 60.694999694824 207 207 207
10.188503265381 5.118872642517 60.787002563477 204 204 204
10.188503265381 5.118872642517 60.879001617432 193 193 193
10.188503265381 5.118872642517 60.972000122070 183 183 183
10.188503265381 5.118872642517 61.063999176025 167 167 167
10.188503265381 5.118872642517 61.156002044678 144 144 144
10.188503265381 5.118872642517 61.250999450684 134 134 134
10.188503265381 5.118872642517 61.344001770020 110 110 110
10.188503265381 5.118872642517 61.437999725342 63 63 63
10.304906845093 5.073318481445 58.678001403809 120 120 120
10.259351730347 4.956914424896 58.770999908447 114 114 114
10.259351730347 4.956914424896 58.862003326416 112 112 112
10.259351730347 4.956914424896 58.956001281738 67 67 67
10.084747314453 5.025245189667 59.306999206543 91 91 91
10.084747314453 5.025245189667 59.400001525879 96 96 96
10.084747314453 5.025245189667 59.493000030518 91 91 91
10.084747314453 5.025245189667 59.586002349854 97 97 97
10.102752685547 13.474754333496 59.616001129150 48 48 48
10.102752685547 13.474754333496 59.730998992920 86 86 86
10.102752685547 13.474754333496 59.845001220703 69 69 69
10.102752685547 13.474754333496 59.958999633789 71 71 71
10.102752685547 13.474754333496 60.074001312256 6 6 6
10.102752685547 13.474754333496 60.188999176025 20 20 20
10.102752685547 13.474754333496 60.304000854492 9 9 9
10.102752685547 13.474754333496 60.419002532959 55 55 55
10.102752685547 13.474754333496 60.534999847412 57 57 57
10.102752685547 13.474754333496 60.650001525879 9 9 9
10.290006637573 13.267242431641 57.783000946045 184 184 184
10.186250686646 13.173616409302 57.896999359131 197 197 197
10.186250686646 13.173616409302 58.014999389648 188 188 188
10.186250686646 13.173616409302 58.130001068115 188 188 188
10.186250686646 13.173616409302 58.246002197266 195 195 195
10.186250686646 13.173616409302 58.362003326416 191 191 191
10.186250686646 13.173616409302 58.478000640869 188 188 188
10.186250686646 13.173616409302 58.593002319336 192 192 192
10.150825500488 13.254594802856 58.706001281738 190 190 190
10.150825500488 13.254594802856 58.819999694824 196 196 196
10.150825500488 13.254594802856 58.934001922607 196 196 196
10.069847106934 13.219170570374 59.048000335693 195 195 195
10.069847106934 13.219170570374 59.162002563477 194 194 194
10.069847106934 13.219170570374 59.277000427246 187 187 187
10.069847106934 13.219170570374 59.389999389648 187 187 187
10.069847106934 13.219170570374 59.504001617432 178 178 178
10.069847106934 13.219170570374 59.618000030518 180 180 180
10.069847106934 13.219170570374 59.732002258301 169 169 169
10.069847106934 13.219170570374 59.846000671387 170 170 170
10.069847106934 13.219170570374 59.959999084473 173 173 173
10.069847106934 13.219170570374 60.075000762939 178 178 178
10.069847106934 13.219170570374 60.188999176025 181 181 181
10.069847106934 13.219170570374 60.304000854492 173 173 173
10.092622756958 13.277371406555 60.419002532959 166 166 166
10.092622756958 13.277371406555 60.534999847412 168 168 168
10.034421920776 13.300148963928 60.651000976563 168 168 168
10.034421920776 13.300148963928 60.766002655029 171 171 171
10.034421920776 13.300148963928 60.882999420166 175 175 175
10.034421920776 13.300148963928 60.999000549316 167 167 167
10.057199478149 13.358350753784 61.116001129150 160 160 160
10.057199478149 13.358350753784 61.234001159668 161 161 161
9.953443527222 13.264723777771 61.353000640869 159 159 159
10.057199478149 13.358350753784 61.469001770020 149 149 149
9.953443527222 13.264723777771 61.590000152588 157 157 157
9.953443527222 13.264723777771 61.708999633789 159 159 159
9.953443527222 13.264723777771 61.830001831055 169 169 169
9.953443527222 13.264723777771 61.950000762939 172 172 172
9.953443527222 13.264723777771 62.073001861572 167 167 167
9.953443527222 13.264723777771 62.194999694824 175 175 175
9.953443527222 13.264723777771 62.317001342773 179 179 179
9.976219177246 13.322925567627 62.443000793457 172 172 172
9.976219177246 13.322925567627 62.564998626709 173 173 173
9.976219177246 13.322925567627 62.689998626709 172 172 172
9.976219177246 13.322925567627 62.816001892090 172 172 172
9.895240783691 13.287501335144 62.944000244141 171 171 171
9.837039947510 13.310277938843 63.073001861572 141 141 141
9.895240783691 13.287501335144 63.199001312256 169 169 169
9.837039947510 13.310277938843 63.332000732422 178 178 178
9.837039947510 13.310277938843 63.459999084473 171 171 171
9.837039947510 13.310277938843 63.596000671387 179 179 179
9.837039947510 13.310277938843 63.729003906250 178 178 178
9.837039947510 13.310277938843 63.865001678467 170 170 170
9.837039947510 13.310277938843 63.998001098633 178 178 178
9.976219177246 13.322925567627 64.112998962402 114 114 114
9.837039947510 13.310277938843 64.276000976563 141 141 141
9.849687576294 13.171097755432 64.113998413086 29 29 29
9.887630462646 12.753554344177 63.145000457764 15 15 15
9.887630462646 12.753554344177 63.934001922607 11 11 11
9.958480834961 12.591597557068 63.115001678467 122 122 122
9.842077255249 12.637150764465 63.908000946045 54 54 54
9.971128463745 12.452416419983 63.094001770020 126 126 126
9.880020141602 12.219608306885 63.075000762939 111 111 111
9.950870513916 12.057651519775 63.057998657227 38 38 38
9.892667770386 12.080428123474 63.699001312256 70 70 70
10.011590957642 11.698310852051 63.124000549316 96 96 96
9.885059356689 11.546482086182 62.778999328613 76 76 76
10.001462936401 11.500927925110 63.102001190186 119 119 119
9.885059356689 11.546482086182 63.493000030518 17 17 17
9.874929428101 11.349100112915 62.756000518799 7 7 7
9.933132171631 11.326322555542 63.081001281738 125 125 125
9.955907821655 11.384524345398 63.460998535156 28 28 28
9.923002243042 11.128940582275 63.062999725342 84 84 84
10.006500244141 10.827800750732 63.131999969482 50 50 50
9.890096664429 10.873354911804 63.263000488281 68 68 68
9.915391921997 10.594993591309 62.778999328613 82 82 82
9.938169479370 10.653196334839 63.112003326416 109 109 109
9.928039550781 10.455813407898 62.757999420166 62 62 62
9.986242294312 10.433036804199 63.084999084473 126 126 126
9.859708786011 10.281207084656 62.742000579834 40 40 40
9.998889923096 10.293855667114 63.069000244141 112 112 112
9.849580764771 10.083825111389 62.834999084473 198 198 198
9.849580764771 10.083825111389 62.951999664307 200 200 200
9.965984344482 10.038270950317 63.048000335693 31 31 31
9.920431137085 9.921867370605 62.813999176025 192 192 192
9.920431137085 9.921867370605 62.929000854492 174 174 174
9.978631973267 9.899089813232 63.129001617432 66 66 66
9.910301208496 9.724485397339 62.791000366211 129 129 129
9.910301208496 9.724485397339 62.909000396729 178 178 178
9.910301208496 9.724485397339 63.020999908447 109 109 109
9.991279602051 9.759909629822 63.102001190186 132 132 132
9.981151580811 9.562526702881 62.768001556396 66 66 66
9.841970443726 9.549879074097 62.880001068115 189 189 189
9.841970443726 9.549879074097 63.000000000000 174 174 174
9.958374023438 9.504324913025 63.083000183105 117 117 117
9.912820816040 9.387921333313 62.853000640869 174 174 174
9.854618072510 9.410697937012 62.973999023438 160 160 160
9.971021652222 9.365144729614 63.061000823975 11 11 11
9.925468444824 9.248741149902 62.828998565674 197 197 197
9.902690887451 9.190538406372 62.942001342773 191 191 191
9.925468444824 9.248741149902 63.042999267578 47 47 47
10.019094467163 9.144985198975 63.130001068115 118 118 118
9.950763702393 8.970379829407 62.803001403809 164 164 164
9.950763702393 8.970379829407 62.916999816895 123 123 123
9.950763702393 8.970379829407 63.015998840332 148 148 148
10.008966445923 8.947602272034 63.098999023438 128 128 128
9.963411331177 8.831197738647 62.774002075195 27 27 27
9.963411331177 8.831197738647 62.883998870850 103 103 103
9.963411331177 8.831197738647 62.990001678467 194 194 194
10.021614074707 8.808421134949 63.083999633789 90 90 90
9.953283309937 8.633815765381 62.854003906250 197 197 197
9.953283309937 8.633815765381 62.964000701904 151 151 151
9.953283309937 8.633815765381 63.068000793457 13 13 13
9.988708496094 8.552837371826 63.152999877930 51 51 51
9.943155288696 8.436432838440 62.828998565674 178 178 178
9.943155288696 8.436432838440 62.938999176025 89 89 89
9.943155288696 8.436432838440 63.043998718262 98 98 98
10.001356124878 8.413656234741 63.129001617432 122 122 122
10.014003753662 8.274475097656 62.804000854492 108 108 108
9.955802917480 8.297252655029 62.914001464844 138 138 138
9.955802917480 8.297252655029 63.021999359131 181 181 181
10.014003753662 8.274475097656 63.108001708984 133 133 133
9.945672988892 8.099869728088 62.888000488281 177 177 177
9.945672988892 8.099869728088 63.002002716064 191 191 191
9.922895431519 8.041667938232 63.096000671387 87 87 87
9.922895431519 8.041667938232 63.205001831055 86 86 86
9.993745803833 7.879710197449 63.164001464844 41 41 41
9.993745803833 7.879710197449 63.285999298096 92 92 92
10.006393432617 7.740529060364 62.833999633789 117 117 117
10.064596176147 7.717752456665 63.139999389648 141 141 141
10.006393432617 7.740529060364 63.363002777100 84 84 84
9.973487854004 7.484945297241 62.813999176025 93 93 93
10.077243804932 7.578571319580 63.117000579834 127 127 127
9.973487854004 7.484945297241 63.444000244141 89 89 89
10.044336318970 7.322987079620 63.181999206543 7 7 7
9.927932739258 7.368540763855 63.521999359131 92 92 92
10.056985855103 7.183806419373 62.846000671387 60 60 60
10.056985855103 7.183806419373 63.153999328613 131 131 131
9.976005554199 7.148381710052 63.594001770020 78 78 78
10.046857833862 6.986423492432 62.830001831055 99 99 99
10.046857833862 6.986423492432 63.125999450684 119 119 119
10.046857833862 6.986423492432 63.666999816895 70 70 70
10.036727905273 6.789041519165 63.196998596191 31 31 31
9.978525161743 6.811818122864 63.746002197266 29 29 29
10.049375534058 6.649860382080 62.878002166748 19 19 19
10.049375534058 6.649860382080 63.160999298096 131 131 131
10.016469955444 6.394275665283 63.142002105713 106 106 106
10.029117584229 6.255095005035 64.072998046875 55 55 55
10.099967956543 6.093137741089 63.180000305176 134 134 134
10.041765213013 6.115914821625 64.152000427246 103 103 103
10.008859634399 5.860330104828 63.163002014160 139 139 139
10.008859634399 5.860330104828 64.236000061035 58 58 58
10.021507263184 5.721148967743 64.316001892090 55 55 55
10.092357635498 5.559191703796 63.194999694824 142 142 142
10.034154891968 5.581968307495 64.390998840332 93 93 93
10.117652893066 5.280829906464 62.865001678467 19 19 19
10.117652893066 5.280829906464 62.962001800537 90 90 90
10.117652893066 5.280829906464 63.054000854492 104 104 104
10.163208007813 5.397233486176 63.149002075195 122 122 122
10.163208007813 5.397233486176 63.241001129150 123 123 123
10.117652893066 5.280829906464 63.348999023438 120 120 120
10.163208007813 5.397233486176 63.444999694824 133 133 133
10.117652893066 5.280829906464 63.548999786377 142 142 142
10.117652893066 5.280829906464 63.652000427246 136 136 136
10.117652893066 5.280829906464 63.756999969482 145 145 145
10.117652893066 5.280829906464 63.862003326416 147 147 147
10.117652893066 5.280829906464 63.966999053955 149 149 149
10.117652893066 5.280829906464 64.077003479004 148 148 148
10.117652893066 5.280829906464 64.188003540039 151 151 151
10.117652893066 5.280829906464 64.301002502441 155 155 155
10.140430450439 5.339031696320 64.420997619629 144 144 144
10.117652893066 5.280829906464 64.528999328613 137 137 137
10.117652893066 5.280829906464 64.644996643066 76 76 76
10.211280822754 5.177074432373 58.602001190186 169 169 169
10.211280822754 5.177074432373 58.684001922607 166 166 166
10.211280822754 5.177074432373 59.009002685547 176 176 176
10.211280822754 5.177074432373 59.090999603271 179 179 179
10.211280822754 5.177074432373 59.171001434326 187 187 187
10.211280822754 5.177074432373 59.250000000000 200 200 200
10.211280822754 5.177074432373 59.330001831055 194 194 194
10.211280822754 5.177074432373 59.409999847412 194 194 194
10.211280822754 5.177074432373 59.490001678467 196 196 196
10.211280822754 5.177074432373 59.569000244141 194 194 194
10.211280822754 5.177074432373 59.649002075195 181 181 181
10.211280822754 5.177074432373 59.728000640869 168 168 168
10.211280822754 5.177074432373 59.806999206543 179 179 179
10.211280822754 5.177074432373 59.886001586914 180 180 180
10.211280822754 5.177074432373 59.965000152588 189 189 189
10.211280822754 5.177074432373 60.044002532959 191 191 191
10.211280822754 5.177074432373 60.123001098633 191 191 191
10.211280822754 5.177074432373 60.202999114990 188 188 188
10.211280822754 5.177074432373 60.282001495361 190 190 190
10.211280822754 5.177074432373 60.362003326416 186 186 186
10.211280822754 5.177074432373 60.441001892090 185 185 185
10.234056472778 5.235276222229 60.521999359131 190 190 190
10.234056472778 5.235276222229 60.601001739502 186 186 186
10.234056472778 5.235276222229 60.681999206543 185 185 185
10.234056472778 5.235276222229 60.763000488281 186 186 186
10.234056472778 5.235276222229 60.843002319336 185 185 185
10.234056472778 5.235276222229 60.924999237061 188 188 188
10.188503265381 5.118872642517 61.006999969482 185 185 185
10.188503265381 5.118872642517 61.088001251221 185 185 185
10.188503265381 5.118872642517 61.171001434326 184 184 184
10.188503265381 5.118872642517 61.250999450684 188 188 188
10.188503265381 5.118872642517 61.336002349854 183 183 183
10.188503265381 5.118872642517 61.416999816895 180 180 180
10.188503265381 5.118872642517 61.503002166748 185 185 185
10.188503265381 5.118872642517 61.587001800537 183 183 183
10.188503265381 5.118872642517 61.673000335693 183 183 183
10.188503265381 5.118872642517 61.759002685547 180 180 180
10.188503265381 5.118872642517 61.847999572754 172 172 172
10.188503265381 5.118872642517 61.936000823975 180 180 180
10.188503265381 5.118872642517 62.020999908447 177 177 177
10.188503265381 5.118872642517 62.111000061035 173 173 173
10.130300521851 5.141649246216 62.201999664307 173 173 173
10.130300521851 5.141649246216 62.294002532959 169 169 169
10.130300521851 5.141649246216 62.387001037598 166 166 166
10.072099685669 5.164426326752 62.480003356934 165 165 165
10.072099685669 5.164426326752 62.570999145508 151 151 151
10.072099685669 5.164426326752 62.667999267578 130 130 130
10.072099685669 5.164426326752 62.761001586914 100 100 100
10.072099685669 5.164426326752 62.853000640869 90 90 90
10.072099685669 5.164426326752 62.957000732422 67 67 67
10.013896942139 5.187203407288 63.061000823975 38 38 38
10.201150894165 4.979691505432 58.180999755859 152 152 152
10.201150894165 4.979691505432 58.351001739502 173 173 173
10.201150894165 4.979691505432 58.431999206543 173 173 173
10.142948150635 5.002468585968 58.513999938965 181 181 181
10.142948150635 5.002468585968 58.594001770020 163 163 163
10.142948150635 5.002468585968 58.680000305176 140 140 140
10.201150894165 4.979691505432 58.764999389648 126 126 126
10.142948150635 5.002468585968 58.844001770020 123 123 123
10.142948150635 5.002468585968 58.923999786377 109 109 109
10.142948150635 5.002468585968 59.005001068115 105 105 105
10.142948150635 5.002468585968 59.086002349854 95 95 95
10.142948150635 5.002468585968 59.164001464844 95 95 95
10.084747314453 5.025245189667 59.236000061035 192 192 192
10.084747314453 5.025245189667 59.316001892090 188 188 188
10.084747314453 5.025245189667 59.395999908447 203 203 203
10.084747314453 5.025245189667 59.477001190186 225 225 225
10.084747314453 5.025245189667 59.558002471924 255 255 255
10.084747314453 5.025245189667 59.638999938965 255 255 255
10.142948150635 5.002468585968 58.256000518799 151 151 151
10.044551849365 13.497530937195 59.780002593994 81 81 81
10.044551849365 13.497530937195 59.913002014160 99 99 99
10.044551849365 13.497530937195 60.046001434326 107 107 107
10.044551849365 13.497530937195 60.179000854492 117 117 117
10.044551849365 13.497530937195 60.312000274658 113 113 113
10.044551849365 13.497530937195 60.444999694824 133 133 133
10.044551849365 13.497530937195 60.577999114990 125 125 125
10.044551849365 13.497530937195 60.711002349854 126 126 126
10.044551849365 13.497530937195 60.845001220703 136 136 136
10.044551849365 13.497530937195 60.978000640869 134 134 134
10.044551849365 13.497530937195 61.113002777100 131 131 131
10.044551849365 13.497530937195 61.247001647949 134 134 134
9.986349105835 13.520308494568 61.382999420166 155 155 155
10.021774291992 13.439329147339 61.518001556396 167 167 167
10.021774291992 13.439329147339 61.652999877930 155 155 155
10.021774291992 13.439329147339 61.789001464844 152 152 152
9.986349105835 13.520308494568 61.926002502441 153 153 153
9.986349105835 13.520308494568 62.065002441406 155 155 155
9.986349105835 13.520308494568 62.204002380371 161 161 161
9.986349105835 13.520308494568 62.340000152588 164 164 164
9.986349105835 13.520308494568 62.480998992920 158 158 158
9.986349105835 13.520308494568 62.621002197266 172 172 172
9.986349105835 13.520308494568 62.761001586914 172 172 172
9.986349105835 13.520308494568 62.906002044678 167 167 167
9.986349105835 13.520308494568 63.046001434326 169 169 169
9.986349105835 13.520308494568 63.193000793457 160 160 160
9.986349105835 13.520308494568 63.339000701904 173 173 173
9.986349105835 13.520308494568 63.486003875732 172 172 172
9.986349105835 13.520308494568 63.631999969482 179 179 179
9.986349105835 13.520308494568 63.781002044678 177 177 177
9.986349105835 13.520308494568 63.930000305176 177 177 177
9.882593154907 13.426681518555 64.079002380371 153 153 153
9.882593154907 13.426681518555 64.230003356934 156 156 156
10.219156265259 13.429200172424 57.509002685547 189 189 189
10.219156265259 13.429200172424 57.652999877930 166 166 166
10.219156265259 13.429200172424 57.788002014160 168 168 168
10.219156265259 13.429200172424 57.928001403809 172 172 172
10.277359008789 13.406423568726 58.206001281738 169 169 169
10.277359008789 13.406423568726 58.338001251221 153 153 153
10.277359008789 13.406423568726 58.470001220703 167 167 167
10.277359008789 13.406423568726 58.603000640869 179 179 179
10.219156265259 13.429200172424 58.735000610352 193 193 193
10.219156265259 13.429200172424 58.868000030518 183 183 183
10.219156265259 13.429200172424 58.999000549316 181 181 181
10.219156265259 13.429200172424 59.130001068115 193 193 193
10.219156265259 13.429200172424 59.262001037598 186 186 186
10.219156265259 13.429200172424 59.393001556396 193 193 193
10.219156265259 13.429200172424 59.524002075195 203 203 203
10.219156265259 13.429200172424 59.655002593994 202 202 202
10.115400314331 13.335574150085 59.785999298096 195 195 195
10.115400314331 13.335574150085 59.916999816895 206 206 206
10.115400314331 13.335574150085 60.048999786377 211 211 211
10.115400314331 13.335574150085 60.180000305176 211 211 211
10.115400314331 13.335574150085 60.312000274658 179 179 179
10.115400314331 13.335574150085 60.444000244141 159 159 159
10.115400314331 13.335574150085 60.576000213623 160 160 160
10.057199478149 13.358350753784 60.708000183105 151 151 151
10.057199478149 13.358350753784 60.840999603271 142 142 142
10.057199478149 13.358350753784 60.973999023438 137 137 137
10.057199478149 13.358350753784 61.108001708984 121 121 121
10.057199478149 13.358350753784 61.242000579834 121 121 121
10.057199478149 13.358350753784 61.378002166748 114 114 114
10.057199478149 13.358350753784 61.513000488281 97 97 97
10.057199478149 13.358350753784 61.649002075195 70 70 70
10.057199478149 13.358350753784 61.785999298096 21 21 21
9.837039947510 13.310277938843 64.085998535156 33 33 33
10.290006637573 13.267242431641 57.679000854492 116 116 116
10.186250686646 13.173616409302 57.801002502441 190 190 190
10.290006637573 13.267242431641 57.944999694824 107 107 107
10.231803894043 13.290019989014 58.074001312256 88 88 88
10.186250686646 13.173616409302 58.207000732422 66 66 66
9.849687576294 13.171097755432 64.056999206543 25 25 25
9.920537948608 13.009140014648 63.154998779297 25 25 25
9.920537948608 13.009140014648 64.029998779297 24 24 24
9.933185577393 12.869957923889 63.133998870850 79 79 79
10.004034042358 12.708001136780 63.114002227783 112 112 112
9.958480834961 12.591597557068 63.096000671387 117 117 117
9.912927627563 12.475193977356 63.083999633789 61 61 61
9.809171676636 12.381567001343 63.804000854492 46 46 46
9.902797698975 12.277811050415 63.071998596191 46 46 46
9.859764099121 11.824844360352 63.596000671387 52 52 52
9.872411727905 11.685663223267 62.901000976563 58 58 58
9.872411727905 11.685663223267 63.032001495361 69 69 69
10.034368515015 11.756513595581 63.149002075195 41 41 41
9.872411727905 11.685663223267 63.574001312256 31 31 31
9.943260192871 11.523704528809 63.133998870850 60 60 60
10.036888122559 11.419949531555 63.118000030518 103 103 103
9.968557357788 11.245344161987 63.102001190186 122 122 122
9.968557357788 11.245344161987 63.388999938965 32 32 32
9.981204986572 11.106163024902 63.093002319336 109 109 109
9.923002243042 11.128940582275 63.366001129150 43 43 43
9.993852615356 10.966982841492 63.076000213623 87 87 87
9.890096664429 10.873354911804 62.819000244141 18 18 18
9.948297500610 10.850578308105 63.069000244141 51 51 51
9.960945129395 10.711397171021 62.805000305176 50 50 50
9.960945129395 10.711397171021 63.185001373291 25 25 25
9.950817108154 10.514015197754 62.792999267578 58 58 58
9.973594665527 10.572216987610 63.166000366211 42 42 42
9.928039550781 10.455813407898 62.781002044678 82 82 82
9.895133972168 10.200228691101 62.770999908447 31 31 31
9.998889923096 10.293855667114 62.892002105713 60 60 60
9.895133972168 10.200228691101 63.021999359131 54 54 54
9.998889923096 10.293855667114 63.137001037598 43 43 43
9.930559158325 10.119249343872 62.881000518799 142 142 142
9.930559158325 10.119249343872 63.012001037598 154 154 154
10.011537551880 10.154674530029 63.118000030518 103 103 103
9.920431137085 9.921867370605 62.869003295898 201 201 201
9.920431137085 9.921867370605 63.000000000000 189 189 189
10.001409530640 9.957292556763 63.102001190186 125 125 125
9.933078765869 9.782686233521 62.854003906250 200 200 200
9.933078765869 9.782686233521 62.983001708984 180 180 180
9.933078765869 9.782686233521 63.089000701904 116 116 116
9.945726394653 9.643506050110 62.839000701904 210 210 210
9.945726394653 9.643506050110 62.965003967285 147 147 147
10.026704788208 9.678931236267 63.073001861572 76 76 76
9.958374023438 9.504324913025 62.825000762939 210 210 210
9.958374023438 9.504324913025 62.950000762939 97 97 97
10.062129974365 9.597951889038 63.059001922607 14 14 14
9.912820816040 9.387921333313 62.813999176025 177 177 177
9.912820816040 9.387921333313 62.936000823975 133 133 133
9.912820816040 9.387921333313 63.061000823975 35 35 35
10.029224395752 9.342367172241 63.161998748779 16 16 16
9.925468444824 9.248741149902 62.797000885010 153 153 153
9.925468444824 9.248741149902 62.923000335693 216 216 216
9.925468444824 9.248741149902 63.039001464844 82 82 82
9.983669281006 9.225963592529 63.146999359131 48 48 48
9.938116073608 9.109560012817 62.785999298096 101 101 101
9.938116073608 9.109560012817 62.907001495361 132 132 132
9.938116073608 9.109560012817 63.025001525879 151 151 151
10.054519653320 9.064005851746 63.127002716064 111 111 111
9.905210494995 8.853975296021 62.777000427246 11 11 11
10.008966445923 8.947602272034 62.890998840332 210 210 210
10.008966445923 8.947602272034 63.010002136230 191 191 191
10.008966445923 8.947602272034 63.114002227783 128 128 128
9.940633773804 8.772995948792 62.872001647949 197 197 197
9.940633773804 8.772995948792 62.993000030518 170 170 170
10.021614074707 8.808421134949 63.095001220703 111 111 111
10.011486053467 8.611038208008 62.855003356934 207 207 207
10.011486053467 8.611038208008 62.971000671387 112 112 112
10.011486053467 8.611038208008 63.083000183105 63 63 63
9.988708496094 8.552837371826 62.838001251221 201 201 201
9.988708496094 8.552837371826 62.963001251221 90 90 90
9.988708496094 8.552837371826 63.071998596191 20 20 20
10.059558868408 8.390878677368 62.817001342773 129 129 129
10.059558868408 8.390878677368 62.936000823975 160 160 160
9.920377731323 8.378231048584 63.061000823975 114 114 114
10.059558868408 8.390878677368 63.161998748779 51 51 51
10.014003753662 8.274475097656 62.803001403809 66 66 66
10.014003753662 8.274475097656 62.921001434326 123 123 123
10.014003753662 8.274475097656 63.038002014160 175 175 175
10.072206497192 8.251698493958 63.139999389648 105 105 105
9.922895431519 8.041667938232 62.900001525879 202 202 202
9.922895431519 8.041667938232 63.021999359131 194 194 194
10.084854125977 8.112518310547 63.122001647949 124 124 124
9.922895431519 8.041667938232 63.246002197266 66 66 66
10.016523361206 7.937911987305 63.113002777100 106 106 106
10.029170989990 7.798731803894 62.852001190186 17 17 17
10.019041061401 7.601348876953 62.845001220703 98 98 98
10.122797012329 7.694974899292 63.180000305176 38 38 38
10.019041061401 7.601348876953 63.423000335693 69 69 69
10.031688690186 7.462167739868 62.824001312256 89 89 89
10.031688690186 7.462167739868 63.158000946045 121 121 121
10.031688690186 7.462167739868 63.514999389648 46 46 46
10.044336318970 7.322987079620 62.806999206543 35 35 35
10.044336318970 7.322987079620 63.139999389648 136 136 136
9.998783111572 7.206583499908 63.118000030518 73 73 73
10.069633483887 7.044625282288 63.682998657227 73 73 73
10.082281112671 6.905445098877 62.857002258301 84 84 84
10.082281112671 6.905445098877 63.180000305176 100 100 100
10.082281112671 6.905445098877 63.767002105713 73 73 73
10.094928741455 6.766264438629 62.839000701904 85 85 85
10.094928741455 6.766264438629 63.158000946045 135 135 135
10.094928741455 6.766264438629 63.858001708984 31 31 31
10.049375534058 6.649860382080 63.144001007080 73 73 73
10.178426742554 6.465126037598 63.209999084473 14 14 14
10.051895141602 6.313296794891 63.203998565674 71 71 71
10.145521163940 6.209541320801 63.178001403809 147 147 147
10.087318420410 6.232318401337 64.104003906250 16 16 16
10.158168792725 6.070360660553 63.159000396729 125 125 125
10.077190399170 6.034935474396 64.185997009277 52 52 52
10.008859634399 5.860330104828 64.276000976563 65 65 65
10.079708099365 5.698371887207 63.216999053955 85 85 85
10.079708099365 5.698371887207 64.363998413086 66 66 66
10.092357635498 5.559191703796 63.194999694824 143 143 143
10.105005264282 5.420010566711 63.186000823975 90 90 90
10.105005264282 5.420010566711 63.498001098633 34 34 34
10.127782821655 5.478212833405 63.602001190186 70 70 70
10.127782821655 5.478212833405 63.712001800537 89 89 89
10.127782821655 5.478212833405 63.819000244141 98 98 98
10.127782821655 5.478212833405 63.936000823975 101 101 101
10.127782821655 5.478212833405 64.053001403809 127 127 127
10.127782821655 5.478212833405 64.159004211426 127 127 127
10.127782821655 5.478212833405 64.277000427246 137 137 137
10.127782821655 5.478212833405 64.389999389648 130 130 130
10.127782821655 5.478212833405 64.501998901367 144 144 144
10.127782821655 5.478212833405 64.626998901367 114 114 114
10.117652893066 5.280829906464 59.297000885010 79 79 79
10.117652893066 5.280829906464 59.389999389648 88 88 88
10.117652893066 5.280829906464 59.484001159668 100 100 100
10.117652893066 5.280829906464 59.580001831055 97 97 97
10.140430450439 5.339031696320 60.698001861572 59 59 59
10.140430450439 5.339031696320 60.790000915527 118 118 118
10.140430450439 5.339031696320 61.160999298096 162 162 162
10.140430450439 5.339031696320 61.256999969482 166 166 166
10.140430450439 5.339031696320 61.350002288818 171 171 171
10.140430450439 5.339031696320 61.444999694824 160 160 160
10.140430450439 5.339031696320 61.539001464844 174 174 174
10.140430450439 5.339031696320 62.016002655029 176 176 176
10.140430450439 5.339031696320 62.114002227783 179 179 179
10.140430450439 5.339031696320 62.211002349854 168 168 168
10.140430450439 5.339031696320 62.306999206543 162 162 162
10.140430450439 5.339031696320 62.409000396729 175 175 175
10.140430450439 5.339031696320 62.507999420166 179 179 179
10.140430450439 5.339031696320 62.609001159668 176 176 176
10.140430450439 5.339031696320 62.708999633789 165 165 165
10.140430450439 5.339031696320 62.810001373291 172 172 172
10.140430450439 5.339031696320 62.916000366211 177 177 177
10.140430450439 5.339031696320 63.018001556396 165 165 165
10.140430450439 5.339031696320 63.125000000000 176 176 176
10.140430450439 5.339031696320 63.230003356934 106 106 106
10.140430450439 5.339031696320 63.341999053955 158 158 158
10.117652893066 5.280829906464 63.451999664307 145 145 145
10.117652893066 5.280829906464 63.559001922607 131 131 131
10.117652893066 5.280829906464 63.667999267578 120 120 120
10.117652893066 5.280829906464 63.781002044678 110 110 110
10.117652893066 5.280829906464 63.899002075195 98 98 98
10.117652893066 5.280829906464 64.011001586914 70 70 70
10.117652893066 5.280829906464 64.129997253418 24 24 24
10.117652893066 5.280829906464 61.643001556396 140 140 140
10.350460052490 5.189722061157 58.492000579834 203 203 203
10.292259216309 5.212499141693 58.567001342773 202 202 202
10.234056472778 5.235276222229 58.660999298096 200 200 200
10.234056472778 5.235276222229 58.756000518799 203 203 203
10.234056472778 5.235276222229 58.850002288818 198 198 198
10.292259216309 5.212499141693 58.944999694824 201 201 201
10.292259216309 5.212499141693 59.039001464844 197 197 197
10.292259216309 5.212499141693 59.131000518799 203 203 203
10.292259216309 5.212499141693 59.223999023438 203 203 203
10.292259216309 5.212499141693 59.317001342773 198 198 198
10.292259216309 5.212499141693 59.409000396729 202 202 202
10.292259216309 5.212499141693 59.500999450684 202 202 202
10.292259216309 5.212499141693 59.593002319336 200 200 200
10.292259216309 5.212499141693 59.684001922607 189 189 189
10.292259216309 5.212499141693 59.775001525879 190 190 190
10.292259216309 5.212499141693 59.867000579834 200 200 200
10.292259216309 5.212499141693 59.958000183105 200 200 200
10.234056472778 5.235276222229 60.048999786377 204 204 204
10.234056472778 5.235276222229 60.139999389648 202 202 202
10.234056472778 5.235276222229 60.230998992920 202 202 202
10.234056472778 5.235276222229 60.322002410889 205 205 205
10.234056472778 5.235276222229 60.413002014160 206 206 206
10.234056472778 5.235276222229 60.504001617432 206 206 206
10.234056472778 5.235276222229 60.595001220703 206 206 206
10.234056472778 5.235276222229 60.687000274658 205 205 205
10.234056472778 5.235276222229 60.778999328613 206 206 206
10.234056472778 5.235276222229 60.872001647949 205 205 205
10.234056472778 5.235276222229 60.964000701904 203 203 203
10.234056472778 5.235276222229 61.056999206543 198 198 198
10.188503265381 5.118872642517 61.150001525879 191 191 191
10.234056472778 5.235276222229 61.242000579834 176 176 176
10.188503265381 5.118872642517 61.336002349854 158 158 158
10.188503265381 5.118872642517 61.430000305176 133 133 133
10.188503265381 5.118872642517 61.524002075195 133 133 133
10.188503265381 5.118872642517 61.620002746582 116 116 116
10.188503265381 5.118872642517 61.716999053955 86 86 86
10.188503265381 5.118872642517 61.812000274658 34 34 34
10.292259216309 5.212499141693 58.386001586914 96 96 96
10.246704101563 5.096095561981 58.770999908447 93 93 93
10.304906845093 5.073318481445 58.871002197266 70 70 70
10.084747314453 5.025245189667 59.296001434326 77 77 77
10.084747314453 5.025245189667 59.484001159668 83 83 83
10.084747314453 5.025245189667 59.576999664307 81 81 81
10.277359008789 13.406423568726 58.725002288818 23 23 23
10.277359008789 13.406423568726 58.597000122070 57 57 57
10.277359008789 13.406423568726 58.463001251221 79 79 79
10.254581451416 13.348221778870 58.333000183105 90 90 90
