24.208316802979 15.144190788269 61.266021728516 100 100 100
24.214704513550 15.269028663635 61.265014648438 109 109 109
24.221092224121 15.393864631653 61.260009765625 110 110 110
24.158674240112 15.397057533264 62.304016113281 20 20 20
24.227479934692 15.518700599670 61.257995605469 112 112 112
24.233867645264 15.643538475037 61.252014160156 104 104 104
24.177835464478 15.771569252014 61.244018554688 100 100 100
24.177835464478 15.771569252014 62.424011230469 1 1 1
24.246641159058 15.893210411072 61.240997314453 95 95 95
24.253028869629 16.018049240112 61.240020751953 86 86 86
24.259416580200 16.142885208130 61.238006591797 70 70 70
24.272192001343 16.392560958862 61.238006591797 71 71 71
24.216161727905 16.520589828491 61.236999511719 86 86 86
24.147356033325 16.398944854736 62.671020507813 27 27 27
24.672250747681 16.872745513916 58.089019775391 10 10 10
24.222549438477 16.645425796509 61.238006591797 86 86 86
24.091323852539 16.526977539063 62.673004150391 1 1 1
24.491384506226 17.007164001465 56.548004150391 109 109 109
24.491384506226 17.007164001465 56.680023193359 105 105 105
24.491384506226 17.007164001465 56.809997558594 107 107 107
24.491384506226 17.007164001465 56.941009521484 115 115 115
24.491384506226 17.007164001465 57.075012207031 104 104 104
24.491384506226 17.007164001465 57.205017089844 99 99 99
24.484998703003 16.882326126099 57.335021972656 103 103 103
24.484998703003 16.882326126099 57.464019775391 98 98 98
24.484998703003 16.882326126099 57.593017578125 94 94 94
24.484998703003 16.882326126099 57.720001220703 77 77 77
24.484998703003 16.882326126099 57.848022460938 70 70 70
24.491384506226 17.007164001465 57.973022460938 70 70 70
24.553802490234 17.003969192505 58.098022460938 117 117 117
24.484998703003 16.882326126099 58.227996826172 56 56 56
24.484998703003 16.882326126099 58.354003906250 37 37 37
24.228935241699 16.770261764526 61.236999511719 76 76 76
24.622608184814 17.125610351563 56.520996093750 44 44 44
24.435354232788 17.135192871094 57.595001220703 124 124 124
24.435354232788 17.135192871094 58.100006103516 70 70 70
24.366546630859 17.013547897339 59.105010986328 119 119 119
24.304128646851 17.016744613647 59.229003906250 115 115 115
24.297740936279 16.891908645630 59.727996826172 116 116 116
24.297740936279 16.891908645630 60.227996826172 68 68 68
24.366546630859 17.013547897339 60.360015869141 66 66 66
24.297740936279 16.891908645630 60.483001708984 57 57 57
24.297740936279 16.891908645630 60.611022949219 49 49 49
24.297740936279 16.891908645630 60.739013671875 34 34 34
24.297740936279 16.891908645630 60.865997314453 9 9 9
24.235322952271 16.895101547241 61.239013671875 85 85 85
24.104097366333 16.776651382446 62.805999755859 60 60 60
24.566579818726 17.253641128540 56.532012939453 118 118 118
24.566579818726 17.253641128540 56.663024902344 113 113 113
24.566579818726 17.253641128540 56.798004150391 112 112 112
24.566579818726 17.253641128540 56.930999755859 115 115 115
24.566579818726 17.253641128540 57.061004638672 114 114 114
24.566579818726 17.253641128540 57.191009521484 106 106 106
24.566579818726 17.253641128540 57.321014404297 103 103 103
24.566579818726 17.253641128540 57.450012207031 101 101 101
24.435354232788 17.135192871094 57.591003417969 124 124 124
24.566579818726 17.253641128540 57.710021972656 111 111 111
24.566579818726 17.253641128540 57.838012695313 98 98 98
24.435354232788 17.135192871094 59.106018066406 68 68 68
24.435354232788 17.135192871094 59.233001708984 59 59 59
24.435354232788 17.135192871094 59.357025146484 30 30 30
24.241712570190 17.019937515259 60.092010498047 54 54 54
24.241712570190 17.019937515259 60.464019775391 32 32 32
24.179294586182 17.023132324219 60.589019775391 63 63 63
24.179294586182 17.023132324219 61.091003417969 97 97 97
24.179294586182 17.023132324219 61.216003417969 97 97 97
24.179294586182 17.023132324219 61.346008300781 125 125 125
24.179294586182 17.023132324219 61.472015380859 120 120 120
24.179294586182 17.023132324219 61.605010986328 126 126 126
24.172904968262 16.898296356201 61.731018066406 120 120 120
24.172904968262 16.898296356201 61.865020751953 108 108 108
24.172904968262 16.898296356201 61.993011474609 104 104 104
24.172904968262 16.898296356201 62.130004882813 107 107 107
24.172904968262 16.898296356201 62.265014648438 93 93 93
24.172904968262 16.898296356201 62.398010253906 80 80 80
24.172904968262 16.898296356201 62.542022705078 77 77 77
24.172904968262 16.898296356201 62.677001953125 74 74 74
24.172904968262 16.898296356201 62.816009521484 56 56 56
24.172904968262 16.898296356201 62.947998046875 18 18 18
24.566579818726 17.253641128540 57.967010498047 14 14 14
24.179294586182 17.023132324219 60.713012695313 69 69 69
24.179294586182 17.023132324219 60.964996337891 67 67 67
24.185680389404 17.147968292236 61.220001220703 124 124 124
24.185680389404 17.147968292236 61.342010498047 128 128 128
24.185680389404 17.147968292236 61.476013183594 125 125 125
24.185680389404 17.147968292236 61.607025146484 122 122 122
24.185680389404 17.147968292236 61.735015869141 121 121 121
24.185680389404 17.147968292236 61.867004394531 126 126 126
24.185680389404 17.147968292236 61.999023437500 123 123 123
24.123260498047 17.151161193848 62.127014160156 118 118 118
24.123260498047 17.151161193848 62.262023925781 124 124 124
24.123260498047 17.151161193848 62.390014648438 116 116 116
24.123260498047 17.151161193848 62.528015136719 123 123 123
24.123260498047 17.151161193848 62.667999267578 129 129 129
24.116872787476 17.026325225830 62.794006347656 120 120 120
24.054454803467 17.029518127441 62.904022216797 122 122 122
24.185680389404 17.147968292236 61.097015380859 71 71 71
24.185680389404 17.147968292236 61.205017089844 120 120 120
24.185680389404 17.147968292236 61.320007324219 130 130 130
24.185680389404 17.147968292236 61.463012695313 126 126 126
24.248098373413 17.144771575928 61.598022460938 116 116 116
24.248098373413 17.144771575928 61.729003906250 113 113 113
24.248098373413 17.144771575928 61.861999511719 107 107 107
24.185680389404 17.147968292236 61.992004394531 108 108 108
24.185680389404 17.147968292236 62.122009277344 97 97 97
24.179294586182 17.023132324219 62.245025634766 110 110 110
24.185680389404 17.147968292236 62.371002197266 119 119 119
24.116872787476 17.026325225830 62.501007080078 123 123 123
24.116872787476 17.026325225830 62.630004882813 126 126 126
24.116872787476 17.026325225830 62.765014648438 122 122 122
24.054454803467 17.029518127441 62.889007568359 122 122 122
24.310516357422 17.141578674316 61.085998535156 3 3 3
24.566579818726 17.253641128540 56.507019042969 118 118 118
24.628997802734 17.250450134277 56.632019042969 90 90 90
24.628997802734 17.250450134277 56.766021728516 91 91 91
24.566579818726 17.253641128540 56.900024414063 87 87 87
24.566579818726 17.253641128540 57.033020019531 84 84 84
24.566579818726 17.253641128540 57.165008544922 78 78 78
24.566579818726 17.253641128540 57.295013427734 85 85 85
24.566579818726 17.253641128540 57.427001953125 69 69 69
24.435354232788 17.135192871094 57.568023681641 126 126 126
24.497772216797 17.131999969482 57.686004638672 92 92 92
24.566579818726 17.253641128540 57.813018798828 70 70 70
24.497772216797 17.131999969482 57.943023681641 61 61 61
24.241712570190 17.019937515259 60.194000244141 93 93 93
24.241712570190 17.019937515259 60.316009521484 100 100 100
24.241712570190 17.019937515259 60.442016601563 107 107 107
24.241712570190 17.019937515259 60.568023681641 117 117 117
24.241712570190 17.019937515259 60.692016601563 127 127 127
24.241712570190 17.019937515259 61.072998046875 114 114 114
24.241712570190 17.019937515259 61.201019287109 108 108 108
24.172904968262 16.898296356201 61.326995849609 101 101 101
24.241712570190 17.019937515259 61.460021972656 91 91 91
24.241712570190 17.019937515259 61.591003417969 76 76 76
24.172904968262 16.898296356201 61.720001220703 66 66 66
24.172904968262 16.898296356201 61.857025146484 59 59 59
24.241712570190 17.019937515259 61.994018554688 55 55 55
24.172904968262 16.898296356201 62.124023437500 29 29 29
24.172904968262 16.898296356201 62.257019042969 4 4 4
24.241712570190 17.019937515259 60.070007324219 33 33 33
24.241712570190 17.019937515259 60.946014404297 93 93 93
24.553802490234 17.003969192505 56.510009765625 114 114 114
24.428964614868 17.010356903076 57.309997558594 13 13 13
24.428964614868 17.010356903076 57.440002441406 49 49 49
24.428964614868 17.010356903076 57.568023681641 124 124 124
24.428964614868 17.010356903076 57.695007324219 101 101 101
24.428964614868 17.010356903076 57.824005126953 84 84 84
24.428964614868 17.010356903076 57.951019287109 97 97 97
24.366546630859 17.013547897339 58.078002929688 125 125 125
24.366546630859 17.013547897339 58.204010009766 120 120 120
24.366546630859 17.013547897339 59.709014892578 46 46 46
24.360158920288 16.888713836670 59.833007812500 11 11 11
24.104097366333 16.776651382446 62.779998779297 50 50 50
24.366546630859 17.013547897339 58.330017089844 5 5 5
24.366546630859 17.013547897339 59.081024169922 57 57 57
24.366546630859 17.013547897339 59.206024169922 68 68 68
24.553802490234 17.003969192505 56.506011962891 74 74 74
24.553802490234 17.003969192505 56.641998291016 63 63 63
24.553802490234 17.003969192505 56.773010253906 56 56 56
24.553802490234 17.003969192505 56.907012939453 51 51 51
24.553802490234 17.003969192505 57.037017822266 47 47 47
24.553802490234 17.003969192505 57.164001464844 36 36 36
24.553802490234 17.003969192505 57.295013427734 23 23 23
24.547416687012 16.879133224487 58.067016601563 125 125 125
24.140970230103 16.274108886719 62.640014648438 74 74 74
24.128192901611 16.024436950684 62.520996093750 15 15 15
24.177835464478 15.771569252014 61.219024658203 11 11 11
24.233867645264 15.643538475037 61.231018066406 47 47 47
24.227479934692 15.518700599670 61.233001708984 57 57 57
24.214704513550 15.269028663635 61.235015869141 79 79 79
24.152286529541 15.272221565247 62.286010742188 23 23 23
24.208316802979 15.144190788269 61.239013671875 90 90 90
24.264347076416 15.016160964966 61.242004394531 89 89 89
24.257961273193 14.891324996948 61.243011474609 102 102 102
24.195543289185 14.894518852234 62.164001464844 3 3 3
24.251573562622 14.766488075256 61.246002197266 109 109 109
24.238798141479 14.516814231873 61.245025634766 108 108 108
24.294828414917 14.388783454895 61.246002197266 112 112 112
24.288440704346 14.263947486877 61.248016357422 118 118 118
24.282052993774 14.139109611511 61.252014160156 112 112 112
24.219635009766 14.142304420471 61.914001464844 22 22 22
24.275667190552 14.014273643494 61.257019042969 104 104 104
24.269277572632 13.889436721802 61.261016845703 100 100 100
24.256504058838 13.639762878418 61.266998291016 99 99 99
24.256504058838 13.639762878418 61.791015625000 14 14 14
24.318923950195 13.636569023132 61.013000488281 88 88 88
24.318923950195 13.636569023132 61.147003173828 125 125 125
24.250114440918 13.514926910400 61.264007568359 103 103 103
24.243728637695 13.390089988708 61.266021728516 83 83 83
24.237342834473 13.265253067017 61.268005371094 84 84 84
24.286987304688 13.012387275696 61.266021728516 85 85 85
24.286987304688 13.012387275696 61.266021728516 87 87 87
24.280599594116 12.887549400330 61.533020019531 1 1 1
24.274209976196 12.762712478638 61.268005371094 80 80 80
24.330242156982 12.634682655334 61.268005371094 76 76 76
24.323852539063 12.509845733643 61.020996093750 60 60 60
24.323852539063 12.509845733643 61.156005859375 75 75 75
24.323852539063 12.509845733643 61.270019531250 69 69 69
24.323852539063 12.509845733643 61.407012939453 10 10 10
24.317468643188 12.385008811951 61.275024414063 55 55 55
24.311080932617 12.260171890259 61.282012939453 76 76 76
24.367109298706 12.132142066956 61.035003662109 195 195 195
24.367109298706 12.132142066956 61.167999267578 154 154 154
24.298305511475 12.010498046875 61.283020019531 38 38 38
24.360723495483 12.007305145264 61.040008544922 166 166 166
24.360723495483 12.007305145264 61.171020507813 116 116 116
24.291917800903 11.885662078857 61.282012939453 29 29 29
24.410366058350 11.754438400269 61.045013427734 175 175 175
24.410366058350 11.754438400269 61.171997070313 146 146 146
24.285528182983 11.760825157166 61.287017822266 23 23 23
24.341562271118 11.632795333862 61.040008544922 139 139 139
24.403980255127 11.629600524902 61.175018310547 169 169 169
24.279144287109 11.635989189148 61.289001464844 33 33 33
24.397590637207 11.504764556885 61.042999267578 171 171 171
24.397590637207 11.504764556885 61.173004150391 147 147 147
24.272756576538 11.511151313782 61.291015625000 22 22 22
24.391202926636 11.379926681519 61.042999267578 161 161 161
24.391202926636 11.379926681519 61.175018310547 155 155 155
24.328784942627 11.383121490479 61.292022705078 34 34 34
24.384817123413 11.255091667175 61.045013427734 176 176 176
24.384817123413 11.255091667175 61.175018310547 148 148 148
24.316009521484 11.133448600769 61.289001464844 57 57 57
24.372039794922 11.005417823792 61.046997070313 163 163 163
24.372039794922 11.005417823792 61.178009033203 148 148 148
24.372039794922 11.005417823792 61.292022705078 26 26 26
24.365655899048 10.880580902100 61.049011230469 137 137 137
24.365655899048 10.880580902100 61.177001953125 144 144 144
24.365655899048 10.880580902100 61.294006347656 24 24 24
24.359266281128 10.755744934082 61.052001953125 185 185 185
24.359266281128 10.755744934082 61.180023193359 141 141 141
24.359266281128 10.755744934082 61.296020507813 22 22 22
24.415298461914 10.627714157104 60.919006347656 4 4 4
24.415298461914 10.627714157104 61.053009033203 161 161 161
24.415298461914 10.627714157104 61.184997558594 136 136 136
24.352878570557 10.630907058716 61.303009033203 17 17 17
24.408908843994 10.502878189087 60.926025390625 26 26 26
24.408908843994 10.502878189087 61.058013916016 153 153 153
24.408908843994 10.502878189087 61.188018798828 123 123 123
24.402521133423 10.378041267395 60.927001953125 22 22 22
24.402521133423 10.378041267395 61.059997558594 157 157 157
24.402521133423 10.378041267395 61.191009521484 127 127 127
24.333715438843 10.256397247314 61.309997558594 13 13 13
24.389745712280 10.128367424011 60.929016113281 29 29 29
24.389745712280 10.128367424011 61.063018798828 164 164 164
24.389745712280 10.128367424011 61.190002441406 114 114 114
24.327327728271 10.131560325623 61.314025878906 9 9 9
24.452163696289 10.125173568726 60.934020996094 14 14 14
24.452163696289 10.125173568726 61.065002441406 215 215 215
24.383359909058 10.003531455994 61.193023681641 123 123 123
24.383359909058 10.003531455994 61.317016601563 12 12 12
24.376974105835 9.878694534302 61.314025878906 12 12 12
24.301778793335 9.632213592529 61.311004638672 51 51 51
24.420227050781 9.500990867615 61.059020996094 54 54 54
24.420227050781 9.500990867615 61.194000244141 65 65 65
24.420227050781 9.500990867615 61.317016601563 64 64 64
24.351421356201 9.379347801208 61.317016601563 22 22 22
24.407453536987 9.251316070557 61.460021972656 21 21 21
24.381902694702 8.751969337463 61.607025146484 1 1 1
24.412384033203 8.124593734741 61.764007568359 12 12 12
24.455640792847 7.746889114380 61.914001464844 17 17 17
24.436479568481 7.372379302979 62.063018798828 12 12 12
24.473346710205 6.869838714600 62.207000732422 12 12 12
24.447795867920 6.370491981506 61.376007080078 6 6 6
24.454185485840 6.495328903198 62.355010986328 10 10 10
24.503828048706 6.242462158203 62.361022949219 1 1 1
24.484666824341 5.867951393127 62.511016845703 22 22 22
24.471889495850 5.618278503418 61.391998291016 8 8 8
24.465503692627 5.493441581726 62.645996093750 61 61 61
24.459114074707 5.368604660034 61.391998291016 4 4 4
24.459114074707 5.368604660034 62.661010742188 64 64 64
24.452726364136 5.243767738342 61.399017333984 1 1 1
24.383924484253 5.122125625610 57.234008789063 42 42 42
24.383924484253 5.122125625610 57.365020751953 169 169 169
24.446342468262 5.118931770325 57.484008789063 31 31 31
24.508760452271 5.115736961365 57.735015869141 8 8 8
24.508760452271 5.115736961365 57.865997314453 8 8 8
24.508760452271 5.115736961365 57.996002197266 5 5 5
24.508760452271 5.115736961365 58.125000000000 3 3 3
24.508760452271 5.115736961365 58.253997802734 11 11 11
24.508760452271 5.115736961365 58.382995605469 20 20 20
24.508760452271 5.115736961365 58.513000488281 26 26 26
24.508760452271 5.115736961365 58.641998291016 28 28 28
24.508760452271 5.115736961365 58.770996093750 52 52 52
24.508760452271 5.115736961365 58.899017333984 31 31 31
24.508760452271 5.115736961365 59.028015136719 40 40 40
24.508760452271 5.115736961365 59.158020019531 29 29 29
24.508760452271 5.115736961365 59.287017822266 32 32 32
24.508760452271 5.115736961365 59.416015625000 46 46 46
24.508760452271 5.115736961365 59.546020507813 51 51 51
24.508760452271 5.115736961365 59.675018310547 52 52 52
24.508760452271 5.115736961365 59.805023193359 59 59 59
24.508760452271 5.115736961365 59.933013916016 66 66 66
24.508760452271 5.115736961365 60.064025878906 35 35 35
24.508760452271 5.115736961365 60.196014404297 49 49 49
24.508760452271 5.115736961365 60.326019287109 46 46 46
24.508760452271 5.115736961365 60.459014892578 40 40 40
24.446342468262 5.118931770325 60.587005615234 44 44 44
24.446342468262 5.118931770325 60.719024658203 38 38 38
24.508760452271 5.115736961365 60.855010986328 50 50 50
24.446342468262 5.118931770325 60.985015869141 39 39 39
24.446342468262 5.118931770325 61.117004394531 50 50 50
24.446342468262 5.118931770325 61.253997802734 64 64 64
24.446342468262 5.118931770325 61.386016845703 78 78 78
24.446342468262 5.118931770325 61.525024414063 44 44 44
24.508760452271 5.115736961365 61.662017822266 43 43 43
24.446342468262 5.118931770325 61.798004150391 43 43 43
24.508760452271 5.115736961365 61.938018798828 48 48 48
24.439952850342 4.994094848633 62.075012207031 50 50 50
24.508760452271 5.115736961365 62.218017578125 58 58 58
24.439952850342 4.994094848633 62.357025146484 56 56 56
24.439952850342 4.994094848633 62.500000000000 52 52 52
24.439952850342 4.994094848633 62.645019531250 60 60 60
24.439952850342 4.994094848633 62.789001464844 87 87 87
24.633596420288 5.109350204468 56.662017822266 68 68 68
24.571178436279 5.112544059753 56.800018310547 72 72 72
24.571178436279 5.112544059753 56.933013916016 63 63 63
24.633596420288 5.109350204468 57.064025878906 73 73 73
24.371147155762 4.872451782227 57.231018066406 130 130 130
24.377534866333 4.997288703918 57.365997314453 220 220 220
24.439952850342 4.994094848633 57.485015869141 151 151 151
24.633596420288 5.109350204468 57.593017578125 91 91 91
24.633596420288 5.109350204468 57.725006103516 59 59 59
24.633596420288 5.109350204468 57.856018066406 62 62 62
24.633596420288 5.109350204468 57.988006591797 67 67 67
24.633596420288 5.109350204468 58.119018554688 118 118 118
24.633596420288 5.109350204468 58.250000000000 53 53 53
24.633596420288 5.109350204468 58.381011962891 58 58 58
24.564790725708 4.987707138062 58.512023925781 104 104 104
24.502370834351 4.990900993347 58.641998291016 129 129 129
24.571178436279 5.112544059753 58.772003173828 132 132 132
24.627210617065 4.984514236450 58.903015136719 86 86 86
24.627210617065 4.984514236450 59.033996582031 45 45 45
24.627210617065 4.984514236450 59.164001464844 46 46 46
24.627210617065 4.984514236450 59.295013427734 47 47 47
24.627210617065 4.984514236450 59.425018310547 40 40 40
24.627210617065 4.984514236450 59.557006835938 35 35 35
24.564790725708 4.987707138062 59.686004638672 23 23 23
24.627210617065 4.984514236450 59.821014404297 21 21 21
24.502370834351 4.990900993347 59.936004638672 132 132 132
24.627210617065 4.984514236450 60.081024169922 19 19 19
24.627210617065 4.984514236450 60.216003417969 14 14 14
24.627210617065 4.984514236450 60.348999023438 14 14 14
24.564790725708 4.987707138062 60.736999511719 14 14 14
24.502370834351 4.990900993347 60.861022949219 32 32 32
24.502370834351 4.990900993347 60.990997314453 45 45 45
24.502370834351 4.990900993347 61.126007080078 75 75 75
24.502370834351 4.990900993347 61.259002685547 127 127 127
24.439952850342 4.994094848633 61.391998291016 75 75 75
24.439952850342 4.994094848633 61.528015136719 81 81 81
24.502370834351 4.990900993347 61.667999267578 85 85 85
24.502370834351 4.990900993347 61.804016113281 98 98 98
24.439952850342 4.994094848633 61.941009521484 103 103 103
24.502370834351 4.990900993347 62.083007812500 102 102 102
24.502370834351 4.990900993347 62.223999023438 119 119 119
24.502370834351 4.990900993347 62.367004394531 121 121 121
24.502370834351 4.990900993347 62.507995605469 99 99 99
24.433565139771 4.869257926941 62.651000976563 109 109 109
24.502370834351 4.990900993347 62.798004150391 107 107 107
24.495985031128 4.866064071655 56.684020996094 41 41 41
24.495985031128 4.866064071655 56.816009521484 62 62 62
24.495985031128 4.866064071655 56.947998046875 51 51 51
24.495985031128 4.866064071655 57.082000732422 64 64 64
24.495985031128 4.866064071655 57.214996337891 76 76 76
24.495985031128 4.866064071655 57.346008300781 137 137 137
24.495985031128 4.866064071655 57.476013183594 120 120 120
24.495985031128 4.866064071655 57.606018066406 91 91 91
24.495985031128 4.866064071655 57.736999511719 92 92 92
24.495985031128 4.866064071655 57.865997314453 98 98 98
24.495985031128 4.866064071655 57.997009277344 107 107 107
24.558404922485 4.862870216370 58.126007080078 118 118 118
24.495985031128 4.866064071655 58.256011962891 121 121 121
24.558404922485 4.862870216370 58.384002685547 116 116 116
24.495985031128 4.866064071655 58.514007568359 116 116 116
24.558404922485 4.862870216370 58.643005371094 129 129 129
24.558404922485 4.862870216370 58.772003173828 119 119 119
24.558404922485 4.862870216370 58.902008056641 119 119 119
24.558404922485 4.862870216370 59.031005859375 111 111 111
24.558404922485 4.862870216370 59.161010742188 112 112 112
24.558404922485 4.862870216370 59.290008544922 107 107 107
24.558404922485 4.862870216370 59.420013427734 110 110 110
24.558404922485 4.862870216370 59.550018310547 102 102 102
24.558404922485 4.862870216370 59.682006835938 86 86 86
24.558404922485 4.862870216370 59.812011718750 82 82 82
24.558404922485 4.862870216370 59.943023681641 74 74 74
24.558404922485 4.862870216370 60.075012207031 70 70 70
24.558404922485 4.862870216370 60.208007812500 67 67 67
24.558404922485 4.862870216370 60.342010498047 62 62 62
24.558404922485 4.862870216370 60.475006103516 53 53 53
24.558404922485 4.862870216370 60.610015869141 45 45 45
24.558404922485 4.862870216370 60.745025634766 30 30 30
24.558404922485 4.862870216370 60.880004882813 8 8 8
24.614433288574 4.734840393066 56.662017822266 18 18 18
24.552015304565 4.738034248352 58.120025634766 31 31 31
24.614433288574 4.734840393066 58.512023925781 46 46 46
24.628997802734 17.250450134277 56.877014160156 13 13 13
24.635383605957 17.375286102295 56.747009277344 28 28 28
24.635383605957 17.375286102295 56.615997314453 49 49 49
24.566579818726 17.253641128540 56.483001708984 59 59 59
24.504161834717 17.256834030151 58.571014404297 10 10 10
24.504161834717 17.256834030151 58.444000244141 37 37 37
24.504161834717 17.256834030151 58.317016601563 49 49 49
24.504161834717 17.256834030151 58.190002441406 55 55 55
24.504161834717 17.256834030151 58.062011718750 89 89 89
24.504161834717 17.256834030151 57.936004638672 83 83 83
24.504161834717 17.256834030151 57.809997558594 98 98 98
24.504161834717 17.256834030151 57.680999755859 103 103 103
24.504161834717 17.256834030151 57.552001953125 103 103 103
24.504161834717 17.256834030151 57.424011230469 98 98 98
24.504161834717 17.256834030151 57.295013427734 85 85 85
24.504161834717 17.256834030151 57.166015625000 80 80 80
24.504161834717 17.256834030151 57.036010742188 71 71 71
24.504161834717 17.256834030151 56.902008056641 54 54 54
24.504161834717 17.256834030151 56.770019531250 4 4 4
24.560190200806 17.128805160522 56.497009277344 110 110 110
24.372936248779 17.138385772705 60.210998535156 25 25 25
24.372936248779 17.138385772705 60.081024169922 46 46 46
24.310516357422 17.141578674316 59.953002929688 56 56 56
24.310516357422 17.141578674316 59.826995849609 72 72 72
24.310516357422 17.141578674316 59.699005126953 77 77 77
24.310516357422 17.141578674316 59.574005126953 91 91 91
24.310516357422 17.141578674316 59.449005126953 101 101 101
24.310516357422 17.141578674316 59.322998046875 92 92 92
24.310516357422 17.141578674316 59.197998046875 98 98 98
24.310516357422 17.141578674316 59.072998046875 101 101 101
24.372936248779 17.138385772705 58.947998046875 83 83 83
24.372936248779 17.138385772705 58.822998046875 112 112 112
24.372936248779 17.138385772705 58.697998046875 86 86 86
24.372936248779 17.138385772705 58.572021484375 54 54 54
24.372936248779 17.138385772705 58.447021484375 16 16 16
24.553802490234 17.003969192505 58.059997558594 113 113 113
24.553802490234 17.003969192505 57.675018310547 55 55 55
24.435354232788 17.135192871094 57.555023193359 107 107 107
24.616222381592 17.000776290894 57.011016845703 22 22 22
24.616222381592 17.000776290894 56.878997802734 49 49 49
24.616222381592 17.000776290894 56.746002197266 62 62 62
24.616222381592 17.000776290894 56.610015869141 62 62 62
24.553802490234 17.003969192505 56.496002197266 106 106 106
24.248098373413 17.144771575928 61.869018554688 20 20 20
24.248098373413 17.144771575928 61.738006591797 48 48 48
24.248098373413 17.144771575928 61.601013183594 53 53 53
24.248098373413 17.144771575928 61.466003417969 69 69 69
24.248098373413 17.144771575928 61.341003417969 75 75 75
24.248098373413 17.144771575928 61.206024169922 96 96 96
24.248098373413 17.144771575928 61.076019287109 105 105 105
24.248098373413 17.144771575928 60.947998046875 105 105 105
24.248098373413 17.144771575928 60.822998046875 94 94 94
24.248098373413 17.144771575928 60.692016601563 90 90 90
24.248098373413 17.144771575928 60.565002441406 86 86 86
24.248098373413 17.144771575928 60.441009521484 77 77 77
24.310516357422 17.141578674316 60.318023681641 69 69 69
24.248098373413 17.144771575928 60.193023681641 44 44 44
24.248098373413 17.144771575928 60.069000244141 109 109 109
24.310516357422 17.141578674316 59.946014404297 109 109 109
24.428964614868 17.010356903076 59.709014892578 10 10 10
24.428964614868 17.010356903076 59.582000732422 54 54 54
24.428964614868 17.010356903076 59.455017089844 65 65 65
24.428964614868 17.010356903076 59.331024169922 66 66 66
24.428964614868 17.010356903076 59.204010009766 77 77 77
24.428964614868 17.010356903076 59.076995849609 71 71 71
24.428964614868 17.010356903076 58.951019287109 79 79 79
24.366546630859 17.013547897339 58.824005126953 120 120 120
24.428964614868 17.010356903076 58.699005126953 108 108 108
24.428964614868 17.010356903076 58.572021484375 111 111 111
24.428964614868 17.010356903076 58.446014404297 101 101 101
24.428964614868 17.010356903076 58.319000244141 104 104 104
24.428964614868 17.010356903076 58.192016601563 98 98 98
24.428964614868 17.010356903076 58.066009521484 108 108 108
24.491384506226 17.007164001465 57.938018798828 112 112 112
24.491384506226 17.007164001465 57.811004638672 115 115 115
24.491384506226 17.007164001465 57.683013916016 109 109 109
24.491384506226 17.007164001465 57.554016113281 95 95 95
24.428964614868 17.010356903076 57.427001953125 89 89 89
24.491384506226 17.007164001465 57.296020507813 78 78 78
24.484998703003 16.882326126099 57.163024902344 69 69 69
24.484998703003 16.882326126099 57.036010742188 60 60 60
24.484998703003 16.882326126099 56.901000976563 45 45 45
24.060842514038 17.154354095459 62.907012939453 92 92 92
24.060842514038 17.154354095459 62.766021728516 88 88 88
24.123260498047 17.151161193848 62.634002685547 93 93 93
24.060842514038 17.154354095459 62.494018554688 100 100 100
24.123260498047 17.151161193848 62.363006591797 112 112 112
24.123260498047 17.151161193848 62.231018066406 108 108 108
24.185680389404 17.147968292236 62.108001708984 99 99 99
24.179294586182 17.023132324219 61.980010986328 106 106 106
24.179294586182 17.023132324219 61.856018066406 94 94 94
24.241712570190 17.019937515259 61.736022949219 75 75 75
24.241712570190 17.019937515259 61.609008789063 94 94 94
24.304128646851 17.016744613647 61.479003906250 103 103 103
24.179294586182 17.023132324219 61.324005126953 124 124 124
24.241712570190 17.019937515259 61.210021972656 109 109 109
24.241712570190 17.019937515259 61.083007812500 115 115 115
24.241712570190 17.019937515259 60.954010009766 120 120 120
24.304128646851 17.016744613647 60.826995849609 118 118 118
24.304128646851 17.016744613647 60.700012207031 114 114 114
24.304128646851 17.016744613647 60.572998046875 106 106 106
24.304128646851 17.016744613647 60.444000244141 104 104 104
24.304128646851 17.016744613647 60.318023681641 102 102 102
24.297740936279 16.891908645630 60.194000244141 98 98 98
24.297740936279 16.891908645630 60.067016601563 90 90 90
24.297740936279 16.891908645630 59.943023681641 85 85 85
24.297740936279 16.891908645630 59.819000244141 68 68 68
24.297740936279 16.891908645630 59.696014404297 64 64 64
24.297740936279 16.891908645630 59.570007324219 45 45 45
24.054454803467 17.029518127441 62.895996093750 91 91 91
24.116872787476 17.026325225830 62.757995605469 83 83 83
24.116872787476 17.026325225830 62.624023437500 77 77 77
24.110486984253 16.901487350464 62.492004394531 71 71 71
24.110486984253 16.901487350464 62.358001708984 40 40 40
24.110486984253 16.901487350464 62.223999023438 10 10 10
24.172904968262 16.898296356201 61.307006835938 3 3 3
24.166517257690 16.773454666138 62.782012939453 65 65 65
24.153743743896 16.523782730103 62.652008056641 17 17 17
24.140970230103 16.274108886719 62.644012451172 44 44 44
24.259416580200 16.142885208130 61.210998535156 13 13 13
24.128192901611 16.024436950684 62.524017333984 9 9 9
24.246641159058 15.893210411072 61.216003417969 18 18 18
24.240253448486 15.768374443054 61.223022460938 28 28 28
24.233867645264 15.643538475037 62.408996582031 13 13 13
24.233867645264 15.643538475037 61.223999023438 39 39 39
24.221092224121 15.393864631653 61.222015380859 53 53 53
24.214704513550 15.269028663635 61.220001220703 55 55 55
24.208316802979 15.144190788269 61.226013183594 71 71 71
24.264347076416 15.016160964966 61.225006103516 75 75 75
24.195543289185 14.894518852234 62.141021728516 13 13 13
24.257961273193 14.891324996948 61.227020263672 80 80 80
24.313991546631 14.763294219971 61.227996826172 91 91 91
24.301216125488 14.513620376587 61.233001708984 99 99 99
24.294828414917 14.388783454895 61.229003906250 107 107 107
24.288440704346 14.263947486877 61.234008789063 116 116 116
24.282052993774 14.139109611511 61.894012451172 19 19 19
24.275667190552 14.014273643494 61.235015869141 100 100 100
24.269277572632 13.889436721802 61.236022949219 90 90 90
24.325311660767 13.761405944824 61.240997314453 84 84 84
24.256504058838 13.639762878418 61.769012451172 13 13 13
24.256504058838 13.639762878418 61.240997314453 94 94 94
24.381341934204 13.633376121521 61.125000000000 84 84 84
24.318923950195 13.636569023132 60.989013671875 66 66 66
24.312534332275 13.511733055115 61.240997314453 95 95 95
24.306148529053 13.386896133423 61.645996093750 15 15 15
24.306148529053 13.386896133423 61.240997314453 84 84 84
24.293373107910 13.137222290039 61.246002197266 83 83 83
24.286987304688 13.012387275696 61.243011474609 88 88 88
24.280599594116 12.887549400330 61.511016845703 10 10 10
24.280599594116 12.887549400330 61.246002197266 84 84 84
24.336629867554 12.759518623352 61.248016357422 83 83 83
24.323852539063 12.509845733643 61.249023437500 96 96 96
24.317468643188 12.385008811951 61.380004882813 19 19 19
24.317468643188 12.385008811951 61.249023437500 73 73 73
24.311080932617 12.260171890259 61.253997802734 89 89 89
24.367109298706 12.132142066956 61.141021728516 19 19 19
24.367109298706 12.132142066956 61.006011962891 17 17 17
24.298305511475 12.010498046875 61.253021240234 71 71 71
24.360723495483 12.007305145264 61.139007568359 173 173 173
24.360723495483 12.007305145264 61.006011962891 174 174 174
24.291917800903 11.885662078857 61.255004882813 71 71 71
24.416751861572 11.879274368286 61.143005371094 169 169 169
24.416751861572 11.879274368286 61.011016845703 167 167 167
24.347946166992 11.757632255554 61.260009765625 63 63 63
24.410366058350 11.754438400269 61.141998291016 173 173 173
24.410366058350 11.754438400269 61.010009765625 166 166 166
24.341562271118 11.632795333862 61.259002685547 59 59 59
24.397590637207 11.504764556885 61.145019531250 176 176 176
24.397590637207 11.504764556885 61.011016845703 144 144 144
24.335172653198 11.507958412170 61.260009765625 57 57 57
24.391202926636 11.379926681519 61.151000976563 170 170 170
24.391202926636 11.379926681519 61.016021728516 161 161 161
24.322399139404 11.258284568787 61.266998291016 65 65 65
24.384817123413 11.255091667175 61.149017333984 156 156 156
24.447233200073 11.251897811890 61.020019531250 180 180 180
24.378427505493 11.130253791809 61.266021728516 59 59 59
24.372039794922 11.005417823792 61.152008056641 165 165 165
24.372039794922 11.005417823792 61.018005371094 139 139 139
24.303237915039 10.883775711060 61.266998291016 58 58 58
24.428071975708 10.877388000488 61.157012939453 172 172 172
24.428071975708 10.877388000488 61.020019531250 120 120 120
24.365655899048 10.880580902100 61.270996093750 61 61 61
24.421684265137 10.752551078796 61.157012939453 165 165 165
24.421684265137 10.752551078796 61.024017333984 186 186 186
24.352878570557 10.630907058716 61.270996093750 68 68 68
24.477716445923 10.624521255493 61.158020019531 169 169 169
24.477716445923 10.624521255493 61.025024414063 159 159 159
24.346490859985 10.506070137024 61.273010253906 56 56 56
24.471326828003 10.499683380127 61.158020019531 167 167 167
24.471326828003 10.499683380127 61.028015136719 178 178 178
24.340103149414 10.381234169006 61.276000976563 64 64 64
24.464939117432 10.374847412109 61.163024902344 170 170 170
24.464939117432 10.374847412109 61.029022216797 157 157 157
24.396135330200 10.253205299377 61.279022216797 60 60 60
24.389745712280 10.128367424011 61.165008544922 168 168 168
24.389745712280 10.128367424011 61.031005859375 140 140 140
24.383359909058 10.003531455994 61.285003662109 59 59 59
24.445777893066 10.000337600708 61.167999267578 158 158 158
24.445777893066 10.000337600708 61.032012939453 193 193 193
24.376974105835 9.878694534302 61.285003662109 56 56 56
24.370584487915 9.753857612610 61.290008544922 63 63 63
24.357810974121 9.504184722900 61.291015625000 55 55 55
24.420227050781 9.500990867615 61.178009033203 32 32 32
24.420227050781 9.500990867615 61.040008544922 47 47 47
24.420227050781 9.500990867615 61.296997070313 44 44 44
24.407453536987 9.251316070557 61.440002441406 9 9 9
24.407453536987 9.251316070557 61.294006347656 42 42 42
24.401065826416 9.126480102539 61.299011230469 21 21 21
24.388290405273 8.876807212830 61.305023193359 44 44 44
24.444322586060 8.748776435852 61.585021972656 13 13 13
24.444322586060 8.748776435852 61.309020996094 26 26 26
24.375514984131 8.627134323120 61.309997558594 19 19 19
24.431547164917 8.499102592468 61.318023681641 15 15 15
24.425161361694 8.374266624451 61.731018066406 6 6 6
24.474803924561 8.121399879456 61.322998046875 10 10 10
24.524446487427 7.868533134460 61.895996093750 4 4 4
24.529378890991 6.741808891296 62.203002929688 10 10 10
24.510215759277 6.367298126221 62.356018066406 8 8 8
24.547084808350 5.864757537842 62.533996582031 26 26 26
24.540695190430 5.739920616150 62.526000976563 16 16 16
24.521532058716 5.365410804749 62.676025390625 48 48 48
24.820852279663 5.099769592285 58.102020263672 12 12 12
24.452726364136 5.243767738342 62.674011230469 3 3 3
24.633596420288 5.109350204468 59.296020507813 9 9 9
24.633596420288 5.109350204468 59.166015625000 18 18 18
24.633596420288 5.109350204468 59.033996582031 24 24 24
24.633596420288 5.109350204468 58.903015136719 69 69 69
24.633596420288 5.109350204468 58.772003173828 104 104 104
24.633596420288 5.109350204468 58.641021728516 116 116 116
24.633596420288 5.109350204468 58.510009765625 95 95 95
24.633596420288 5.109350204468 58.378997802734 46 46 46
24.571178436279 5.112544059753 58.249023437500 50 50 50
24.633596420288 5.109350204468 58.115997314453 96 96 96
24.571178436279 5.112544059753 57.986022949219 53 53 53
24.571178436279 5.112544059753 57.856018066406 59 59 59
24.571178436279 5.112544059753 57.725006103516 71 71 71
24.571178436279 5.112544059753 57.593017578125 95 95 95
24.571178436279 5.112544059753 57.460998535156 96 96 96
24.571178436279 5.112544059753 57.331024169922 100 100 100
24.571178436279 5.112544059753 57.197998046875 99 99 99
24.571178436279 5.112544059753 57.064025878906 99 99 99
24.571178436279 5.112544059753 56.930999755859 97 97 97
24.571178436279 5.112544059753 56.796020507813 94 94 94
24.571178436279 5.112544059753 56.665008544922 98 98 98
24.571178436279 5.112544059753 56.531005859375 94 94 94
24.571178436279 5.112544059753 56.395019531250 99 99 99
24.571178436279 5.112544059753 56.259002685547 97 97 97
24.571178436279 5.112544059753 62.847015380859 26 26 26
24.571178436279 5.112544059753 62.688018798828 56 56 56
24.571178436279 5.112544059753 62.544006347656 61 61 61
24.571178436279 5.112544059753 62.402008056641 63 63 63
24.571178436279 5.112544059753 62.256011962891 74 74 74
24.571178436279 5.112544059753 62.118011474609 81 81 81
24.571178436279 5.112544059753 61.975006103516 82 82 82
24.571178436279 5.112544059753 61.834014892578 87 87 87
24.571178436279 5.112544059753 61.693023681641 85 85 85
24.571178436279 5.112544059753 61.555023193359 90 90 90
24.508760452271 5.115736961365 61.413024902344 75 75 75
24.508760452271 5.115736961365 61.279022216797 106 106 106
24.508760452271 5.115736961365 61.141998291016 103 103 103
24.508760452271 5.115736961365 61.006011962891 97 97 97
24.508760452271 5.115736961365 60.872009277344 91 91 91
24.508760452271 5.115736961365 60.739013671875 86 86 86
24.508760452271 5.115736961365 60.605010986328 85 85 85
24.508760452271 5.115736961365 60.471008300781 77 77 77
24.508760452271 5.115736961365 60.338012695313 79 79 79
24.571178436279 5.112544059753 60.209014892578 72 72 72
24.571178436279 5.112544059753 60.076995849609 51 51 51
24.571178436279 5.112544059753 59.945007324219 125 125 125
24.571178436279 5.112544059753 59.814025878906 87 87 87
24.571178436279 5.112544059753 59.684997558594 77 77 77
24.571178436279 5.112544059753 59.554016113281 67 67 67
24.571178436279 5.112544059753 59.424011230469 72 72 72
24.571178436279 5.112544059753 59.294006347656 54 54 54
24.571178436279 5.112544059753 59.163024902344 37 37 37
24.571178436279 5.112544059753 59.033996582031 20 20 20
24.627210617065 4.984514236450 58.906005859375 32 32 32
24.627210617065 4.984514236450 58.776000976563 118 118 118
24.571178436279 5.112544059753 58.645019531250 127 127 127
24.627210617065 4.984514236450 58.513000488281 104 104 104
24.627210617065 4.984514236450 58.119018554688 92 92 92
24.502370834351 4.990900993347 57.473999023438 128 128 128
24.446342468262 5.118931770325 57.355010986328 192 192 192
24.446342468262 5.118931770325 57.227020263672 102 102 102
24.564790725708 4.987707138062 56.395996093750 105 105 105
24.564790725708 4.987707138062 56.262023925781 77 77 77
24.502370834351 4.990900993347 62.821014404297 119 119 119
24.502370834351 4.990900993347 62.684997558594 104 104 104
24.558404922485 4.862870216370 62.545013427734 95 95 95
24.502370834351 4.990900993347 62.398010253906 107 107 107
24.502370834351 4.990900993347 62.255004882813 103 103 103
24.558404922485 4.862870216370 62.117004394531 105 105 105
24.558404922485 4.862870216370 61.979003906250 109 109 109
24.558404922485 4.862870216370 61.835998535156 108 108 108
24.558404922485 4.862870216370 61.697021484375 105 105 105
24.558404922485 4.862870216370 61.561004638672 103 103 103
24.558404922485 4.862870216370 61.423004150391 107 107 107
24.502370834351 4.990900993347 61.276000976563 119 119 119
24.558404922485 4.862870216370 61.148010253906 98 98 98
24.558404922485 4.862870216370 61.015014648438 104 104 104
24.558404922485 4.862870216370 60.880004882813 94 94 94
24.558404922485 4.862870216370 60.747009277344 96 96 96
24.558404922485 4.862870216370 60.613006591797 99 99 99
24.558404922485 4.862870216370 60.482025146484 107 107 107
24.558404922485 4.862870216370 60.348999023438 96 96 96
24.558404922485 4.862870216370 60.217010498047 103 103 103
24.558404922485 4.862870216370 60.085021972656 112 112 112
24.558404922485 4.862870216370 59.947998046875 127 127 127
24.558404922485 4.862870216370 59.821014404297 111 111 111
24.558404922485 4.862870216370 59.691009521484 110 110 110
24.558404922485 4.862870216370 59.561004638672 111 111 111
24.558404922485 4.862870216370 59.430023193359 109 109 109
24.558404922485 4.862870216370 59.300018310547 106 106 106
24.558404922485 4.862870216370 59.170013427734 106 106 106
24.558404922485 4.862870216370 59.039001464844 105 105 105
24.558404922485 4.862870216370 58.908996582031 109 109 109
24.558404922485 4.862870216370 58.779022216797 113 113 113
24.558404922485 4.862870216370 58.649017333984 127 127 127
24.558404922485 4.862870216370 58.518005371094 118 118 118
24.558404922485 4.862870216370 58.388000488281 120 120 120
24.558404922485 4.862870216370 58.257019042969 113 113 113
24.558404922485 4.862870216370 58.126007080078 103 103 103
24.558404922485 4.862870216370 57.996002197266 110 110 110
24.558404922485 4.862870216370 57.864013671875 119 119 119
24.558404922485 4.862870216370 57.733001708984 117 117 117
24.558404922485 4.862870216370 57.601013183594 118 118 118
24.495985031128 4.866064071655 57.481018066406 123 123 123
24.371147155762 4.872451782227 57.365997314453 217 217 217
24.433565139771 4.869257926941 57.232025146484 163 163 163
24.558404922485 4.862870216370 57.071014404297 111 111 111
24.558404922485 4.862870216370 56.934997558594 106 106 106
24.558404922485 4.862870216370 56.805023193359 111 111 111
24.558404922485 4.862870216370 56.669006347656 107 107 107
24.558404922485 4.862870216370 56.533020019531 111 111 111
24.558404922485 4.862870216370 56.402008056641 115 115 115
24.558404922485 4.862870216370 56.268005371094 111 111 111
24.504161834717 17.256834030151 58.059997558594 168 168 168
24.441740036011 17.260030746460 57.845001220703 16 16 16
24.441740036011 17.260030746460 57.736022949219 66 66 66
24.441740036011 17.260030746460 57.625000000000 94 94 94
24.441740036011 17.260030746460 57.515014648438 111 111 111
24.441740036011 17.260030746460 57.404022216797 117 117 117
24.504161834717 17.256834030151 57.291015625000 119 119 119
24.504161834717 17.256834030151 57.180023193359 122 122 122
24.504161834717 17.256834030151 57.066009521484 137 137 137
24.504161834717 17.256834030151 56.953002929688 137 137 137
24.504161834717 17.256834030151 56.839996337891 143 143 143
24.504161834717 17.256834030151 56.723999023438 163 163 163
24.504161834717 17.256834030151 56.610015869141 163 163 163
24.504161834717 17.256834030151 56.493011474609 157 157 157
24.060842514038 17.154354095459 62.889007568359 4 4 4
24.060842514038 17.154354095459 62.766021728516 9 9 9
24.060842514038 17.154354095459 62.649017333984 30 30 30
24.060842514038 17.154354095459 62.516021728516 49 49 49
24.123260498047 17.151161193848 62.401000976563 72 72 72
24.060842514038 17.154354095459 62.270019531250 88 88 88
24.123260498047 17.151161193848 62.158996582031 100 100 100
24.123260498047 17.151161193848 62.039001464844 117 117 117
24.123260498047 17.151161193848 61.919006347656 127 127 127
24.185680389404 17.147968292236 61.804016113281 128 128 128
24.185680389404 17.147968292236 61.686004638672 138 138 138
24.185680389404 17.147968292236 61.572021484375 147 147 147
24.185680389404 17.147968292236 61.460021972656 154 154 154
24.185680389404 17.147968292236 61.344024658203 162 162 162
24.185680389404 17.147968292236 61.227020263672 155 155 155
24.185680389404 17.147968292236 61.117004394531 158 158 158
24.185680389404 17.147968292236 61.002014160156 150 150 150
24.185680389404 17.147968292236 60.891998291016 144 144 144
24.185680389404 17.147968292236 60.779022216797 131 131 131
24.248098373413 17.144771575928 60.667022705078 117 117 117
24.248098373413 17.144771575928 60.555999755859 118 118 118
24.248098373413 17.144771575928 60.444000244141 115 115 115
24.310516357422 17.141578674316 60.338012695313 106 106 106
24.310516357422 17.141578674316 60.227996826172 100 100 100
24.310516357422 17.141578674316 60.120025634766 83 83 83
24.310516357422 17.141578674316 60.009002685547 177 177 177
24.310516357422 17.141578674316 59.903015136719 53 53 53
24.372936248779 17.138385772705 58.822021484375 184 184 184
24.372936248779 17.138385772705 58.714019775391 188 188 188
24.491384506226 17.007164001465 58.059020996094 178 178 178
24.435354232788 17.135192871094 57.624023437500 178 178 178
24.435354232788 17.135192871094 57.513000488281 167 167 167
24.553802490234 17.003969192505 56.492004394531 161 161 161
24.054454803467 17.029518127441 62.895019531250 143 143 143
24.116872787476 17.026325225830 62.769012451172 127 127 127
24.116872787476 17.026325225830 62.645996093750 145 145 145
24.116872787476 17.026325225830 62.520019531250 145 145 145
24.116872787476 17.026325225830 62.399017333984 146 146 146
24.116872787476 17.026325225830 62.277008056641 147 147 147
24.179294586182 17.023132324219 62.160003662109 147 147 147
24.179294586182 17.023132324219 62.040008544922 152 152 152
24.179294586182 17.023132324219 61.923004150391 148 148 148
24.179294586182 17.023132324219 61.808013916016 155 155 155
24.179294586182 17.023132324219 61.688018798828 155 155 155
24.179294586182 17.023132324219 61.575012207031 157 157 157
24.179294586182 17.023132324219 61.458007812500 162 162 162
24.179294586182 17.023132324219 61.345001220703 173 173 173
24.179294586182 17.023132324219 61.229003906250 158 158 158
24.241712570190 17.019937515259 61.117004394531 163 163 163
24.241712570190 17.019937515259 61.003021240234 160 160 160
24.241712570190 17.019937515259 60.891998291016 168 168 168
24.241712570190 17.019937515259 60.779022216797 167 167 167
24.241712570190 17.019937515259 60.671020507813 169 169 169
24.241712570190 17.019937515259 60.559997558594 173 173 173
24.304128646851 17.016744613647 60.449005126953 170 170 170
24.304128646851 17.016744613647 60.339019775391 178 178 178
24.297740936279 16.891908645630 60.230010986328 181 181 181
24.304128646851 17.016744613647 60.121002197266 179 179 179
24.304128646851 17.016744613647 60.011016845703 183 183 183
24.304128646851 17.016744613647 59.903015136719 182 182 182
24.304128646851 17.016744613647 59.794006347656 183 183 183
24.304128646851 17.016744613647 59.684997558594 183 183 183
24.304128646851 17.016744613647 59.576995849609 178 178 178
24.304128646851 17.016744613647 59.470001220703 184 184 184
24.304128646851 17.016744613647 59.361022949219 185 185 185
24.304128646851 17.016744613647 59.253997802734 188 188 188
24.366546630859 17.013547897339 59.145019531250 184 184 184
24.366546630859 17.013547897339 59.038024902344 184 184 184
24.366546630859 17.013547897339 58.930023193359 182 182 182
24.366546630859 17.013547897339 58.822021484375 183 183 183
24.366546630859 17.013547897339 58.714019775391 187 187 187
24.366546630859 17.013547897339 58.607025146484 193 193 193
24.366546630859 17.013547897339 58.498016357422 186 186 186
24.366546630859 17.013547897339 58.390014648438 184 184 184
24.428964614868 17.010356903076 58.281005859375 177 177 177
24.428964614868 17.010356903076 58.173004150391 170 170 170
24.422576904297 16.885519027710 58.063018798828 185 185 185
24.428964614868 17.010356903076 57.954010009766 176 176 176
24.428964614868 17.010356903076 57.845001220703 176 176 176
24.428964614868 17.010356903076 57.735015869141 173 173 173
24.491384506226 17.007164001465 57.624023437500 184 184 184
24.428964614868 17.010356903076 57.514007568359 175 175 175
24.491384506226 17.007164001465 57.401000976563 163 163 163
24.491384506226 17.007164001465 57.291015625000 166 166 166
24.491384506226 17.007164001465 57.178009033203 170 170 170
