25.735561370850 25.002456665039 5.856998443604 205 205 205
25.735561370850 25.002456665039 5.812999725342 129 129 129
25.556301116943 12.611828804016 6.534999847412 59 59 59
25.551143646240 13.007080078125 6.590000152588 12 12 12
25.546396255493 12.992194175720 6.526996612549 77 77 77
25.598821640015 12.950874328613 6.465999603271 80 80 80
25.912286758423 12.596708297729 6.529994964600 27 27 27
25.676271438599 12.885175704956 1.720996856689 5 5 5
25.676271438599 12.885175704956 1.650997161865 13 13 13
25.726322174072 12.836413383484 1.573997497559 239 239 239
25.681016921997 12.900061607361 1.518997192383 115 115 115
25.681016921997 12.900061607361 1.449996948242 116 116 116
25.706922531128 13.187005996704 9.480998992920 64 64 64
25.704547882080 13.179563522339 9.399997711182 81 81 81
25.706922531128 13.187005996704 9.309001922607 76 76 76
25.704547882080 13.179563522339 9.229000091553 92 92 92
25.706922531128 13.187005996704 9.139995574951 99 99 99
25.706922531128 13.187005996704 9.056995391846 104 104 104
25.704547882080 13.179563522339 8.976001739502 97 97 97
25.706922531128 13.187005996704 8.892002105713 98 98 98
25.706922531128 13.187005996704 8.805995941162 96 96 96
25.706922531128 13.187005996704 8.723995208740 108 108 108
25.706922531128 13.187005996704 8.645999908447 105 105 105
25.706922531128 13.187005996704 8.562999725342 99 99 99
25.709295272827 13.194449424744 8.478000640869 100 100 100
25.706922531128 13.187005996704 8.399997711182 106 106 106
25.709295272827 13.194449424744 8.318996429443 103 103 103
25.709295272827 13.194449424744 8.239002227783 101 101 101
25.709295272827 13.194449424744 8.158000946045 100 100 100
25.709295272827 13.194449424744 8.078998565674 103 103 103
25.706922531128 13.187005996704 8.005001068115 101 101 101
25.709295272827 13.194449424744 7.923000335693 106 106 106
25.709295272827 13.194449424744 7.846996307373 98 98 98
25.709295272827 13.194449424744 7.768001556396 104 104 104
25.711668014526 13.201892852783 7.688999176025 107 107 107
25.711668014526 13.201892852783 7.612995147705 110 110 110
25.711668014526 13.201892852783 7.535999298096 106 106 106
25.709295272827 13.194449424744 7.464000701904 108 108 108
25.681898117065 13.211386680603 7.381000518799 106 106 106
25.681898117065 13.211386680603 7.305995941162 110 110 110
25.711668014526 13.201892852783 7.233997344971 108 108 108
25.709295272827 13.194449424744 7.161998748779 107 107 107
25.709295272827 13.194449424744 7.087001800537 105 105 105
25.681898117065 13.211386680603 7.007999420166 103 103 103
25.714042663574 13.209336280823 6.936000823975 105 105 105
25.686643600464 13.226272583008 6.857997894287 105 105 105
25.714042663574 13.209336280823 6.788997650146 112 112 112
25.681898117065 13.211386680603 6.715000152588 105 105 105
25.616313934326 13.314301490784 6.605998992920 95 95 95
25.636592864990 13.275034904480 6.545001983643 91 91 91
25.686643600464 13.226272583008 6.491001129150 97 97 97
25.686643600464 13.226272583008 6.423999786377 106 106 106
25.686643600464 13.226272583008 6.353000640869 105 105 105
25.686643600464 13.226272583008 6.282001495361 110 110 110
25.714042663574 13.209336280823 6.212001800537 111 111 111
25.686643600464 13.226272583008 6.137996673584 111 111 111
25.686643600464 13.226272583008 6.069995880127 107 107 107
25.686643600464 13.226272583008 5.995998382568 112 112 112
25.686643600464 13.226272583008 5.927997589111 106 106 106
25.714042663574 13.209336280823 5.859996795654 109 109 109
25.716417312622 13.216778755188 5.789997100830 107 107 107
25.686643600464 13.226272583008 5.717998504639 111 111 111
25.686643600464 13.226272583008 5.648998260498 114 114 114
25.686643600464 13.226272583008 5.578998565674 104 104 104
25.686643600464 13.226272583008 5.508998870850 105 105 105
25.686643600464 13.226272583008 5.441997528076 108 108 108
25.686643600464 13.226272583008 5.371997833252 105 105 105
25.716417312622 13.216778755188 5.304996490479 108 108 108
25.686643600464 13.226272583008 5.233997344971 109 109 109
25.686643600464 13.226272583008 5.165996551514 104 104 104
25.686643600464 13.226272583008 5.097995758057 108 108 108
25.691390991211 13.241159439087 5.028995513916 105 105 105
25.691390991211 13.241159439087 4.959995269775 109 109 109
25.691390991211 13.241159439087 4.893001556396 114 114 114
25.691390991211 13.241159439087 4.825000762939 109 109 109
25.691390991211 13.241159439087 4.756999969482 114 114 114
25.691390991211 13.241159439087 4.689998626709 107 107 107
25.691390991211 13.241159439087 4.486995697021 108 108 108
25.691390991211 13.241159439087 4.420001983643 105 105 105
25.691390991211 13.241159439087 4.354000091553 114 114 114
25.691390991211 13.241159439087 4.219997406006 106 106 106
25.691390991211 13.241159439087 4.152996063232 119 119 119
25.691390991211 13.241159439087 4.087001800537 115 115 115
25.691390991211 13.241159439087 4.020000457764 102 102 102
25.691390991211 13.241159439087 3.952999114990 106 106 106
25.691390991211 13.241159439087 3.885997772217 112 112 112
25.691390991211 13.241159439087 3.819995880127 97 97 97
25.691390991211 13.241159439087 3.553997039795 97 97 97
25.696138381958 13.256045341492 3.487995147705 97 97 97
25.691390991211 13.241159439087 2.958000183105 107 107 107
25.666364669800 13.265540122986 2.891998291016 76 76 76
25.696138381958 13.256045341492 2.824996948242 79 79 79
25.668739318848 13.272983551025 2.759998321533 73 73 73
25.666364669800 13.265540122986 2.692996978760 76 76 76
25.666364669800 13.265540122986 2.626998901367 71 71 71
25.666364669800 13.265540122986 2.560997009277 77 77 77
25.666364669800 13.265540122986 2.493999481201 77 77 77
25.668739318848 13.272983551025 2.427997589111 75 75 75
25.668739318848 13.272983551025 2.361999511719 70 70 70
25.668739318848 13.272983551025 2.294998168945 73 73 73
25.668739318848 13.272983551025 2.229000091553 72 72 72
25.671112060547 13.280426979065 2.162998199463 71 71 71
25.666364669800 13.265540122986 2.093997955322 77 77 77
25.691390991211 13.241159439087 2.025997161865 106 106 106
25.691390991211 13.241159439087 1.958000183105 110 110 110
25.668739318848 13.272983551025 1.893997192383 80 80 80
25.696138381958 13.256045341492 1.826000213623 77 77 77
25.666364669800 13.265540122986 1.758998870850 68 68 68
25.671112060547 13.280426979065 1.694000244141 70 70 70
25.764093399048 13.160573959351 1.602996826172 43 43 43
25.691390991211 13.241159439087 1.551998138428 214 214 214
25.646087646484 13.304807662964 1.496997833252 111 111 111
25.506307601929 13.792189598083 6.553997039795 52 52 52
25.654085159302 13.638461112976 6.545001983643 36 36 36
25.872196197510 13.396704673767 6.568996429443 21 21 21
25.947271347046 13.323562622070 6.524997711182 21 21 21
26.002069473267 13.289687156677 1.394996643066 194 194 194
25.956766128540 13.353335380554 1.336997985840 206 206 206
25.501148223877 14.187440872192 6.537998199463 62 62 62
25.862291336060 13.777069091797 6.562999725342 31 31 31
25.495990753174 14.582692146301 6.522998809814 65 65 65
25.861879348755 14.187207221985 6.548999786377 38 38 38
25.490831375122 14.977942466736 6.507999420166 78 78 78
25.686288833618 14.768010139465 6.531002044678 32 32 32
25.826948165894 14.591952323914 6.531002044678 54 54 54
25.851974487305 14.567571640015 6.052997589111 21 21 21
25.480926513672 15.358307838440 6.493999481201 79 79 79
25.846817016602 14.962822914124 6.522998809814 75 75 75
25.871841430664 14.938442230225 6.048999786377 28 28 28
25.471021652222 15.738672256470 6.484996795654 51 51 51
25.844032287598 15.365516662598 6.508998870850 89 89 89
25.869056701660 15.341136932373 6.243999481201 14 14 14
25.869056701660 15.341136932373 6.176998138428 26 26 26
25.869056701660 15.341136932373 6.107997894287 37 37 37
25.841657638550 15.358073234558 6.037998199463 59 59 59
25.440835952759 16.158302307129 6.524997711182 14 14 14
25.490888595581 16.109542846680 6.480998992920 56 56 56
25.641042709351 15.963257789612 6.476001739502 3 3 3
25.836500167847 15.753325462341 6.499996185303 73 73 73
25.834127426147 15.745882034302 6.029994964600 34 34 34
25.465452194214 16.544059753418 6.513996124268 31 31 31
25.460706710815 16.529174804688 6.453998565674 14 14 14
25.828969955444 16.141132354736 6.491001129150 73 73 73
25.851619720459 16.109308242798 6.232997894287 138 138 138
25.851619720459 16.109308242798 6.167995452881 166 166 166
25.851619720459 16.109308242798 6.098995208740 150 150 150
25.826595306396 16.133689880371 6.027996063232 150 150 150
25.428148269653 16.941362380981 6.493999481201 62 62 62
25.791664123535 16.538434982300 6.473995208740 67 67 67
25.846462249756 16.504558563232 6.223995208740 141 141 141
25.846462249756 16.504558563232 6.158000946045 119 119 119
25.819061279297 16.521497726440 6.088001251221 124 124 124
25.821435928345 16.528942108154 6.020999908447 148 148 148
25.452762603760 17.327117919922 6.480998992920 75 75 75
25.575515747070 17.197772979736 6.479000091553 28 28 28
25.816278457642 16.924190521240 6.468997955322 66 66 66
25.843677520752 16.907253265381 6.215000152588 143 143 143
25.843677520752 16.907253265381 6.148998260498 158 158 158
25.843677520752 16.907253265381 6.085994720459 153 153 153
25.843677520752 16.907253265381 6.019001007080 155 155 155
25.417831420898 17.731864929199 6.465999603271 83 83 83
25.811119079590 17.319442749023 6.457996368408 73 73 73
25.833772659302 17.287618637085 6.215999603271 131 131 131
25.803998947144 17.297111511230 6.145999908447 144 144 144
25.806371688843 17.304553985596 6.079998016357 167 167 167
25.806371688843 17.304553985596 6.017002105713 167 167 167
25.435325622559 18.095291137695 6.459995269775 90 90 90
25.608129501343 17.917182922363 6.485996246338 88 88 88
25.633157730103 17.892803192139 6.436000823975 63 63 63
25.803586959839 17.707250595093 6.451000213623 68 68 68
25.828615188599 17.682868957520 6.204998016357 121 121 121
25.828615188599 17.682868957520 6.143001556396 134 134 134
25.801214218140 17.699808120728 6.074001312256 155 155 155
25.801214218140 17.699808120728 6.009998321533 170 170 170
25.430168151855 18.490543365479 6.444995880127 99 99 99
25.602972030640 18.312435150146 6.465999603271 20 20 20
25.723354339600 18.175643920898 6.466999053955 24 24 24
25.796056747437 18.095058441162 6.438999176025 96 96 96
25.821083068848 18.070678710938 6.389995574951 10 10 10
25.793682098389 18.087614059448 6.315998077393 9 9 9
25.793682098389 18.087614059448 6.254001617432 22 22 22
25.796056747437 18.095058441162 6.187999725342 36 36 36
25.796056747437 18.095058441162 6.124996185303 36 36 36
25.793682098389 18.087614059448 6.065998077393 27 27 27
25.796056747437 18.095058441162 6.000995635986 29 29 29
25.425008773804 18.885795593262 6.429996490479 99 99 99
25.761125564575 18.499803543091 6.427997589111 81 81 81
25.768247604370 18.522132873535 5.982997894287 4 4 4
25.419849395752 19.281045913696 6.417995452881 99 99 99
25.790487289429 18.900447845459 6.418994903564 80 80 80
25.760715484619 18.909942626953 5.927997589111 16 16 16
25.635175704956 19.441984176636 6.638996124268 15 15 15
25.414691925049 19.676296234131 6.408000946045 82 82 82
25.582750320435 19.483301162720 6.441997528076 9 9 9
25.682853698730 19.385778427124 6.428997039795 44 44 44
25.780580520630 19.280811309814 6.416996002197 80 80 80
25.755556106567 19.305192947388 5.924999237061 49 49 49
25.379762649536 20.081041336060 6.439998626709 36 36 36
25.429813385010 20.032279968262 6.404994964600 95 95 95
25.504888534546 19.959136962891 6.382999420166 82 82 82
25.748025894165 19.693000793457 6.451000213623 15 15 15
25.743278503418 19.678113937378 6.396999359131 74 74 74
25.770675659180 19.661176681519 6.167995452881 130 130 130
25.770675659180 19.661176681519 6.108997344971 169 169 169
25.770675659180 19.661176681519 6.050998687744 168 168 168
25.770675659180 19.661176681519 5.989002227783 180 180 180
25.765928268433 19.646289825439 5.934001922607 79 79 79
25.404375076294 20.466796875000 6.416996002197 84 84 84
25.424654006958 20.427532196045 6.378002166748 22 22 22
25.733373641968 20.058477401733 6.441997528076 75 75 75
25.765518188477 20.056427001953 6.384998321533 48 48 48
25.790544509888 20.032047271729 6.154994964600 145 145 145
25.763143539429 20.048982620239 6.091999053955 172 172 172
25.763143539429 20.048982620239 6.034999847412 162 162 162
25.790544509888 20.032047271729 5.978000640869 183 183 183
25.790544509888 20.032047271729 5.921001434326 55 55 55
25.394470214844 20.847164154053 6.390995025635 109 109 109
25.612581253052 20.605405807495 6.403995513916 50 50 50
25.730587005615 20.461172103882 6.413997650146 90 90 90
25.757986068726 20.444236755371 6.368999481201 7 7 7
25.780637741089 20.412410736084 6.143001556396 157 157 157
25.753238677979 20.429347991943 6.080997467041 165 165 165
25.753238677979 20.429347991943 6.022998809814 155 155 155
25.755613327026 20.436790466309 5.964000701904 184 184 184
25.785385131836 20.427297592163 5.909999847412 53 53 53
25.386938095093 21.234972000122 6.432994842529 23 23 23
25.389312744141 21.242414474487 6.373996734619 113 113 113
25.439363479614 21.193651199341 6.341999053955 37 37 37
25.725427627563 20.856422424316 6.395999908447 97 97 97
25.775480270386 20.807662963867 6.368000030518 67 67 67
25.775480270386 20.807662963867 6.309001922607 45 45 45
25.775480270386 20.807662963867 6.250995635986 41 41 41
25.773105621338 20.800218582153 6.189998626709 45 45 45
25.775480270386 20.807662963867 6.131000518799 132 132 132
25.775480270386 20.807662963867 6.078998565674 160 160 160
25.775480270386 20.807662963867 6.018001556396 163 163 163
25.775480270386 20.807662963867 5.963001251221 169 169 169
25.775480270386 20.807662963867 5.908000946045 76 76 76
25.384153366089 21.637664794922 6.410999298096 70 70 70
25.381780624390 21.630222320557 6.359996795654 87 87 87
25.772695541382 21.210355758667 6.460994720459 53 53 53
25.722642898560 21.259119033813 6.381000518799 102 102 102
25.800094604492 21.193418502808 6.123996734619 171 171 171
25.795347213745 21.178531646729 6.073001861572 136 136 136
25.800094604492 21.193418502808 6.010997772217 149 149 149
25.800094604492 21.193418502808 5.954998016357 180 180 180
25.767948150635 21.195468902588 5.897998809814 66 66 66
25.544681549072 21.832477569580 6.716999053955 18 18 18
25.349224090576 22.042409896851 6.372997283936 105 105 105
25.426673889160 21.976711273193 6.355998992920 32 32 32
25.544681549072 21.832477569580 6.376995086670 68 68 68
25.715112686157 21.646924972534 6.413997650146 26 26 26
25.744886398315 21.637430191040 6.364002227783 78 78 78
25.715112686157 21.646924972534 6.132999420166 85 85 85
25.744886398315 21.637430191040 6.079998016357 179 179 179
25.744886398315 21.637430191040 6.028995513916 177 177 177
25.742511749268 21.629987716675 5.976001739502 178 178 178
25.744886398315 21.637430191040 5.913997650146 141 141 141
25.564548492432 22.203348159790 6.858997344971 12 12 12
25.344066619873 22.437660217285 6.390995025635 15 15 15
25.369091033936 22.413280487061 6.350002288818 101 101 101
25.705205917358 22.027290344238 6.385997772217 79 79 79
25.730234146118 22.002910614014 6.344997406006 30 30 30
25.682556152344 22.059114456177 5.879001617432 57 57 57
25.527244567871 22.600650787354 7.034000396729 20 20 20
25.359186172485 22.793645858765 6.367000579834 97 97 97
25.384212493896 22.769264221191 6.327999114990 35 35 35
25.725074768066 22.398160934448 6.365001678467 102 102 102
25.675024032593 22.446922302246 5.906002044678 30 30 30
25.524459838867 23.003343582153 7.219997406006 27 27 27
25.354026794434 23.188896179199 6.339000701904 114 114 114
25.474409103394 23.052106857300 6.362995147705 8 8 8
25.547111511230 22.971519470215 6.352001190186 85 85 85
25.722291946411 22.800855636597 6.384998321533 19 19 19
25.719917297363 22.793411254883 6.340000152588 88 88 88
25.697263717651 22.825235366821 5.893001556396 51 51 51
25.519302368164 23.398593902588 7.409000396729 25 25 25
25.348869323730 23.584146499634 6.354999542236 82 82 82
25.373893737793 23.559768676758 6.317996978760 74 74 74
25.687358856201 23.205600738525 6.355998992920 111 111 111
25.739784240723 23.164281845093 6.319995880127 90 90 90
25.739784240723 23.164281845093 6.269001007080 60 60 60
25.739784240723 23.164281845093 6.215999603271 75 75 75
25.737409591675 23.156837463379 6.170001983643 78 78 78
25.739784240723 23.164281845093 6.109996795654 73 73 73
25.710012435913 23.173776626587 6.051998138428 56 56 56
25.712385177612 23.181219100952 5.993999481201 41 41 41
25.714759826660 23.188663482666 5.937000274658 15 15 15
25.514142990112 23.793846130371 7.584995269775 33 33 33
25.318685531616 24.003778457642 6.357997894287 10 10 10
25.343711853027 23.979400634766 6.319995880127 117 117 117
25.411666870117 23.883926391602 6.323001861572 97 97 97
25.489116668701 23.818225860596 6.304996490479 28 28 28
25.682201385498 23.600851058960 6.376995086670 49 49 49
25.709600448608 23.583913803101 6.330997467041 105 105 105
25.734624862671 23.559532165527 6.292995452881 43 43 43
25.729879379272 23.544647216797 6.246997833252 21 21 21
25.732252120972 23.552089691162 6.189998626709 23 23 23
25.757278442383 23.527709960938 6.144001007080 29 29 29
25.729879379272 23.544647216797 6.089000701904 38 38 38
25.757278442383 23.527709960938 6.038997650146 38 38 38
25.729879379272 23.544647216797 5.979000091553 36 36 36
25.757278442383 23.527709960938 5.934001922607 36 36 36
25.729879379272 23.544647216797 5.881000518799 67 67 67
25.474464416504 24.183706283569 7.763996124268 33 33 33
25.504236221313 24.174211502075 6.604000091553 37 37 37
25.333806991577 24.359764099121 6.329998016357 109 109 109
25.358831405640 24.335382461548 6.296001434326 29 29 29
25.504236221313 24.174211502075 6.337001800537 72 72 72
25.576940536499 24.093624114990 6.330997467041 64 64 64
25.702070236206 23.971721649170 6.346996307373 103 103 103
25.727094650269 23.947341918945 6.307994842529 25 25 25
25.749746322632 23.915517807007 6.064998626709 173 173 173
25.745000839233 23.900630950928 6.018001556396 169 169 169
25.749746322632 23.915517807007 5.962001800537 138 138 138
25.749746322632 23.915517807007 5.911998748779 183 183 183
25.749746322632 23.915517807007 5.861995697021 148 148 148
25.466932296753 24.571514129639 7.936000823975 33 33 33
25.491956710815 24.547132492065 6.874996185303 43 43 43
25.328647613525 24.755014419556 6.329998016357 70 70 70
25.353672027588 24.730632781982 6.291996002197 100 100 100
25.694536209106 24.359529495239 6.357997894287 16 16 16
25.692161560059 24.352087020874 6.312000274658 109 109 109
25.744586944580 24.310768127441 6.079998016357 73 73 73
25.739839553833 24.295881271362 6.034000396729 178 178 178
25.739839553833 24.295881271362 5.983997344971 164 164 164
25.737466812134 24.288438796997 5.935001373291 157 157 157
25.739839553833 24.295881271362 5.882999420166 189 189 189
25.739839553833 24.295881271362 5.831996917725 81 81 81
25.461774826050 24.966764450073 8.106998443604 30 30 30
25.489173889160 24.949825286865 7.195995330811 12 12 12
25.516572952271 24.932889938354 7.150997161865 23 23 23
25.684629440308 24.739894866943 6.324001312256 101 101 101
25.709657669067 24.715513229370 6.287998199463 50 50 50
25.734682083130 24.691131591797 6.053997039795 157 157 157
25.762081146240 24.674194335938 6.006999969482 139 139 139
25.762081146240 24.674194335938 5.957996368408 153 153 153
25.734682083130 24.691131591797 5.903995513916 133 133 133
25.762081146240 24.674194335938 5.855998992920 177 177 177
25.759708404541 24.666751861572 5.813999176025 32 32 32
25.727149963379 25.078941345215 6.065998077393 50 50 50
25.729524612427 25.086383819580 6.020000457764 175 175 175
25.729524612427 25.086383819580 5.970996856689 174 174 174
25.754549026489 25.062002182007 5.927997589111 174 174 174
25.724775314331 25.071496963501 5.876995086670 183 183 183
25.754549026489 25.062002182007 5.830997467041 141 141 141
25.925647735596 12.330043792725 6.553997039795 70 70 70
25.573328018188 12.253793716431 6.529994964600 31 31 31
25.875391006470 12.583873748779 6.481998443604 9 9 9
25.907539367676 12.581821441650 6.555995941162 51 51 51
25.552843093872 12.498128890991 6.528995513916 91 91 91
25.997735977173 12.864663124084 1.389999389648 115 115 115
25.931068420410 12.861323356628 6.509998321533 57 57 57
25.829881668091 12.852589607239 6.554996490479 13 13 13
25.541854858398 12.772237777710 6.536998748779 86 86 86
25.954599380493 13.140823364258 1.375999450684 149 149 149
25.703464508057 13.073307037354 1.889999389648 68 68 68
25.703464508057 13.073307037354 1.955997467041 130 130 130
25.708211898804 13.088192939758 2.020999908447 134 134 134
25.708211898804 13.088192939758 2.947998046875 206 206 206
25.703464508057 13.073307037354 3.014999389648 138 138 138
25.705839157104 13.080749511719 3.080997467041 44 44 44
25.703464508057 13.073307037354 4.068996429443 135 135 135
25.703464508057 13.073307037354 4.135997772217 138 138 138
25.703464508057 13.073307037354 4.201999664307 64 64 64
25.777252197266 13.098977088928 5.223995208740 57 57 57
25.703464508057 13.073307037354 5.272998809814 133 133 133
25.703464508057 13.073307037354 5.340000152588 131 131 131
25.742731094360 13.093585014343 5.978000640869 109 109 109
25.703464508057 13.073307037354 6.029994964600 133 133 133
25.915332794189 13.120544433594 6.514995574951 88 88 88
25.703464508057 13.073307037354 6.523998260498 13 13 13
25.530864715576 13.046346664429 6.550998687744 74 74 74
25.708211898804 13.088192939758 7.036998748779 123 123 123
25.703464508057 13.073307037354 7.098995208740 130 130 130
25.777252197266 13.098977088928 7.813999176025 80 80 80
25.703464508057 13.073307037354 7.846996307373 119 119 119
25.703464508057 13.073307037354 7.923999786377 124 124 124
25.740358352661 13.086141586304 8.421001434326 15 15 15
25.708211898804 13.088192939758 8.494998931885 17 17 17
25.740358352661 13.086141586304 8.581996917725 23 23 23
25.708211898804 13.088192939758 8.651996612549 33 33 33
25.740358352661 13.086141586304 8.743999481201 46 46 46
25.708211898804 13.088192939758 8.815998077393 56 56 56
25.708211898804 13.088192939758 8.898998260498 64 64 64
25.708211898804 13.088192939758 8.979000091553 69 69 69
25.703464508057 13.073307037354 9.056995391846 77 77 77
25.708211898804 13.088192939758 9.145999908447 79 79 79
25.703464508057 13.073307037354 9.227001190186 82 82 82
25.708211898804 13.088192939758 9.316997528076 111 111 111
25.698717117310 13.058420181274 9.374996185303 109 109 109
25.668943405151 13.067914962769 9.456996917725 115 115 115
25.655582427979 13.334580421448 1.406997680664 136 136 136
25.899595260620 13.379767417908 6.518001556396 90 90 90
25.584169387817 13.316353797913 6.494998931885 17 17 17
25.517501831055 13.313012123108 6.553997039795 44 44 44
25.694849014282 13.354858398438 9.138996124268 63 63 63
25.726995468140 13.352807044983 9.312000274658 85 85 85
25.886232376099 13.646432876587 6.520000457764 99 99 99
25.602952957153 13.580967903137 6.505001068115 49 49 49
25.533912658691 13.570183753967 6.553997039795 50 50 50
25.711257934570 13.612030029297 8.965000152588 12 12 12
25.706510543823 13.597143173218 9.192996978760 11 11 11
25.870494842529 13.905654907227 6.520999908447 101 101 101
25.552694320679 13.834796905518 6.494998931885 33 33 33
25.520547866821 13.836849212646 6.555995941162 35 35 35
25.886903762817 14.162826538086 6.531002044678 73 73 73
25.536958694458 14.094019889832 6.494998931885 78 78 78
25.679784774780 14.130474090576 8.930995941162 13 13 13
25.912809371948 14.449769973755 5.997997283936 10 10 10
25.878290176392 14.444377899170 6.476001739502 22 22 22
25.878290176392 14.444377899170 6.541996002197 26 26 26
25.528343200684 14.375572204590 6.504001617432 83 83 83
25.864925384521 14.711043357849 6.001995086670 44 44 44
25.864925384521 14.711043357849 6.479000091553 65 65 65
25.761367797852 14.694868087769 6.518001556396 49 49 49
25.512605667114 14.634794235229 6.506000518799 83 83 83
25.717351913452 14.659702301025 8.375995635986 16 16 16
25.717351913452 14.659702301025 8.688999176025 13 13 13
25.883708953857 14.975657463074 6.010997772217 59 59 59
25.849189758301 14.970266342163 6.479999542236 76 76 76
25.814668655396 14.964873313904 6.540996551514 13 13 13
25.526641845703 14.884522438049 6.506000518799 80 80 80
25.669469833374 14.920976638794 8.200000762939 17 17 17
25.669469833374 14.920976638794 8.585994720459 14 14 14
25.867973327637 15.234880447388 6.011997222900 68 68 68
25.833452224731 15.229488372803 6.477001190186 85 85 85
25.656106948853 15.187642097473 6.479000091553 14 14 14
25.478757858276 15.145795822144 6.495998382568 96 96 96
25.722772598267 15.190982818604 8.054996490479 18 18 18
25.690626144409 15.193034172058 8.423999786377 14 14 14
25.854610443115 15.501545906067 6.015995025635 70 70 70
25.849863052368 15.486660003662 6.484996795654 106 106 106
25.499916076660 15.417853355408 6.507999420166 105 105 105
25.707035064697 15.450204849243 7.898998260498 17 17 17
25.670143127441 15.437370300293 8.331996917725 12 12 12
25.841247558594 15.768211364746 6.023998260498 77 77 77
25.871019363403 15.758716583252 6.092998504639 43 43 43
25.875766754150 15.773603439331 6.163997650146 39 39 39
25.873392105103 15.766160011292 6.229000091553 38 38 38
25.873392105103 15.766160011292 6.296001434326 33 33 33
25.875766754150 15.773603439331 6.367000579834 29 29 29
25.905540466309 15.764108657837 6.436000823975 27 27 27
25.836500167847 15.753325462341 6.486995697021 105 105 105
25.456779479980 15.694012641907 6.504001617432 82 82 82
25.693674087524 15.716870307922 7.743000030518 18 18 18
25.693674087524 15.716870307922 8.192996978760 16 16 16
25.862405776978 16.040267944336 5.969997406006 8 8 8
25.862405776978 16.040267944336 6.033000946045 205 205 205
25.862405776978 16.040267944336 6.102001190186 165 165 165
25.862405776978 16.040267944336 6.167995452881 166 166 166
25.862405776978 16.040267944336 6.229999542236 115 115 115
25.825510025024 16.027433395386 6.486995697021 91 91 91
25.579122543335 15.974803924561 6.476001739502 50 50 50
25.473190307617 15.951184272766 6.506999969482 75 75 75
25.682683944702 15.990979194641 7.595996856689 13 13 13
25.849040985107 16.306934356689 5.967998504639 23 23 23
25.849040985107 16.306934356689 6.033000946045 205 205 205
25.849040985107 16.306934356689 6.102001190186 180 180 180
25.851415634155 16.314376831055 6.168994903564 195 195 195
25.846666336060 16.299491882324 6.227001190186 97 97 97
25.812147140503 16.294097900391 6.481998443604 86 86 86
25.496721267700 16.230686187744 6.446994781494 14 14 14
25.459825515747 16.217849731445 6.496997833252 75 75 75
25.671693801880 16.265087127686 7.949001312256 21 21 21
25.833303451538 16.566158294678 5.971996307373 59 59 59
25.833303451538 16.566158294678 6.035999298096 205 205 205
25.835676193237 16.573600769043 6.102001190186 207 207 207
25.835676193237 16.573600769043 6.165996551514 207 207 207
25.835676193237 16.573600769043 6.229999542236 66 66 66
25.830930709839 16.558712005615 6.483997344971 87 87 87
25.480981826782 16.489906311035 6.439998626709 16 16 16
25.478609085083 16.482463836670 6.498996734619 59 59 59
25.822315216064 16.840263366699 5.978000640869 98 98 98
25.852087020874 16.830770492554 6.042995452881 202 202 202
25.819940567017 16.832820892334 6.102001190186 158 158 158
25.852087020874 16.830770492554 6.172000885010 185 185 185
25.819940567017 16.832820892334 6.231998443604 35 35 35
25.817567825317 16.825378417969 6.486995697021 81 81 81
25.497392654419 16.747077941895 6.441997528076 24 24 24
25.433099746704 16.751178741455 6.492000579834 60 60 60
25.674741744995 16.788925170898 7.096996307373 15 15 15
25.674741744995 16.788925170898 7.714000701904 18 18 18
25.838724136353 17.097434997559 5.979000091553 120 120 120
25.838724136353 17.097434997559 6.042995452881 204 204 204
25.838724136353 17.097434997559 6.104999542236 174 174 174
25.838724136353 17.097434997559 6.173999786377 192 192 192
25.838724136353 17.097434997559 6.233997344971 19 19 19
25.836351394653 17.089992523193 6.424999237061 6 6 6
25.769685745239 17.086652755737 6.470996856689 70 70 70
25.518548965454 17.019134521484 6.446994781494 35 35 35
25.451883316040 17.015794754028 6.487995147705 65 65 65
25.663749694824 17.063034057617 6.957996368408 23 23 23
25.825361251831 17.364101409912 5.977001190186 138 138 138
25.825361251831 17.364101409912 6.038997650146 167 167 167
25.825361251831 17.364101409912 6.104999542236 192 192 192
25.827733993530 17.371543884277 6.171001434326 183 183 183
25.825361251831 17.364101409912 6.229999542236 13 13 13
25.827733993530 17.371543884277 6.423999786377 9 9 9
25.790842056274 17.358711242676 6.477001190186 74 74 74
25.473039627075 17.287853240967 6.429996490479 27 27 27
25.438520431519 17.282459259033 6.480998992920 74 74 74
25.680160522461 17.320203781128 6.814998626709 26 26 26
25.684907913208 17.335090637207 7.493000030518 24 24 24
25.811998367310 17.630767822266 5.978000640869 163 163 163
25.811998367310 17.630767822266 6.041996002197 199 199 199
25.811998367310 17.630767822266 6.104000091553 196 196 196
25.811998367310 17.630767822266 6.167995452881 198 198 198
25.811998367310 17.630767822266 6.422000885010 22 22 22
25.777477264404 17.625375747681 6.473995208740 51 51 51
25.462051391602 17.561960220337 6.424999237061 47 47 47
25.457304000854 17.547075271606 6.479000091553 53 53 53
25.798635482788 17.897434234619 5.979999542236 180 180 180
25.798635482788 17.897434234619 6.042995452881 211 211 211
25.830781936646 17.895381927490 6.108997344971 212 212 212
25.833154678345 17.902824401855 6.173999786377 199 199 199
25.796260833740 17.889987945557 6.410999298096 50 50 50
25.655807495117 17.860979080200 6.429996490479 90 90 90
25.483209609985 17.834018707275 6.436000823975 99 99 99
25.446313858032 17.821182250977 6.479999542236 48 48 48
25.685581207275 17.851484298706 7.267002105713 26 26 26
25.750751495361 18.158706665039 5.975002288818 5 5 5
25.815044403076 18.154603958130 6.418994903564 70 70 70
25.785272598267 18.164098739624 6.478000640869 41 41 41
25.432952880859 18.087848663330 6.414997100830 70 70 70
25.435325622559 18.095291137695 6.479000091553 26 26 26
25.672218322754 18.118148803711 7.124996185303 14 14 14
25.771909713745 18.430763244629 5.976001739502 18 18 18
25.804056167603 18.428710937500 6.415996551514 80 80 80
25.804056167603 18.428710937500 6.475002288818 19 19 19
25.454109191895 18.359907150269 6.416996002197 85 85 85
25.419588088989 18.354515075684 6.470996856689 31 31 31
25.631456375122 18.401752471924 7.048999786377 30 30 30
25.793066024780 18.702821731567 5.923999786377 17 17 17
25.760919570923 18.704872131348 5.977001190186 7 7 7
25.763294219971 18.712316513062 6.408000946045 80 80 80
25.763294219971 18.712316513062 6.469997406006 22 22 22
25.443119049072 18.634014129639 6.412998199463 76 76 76
25.408599853516 18.628623962402 6.462001800537 45 45 45
25.650239944458 18.666366577148 6.918994903564 17 17 17
25.779703140259 18.969486236572 5.923999786377 62 62 62
25.747556686401 18.971538543701 6.402996063232 91 91 91
25.747556686401 18.971538543701 6.459995269775 7 7 7
25.425008773804 18.885795593262 6.401996612549 90 90 90
25.425008773804 18.885795593262 6.458995819092 33 33 33
25.639249801636 18.940475463867 6.844997406006 16 16 16
25.768712997437 19.243595123291 5.927997589111 120 120 120
25.771087646484 19.251039505005 6.406002044678 105 105 105
25.446166992188 19.157852172852 6.404994964600 106 106 106
25.411645889282 19.152460098267 6.453998565674 13 13 13
25.658033370972 19.205089569092 6.721996307373 36 36 36
25.787496566772 19.508209228516 5.931995391846 97 97 97
25.787496566772 19.508209228516 5.990001678467 84 84 84
25.789871215820 19.515651702881 6.052997589111 82 82 82
25.787496566772 19.508209228516 6.109996795654 76 76 76
25.787496566772 19.508209228516 6.168994903564 52 52 52
25.789871215820 19.515651702881 6.230998992920 29 29 29
25.789871215820 19.515651702881 6.288997650146 49 49 49
25.822017669678 19.513603210449 6.357997894287 53 53 53
25.755352020264 19.510259628296 6.401996612549 120 120 120
25.437549591064 19.439403533936 6.400997161865 99 99 99
25.403028488159 19.434011459351 6.454998016357 12 12 12
25.644670486450 19.471755981445 6.588001251221 16 16 16
25.778882980347 19.789762496948 5.931995391846 169 169 169
25.778882980347 19.789762496948 5.992000579834 199 199 199
25.778882980347 19.789762496948 6.050998687744 185 185 185
25.778882980347 19.789762496948 6.108997344971 195 195 195
25.808652877808 19.780267715454 6.168994903564 68 68 68
25.774135589600 19.774875640869 6.395999908447 112 112 112
25.424186706543 19.706069946289 6.395000457764 86 86 86
25.490852355957 19.709409713745 6.469997406006 63 63 63
25.795291900635 20.046932220459 5.934001922607 181 181 181
25.795291900635 20.046932220459 5.991001129150 212 212 212
25.795291900635 20.046932220459 6.048999786377 211 211 211
25.795291900635 20.046932220459 6.105998992920 214 214 214
25.797666549683 20.054374694824 6.167995452881 85 85 85
25.763143539429 20.048982620239 6.393001556396 120 120 120
25.410823822021 19.972734451294 6.381000518799 107 107 107
25.376302719116 19.967342376709 6.431995391846 102 102 102
25.373929977417 19.959899902344 6.481998443604 20 20 20
25.781927108765 20.313598632813 5.934001922607 190 190 190
25.781927108765 20.313598632813 5.991001129150 187 187 187
25.781927108765 20.313598632813 6.049999237061 192 192 192
25.811700820923 20.304103851318 6.107997894287 201 201 201
25.781927108765 20.313598632813 6.161998748779 51 51 51
25.742660522461 20.293319702148 6.381000518799 122 122 122
25.397460937500 20.239400863647 6.370998382568 92 92 92
25.392713546753 20.224514007568 6.425998687744 58 58 58
25.768564224243 20.580263137817 5.934001922607 199 199 199
25.800710678101 20.578212738037 5.993999481201 183 183 183
25.768564224243 20.580263137817 6.048000335693 175 175 175
25.768564224243 20.580263137817 6.106998443604 205 205 205
25.768564224243 20.580263137817 6.159000396729 37 37 37
25.763816833496 20.565376281738 6.381999969482 110 110 110
25.623363494873 20.536365509033 6.389995574951 65 65 65
25.413869857788 20.496570587158 6.376995086670 96 96 96
25.379350662231 20.491178512573 6.414997100830 72 72 72
25.789720535278 20.852321624756 5.885997772217 41 41 41
25.789720535278 20.852321624756 5.938999176025 204 204 204
25.789720535278 20.852321624756 5.996997833252 133 133 133
25.789720535278 20.852321624756 6.050998687744 173 173 173
25.789720535278 20.852321624756 6.109996795654 203 203 203
25.789720535278 20.852321624756 6.161998748779 22 22 22
25.720682144165 20.841537475586 6.378002166748 116 116 116
25.402881622314 20.770679473877 6.364002227783 74 74 74
25.398134231567 20.755794525146 6.410999298096 87 87 87
25.781106948853 21.133872985840 5.881999969482 71 71 71
25.776359558105 21.118986129761 5.937000274658 214 214 214
25.810878753662 21.124378204346 5.997997283936 160 160 160
25.776359558105 21.118986129761 6.048000335693 172 172 172
25.776359558105 21.118986129761 6.104999542236 209 209 209
25.776359558105 21.118986129761 6.154994964600 28 28 28
25.741838455200 21.113594055176 6.369998931885 126 126 126
25.421665191650 21.035293579102 6.354999542236 64 64 64
25.387144088745 21.029901504517 6.399997711182 93 93 93
25.762994766235 21.385652542114 5.872997283936 35 35 35
25.762994766235 21.385652542114 5.927997589111 209 209 209
25.762994766235 21.385652542114 5.982997894287 176 176 176
25.762994766235 21.385652542114 6.037998199463 172 172 172
25.760622024536 21.378210067749 6.090000152588 206 206 206
25.728475570679 21.380260467529 6.144001007080 60 60 60
25.723730087280 21.365375518799 6.355998992920 115 115 115
25.691581726074 21.367424011230 6.403995513916 65 65 65
25.378528594971 21.311454772949 6.343997955322 65 65 65
25.378528594971 21.311454772949 6.396999359131 114 114 114
25.551128387451 21.338413238525 6.520000457764 8 8 8
25.744886398315 21.637430191040 5.864002227783 18 18 18
25.744886398315 21.637430191040 5.911998748779 200 200 200
25.744886398315 21.637430191040 5.969997406006 220 220 220
25.744886398315 21.637430191040 6.024997711182 220 220 220
25.744886398315 21.637430191040 6.077999114990 219 219 219
25.744886398315 21.637430191040 6.133998870850 82 82 82
25.744886398315 21.637430191040 6.356998443604 110 110 110
25.744886398315 21.637430191040 6.409000396729 22 22 22
25.394939422607 21.568624496460 6.335994720459 53 53 53
25.360418319702 21.563232421875 6.379001617432 111 111 111
25.697002410889 21.898704528809 5.899997711182 108 108 108
25.731521606445 21.904098510742 6.351001739502 102 102 102
25.697002410889 21.898704528809 6.393001556396 55 55 55
25.485136032104 21.851465225220 6.356998443604 56 56 56
25.376827239990 21.820404052734 6.368000030518 114 114 114
25.554176330566 21.862251281738 6.727001190186 17 17 17
25.713413238525 22.155876159668 5.890995025635 135 135 135
25.713413238525 22.155876159668 5.948001861572 98 98 98
25.718160629272 22.170763015747 6.005001068115 104 104 104
25.718160629272 22.170763015747 6.056995391846 107 107 107
25.747932434082 22.161268234253 6.118999481201 101 101 101
25.747932434082 22.161268234253 6.173000335693 94 94 94
25.750305175781 22.168710708618 6.229999542236 93 93 93
25.752679824829 22.176153182983 6.290996551514 83 83 83
25.713413238525 22.155876159668 6.326999664307 123 123 123
25.713413238525 22.155876159668 6.380001068115 94 94 94
25.365839004517 22.094512939453 6.355998992920 121 121 121
25.575332641602 22.134307861328 6.819995880127 11 11 11
25.704795837402 22.437427520752 5.885997772217 117 117 117
25.739316940308 22.442819595337 6.331996917725 32 32 32
25.734569549561 22.427934646606 6.373996734619 99 99 99
25.386995315552 22.366571426392 6.348995208740 120 120 120
25.350101470947 22.353736877441 6.388996124268 11 11 11
25.529823303223 22.403026580811 6.965000152588 13 13 13
25.689060211182 22.696649551392 5.879001617432 121 121 121
25.730699539185 22.724370956421 6.325000762939 13 13 13
25.721204757690 22.694599151611 6.357997894287 106 106 106
25.373632431030 22.633235931396 6.330997467041 105 105 105
25.371259689331 22.625791549683 6.378002166748 43 43 43
25.548606872559 22.667638778687 7.070995330811 24 24 24
25.678070068359 22.970758438110 5.870998382568 116 116 116
25.710218429565 22.968708038330 6.345996856689 121 121 121
25.572137832642 22.947139739990 6.352001190186 94 94 94
25.397163391113 22.912736892700 6.333995819092 102 102 102
25.355524063110 22.885013580322 6.359996795654 80 80 80
25.500722885132 22.928911209106 7.200000762939 8 8 8
25.696853637695 23.235372543335 6.335994720459 134 134 134
25.379053115845 23.164514541626 6.306995391846 12 12 12
25.344533920288 23.159124374390 6.343997955322 114 114 114
25.517133712769 23.186082839966 7.298000335693 19 19 19
25.752531051636 23.512823104858 5.874996185303 90 90 90
25.715637207031 23.499988555908 6.323001861572 109 109 109
25.715637207031 23.499988555908 6.372997283936 60 60 60
25.360942840576 23.416294097900 6.323001861572 126 126 126
25.503770828247 23.452749252319 7.442996978760 27 27 27
25.771314620972 23.777435302734 5.864002227783 192 192 192
25.741540908813 23.786930084229 5.913997650146 186 186 186
25.741540908813 23.786930084229 5.964000701904 133 133 133
25.771314620972 23.777435302734 6.017002105713 133 133 133
25.741540908813 23.786930084229 6.063999176025 190 190 190
25.702274322510 23.766653060913 6.304996490479 78 78 78
25.702274322510 23.766653060913 6.354999542236 88 88 88
25.382099151611 23.688352584839 6.312000274658 110 110 110
25.347578048706 23.682960510254 6.352001190186 50 50 50
25.757951736450 24.044103622437 5.855998992920 188 188 188
25.757951736450 24.044103622437 5.902996063232 205 205 205
25.760324478149 24.051546096802 5.956996917725 198 198 198
25.757951736450 24.044103622437 6.005001068115 201 201 201
25.755577087402 24.036659240723 6.050998687744 193 193 193
25.723432540894 24.038711547852 6.300998687744 63 63 63
25.688911437988 24.033317565918 6.339000701904 108 108 108
25.368736267090 23.955018997192 6.296001434326 85 85 85
25.338964462280 23.964511871338 6.340000152588 92 92 92
25.546083450317 23.996864318848 6.473995208740 51 51 51
25.511562347412 23.991474151611 7.680995941162 28 28 28
25.749334335327 24.325653076172 5.847995758057 186 186 186
25.746961593628 24.318210601807 5.895000457764 210 210 210
25.744586944580 24.310768127441 5.942996978760 210 210 210
25.746961593628 24.318210601807 5.993999481201 211 211 211
25.749334335327 24.325653076172 6.046001434326 196 196 196
25.710067749023 24.305376052856 6.282001495361 31 31 31
25.707695007324 24.297933578491 6.326000213623 116 116 116
25.360120773315 24.236570358276 6.284000396729 48 48 48
25.325599670410 24.231178283691 6.319995880127 116 116 116
25.532720565796 24.263528823853 6.661998748779 24 24 24
25.498201370239 24.258138656616 7.824001312256 12 12 12
25.735971450806 24.592319488525 5.837001800537 177 177 177
25.733598709106 24.584877014160 5.882999420166 200 200 200
25.733598709106 24.584877014160 5.932994842529 134 134 134
25.735971450806 24.592319488525 5.984996795654 133 133 133
25.733598709106 24.584877014160 6.031002044678 206 206 206
25.760995864868 24.567939758301 6.078998565674 29 29 29
25.691957473755 24.557155609131 6.306995391846 139 139 139
25.342010498047 24.488349914551 6.307994842529 133 133 133
25.519357681274 24.530193328857 6.857997894287 22 22 22
25.516984939575 24.522750854492 7.912998199463 20 20 20
25.752382278442 24.849491119385 5.820995330811 143 143 143
25.752382278442 24.849491119385 5.868000030518 212 212 212
25.752382278442 24.849491119385 5.920001983643 167 167 167
25.752382278442 24.849491119385 5.966999053955 172 172 172
25.752382278442 24.849491119385 6.013996124268 204 204 204
25.752382278442 24.849491119385 6.062999725342 92 92 92
25.713113784790 24.829212188721 6.295001983643 133 133 133
25.683341979980 24.838706970215 6.340000152588 17 17 17
25.328647613525 24.755014419556 6.284000396729 125 125 125
25.328647613525 24.755014419556 6.327999114990 49 49 49
25.471475601196 24.791469573975 7.074001312256 10 10 10
25.469100952148 24.784025192261 8.037998199463 19 19 19
25.739017486572 25.116157531738 6.005001068115 176 176 176
25.739017486572 25.116157531738 6.048000335693 124 124 124
25.699750900269 25.095878601074 6.275997161865 109 109 109
25.669977188110 25.105371475220 6.321994781494 74 74 74
25.352178573608 25.034515380859 6.270000457764 81 81 81
25.349805831909 25.027072906494 6.310001373291 111 111 111
25.487884521484 25.048639297485 7.264995574951 27 27 27
25.596858978271 12.533294677734 6.566997528076 64 64 64
25.611978530884 12.889278411865 6.564998626709 68 68 68
25.977867126465 12.493793487549 6.573001861572 60 60 60
25.720079421997 13.125409126282 9.528995513916 31 31 31
25.720079421997 13.125409126282 9.442996978760 91 91 91
25.749853134155 13.115914344788 9.365001678467 91 91 91
25.749853134155 13.115914344788 9.279994964600 87 87 87
25.717706680298 13.117965698242 9.192996978760 87 87 87
25.747478485107 13.108470916748 9.110996246338 95 95 95
25.747478485107 13.108470916748 9.027996063232 103 103 103
25.715333938599 13.110522270203 8.941997528076 100 100 100
25.745103836060 13.101027488708 8.865001678467 100 100 100
25.745103836060 13.101027488708 8.783000946045 98 98 98
25.747478485107 13.108470916748 8.698001861572 102 102 102
25.745103836060 13.101027488708 8.621997833252 101 101 101
25.745103836060 13.101027488708 8.539997100830 95 95 95
25.742731094360 13.093585014343 8.459995269775 107 107 107
25.745103836060 13.101027488708 8.378002166748 102 102 102
25.742731094360 13.093585014343 8.300998687744 102 102 102
25.742731094360 13.093585014343 8.220996856689 108 108 108
25.740358352661 13.086141586304 8.145999908447 107 107 107
25.742731094360 13.093585014343 8.063999176025 104 104 104
25.742731094360 13.093585014343 7.981998443604 105 105 105
25.745103836060 13.101027488708 7.902996063232 106 106 106
25.767757415771 13.069204330444 7.834995269775 105 105 105
25.767757415771 13.069204330444 7.759998321533 114 114 114
25.767757415771 13.069204330444 7.681995391846 114 114 114
25.740358352661 13.086141586304 7.598995208740 109 109 109
25.767757415771 13.069204330444 7.528995513916 113 113 113
25.767757415771 13.069204330444 7.455997467041 106 106 106
25.767757415771 13.069204330444 7.379001617432 111 111 111
25.767757415771 13.069204330444 7.302997589111 107 107 107
25.767757415771 13.069204330444 7.229000091553 118 118 118
25.710586547852 13.095636367798 7.143001556396 112 112 112
25.737983703613 13.078698158264 7.075000762939 113 113 113
25.763010025024 13.054318428040 7.007999420166 117 117 117
25.763010025024 13.054318428040 6.934001922607 117 117 117
25.763010025024 13.054318428040 6.857997894287 113 113 113
25.767757415771 13.069204330444 6.783000946045 114 114 114
25.763010025024 13.054318428040 6.714000701904 121 121 121
25.617605209351 13.215489387512 6.571994781494 108 108 108
25.615230560303 13.208046913147 6.505001068115 119 119 119
25.735610961914 13.071254730225 6.491001129150 111 111 111
25.760637283325 13.046875000000 6.427997589111 118 118 118
25.763010025024 13.054318428040 6.352001190186 110 110 110
25.763010025024 13.054318428040 6.282001495361 117 117 117
25.758264541626 13.039431571960 6.210994720459 118 118 118
25.758264541626 13.039431571960 6.138996124268 111 111 111
25.735610961914 13.071254730225 6.061000823975 124 124 124
25.758264541626 13.039431571960 5.996997833252 122 122 122
25.758264541626 13.039431571960 5.928997039795 127 127 127
25.755889892578 13.031988143921 5.859996795654 118 118 118
25.755889892578 13.031988143921 5.788997650146 123 123 123
25.758264541626 13.039431571960 5.716999053955 120 120 120
25.758264541626 13.039431571960 5.647998809814 124 124 124
25.755889892578 13.031988143921 5.578998565674 125 125 125
25.755889892578 13.031988143921 5.508998870850 124 124 124
25.758264541626 13.039431571960 5.437999725342 119 119 119
25.735610961914 13.071254730225 5.360996246338 118 118 118
25.733236312866 13.063812255859 5.291996002197 121 121 121
25.755889892578 13.031988143921 5.231998443604 122 122 122
25.783288955688 13.015050888062 5.163997650146 124 124 124
25.755889892578 13.031988143921 5.093997955322 120 120 120
25.755889892578 13.031988143921 5.025997161865 121 121 121
25.783288955688 13.015050888062 4.956996917725 120 120 120
25.783288955688 13.015050888062 4.888996124268 121 121 121
25.783288955688 13.015050888062 4.819995880127 127 127 127
25.783288955688 13.015050888062 4.753002166748 119 119 119
25.783288955688 13.015050888062 4.684001922607 119 119 119
25.780914306641 13.007607460022 4.618000030518 129 129 129
25.783288955688 13.015050888062 4.548000335693 126 126 126
25.780914306641 13.007607460022 4.480998992920 118 118 118
25.780914306641 13.007607460022 4.412998199463 119 119 119
25.780914306641 13.007607460022 4.344997406006 124 124 124
25.780914306641 13.007607460022 4.276996612549 119 119 119
25.726116180420 13.041481971741 4.206996917725 120 120 120
25.728490829468 13.048925399780 4.137996673584 120 120 120
25.758264541626 13.039431571960 4.073001861572 122 122 122
25.780914306641 13.007607460022 4.006999969482 120 120 120
25.780914306641 13.007607460022 3.939998626709 122 122 122
25.778539657593 13.000164031982 3.872997283936 121 121 121
25.780914306641 13.007607460022 3.804996490479 124 124 124
25.778539657593 13.000164031982 3.739002227783 124 124 124
25.778539657593 13.000164031982 3.671001434326 126 126 126
25.780914306641 13.007607460022 3.604000091553 126 126 126
25.778539657593 13.000164031982 3.536998748779 122 122 122
25.780914306641 13.007607460022 3.468997955322 119 119 119
25.778539657593 13.000164031982 3.401996612549 122 122 122
25.778539657593 13.000164031982 3.334995269775 123 123 123
25.778539657593 13.000164031982 3.268001556396 120 120 120
25.778539657593 13.000164031982 3.201000213623 128 128 128
25.778539657593 13.000164031982 3.132999420166 124 124 124
25.723741531372 13.034039497375 3.066997528076 123 123 123
25.723741531372 13.034039497375 3.000000000000 123 123 123
25.748769760132 13.009658813477 2.931999206543 122 122 122
