28.468750000000 9.000000000000 3.396972656250 207 207 207
28.468750000000 9.000000000000 3.257995605469 201 201 201
28.484375000000 9.000000000000 3.117980957031 196 196 196
28.484375000000 9.000000000000 2.977996826172 204 204 204
28.484375000000 9.000000000000 2.836975097656 196 196 196
28.500000000000 9.000000000000 2.695983886719 193 193 193
28.484375000000 9.000000000000 2.555999755859 197 197 197
28.500000000000 9.000000000000 2.413970947266 195 195 195
28.500000000000 9.000000000000 2.271972656250 192 192 192
28.531250000000 8.875000000000 2.126983642578 195 195 195
28.500000000000 9.000000000000 1.987976074219 179 179 179
28.500000000000 9.000000000000 1.841979980469 185 185 185
28.531250000000 8.875000000000 1.694976806641 176 176 176
28.406250000000 9.125000000000 7.503997802734 178 178 178
28.406250000000 9.125000000000 7.352996826172 199 199 199
28.406250000000 9.125000000000 7.204986572266 197 197 197
28.406250000000 9.125000000000 7.056976318359 191 191 191
28.406250000000 9.125000000000 6.909973144531 195 195 195
28.390625000000 9.125000000000 6.756988525391 134 134 134
28.421875000000 9.125000000000 6.618988037109 197 197 197
28.421875000000 9.125000000000 6.474975585938 205 205 205
28.421875000000 9.125000000000 6.330993652344 209 209 209
28.437500000000 9.125000000000 6.189971923828 199 199 199
28.421875000000 9.125000000000 6.044982910156 196 196 196
28.437500000000 9.125000000000 5.903991699219 195 195 195
28.437500000000 9.125000000000 5.763000488281 202 202 202
28.437500000000 9.125000000000 5.617980957031 203 203 203
28.437500000000 9.125000000000 5.478973388672 209 209 209
28.437500000000 9.125000000000 5.337982177734 210 210 210
28.453125000000 9.125000000000 5.197998046875 195 195 195
28.453125000000 9.125000000000 5.057983398438 209 209 209
28.468750000000 9.125000000000 4.918975830078 200 200 200
28.468750000000 9.125000000000 4.779998779297 221 221 221
28.468750000000 9.125000000000 4.639984130859 221 221 221
28.468750000000 9.125000000000 4.500976562500 227 227 227
28.468750000000 9.125000000000 4.360992431641 209 209 209
28.500000000000 9.000000000000 4.221984863281 222 222 222
28.484375000000 9.125000000000 4.082977294922 225 225 225
28.500000000000 9.000000000000 3.942993164063 236 236 236
28.515625000000 9.000000000000 3.803985595703 235 235 235
28.515625000000 9.000000000000 3.663970947266 235 235 235
28.515625000000 9.000000000000 3.524993896484 233 233 233
28.515625000000 9.000000000000 3.384979248047 238 238 238
28.515625000000 9.000000000000 3.243988037109 234 234 234
28.515625000000 9.000000000000 3.103973388672 226 226 226
28.515625000000 9.000000000000 2.962982177734 220 220 220
28.515625000000 9.000000000000 2.821990966797 225 225 225
28.515625000000 9.000000000000 2.679992675781 225 225 225
28.531250000000 9.000000000000 2.537994384766 216 216 216
28.531250000000 9.000000000000 2.394989013672 215 215 215
28.546875000000 9.000000000000 2.250976562500 210 210 210
28.546875000000 9.000000000000 2.107971191406 205 205 205
28.546875000000 9.000000000000 1.962982177734 213 213 213
28.546875000000 9.000000000000 1.817993164063 197 197 197
28.546875000000 9.000000000000 1.675994873047 197 197 197
28.453125000000 9.250000000000 7.515991210938 115 115 115
28.453125000000 9.250000000000 7.364990234375 103 103 103
28.468750000000 9.250000000000 7.215972900391 112 112 112
28.484375000000 9.250000000000 7.072998046875 105 105 105
28.500000000000 9.125000000000 6.927978515625 97 97 97
28.437500000000 9.250000000000 6.763000488281 86 86 86
28.500000000000 9.125000000000 6.634979248047 35 35 35
28.515625000000 9.125000000000 6.492980957031 37 37 37
28.500000000000 9.125000000000 6.345001220703 7 7 7
28.421875000000 9.375000000000 6.758972167969 83 83 83
28.421875000000 9.375000000000 7.354980468750 15 15 15
28.375000000000 9.500000000000 6.750000000000 79 79 79
28.390625000000 9.625000000000 7.345001220703 12 12 12
28.375000000000 9.625000000000 6.750000000000 83 83 83
28.343750000000 9.750000000000 6.747985839844 69 69 69
28.312500000000 9.875000000000 6.745971679688 57 57 57
28.328125000000 10.000000000000 7.188995361328 12 12 12
28.312500000000 10.000000000000 6.743988037109 53 53 53
28.296875000000 10.125000000000 7.179992675781 13 13 13
28.281250000000 10.125000000000 6.736999511719 59 59 59
28.250000000000 10.375000000000 6.724975585938 65 65 65
28.234375000000 10.500000000000 6.711975097656 84 84 84
28.218750000000 10.625000000000 6.701995849609 79 79 79
28.203125000000 10.750000000000 6.687988281250 84 84 84
28.203125000000 10.875000000000 6.972991943359 20 20 20
28.203125000000 10.875000000000 6.677978515625 84 84 84
28.187500000000 11.000000000000 6.961975097656 5 5 5
28.156250000000 11.000000000000 6.666992187500 75 75 75
28.140625000000 11.125000000000 6.666992187500 73 73 73
28.109375000000 11.125000000000 6.373992919922 14 14 14
28.093750000000 11.250000000000 6.660980224609 47 47 47
28.093750000000 11.250000000000 6.375000000000 27 27 27
28.156250000000 11.500000000000 6.821990966797 20 20 20
28.125000000000 11.375000000000 6.668975830078 38 38 38
28.062500000000 11.500000000000 6.375000000000 20 20 20
28.062500000000 11.625000000000 6.661987304688 21 21 21
28.046875000000 11.625000000000 6.370971679688 14 14 14
28.046875000000 11.750000000000 6.659973144531 14 14 14
28.015625000000 11.750000000000 6.368988037109 7 7 7
28.031250000000 11.875000000000 6.655975341797 21 21 21
28.015625000000 12.000000000000 6.645996093750 71 71 71
27.984375000000 12.000000000000 6.357971191406 3 3 3
28.000000000000 12.125000000000 6.638977050781 44 44 44
28.000000000000 12.250000000000 6.626983642578 68 68 68
28.062500000000 12.250000000000 6.500976562500 44 44 44
28.015625000000 12.250000000000 6.348999023438 4 4 4
27.968750000000 12.375000000000 6.616973876953 68 68 68
27.953125000000 12.500000000000 6.609985351563 70 70 70
27.937500000000 12.500000000000 6.322998046875 4 4 4
27.984375000000 12.625000000000 6.615997314453 60 60 60
28.000000000000 12.625000000000 6.479980468750 157 157 157
27.968750000000 12.625000000000 6.332000732422 165 165 165
28.000000000000 12.750000000000 6.621978759766 57 57 57
28.031250000000 12.750000000000 6.486999511719 171 171 171
27.984375000000 12.750000000000 6.338989257813 188 188 188
28.000000000000 12.875000000000 6.628997802734 37 37 37
28.031250000000 12.875000000000 6.494995117188 172 172 172
28.000000000000 12.875000000000 6.348999023438 202 202 202
28.000000000000 13.000000000000 6.638977050781 18 18 18
28.046875000000 13.000000000000 6.505981445313 153 153 153
28.000000000000 13.000000000000 6.357971191406 190 190 190
28.015625000000 13.125000000000 6.644989013672 10 10 10
28.062500000000 13.125000000000 6.513977050781 155 155 155
28.031250000000 13.125000000000 6.367980957031 203 203 203
28.062500000000 13.250000000000 6.661987304688 9 9 9
28.078125000000 13.250000000000 6.521972656250 149 149 149
28.062500000000 13.250000000000 6.376983642578 187 187 187
28.078125000000 13.375000000000 6.664978027344 12 12 12
28.078125000000 13.375000000000 6.523986816406 154 154 154
28.062500000000 13.375000000000 6.377990722656 197 197 197
28.046875000000 13.500000000000 6.653991699219 27 27 27
28.078125000000 13.500000000000 6.524993896484 166 166 166
28.062500000000 13.500000000000 6.378997802734 193 193 193
28.078125000000 13.625000000000 6.655975341797 33 33 33
28.109375000000 13.625000000000 6.524993896484 174 174 174
28.093750000000 13.625000000000 6.377990722656 188 188 188
28.078125000000 13.750000000000 6.654998779297 47 47 47
28.125000000000 13.750000000000 6.526000976563 155 155 155
28.109375000000 13.750000000000 6.375000000000 194 194 194
28.093750000000 13.875000000000 6.651000976563 66 66 66
28.125000000000 13.875000000000 6.518981933594 161 161 161
28.093750000000 13.875000000000 6.370971679688 170 170 170
28.078125000000 14.000000000000 6.649993896484 63 63 63
28.109375000000 14.000000000000 6.521972656250 180 180 180
28.109375000000 14.000000000000 6.373992919922 192 192 192
28.093750000000 14.125000000000 6.655975341797 56 56 56
28.140625000000 14.125000000000 6.528991699219 164 164 164
28.109375000000 14.125000000000 6.378997802734 202 202 202
28.093750000000 14.250000000000 6.664978027344 35 35 35
28.140625000000 14.250000000000 6.537994384766 167 167 167
28.125000000000 14.250000000000 6.389984130859 198 198 198
28.093750000000 14.375000000000 6.670989990234 13 13 13
28.156250000000 14.375000000000 6.547973632813 156 156 156
28.125000000000 14.375000000000 6.397979736328 187 187 187
28.109375000000 14.500000000000 6.684997558594 4 4 4
28.156250000000 14.500000000000 6.555999755859 142 142 142
28.140625000000 14.500000000000 6.408996582031 191 191 191
28.140625000000 14.625000000000 6.695983886719 14 14 14
28.171875000000 14.625000000000 6.562988281250 138 138 138
28.156250000000 14.625000000000 6.415985107422 149 149 149
28.140625000000 14.750000000000 6.701995849609 8 8 8
28.187500000000 14.750000000000 6.571990966797 129 129 129
28.171875000000 14.750000000000 6.425994873047 167 167 167
28.140625000000 14.875000000000 6.702972412109 13 13 13
28.156250000000 15.000000000000 6.703979492188 16 16 16
28.156250000000 15.125000000000 6.701995849609 13 13 13
28.171875000000 15.125000000000 6.701995849609 53 53 53
28.218750000000 15.250000000000 6.569976806641 42 42 42
28.187500000000 15.125000000000 6.419982910156 55 55 55
28.171875000000 15.375000000000 6.701995849609 67 67 67
28.171875000000 15.500000000000 6.697998046875 47 47 47
28.203125000000 15.625000000000 6.707977294922 54 54 54
28.281250000000 15.875000000000 6.890991210938 26 26 26
28.234375000000 16.000000000000 6.727996826172 45 45 45
28.296875000000 16.000000000000 6.892974853516 12 12 12
28.234375000000 16.125000000000 6.735992431641 54 54 54
28.250000000000 16.250000000000 6.738983154297 53 53 53
28.281250000000 16.125000000000 6.601989746094 44 44 44
28.281250000000 16.125000000000 6.455993652344 62 62 62
28.250000000000 16.375000000000 6.743988037109 71 71 71
28.265625000000 16.500000000000 6.740997314453 67 67 67
28.296875000000 16.625000000000 7.048980712891 28 28 28
28.265625000000 16.625000000000 6.740997314453 79 79 79
28.328125000000 16.625000000000 7.048980712891 13 13 13
28.265625000000 16.750000000000 6.739990234375 101 101 101
28.265625000000 16.875000000000 6.738983154297 106 106 106
28.296875000000 16.875000000000 6.738983154297 90 90 90
28.312500000000 17.000000000000 6.742980957031 94 94 94
28.343750000000 17.125000000000 7.201995849609 24 24 24
28.312500000000 17.125000000000 6.750000000000 96 96 96
28.359375000000 17.375000000000 7.214996337891 15 15 15
28.312500000000 17.375000000000 6.752990722656 92 92 92
28.343750000000 17.500000000000 6.760986328125 94 94 94
28.343750000000 17.625000000000 6.764984130859 90 90 90
28.359375000000 17.625000000000 6.769989013672 84 84 84
28.390625000000 17.750000000000 7.380981445313 43 43 43
28.343750000000 17.750000000000 6.767974853516 69 69 69
28.421875000000 17.875000000000 7.381988525391 17 17 17
28.406250000000 17.875000000000 6.772979736328 45 45 45
28.375000000000 18.000000000000 6.763977050781 11 11 11
28.281250000000 18.125000000000 7.478973388672 8 8 8
28.359375000000 18.125000000000 6.751983642578 5 5 5
28.359375000000 18.125000000000 4.458984375000 17 17 17
28.328125000000 18.125000000000 4.319000244141 59 59 59
28.328125000000 18.125000000000 4.178985595703 28 28 28
28.328125000000 18.125000000000 4.038970947266 72 72 72
28.359375000000 18.125000000000 3.899993896484 91 91 91
28.359375000000 18.125000000000 3.759979248047 112 112 112
28.359375000000 18.125000000000 3.619995117188 100 100 100
28.406250000000 18.125000000000 3.477996826172 179 179 179
28.390625000000 18.125000000000 3.338989257813 195 195 195
28.390625000000 18.125000000000 3.197998046875 207 207 207
28.359375000000 18.125000000000 3.059997558594 130 130 130
28.328125000000 18.125000000000 2.920989990234 130 130 130
28.328125000000 18.125000000000 2.780975341797 145 145 145
28.328125000000 18.125000000000 2.639984130859 150 150 150
28.328125000000 18.125000000000 2.498992919922 149 149 149
28.312500000000 18.125000000000 2.358978271484 151 151 151
28.312500000000 18.125000000000 2.216979980469 142 142 142
28.312500000000 18.125000000000 2.074981689453 136 136 136
28.375000000000 18.125000000000 1.922973632813 255 255 255
28.359375000000 18.125000000000 1.783996582031 235 235 235
28.343750000000 18.250000000000 7.651977539063 19 19 19
28.343750000000 18.250000000000 7.500000000000 138 138 138
28.343750000000 18.250000000000 7.343994140625 151 151 151
28.359375000000 18.250000000000 7.196990966797 178 178 178
28.359375000000 18.250000000000 7.047973632813 177 177 177
28.343750000000 18.250000000000 6.895996093750 184 184 184
28.343750000000 18.250000000000 6.744995117188 160 160 160
28.343750000000 18.250000000000 6.597991943359 179 179 179
28.359375000000 18.250000000000 6.452972412109 182 182 182
28.343750000000 18.250000000000 6.305999755859 187 187 187
28.343750000000 18.250000000000 6.158996582031 193 193 193
28.343750000000 18.250000000000 6.013977050781 192 192 192
28.343750000000 18.250000000000 5.869995117188 186 186 186
28.343750000000 18.250000000000 5.724975585938 188 188 188
28.343750000000 18.250000000000 5.582977294922 195 195 195
28.343750000000 18.250000000000 5.438995361328 200 200 200
28.343750000000 18.250000000000 5.297973632813 194 194 194
28.343750000000 18.250000000000 5.156982421875 202 202 202
28.343750000000 18.250000000000 5.014984130859 205 205 205
28.343750000000 18.250000000000 4.872985839844 203 203 203
28.343750000000 18.250000000000 4.732971191406 213 213 213
28.343750000000 18.250000000000 4.591979980469 213 213 213
28.343750000000 18.250000000000 4.451995849609 220 220 220
28.343750000000 18.250000000000 4.312988281250 206 206 206
28.343750000000 18.250000000000 4.171997070313 220 220 220
28.343750000000 18.250000000000 4.032989501953 220 220 220
28.343750000000 18.250000000000 3.892974853516 225 225 225
28.343750000000 18.250000000000 3.752990722656 218 218 218
28.328125000000 18.250000000000 3.613983154297 218 218 218
28.328125000000 18.250000000000 3.473999023438 215 215 215
28.343750000000 18.250000000000 3.333984375000 212 212 212
28.343750000000 18.250000000000 3.192993164063 222 222 222
28.328125000000 18.250000000000 3.053985595703 216 216 216
28.343750000000 18.250000000000 2.913970947266 217 217 217
28.328125000000 18.250000000000 2.773986816406 212 212 212
28.328125000000 18.250000000000 2.632995605469 215 215 215
28.343750000000 18.250000000000 2.489990234375 212 212 212
28.343750000000 18.250000000000 2.348999023438 214 214 214
28.343750000000 18.250000000000 2.207977294922 211 211 211
28.328125000000 18.250000000000 2.065979003906 207 207 207
28.343750000000 18.250000000000 1.922973632813 205 205 205
28.343750000000 18.250000000000 1.778991699219 197 197 197
28.453125000000 18.375000000000 7.527984619141 63 63 63
28.453125000000 18.375000000000 7.376983642578 74 74 74
28.453125000000 18.375000000000 7.222991943359 72 72 72
28.453125000000 18.375000000000 7.070983886719 84 84 84
28.453125000000 18.375000000000 6.917999267578 83 83 83
28.453125000000 18.375000000000 6.767974853516 75 75 75
28.437500000000 18.375000000000 6.617980957031 95 95 95
28.437500000000 18.375000000000 6.468994140625 104 104 104
28.453125000000 18.375000000000 6.322998046875 104 104 104
28.437500000000 18.375000000000 6.174987792969 102 102 102
28.437500000000 18.375000000000 6.028991699219 111 111 111
28.437500000000 18.375000000000 5.883972167969 111 111 111
28.453125000000 18.375000000000 5.739990234375 122 122 122
28.453125000000 18.375000000000 5.595977783203 144 144 144
28.453125000000 18.375000000000 5.452972412109 138 138 138
28.437500000000 18.375000000000 5.307983398438 116 116 116
28.453125000000 18.375000000000 5.165985107422 151 151 151
28.453125000000 18.375000000000 5.022979736328 149 149 149
28.453125000000 18.375000000000 4.880981445313 152 152 152
28.453125000000 18.375000000000 4.738983154297 161 161 161
28.453125000000 18.375000000000 4.597991943359 128 128 128
28.453125000000 18.375000000000 4.455993652344 149 149 149
28.453125000000 18.375000000000 4.313995361328 125 125 125
28.453125000000 18.375000000000 4.172973632813 146 146 146
28.453125000000 18.375000000000 4.031982421875 141 141 141
28.453125000000 18.375000000000 3.890991210938 146 146 146
28.453125000000 18.375000000000 3.750000000000 123 123 123
28.453125000000 18.375000000000 3.608978271484 129 129 129
28.500000000000 18.250000000000 3.465972900391 201 201 201
28.500000000000 18.250000000000 3.323974609375 197 197 197
28.515625000000 18.250000000000 3.180999755859 209 209 209
28.468750000000 18.375000000000 3.042999267578 116 116 116
28.453125000000 18.375000000000 2.901977539063 104 104 104
28.453125000000 18.375000000000 2.759979248047 100 100 100
28.453125000000 18.375000000000 2.617980957031 94 94 94
28.453125000000 18.375000000000 2.474975585938 69 69 69
28.453125000000 18.375000000000 2.330993652344 46 46 46
28.453125000000 18.375000000000 2.187988281250 24 24 24
28.468750000000 18.375000000000 2.042999267578 29 29 29
28.453125000000 18.375000000000 1.901000976563 17 17 17
28.453125000000 18.375000000000 1.754974365234 12 12 12
28.593750000000 8.875000000000 1.786987304688 211 211 211
28.562500000000 8.875000000000 1.938995361328 132 132 132
28.562500000000 8.875000000000 2.082000732422 130 130 130
28.578125000000 8.875000000000 2.224975585938 130 130 130
28.562500000000 8.875000000000 2.368988037109 126 126 126
28.562500000000 8.875000000000 2.510986328125 120 120 120
28.578125000000 8.875000000000 2.652984619141 120 120 120
28.578125000000 8.875000000000 2.794982910156 114 114 114
28.593750000000 8.875000000000 2.934997558594 114 114 114
28.593750000000 8.875000000000 3.076995849609 73 73 73
28.578125000000 8.875000000000 3.218994140625 28 28 28
28.515625000000 8.875000000000 1.800994873047 217 217 217
28.515625000000 8.875000000000 1.945983886719 218 218 218
28.515625000000 8.875000000000 2.088989257813 214 214 214
28.515625000000 8.875000000000 2.230987548828 219 219 219
28.500000000000 8.875000000000 2.375000000000 225 225 225
28.500000000000 8.875000000000 2.516998291016 223 223 223
28.500000000000 8.875000000000 2.657989501953 221 221 221
28.500000000000 8.875000000000 2.798980712891 225 225 225
28.500000000000 8.875000000000 2.939971923828 225 225 225
28.500000000000 8.875000000000 3.079986572266 226 226 226
28.484375000000 8.875000000000 3.220001220703 227 227 227
28.484375000000 8.875000000000 3.359985351563 226 226 226
28.484375000000 8.875000000000 3.500000000000 231 231 231
28.484375000000 9.000000000000 3.638977050781 227 227 227
28.484375000000 8.875000000000 3.778991699219 227 227 227
28.468750000000 9.000000000000 3.917999267578 231 231 231
28.468750000000 9.000000000000 4.056976318359 230 230 230
28.468750000000 9.000000000000 4.195983886719 228 228 228
28.468750000000 9.000000000000 4.335998535156 231 231 231
28.468750000000 9.000000000000 4.475982666016 236 236 236
28.484375000000 9.000000000000 4.615997314453 231 231 231
28.468750000000 9.000000000000 4.754974365234 234 234 234
28.484375000000 9.000000000000 4.895996093750 222 222 222
28.484375000000 9.000000000000 5.035980224609 224 224 224
28.484375000000 9.000000000000 5.177978515625 220 220 220
28.484375000000 9.000000000000 5.319000244141 211 211 211
28.500000000000 9.000000000000 5.460998535156 199 199 199
28.500000000000 9.000000000000 5.603973388672 183 183 183
28.500000000000 9.000000000000 5.746978759766 161 161 161
28.500000000000 9.000000000000 5.889984130859 151 151 151
28.500000000000 9.000000000000 6.034973144531 122 122 122
28.515625000000 9.000000000000 6.180999755859 41 41 41
28.484375000000 9.000000000000 1.944976806641 40 40 40
28.500000000000 9.000000000000 2.085998535156 94 94 94
28.484375000000 9.000000000000 2.230987548828 125 125 125
28.484375000000 9.000000000000 2.371978759766 121 121 121
28.468750000000 9.000000000000 2.514984130859 134 134 134
28.484375000000 9.000000000000 2.654998779297 154 154 154
28.468750000000 9.000000000000 2.796997070313 163 163 163
28.468750000000 9.000000000000 2.936981201172 181 181 181
28.468750000000 9.000000000000 3.076995849609 204 204 204
28.468750000000 9.000000000000 3.216979980469 175 175 175
28.468750000000 9.000000000000 3.355987548828 211 211 211
28.453125000000 9.000000000000 3.495971679688 214 214 214
28.437500000000 9.000000000000 3.634979248047 218 218 218
28.453125000000 9.000000000000 3.773986816406 216 216 216
28.437500000000 9.000000000000 3.912994384766 222 222 222
28.437500000000 9.000000000000 4.051971435547 206 206 206
28.437500000000 9.000000000000 4.190979003906 224 224 224
28.437500000000 9.000000000000 4.328979492188 218 218 218
28.437500000000 9.000000000000 4.467987060547 219 219 219
28.437500000000 9.000000000000 4.606994628906 218 218 218
28.421875000000 9.000000000000 4.745971679688 223 223 223
28.421875000000 9.000000000000 4.884979248047 219 219 219
28.421875000000 9.000000000000 5.024993896484 218 218 218
28.437500000000 9.000000000000 5.164978027344 218 218 218
28.421875000000 9.000000000000 5.304992675781 204 204 204
28.421875000000 9.000000000000 5.445983886719 209 209 209
28.421875000000 9.000000000000 5.586975097656 208 208 208
28.437500000000 9.000000000000 5.729980468750 199 199 199
28.437500000000 9.000000000000 5.871978759766 204 204 204
28.421875000000 9.000000000000 6.011993408203 212 212 212
28.437500000000 9.000000000000 6.156982421875 215 215 215
28.437500000000 9.000000000000 6.301971435547 207 207 207
28.437500000000 9.000000000000 6.446990966797 197 197 197
28.421875000000 9.000000000000 6.589996337891 193 193 193
28.437500000000 9.000000000000 6.738983154297 196 196 196
28.437500000000 9.000000000000 6.884979248047 170 170 170
28.437500000000 9.125000000000 7.035980224609 199 199 199
28.437500000000 9.125000000000 7.184997558594 203 203 203
28.421875000000 9.125000000000 7.329986572266 162 162 162
28.437500000000 9.125000000000 7.487976074219 111 111 111
28.406250000000 9.125000000000 7.628997802734 36 36 36
28.437500000000 9.125000000000 6.295989990234 40 40 40
28.421875000000 9.125000000000 6.436981201172 79 79 79
28.390625000000 9.125000000000 6.575988769531 77 77 77
28.406250000000 9.125000000000 6.723999023438 111 111 111
28.406250000000 9.125000000000 6.871978759766 113 113 113
28.406250000000 9.125000000000 7.016998291016 109 109 109
28.390625000000 9.125000000000 7.159973144531 123 123 123
28.390625000000 9.125000000000 7.311981201172 138 138 138
28.390625000000 9.125000000000 7.458984375000 124 124 124
28.375000000000 9.125000000000 7.607971191406 77 77 77
28.437500000000 9.250000000000 6.734985351563 28 28 28
28.343750000000 9.250000000000 7.446990966797 49 49 49
28.421875000000 9.375000000000 6.732971191406 49 49 49
28.390625000000 9.500000000000 6.728973388672 66 66 66
28.375000000000 9.625000000000 6.729980468750 86 86 86
28.375000000000 9.625000000000 7.330993652344 52 52 52
28.359375000000 9.750000000000 6.726989746094 95 95 95
28.328125000000 9.875000000000 6.726989746094 92 92 92
28.312500000000 10.000000000000 6.720001220703 96 96 96
28.296875000000 10.125000000000 6.715972900391 96 96 96
28.265625000000 10.250000000000 6.702972412109 87 87 87
28.265625000000 10.250000000000 7.144989013672 23 23 23
28.265625000000 10.250000000000 6.695983886719 83 83 83
28.250000000000 10.375000000000 7.136993408203 42 42 42
28.250000000000 10.375000000000 6.682983398438 71 71 71
28.281250000000 10.375000000000 7.127990722656 26 26 26
28.234375000000 10.500000000000 6.676971435547 80 80 80
28.218750000000 10.625000000000 6.673980712891 86 86 86
28.171875000000 10.875000000000 6.668975830078 100 100 100
28.218750000000 10.875000000000 6.970977783203 21 21 21
28.140625000000 11.000000000000 6.667999267578 97 97 97
28.140625000000 11.125000000000 6.532989501953 54 54 54
28.125000000000 11.125000000000 6.669982910156 97 97 97
28.093750000000 11.625000000000 6.658996582031 22 22 22
28.031250000000 11.625000000000 6.351989746094 40 40 40
28.062500000000 11.625000000000 6.640991210938 90 90 90
28.093750000000 11.625000000000 6.792999267578 34 34 34
28.000000000000 11.875000000000 6.319976806641 30 30 30
28.031250000000 12.000000000000 6.610992431641 97 97 97
27.984375000000 12.000000000000 6.317993164063 34 34 34
28.000000000000 12.000000000000 6.603973388672 90 90 90
27.968750000000 12.125000000000 6.317993164063 68 68 68
28.015625000000 12.250000000000 6.470001220703 56 56 56
28.000000000000 12.125000000000 6.603973388672 93 93 93
27.953125000000 12.250000000000 6.315979003906 38 38 38
27.984375000000 12.250000000000 6.603973388672 95 95 95
27.968750000000 12.375000000000 6.322998046875 26 26 26
27.968750000000 12.500000000000 6.609985351563 91 91 91
27.937500000000 12.500000000000 6.322998046875 26 26 26
27.984375000000 12.625000000000 6.473999023438 35 35 35
27.968750000000 12.625000000000 6.610992431641 85 85 85
27.968750000000 12.750000000000 6.330993652344 172 172 172
28.000000000000 12.750000000000 6.478973388672 172 172 172
27.968750000000 12.750000000000 6.611999511719 86 86 86
27.984375000000 12.875000000000 6.330993652344 176 176 176
28.015625000000 12.875000000000 6.480987548828 176 176 176
28.000000000000 12.875000000000 6.615997314453 85 85 85
27.984375000000 13.000000000000 6.325988769531 155 155 155
27.984375000000 13.000000000000 6.466979980469 151 151 151
27.984375000000 13.000000000000 6.608978271484 85 85 85
28.000000000000 13.000000000000 6.319976806641 134 134 134
28.046875000000 13.125000000000 6.468994140625 157 157 157
28.015625000000 13.125000000000 6.604980468750 78 78 78
28.015625000000 13.125000000000 6.313995361328 117 117 117
28.031250000000 13.250000000000 6.461975097656 167 167 167
28.031250000000 13.125000000000 6.599975585938 73 73 73
28.031250000000 13.375000000000 6.311981201172 91 91 91
28.062500000000 13.375000000000 6.462982177734 179 179 179
28.046875000000 13.375000000000 6.597991943359 51 51 51
28.031250000000 13.500000000000 6.316986083984 103 103 103
28.062500000000 13.500000000000 6.463989257813 133 133 133
28.031250000000 13.500000000000 6.595977783203 58 58 58
28.046875000000 13.625000000000 6.321990966797 112 112 112
28.093750000000 13.625000000000 6.472991943359 174 174 174
28.046875000000 13.625000000000 6.603973388672 67 67 67
28.078125000000 13.750000000000 6.332000732422 136 136 136
28.125000000000 13.750000000000 6.485992431641 180 180 180
28.062500000000 13.750000000000 6.612976074219 79 79 79
28.093750000000 13.875000000000 6.342987060547 148 148 148
28.125000000000 13.875000000000 6.493988037109 173 173 173
28.078125000000 13.875000000000 6.622985839844 83 83 83
28.093750000000 14.000000000000 6.354980468750 165 165 165
28.125000000000 14.125000000000 6.501983642578 117 117 117
28.093750000000 14.000000000000 6.634979248047 89 89 89
28.125000000000 14.125000000000 6.360992431641 163 163 163
28.140625000000 14.250000000000 6.509979248047 162 162 162
28.093750000000 14.125000000000 6.639984130859 85 85 85
28.109375000000 14.375000000000 6.364990234375 169 169 169
28.140625000000 14.375000000000 6.513000488281 143 143 143
28.078125000000 14.250000000000 6.638977050781 77 77 77
28.125000000000 14.500000000000 6.361999511719 147 147 147
28.125000000000 14.500000000000 6.510986328125 142 142 142
28.093750000000 14.500000000000 6.639984130859 77 77 77
28.156250000000 14.625000000000 6.356994628906 110 110 110
28.140625000000 14.625000000000 6.502990722656 155 155 155
28.109375000000 14.625000000000 6.632995605469 56 56 56
28.156250000000 14.750000000000 6.353973388672 56 56 56
28.187500000000 14.750000000000 6.502990722656 187 187 187
28.140625000000 14.750000000000 6.634979248047 29 29 29
28.156250000000 14.750000000000 6.345977783203 51 51 51
28.140625000000 14.750000000000 6.485992431641 8 8 8
28.125000000000 14.750000000000 6.625000000000 28 28 28
28.156250000000 14.875000000000 6.345001220703 30 30 30
28.171875000000 15.000000000000 6.345001220703 20 20 20
28.187500000000 15.125000000000 6.355987548828 47 47 47
28.187500000000 15.250000000000 6.501983642578 39 39 39
28.187500000000 15.125000000000 6.641998291016 72 72 72
28.187500000000 15.375000000000 6.366973876953 45 45 45
28.156250000000 15.375000000000 6.645996093750 67 67 67
28.218750000000 15.500000000000 6.376983642578 55 55 55
28.203125000000 15.500000000000 6.660980224609 34 34 34
28.218750000000 15.625000000000 6.384979248047 58 58 58
28.203125000000 15.625000000000 6.669982910156 42 42 42
28.218750000000 15.625000000000 6.819000244141 34 34 34
28.234375000000 15.750000000000 6.388977050781 47 47 47
28.218750000000 15.750000000000 6.675994873047 34 34 34
28.234375000000 15.875000000000 6.388977050781 38 38 38
28.234375000000 15.875000000000 6.676971435547 22 22 22
28.250000000000 16.000000000000 6.384979248047 29 29 29
28.296875000000 16.250000000000 6.532989501953 25 25 25
28.281250000000 16.125000000000 6.676971435547 48 48 48
28.265625000000 16.125000000000 6.963989257813 28 28 28
28.250000000000 16.750000000000 6.803985595703 9 9 9
28.312500000000 16.750000000000 7.115997314453 7 7 7
28.312500000000 16.875000000000 7.125000000000 24 24 24
28.359375000000 17.500000000000 7.305999755859 7 7 7
28.343750000000 17.625000000000 7.301971435547 12 12 12
28.328125000000 17.750000000000 6.838989257813 24 24 24
28.343750000000 17.875000000000 6.834991455078 70 70 70
28.390625000000 17.875000000000 7.449981689453 27 27 27
28.359375000000 18.000000000000 6.836975097656 73 73 73
28.406250000000 18.000000000000 7.452972412109 70 70 70
28.390625000000 18.125000000000 1.721984863281 187 187 187
28.406250000000 18.125000000000 1.863983154297 190 190 190
28.390625000000 18.125000000000 2.008972167969 194 194 194
28.406250000000 18.125000000000 2.151000976563 198 198 198
28.390625000000 18.125000000000 2.293975830078 207 207 207
28.406250000000 18.125000000000 2.434997558594 202 202 202
28.406250000000 18.125000000000 2.576995849609 216 216 216
28.406250000000 18.125000000000 2.718994140625 216 216 216
28.406250000000 18.125000000000 2.858978271484 219 219 219
28.390625000000 18.125000000000 3.000976562500 226 226 226
28.390625000000 18.125000000000 3.141998291016 228 228 228
28.406250000000 18.125000000000 3.281982421875 226 226 226
28.406250000000 18.125000000000 3.421997070313 216 216 216
28.406250000000 18.125000000000 3.561981201172 228 228 228
28.390625000000 18.125000000000 3.702972412109 228 228 228
28.390625000000 18.125000000000 3.842987060547 222 222 222
28.390625000000 18.125000000000 3.982971191406 226 226 226
28.406250000000 18.125000000000 4.122985839844 222 222 222
28.390625000000 18.125000000000 4.263000488281 220 220 220
28.390625000000 18.125000000000 4.403991699219 204 204 204
28.390625000000 18.125000000000 4.543975830078 200 200 200
28.390625000000 18.125000000000 4.684997558594 200 200 200
28.390625000000 18.125000000000 4.824981689453 191 191 191
28.375000000000 18.125000000000 4.965972900391 173 173 173
28.390625000000 18.125000000000 5.107971191406 178 178 178
28.390625000000 18.125000000000 5.250000000000 172 172 172
28.390625000000 18.125000000000 5.391998291016 169 169 169
28.390625000000 18.125000000000 5.535980224609 170 170 170
28.390625000000 18.125000000000 5.676971435547 168 168 168
28.390625000000 18.125000000000 5.820983886719 155 155 155
28.375000000000 18.125000000000 5.963989257813 156 156 156
28.375000000000 18.125000000000 6.107971191406 160 160 160
28.390625000000 18.125000000000 6.254974365234 144 144 144
28.375000000000 18.125000000000 6.399993896484 155 155 155
28.375000000000 18.125000000000 6.543975830078 150 150 150
28.375000000000 18.125000000000 6.694000244141 156 156 156
28.359375000000 18.125000000000 6.835998535156 105 105 105
28.390625000000 18.125000000000 6.994995117188 171 171 171
28.375000000000 18.125000000000 7.139984130859 156 156 156
28.375000000000 18.125000000000 7.290985107422 162 162 162
28.375000000000 18.125000000000 7.441986083984 142 142 142
28.375000000000 18.125000000000 7.596984863281 161 161 161
28.312500000000 18.250000000000 1.735992431641 203 203 203
28.312500000000 18.250000000000 1.879974365234 199 199 199
28.296875000000 18.250000000000 2.022979736328 203 203 203
28.312500000000 18.250000000000 2.162994384766 215 215 215
28.312500000000 18.250000000000 2.303985595703 211 211 211
28.312500000000 18.250000000000 2.445983886719 204 204 204
28.328125000000 18.250000000000 2.585998535156 197 197 197
28.328125000000 18.250000000000 2.726989746094 201 201 201
28.312500000000 18.250000000000 2.866973876953 206 206 206
28.328125000000 18.250000000000 3.006988525391 215 215 215
28.328125000000 18.250000000000 3.146972656250 215 215 215
28.328125000000 18.250000000000 3.285980224609 218 218 218
28.328125000000 18.250000000000 3.425994873047 222 222 222
28.328125000000 18.250000000000 3.564971923828 222 222 222
28.312500000000 18.250000000000 3.704986572266 226 226 226
28.312500000000 18.250000000000 3.843994140625 231 231 231
28.312500000000 18.250000000000 3.982971191406 230 230 230
28.328125000000 18.250000000000 4.121978759766 230 230 230
28.328125000000 18.250000000000 4.261993408203 221 221 221
28.328125000000 18.250000000000 4.401000976563 225 225 225
28.328125000000 18.250000000000 4.539978027344 227 227 227
28.328125000000 18.250000000000 4.679992675781 225 225 225
28.328125000000 18.250000000000 4.820983886719 218 218 218
28.328125000000 18.250000000000 4.960998535156 209 209 209
28.343750000000 18.250000000000 5.102996826172 225 225 225
28.343750000000 18.250000000000 5.243988037109 222 222 222
28.343750000000 18.250000000000 5.385986328125 216 216 216
28.328125000000 18.250000000000 5.526000976563 202 202 202
28.343750000000 18.250000000000 5.670989990234 199 199 199
28.343750000000 18.250000000000 5.813995361328 191 191 191
28.343750000000 18.250000000000 5.957000732422 188 188 188
28.328125000000 18.250000000000 6.098999023438 190 190 190
28.328125000000 18.250000000000 6.243988037109 187 187 187
28.328125000000 18.250000000000 6.386993408203 171 171 171
28.328125000000 18.250000000000 6.532989501953 156 156 156
28.328125000000 18.250000000000 6.679992675781 153 153 153
28.312500000000 18.250000000000 6.822998046875 96 96 96
28.328125000000 18.250000000000 6.975982666016 145 145 145
28.328125000000 18.250000000000 7.125000000000 137 137 137
28.343750000000 18.250000000000 7.277984619141 116 116 116
28.343750000000 18.250000000000 7.430999755859 102 102 102
28.343750000000 18.250000000000 7.583984375000 118 118 118
28.484375000000 9.000000000000 5.868988037109 39 39 39
28.484375000000 9.000000000000 5.742980957031 109 109 109
28.484375000000 9.000000000000 5.617980957031 145 145 145
28.468750000000 9.000000000000 5.491973876953 159 159 159
28.468750000000 9.000000000000 5.366973876953 173 173 173
28.453125000000 9.000000000000 5.242980957031 190 190 190
28.468750000000 9.000000000000 5.121978759766 188 188 188
28.468750000000 9.000000000000 4.998992919922 196 196 196
28.468750000000 9.000000000000 4.876983642578 199 199 199
28.468750000000 9.000000000000 4.754974365234 220 220 220
28.468750000000 9.000000000000 4.633972167969 218 218 218
28.468750000000 9.000000000000 4.511993408203 228 228 228
28.468750000000 9.000000000000 4.390991210938 231 231 231
28.468750000000 9.000000000000 4.269989013672 228 228 228
28.453125000000 9.000000000000 4.148986816406 223 223 223
28.468750000000 9.000000000000 4.028991699219 216 216 216
28.468750000000 9.000000000000 3.908996582031 221 221 221
28.468750000000 9.000000000000 3.788970947266 213 213 213
28.468750000000 9.000000000000 3.667999267578 223 223 223
28.484375000000 8.875000000000 3.547973632813 221 221 221
28.468750000000 9.000000000000 3.427978515625 224 224 224
28.500000000000 8.875000000000 3.306976318359 217 217 217
28.484375000000 8.875000000000 3.186981201172 211 211 211
28.500000000000 8.875000000000 3.065979003906 212 212 212
28.484375000000 8.875000000000 2.944976806641 217 217 217
28.500000000000 8.875000000000 2.823974609375 215 215 215
28.500000000000 8.875000000000 2.701995849609 208 208 208
28.500000000000 8.875000000000 2.579986572266 207 207 207
28.500000000000 8.875000000000 2.457977294922 212 212 212
28.515625000000 8.875000000000 2.334991455078 203 203 203
28.500000000000 8.875000000000 2.212982177734 195 195 195
28.515625000000 8.875000000000 2.087982177734 202 202 202
28.515625000000 8.875000000000 1.964996337891 193 193 193
28.515625000000 8.875000000000 1.839996337891 197 197 197
28.515625000000 8.875000000000 1.714996337891 192 192 192
28.421875000000 9.125000000000 7.555999755859 167 167 167
28.406250000000 9.125000000000 7.413970947266 145 145 145
28.406250000000 9.125000000000 7.282989501953 194 194 194
28.406250000000 9.125000000000 7.146972656250 190 190 190
28.421875000000 9.125000000000 7.016998291016 182 182 182
28.406250000000 9.125000000000 6.882995605469 182 182 182
28.390625000000 9.125000000000 6.746978759766 127 127 127
28.406250000000 9.125000000000 6.621978759766 188 188 188
28.421875000000 9.125000000000 6.494995117188 188 188 188
28.421875000000 9.125000000000 6.368988037109 192 192 192
28.421875000000 9.125000000000 6.239990234375 192 192 192
28.437500000000 9.125000000000 6.116973876953 182 182 182
28.437500000000 9.125000000000 5.989990234375 181 181 181
28.421875000000 9.125000000000 5.862976074219 179 179 179
28.437500000000 9.125000000000 5.739990234375 179 179 179
28.437500000000 9.125000000000 5.613983154297 185 185 185
28.437500000000 9.125000000000 5.490997314453 188 188 188
28.453125000000 9.125000000000 5.370971679688 188 188 188
28.437500000000 9.125000000000 5.245971679688 184 184 184
28.437500000000 9.125000000000 5.122985839844 192 192 192
28.468750000000 9.125000000000 5.002990722656 185 185 185
28.453125000000 9.125000000000 4.880981445313 174 174 174
28.468750000000 9.125000000000 4.759979248047 181 181 181
28.468750000000 9.125000000000 4.638000488281 175 175 175
28.468750000000 9.125000000000 4.516998291016 191 191 191
28.468750000000 9.125000000000 4.396972656250 180 180 180
28.468750000000 9.125000000000 4.276000976563 195 195 195
28.484375000000 9.125000000000 4.154998779297 185 185 185
28.484375000000 9.125000000000 4.034973144531 183 183 183
28.484375000000 9.125000000000 3.913970947266 192 192 192
28.484375000000 9.125000000000 3.793975830078 183 183 183
28.500000000000 9.125000000000 3.672973632813 186 186 186
28.500000000000 9.125000000000 3.551971435547 158 158 158
28.500000000000 9.125000000000 3.431976318359 188 188 188
28.515625000000 9.000000000000 3.309997558594 182 182 182
28.531250000000 9.000000000000 3.188995361328 157 157 157
28.515625000000 9.000000000000 3.067993164063 150 150 150
28.531250000000 9.000000000000 2.945983886719 146 146 146
28.546875000000 9.000000000000 2.822998046875 149 149 149
28.531250000000 9.000000000000 2.701995849609 151 151 151
28.531250000000 9.000000000000 2.579986572266 98 98 98
28.546875000000 9.000000000000 2.454986572266 68 68 68
28.546875000000 9.000000000000 2.332000732422 16 16 16
28.437500000000 9.250000000000 7.564971923828 8 8 8
28.359375000000 9.250000000000 7.402984619141 93 93 93
28.421875000000 9.250000000000 6.755981445313 85 85 85
28.421875000000 9.375000000000 6.765991210938 53 53 53
28.406250000000 9.375000000000 6.763000488281 71 71 71
28.390625000000 9.500000000000 6.753997802734 73 73 73
28.390625000000 9.625000000000 7.283996582031 53 53 53
28.375000000000 9.625000000000 6.745971679688 91 91 91
28.375000000000 9.750000000000 7.274993896484 53 53 53
28.343750000000 9.750000000000 6.733978271484 106 106 106
28.328125000000 9.875000000000 6.723999023438 122 122 122
28.312500000000 10.000000000000 6.713989257813 120 120 120
28.281250000000 10.125000000000 6.703979492188 114 114 114
28.296875000000 10.250000000000 7.102996826172 47 47 47
28.265625000000 10.250000000000 6.703979492188 106 106 106
28.281250000000 10.375000000000 7.098999023438 16 16 16
28.265625000000 10.375000000000 6.699981689453 102 102 102
28.218750000000 10.625000000000 6.697998046875 56 56 56
28.218750000000 10.750000000000 6.963989257813 10 10 10
28.218750000000 10.750000000000 6.702972412109 24 24 24
28.218750000000 10.875000000000 6.964996337891 52 52 52
28.187500000000 10.875000000000 6.697998046875 10 10 10
28.218750000000 11.000000000000 6.965972900391 4 4 4
28.171875000000 11.000000000000 6.694976806641 10 10 10
28.171875000000 11.125000000000 6.689971923828 21 21 21
28.125000000000 11.250000000000 6.676971435547 23 23 23
28.171875000000 11.250000000000 6.560974121094 9 9 9
28.125000000000 11.250000000000 6.422973632813 72 72 72
28.140625000000 11.375000000000 6.799987792969 5 5 5
28.125000000000 11.375000000000 6.664978027344 53 53 53
28.125000000000 11.500000000000 6.792999267578 44 44 44
28.093750000000 11.500000000000 6.651977539063 59 59 59
28.093750000000 11.625000000000 6.779998779297 25 25 25
28.078125000000 11.625000000000 6.645996093750 61 61 61
28.062500000000 11.750000000000 6.641998291016 47 47 47
28.062500000000 11.875000000000 6.639984130859 32 32 32
28.046875000000 12.000000000000 6.642974853516 104 104 104
28.046875000000 12.000000000000 6.516998291016 65 65 65
28.062500000000 12.250000000000 6.531982421875 94 94 94
28.031250000000 12.250000000000 6.395996093750 11 11 11
27.984375000000 12.250000000000 6.263000488281 15 15 15
27.953125000000 12.375000000000 6.259979248047 27 27 27
27.921875000000 12.500000000000 6.256988525391 77 77 77
28.000000000000 12.625000000000 6.519989013672 78 78 78
28.015625000000 12.625000000000 6.397979736328 177 177 177
27.953125000000 12.625000000000 6.258972167969 81 81 81
28.015625000000 12.750000000000 6.517974853516 87 87 87
28.015625000000 12.750000000000 6.391998291016 167 167 167
28.000000000000 12.750000000000 6.260986328125 38 38 38
28.015625000000 12.875000000000 6.635986328125 2 2 2
28.031250000000 12.875000000000 6.515991210938 115 115 115
28.015625000000 12.875000000000 6.385986328125 193 193 193
28.000000000000 12.875000000000 6.256988525391 9 9 9
28.015625000000 13.000000000000 6.630981445313 16 16 16
28.031250000000 13.000000000000 6.511993408203 140 140 140
28.031250000000 13.000000000000 6.383972167969 199 199 199
28.031250000000 13.125000000000 6.629974365234 31 31 31
28.062500000000 13.125000000000 6.513977050781 155 155 155
28.062500000000 13.125000000000 6.384979248047 178 178 178
28.046875000000 13.250000000000 6.634979248047 24 24 24
28.062500000000 13.250000000000 6.513977050781 150 150 150
28.062500000000 13.250000000000 6.384979248047 177 177 177
28.046875000000 13.375000000000 6.635986328125 12 12 12
28.078125000000 13.375000000000 6.518981933594 134 134 134
28.062500000000 13.375000000000 6.390991210938 186 186 186
28.093750000000 13.500000000000 6.528991699219 114 114 114
28.078125000000 13.500000000000 6.398986816406 176 176 176
28.078125000000 13.500000000000 6.274993896484 15 15 15
28.109375000000 13.625000000000 6.536987304688 91 91 91
28.125000000000 13.625000000000 6.412994384766 150 150 150
28.093750000000 13.625000000000 6.280975341797 52 52 52
28.140625000000 13.750000000000 6.549987792969 69 69 69
28.125000000000 13.750000000000 6.421997070313 187 187 187
28.093750000000 13.750000000000 6.285980224609 76 76 76
28.125000000000 13.875000000000 6.552978515625 53 53 53
28.125000000000 13.875000000000 6.427978515625 181 181 181
28.109375000000 13.875000000000 6.293975830078 66 66 66
28.109375000000 14.000000000000 6.550994873047 81 81 81
28.109375000000 14.000000000000 6.421997070313 110 110 110
28.093750000000 14.000000000000 6.293975830078 40 40 40
28.078125000000 14.125000000000 6.658996582031 4 4 4
28.140625000000 14.250000000000 6.552978515625 108 108 108
28.156250000000 14.250000000000 6.427978515625 148 148 148
28.125000000000 14.125000000000 6.296997070313 11 11 11
28.109375000000 14.375000000000 6.663970947266 35 35 35
28.156250000000 14.375000000000 6.547973632813 155 155 155
28.140625000000 14.375000000000 6.417999267578 168 168 168
28.109375000000 14.500000000000 6.654998779297 60 60 60
28.156250000000 14.500000000000 6.541992187500 165 165 165
28.156250000000 14.500000000000 6.414978027344 168 168 168
28.125000000000 14.625000000000 6.647979736328 109 109 109
28.187500000000 14.625000000000 6.538970947266 182 182 182
28.171875000000 14.625000000000 6.404998779297 186 186 186
28.140625000000 14.750000000000 6.645996093750 132 132 132
28.187500000000 14.750000000000 6.532989501953 186 186 186
28.156250000000 14.750000000000 6.398986816406 190 190 190
28.125000000000 14.750000000000 6.638977050781 120 120 120
28.171875000000 14.750000000000 6.526000976563 92 92 92
28.156250000000 14.750000000000 6.393981933594 96 96 96
28.140625000000 14.875000000000 6.645996093750 115 115 115
28.171875000000 15.000000000000 6.652984619141 124 124 124
28.171875000000 15.125000000000 6.661987304688 117 117 117
28.218750000000 15.250000000000 6.546997070313 44 44 44
28.218750000000 15.250000000000 6.416992187500 24 24 24
28.171875000000 15.375000000000 6.666992187500 98 98 98
28.203125000000 15.500000000000 6.675994873047 99 99 99
28.203125000000 15.625000000000 6.675994873047 112 112 112
28.234375000000 15.750000000000 6.812988281250 68 68 68
28.203125000000 15.750000000000 6.674987792969 122 122 122
28.218750000000 15.875000000000 6.671997070313 109 109 109
28.234375000000 16.000000000000 6.665985107422 87 87 87
28.234375000000 16.000000000000 6.409973144531 40 40 40
28.281250000000 16.000000000000 6.928985595703 11 11 11
28.234375000000 16.125000000000 6.658996582031 63 63 63
28.265625000000 16.000000000000 6.405975341797 67 67 67
28.296875000000 16.250000000000 6.928985595703 66 66 66
28.265625000000 16.125000000000 6.658996582031 96 96 96
28.281250000000 16.125000000000 6.535980224609 68 68 68
28.281250000000 16.125000000000 6.402984619141 93 93 93
28.265625000000 16.375000000000 6.660980224609 8 8 8
28.281250000000 16.500000000000 6.664978027344 9 9 9
28.296875000000 16.625000000000 6.673980712891 45 45 45
28.296875000000 16.750000000000 7.084991455078 30 30 30
28.296875000000 16.750000000000 6.687988281250 45 45 45
28.343750000000 16.875000000000 7.099975585938 62 62 62
28.312500000000 16.875000000000 6.694976806641 53 53 53
28.312500000000 17.000000000000 6.702972412109 86 86 86
28.312500000000 17.125000000000 6.704986572266 33 33 33
28.343750000000 17.375000000000 6.709991455078 18 18 18
28.375000000000 17.500000000000 7.241973876953 50 50 50
28.390625000000 17.750000000000 7.362976074219 62 62 62
28.343750000000 17.750000000000 6.809997558594 13 13 13
28.421875000000 17.875000000000 7.371978759766 55 55 55
28.390625000000 17.875000000000 6.820983886719 18 18 18
28.421875000000 18.000000000000 7.375000000000 13 13 13
28.390625000000 18.000000000000 6.823974609375 15 15 15
28.390625000000 18.125000000000 7.507995605469 59 59 59
28.406250000000 18.125000000000 7.377990722656 70 70 70
28.406250000000 18.125000000000 7.237976074219 64 64 64
28.406250000000 18.125000000000 7.103973388672 50 50 50
28.390625000000 18.125000000000 6.965972900391 67 67 67
28.328125000000 18.125000000000 6.819000244141 39 39 39
28.406250000000 18.125000000000 6.705993652344 47 47 47
28.390625000000 18.125000000000 6.571990966797 46 46 46
28.406250000000 18.125000000000 6.442993164063 47 47 47
28.375000000000 18.125000000000 6.307983398438 48 48 48
28.406250000000 18.125000000000 5.677978515625 67 67 67
28.390625000000 18.125000000000 5.549987792969 83 83 83
28.390625000000 18.125000000000 4.930999755859 116 116 116
28.390625000000 18.125000000000 4.807983398438 119 119 119
28.390625000000 18.125000000000 4.684997558594 122 122 122
28.375000000000 18.125000000000 3.836975097656 166 166 166
28.390625000000 18.125000000000 3.715972900391 173 173 173
28.375000000000 18.125000000000 3.595977783203 180 180 180
28.390625000000 18.125000000000 3.474975585938 192 192 192
28.390625000000 18.125000000000 3.353973388672 200 200 200
28.390625000000 18.125000000000 3.232971191406 208 208 208
28.390625000000 18.125000000000 3.111999511719 206 206 206
