15.250000000000 17.500000000000 23.481000900269 167 167 167
15.250000000000 17.500000000000 23.485000610352 160 160 160
15.250000000000 17.437500000000 23.488000869751 165 165 165
15.187500000000 17.437500000000 23.489000320435 165 165 165
15.187500000000 17.437500000000 23.492000579834 150 150 150
15.125000000000 17.375000000000 23.483001708984 175 175 175
15.062500000000 17.312500000000 23.482000350952 171 171 171
15.000000000000 17.312500000000 23.488000869751 169 169 169
14.937500000000 17.312500000000 23.483001708984 174 174 174
14.937500000000 17.312500000000 23.488000869751 175 175 175
14.937500000000 17.250000000000 23.485000610352 176 176 176
14.875000000000 17.187500000000 23.492000579834 177 177 177
14.750000000000 17.125000000000 23.492000579834 173 173 173
14.750000000000 17.187500000000 23.492000579834 172 172 172
14.750000000000 17.187500000000 23.492000579834 164 164 164
14.687500000000 17.125000000000 23.492000579834 161 161 161
14.625000000000 17.062500000000 23.490001678467 159 159 159
14.562500000000 17.000000000000 23.492000579834 168 168 168
14.500000000000 16.937500000000 23.494001388550 170 170 170
14.437500000000 17.000000000000 23.494001388550 167 167 167
14.437500000000 16.937500000000 23.491001129150 162 162 162
14.312500000000 16.875000000000 23.492000579834 152 152 152
14.250000000000 16.812500000000 23.486000061035 167 167 167
14.187500000000 16.750000000000 23.490001678467 131 131 131
14.187500000000 16.750000000000 23.490001678467 138 138 138
14.062500000000 16.687500000000 23.486000061035 144 144 144
14.000000000000 16.625000000000 23.480001449585 146 146 146
13.937500000000 16.562500000000 23.483001708984 118 118 118
13.812500000000 16.562500000000 23.483001708984 129 129 129
13.750000000000 16.500000000000 23.477001190186 139 139 139
13.687500000000 16.437500000000 23.478000640869 131 131 131
13.562500000000 16.312500000000 23.476001739502 116 116 116
13.500000000000 16.312500000000 23.474000930786 114 114 114
13.437500000000 16.250000000000 23.476001739502 118 118 118
13.312500000000 16.187500000000 23.476001739502 124 124 124
13.250000000000 16.125000000000 23.468000411987 109 109 109
13.062500000000 16.062500000000 23.474000930786 101 101 101
15.250000000000 17.375000000000 23.487001419067 162 162 162
15.187500000000 17.312500000000 23.488000869751 169 169 169
15.187500000000 17.312500000000 23.484001159668 171 171 171
15.187500000000 17.250000000000 23.486000061035 173 173 173
15.125000000000 17.187500000000 23.483001708984 171 171 171
15.062500000000 17.187500000000 23.487001419067 174 174 174
15.000000000000 17.250000000000 23.486000061035 167 167 167
15.000000000000 17.187500000000 23.490001678467 174 174 174
14.937500000000 17.125000000000 23.485000610352 170 170 170
14.875000000000 17.062500000000 23.488000869751 172 172 172
14.875000000000 17.062500000000 23.492000579834 172 172 172
14.812500000000 17.062500000000 23.488000869751 171 171 171
14.750000000000 17.062500000000 23.491001129150 167 167 167
14.687500000000 17.000000000000 23.489000320435 174 174 174
14.687500000000 16.937500000000 23.499000549316 165 165 165
14.625000000000 16.875000000000 23.488000869751 173 173 173
14.500000000000 16.875000000000 23.492000579834 171 171 171
14.500000000000 16.812500000000 23.488000869751 146 146 146
14.437500000000 16.812500000000 23.491001129150 166 166 166
14.437500000000 16.750000000000 23.487001419067 156 156 156
14.312500000000 16.750000000000 23.488000869751 138 138 138
14.250000000000 16.687500000000 23.491001129150 133 133 133
14.250000000000 16.687500000000 23.485000610352 153 153 153
14.125000000000 16.625000000000 23.485000610352 129 129 129
14.062500000000 16.562500000000 23.481000900269 126 126 126
14.000000000000 16.500000000000 23.482000350952 128 128 128
13.937500000000 16.500000000000 23.479000091553 136 136 136
13.875000000000 16.437500000000 23.478000640869 138 138 138
13.750000000000 16.375000000000 23.482000350952 127 127 127
13.687500000000 16.250000000000 23.478000640869 121 121 121
13.625000000000 16.312500000000 23.480001449585 122 122 122
13.500000000000 16.187500000000 23.475000381470 116 116 116
13.437500000000 16.125000000000 23.479000091553 109 109 109
13.312500000000 16.125000000000 23.476001739502 107 107 107
13.250000000000 16.000000000000 23.470001220703 101 101 101
15.250000000000 17.250000000000 23.484001159668 167 167 167
15.250000000000 17.187500000000 23.489000320435 169 169 169
15.187500000000 17.125000000000 23.484001159668 172 172 172
15.125000000000 17.125000000000 23.488000869751 174 174 174
15.125000000000 17.187500000000 23.485000610352 173 173 173
15.062500000000 17.125000000000 23.485000610352 171 171 171
15.000000000000 17.062500000000 23.486000061035 170 170 170
15.000000000000 17.062500000000 23.492000579834 169 169 169
14.937500000000 17.000000000000 23.484001159668 169 169 169
14.937500000000 17.000000000000 23.488000869751 170 170 170
14.875000000000 16.937500000000 23.492000579834 169 169 169
14.812500000000 16.937500000000 23.493000030518 169 169 169
14.750000000000 16.875000000000 23.494001388550 171 171 171
14.687500000000 16.812500000000 23.491001129150 167 167 167
14.625000000000 16.812500000000 23.488000869751 165 165 165
14.625000000000 16.812500000000 23.489000320435 159 159 159
14.562500000000 16.812500000000 23.495000839233 157 157 157
14.500000000000 16.750000000000 23.490001678467 124 124 124
14.500000000000 16.687500000000 23.489000320435 147 147 147
14.375000000000 16.625000000000 23.485000610352 133 133 133
14.312500000000 16.562500000000 23.478000640869 141 141 141
14.250000000000 16.562500000000 23.488000869751 131 131 131
14.187500000000 16.562500000000 23.484001159668 131 131 131
14.187500000000 16.500000000000 23.487001419067 131 131 131
14.062500000000 16.437500000000 23.481000900269 142 142 142
14.000000000000 16.437500000000 23.488000869751 143 143 143
13.937500000000 16.375000000000 23.485000610352 130 130 130
13.812500000000 16.312500000000 23.482000350952 128 128 128
13.750000000000 16.187500000000 23.487001419067 116 116 116
13.750000000000 16.187500000000 23.479000091553 114 114 114
13.625000000000 16.125000000000 23.477001190186 119 119 119
13.562500000000 16.062500000000 23.482000350952 104 104 104
13.437500000000 16.000000000000 23.483001708984 104 104 104
15.250000000000 17.062500000000 23.477001190186 171 171 171
15.187500000000 17.062500000000 23.488000869751 164 164 164
15.187500000000 17.062500000000 23.482000350952 160 160 160
15.187500000000 17.062500000000 23.490001678467 170 170 170
15.125000000000 17.000000000000 23.480001449585 171 171 171
15.062500000000 16.937500000000 23.485000610352 168 168 168
15.062500000000 16.937500000000 23.483001708984 172 172 172
15.000000000000 16.937500000000 23.489000320435 174 174 174
14.937500000000 16.875000000000 23.488000869751 172 172 172
14.875000000000 16.812500000000 23.485000610352 173 173 173
14.875000000000 16.875000000000 23.491001129150 169 169 169
14.812500000000 16.812500000000 23.493000030518 159 159 159
14.750000000000 16.750000000000 23.488000869751 160 160 160
14.687500000000 16.750000000000 23.499000549316 140 140 140
14.687500000000 16.687500000000 23.493000030518 149 149 149
14.625000000000 16.625000000000 23.488000869751 159 159 159
14.562500000000 16.562500000000 23.489000320435 145 145 145
14.500000000000 16.625000000000 23.488000869751 161 161 161
14.437500000000 16.562500000000 23.492000579834 154 154 154
14.437500000000 16.500000000000 23.485000610352 135 135 135
14.375000000000 16.437500000000 23.492000579834 134 134 134
14.250000000000 16.500000000000 23.485000610352 131 131 131
14.187500000000 16.375000000000 23.483001708984 148 148 148
14.125000000000 16.312500000000 23.487001419067 136 136 136
14.062500000000 16.312500000000 23.485000610352 152 152 152
14.000000000000 16.312500000000 23.486000061035 120 120 120
13.937500000000 16.187500000000 23.484001159668 118 118 118
13.875000000000 16.125000000000 23.487001419067 125 125 125
13.812500000000 16.125000000000 23.488000869751 124 124 124
13.687500000000 16.062500000000 23.484001159668 117 117 117
13.687500000000 16.000000000000 23.481000900269 108 108 108
13.500000000000 15.937500000000 23.480001449585 100 100 100
15.250000000000 16.937500000000 23.485000610352 168 168 168
15.250000000000 16.937500000000 23.486000061035 169 169 169
15.187500000000 16.937500000000 23.486000061035 163 163 163
15.125000000000 16.875000000000 23.483001708984 170 170 170
15.125000000000 16.875000000000 23.487001419067 170 170 170
15.125000000000 16.875000000000 23.486000061035 174 174 174
15.000000000000 16.812500000000 23.485000610352 166 166 166
14.937500000000 16.750000000000 23.485000610352 166 166 166
14.937500000000 16.812500000000 23.488000869751 167 167 167
14.937500000000 16.750000000000 23.483001708984 162 162 162
14.875000000000 16.687500000000 23.486000061035 166 166 166
14.812500000000 16.687500000000 23.492000579834 163 163 163
14.812500000000 16.625000000000 23.494001388550 155 155 155
14.687500000000 16.562500000000 23.495000839233 157 157 157
14.687500000000 16.562500000000 23.494001388550 151 151 151
14.687500000000 16.562500000000 23.491001129150 153 153 153
14.562500000000 16.562500000000 23.495000839233 136 136 136
14.500000000000 16.437500000000 23.484001159668 132 132 132
14.500000000000 16.437500000000 23.493000030518 134 134 134
14.375000000000 16.375000000000 23.488000869751 124 124 124
14.312500000000 16.312500000000 23.494001388550 134 134 134
14.250000000000 16.312500000000 23.485000610352 138 138 138
14.187500000000 16.250000000000 23.493000030518 142 142 142
14.187500000000 16.250000000000 23.490001678467 124 124 124
14.062500000000 16.125000000000 23.480001449585 142 142 142
14.000000000000 16.125000000000 23.486000061035 119 119 119
13.937500000000 16.062500000000 23.484001159668 113 113 113
13.937500000000 16.062500000000 23.484001159668 124 124 124
13.750000000000 15.937500000000 23.483001708984 114 114 114
13.750000000000 15.937500000000 23.487001419067 105 105 105
13.625000000000 15.875000000000 23.479000091553 96 96 96
15.187500000000 16.812500000000 23.483001708984 169 169 169
15.187500000000 16.812500000000 23.487001419067 161 161 161
15.187500000000 16.812500000000 23.485000610352 171 171 171
15.125000000000 16.750000000000 23.483001708984 169 169 169
15.062500000000 16.687500000000 23.488000869751 168 168 168
15.062500000000 16.687500000000 23.491001129150 165 165 165
15.000000000000 16.625000000000 23.491001129150 153 153 153
14.937500000000 16.562500000000 23.487001419067 164 164 164
14.875000000000 16.625000000000 23.495000839233 163 163 163
14.875000000000 16.562500000000 23.489000320435 160 160 160
14.875000000000 16.562500000000 23.491001129150 165 165 165
14.750000000000 16.500000000000 23.493000030518 159 159 159
14.750000000000 16.437500000000 23.497001647949 135 135 135
14.687500000000 16.437500000000 23.493000030518 154 154 154
14.625000000000 16.437500000000 23.491001129150 124 124 124
14.625000000000 16.375000000000 23.491001129150 134 134 134
14.500000000000 16.312500000000 23.487001419067 145 145 145
14.437500000000 16.312500000000 23.491001129150 152 152 152
14.437500000000 16.250000000000 23.492000579834 134 134 134
14.375000000000 16.250000000000 23.488000869751 136 136 136
14.312500000000 16.187500000000 23.495000839233 152 152 152
14.250000000000 16.187500000000 23.490001678467 117 117 117
14.125000000000 16.062500000000 23.493000030518 120 120 120
14.062500000000 16.062500000000 23.492000579834 124 124 124
14.000000000000 16.000000000000 23.487001419067 109 109 109
14.000000000000 16.000000000000 23.491001129150 118 118 118
13.875000000000 15.875000000000 23.485000610352 113 113 113
15.250000000000 16.750000000000 23.480001449585 159 159 159
15.187500000000 16.687500000000 23.492000579834 161 161 161
15.125000000000 16.625000000000 23.487001419067 168 168 168
15.125000000000 16.625000000000 23.485000610352 168 168 168
15.125000000000 16.562500000000 23.493000030518 150 150 150
15.062500000000 16.500000000000 23.495000839233 167 167 167
14.937500000000 16.562500000000 23.489000320435 168 168 168
14.937500000000 16.500000000000 23.479000091553 167 167 167
14.937500000000 16.500000000000 23.489000320435 166 166 166
14.875000000000 16.437500000000 23.497001647949 143 143 143
14.875000000000 16.375000000000 23.489000320435 158 158 158
14.812500000000 16.375000000000 23.494001388550 136 136 136
14.687500000000 16.312500000000 23.491001129150 140 140 140
14.687500000000 16.312500000000 23.496000289917 132 132 132
14.625000000000 16.250000000000 23.489000320435 159 159 159
14.625000000000 16.250000000000 23.494001388550 147 147 147
14.500000000000 16.250000000000 23.494001388550 134 134 134
14.437500000000 16.125000000000 23.488000869751 139 139 139
14.437500000000 16.187500000000 23.494001388550 124 124 124
14.375000000000 16.125000000000 23.497001647949 153 153 153
14.312500000000 16.062500000000 23.500000000000 115 115 115
14.187500000000 16.000000000000 23.490001678467 122 122 122
14.187500000000 15.937500000000 23.496000289917 109 109 109
14.125000000000 15.937500000000 23.492000579834 110 110 110
14.000000000000 15.875000000000 23.490001678467 115 115 115
13.937500000000 15.812500000000 23.494001388550 111 111 111
15.187500000000 16.562500000000 23.492000579834 161 161 161
15.187500000000 16.562500000000 23.485000610352 169 169 169
15.187500000000 16.500000000000 23.487001419067 154 154 154
15.125000000000 16.437500000000 23.487001419067 155 155 155
15.062500000000 16.437500000000 23.488000869751 169 169 169
15.062500000000 16.437500000000 23.487001419067 167 167 167
15.062500000000 16.437500000000 23.488000869751 162 162 162
14.937500000000 16.375000000000 23.490001678467 158 158 158
14.937500000000 16.312500000000 23.481000900269 143 143 143
14.875000000000 16.312500000000 23.492000579834 146 146 146
14.875000000000 16.312500000000 23.492000579834 135 135 135
14.812500000000 16.250000000000 23.497001647949 152 152 152
14.750000000000 16.187500000000 23.493000030518 147 147 147
14.687500000000 16.187500000000 23.495000839233 157 157 157
14.625000000000 16.187500000000 23.495000839233 121 121 121
14.625000000000 16.125000000000 23.490001678467 127 127 127
14.562500000000 16.062500000000 23.496000289917 128 128 128
14.437500000000 16.000000000000 23.496000289917 131 131 131
14.437500000000 16.062500000000 23.493000030518 120 120 120
14.375000000000 16.000000000000 23.493000030518 132 132 132
14.312500000000 15.937500000000 23.499000549316 119 119 119
14.250000000000 15.875000000000 23.493000030518 118 118 118
14.187500000000 15.812500000000 23.497001647949 116 116 116
14.125000000000 15.812500000000 23.500000000000 105 105 105
15.187500000000 16.375000000000 23.495000839233 169 169 169
15.125000000000 16.375000000000 23.488000869751 166 166 166
15.125000000000 16.375000000000 23.487001419067 149 149 149
15.125000000000 16.312500000000 23.494001388550 150 150 150
15.062500000000 16.312500000000 23.492000579834 144 144 144
15.000000000000 16.250000000000 23.485000610352 151 151 151
15.000000000000 16.250000000000 23.488000869751 158 158 158
14.937500000000 16.250000000000 23.493000030518 155 155 155
14.875000000000 16.187500000000 23.495000839233 152 152 152
14.875000000000 16.125000000000 23.493000030518 151 151 151
14.812500000000 16.062500000000 23.494001388550 141 141 141
14.687500000000 16.125000000000 23.497001647949 131 131 131
14.687500000000 16.125000000000 23.496000289917 131 131 131
14.625000000000 16.000000000000 23.489000320435 135 135 135
14.625000000000 16.000000000000 23.495000839233 125 125 125
14.562500000000 15.937500000000 23.499000549316 128 128 128
14.500000000000 15.937500000000 23.492000579834 124 124 124
14.375000000000 15.875000000000 23.495000839233 124 124 124
14.375000000000 15.875000000000 23.500000000000 112 112 112
14.312500000000 15.750000000000 23.502000808716 101 101 101
14.250000000000 15.750000000000 23.497001647949 109 109 109
14.187500000000 15.750000000000 23.493000030518 107 107 107
15.187500000000 16.312500000000 23.486000061035 142 142 142
15.187500000000 16.312500000000 23.498001098633 131 131 131
15.187500000000 16.250000000000 23.485000610352 156 156 156
15.125000000000 16.187500000000 23.491001129150 153 153 153
15.125000000000 16.187500000000 23.489000320435 157 157 157
15.125000000000 16.187500000000 23.492000579834 162 162 162
15.062500000000 16.187500000000 23.487001419067 164 164 164
14.937500000000 16.125000000000 23.498001098633 142 142 142
14.937500000000 16.062500000000 23.494001388550 144 144 144
14.875000000000 16.000000000000 23.490001678467 162 162 162
14.875000000000 16.062500000000 23.492000579834 139 139 139
14.812500000000 16.062500000000 23.493000030518 131 131 131
14.750000000000 16.000000000000 23.493000030518 162 162 162
14.687500000000 15.937500000000 23.492000579834 147 147 147
14.625000000000 15.875000000000 23.496000289917 154 154 154
14.625000000000 15.875000000000 23.500000000000 113 113 113
14.562500000000 15.812500000000 23.500000000000 108 108 108
14.437500000000 15.812500000000 23.500000000000 125 125 125
14.437500000000 15.750000000000 23.497001647949 127 127 127
15.187500000000 16.125000000000 23.497001647949 158 158 158
15.187500000000 16.062500000000 23.495000839233 161 161 161
15.187500000000 16.062500000000 23.490001678467 152 152 152
15.125000000000 16.125000000000 23.490001678467 151 151 151
15.062500000000 16.062500000000 23.492000579834 125 125 125
15.062500000000 16.000000000000 23.495000839233 139 139 139
15.062500000000 16.000000000000 23.490001678467 147 147 147
14.937500000000 15.937500000000 23.494001388550 155 155 155
14.875000000000 15.937500000000 23.505001068115 131 131 131
14.875000000000 15.937500000000 23.494001388550 127 127 127
14.812500000000 15.875000000000 23.500000000000 146 146 146
14.812500000000 15.875000000000 23.503000259399 127 127 127
14.687500000000 15.812500000000 23.491001129150 147 147 147
14.687500000000 15.812500000000 23.501001358032 116 116 116
14.625000000000 15.750000000000 23.496000289917 111 111 111
14.562500000000 15.687500000000 23.490001678467 166 166 166
14.500000000000 15.687500000000 23.497001647949 167 167 167
15.187500000000 16.000000000000 23.498001098633 148 148 148
15.125000000000 15.937500000000 23.487001419067 143 143 143
15.125000000000 15.937500000000 23.496000289917 150 150 150
15.125000000000 15.937500000000 23.501001358032 120 120 120
15.062500000000 15.875000000000 23.495000839233 159 159 159
14.937500000000 15.875000000000 23.502000808716 134 134 134
14.937500000000 15.812500000000 23.496000289917 125 125 125
14.875000000000 15.812500000000 23.489000320435 133 133 133
14.875000000000 15.812500000000 23.500000000000 134 134 134
14.812500000000 15.750000000000 23.498001098633 160 160 160
14.812500000000 15.750000000000 23.496000289917 169 169 169
14.687500000000 15.687500000000 23.499000549316 170 170 170
15.250000000000 15.875000000000 23.497001647949 152 152 152
15.187500000000 15.875000000000 23.493000030518 174 174 174
15.187500000000 15.875000000000 23.494001388550 170 170 170
15.125000000000 15.812500000000 23.490001678467 164 164 164
15.062500000000 15.812500000000 23.493000030518 160 160 160
15.062500000000 15.812500000000 23.503000259399 152 152 152
15.062500000000 15.750000000000 23.499000549316 130 130 130
14.937500000000 15.687500000000 23.502000808716 122 122 122
14.875000000000 15.687500000000 23.493000030518 147 147 147
14.875000000000 15.687500000000 23.498001098633 171 171 171
14.812500000000 15.625000000000 23.495000839233 169 169 169
15.187500000000 15.750000000000 23.492000579834 167 167 167
15.125000000000 15.750000000000 23.502000808716 171 171 171
15.125000000000 15.687500000000 23.494001388550 152 152 152
15.125000000000 15.687500000000 23.497001647949 173 173 173
15.062500000000 15.625000000000 23.492000579834 167 167 167
15.000000000000 15.562500000000 23.498001098633 120 120 120
14.937500000000 15.625000000000 23.505001068115 174 174 174
15.250000000000 15.687500000000 23.498001098633 168 168 168
15.187500000000 15.625000000000 23.499000549316 166 166 166
15.187500000000 15.625000000000 23.498001098633 173 173 173
15.125000000000 15.562500000000 23.497001647949 165 165 165
15.062500000000 15.562500000000 23.501001358032 166 166 166
24.125000000000 18.750000000000 23.624000549316 111 111 111
23.812500000000 18.875000000000 23.615001678467 110 110 110
24.187500000000 18.562500000000 23.621000289917 141 141 141
23.812500000000 18.750000000000 23.617000579834 115 115 115
23.500000000000 18.875000000000 23.615001678467 109 109 109
23.187500000000 19.062500000000 23.617000579834 99 99 99
24.062500000000 18.437500000000 23.655000686646 58 58 58
23.687500000000 18.625000000000 23.642000198364 59 59 59
23.500000000000 18.750000000000 23.622001647949 77 77 77
23.187500000000 18.937500000000 23.636001586914 66 66 66
22.937500000000 19.000000000000 23.616001129150 76 76 76
22.750000000000 19.125000000000 23.616001129150 103 103 103
24.062500000000 18.312500000000 23.660999298096 81 81 81
23.750000000000 18.500000000000 23.652000427246 76 76 76
23.437500000000 18.625000000000 23.651000976563 78 78 78
23.187500000000 18.750000000000 23.649000167847 84 84 84
22.937500000000 18.937500000000 23.641000747681 81 81 81
22.687500000000 19.000000000000 23.635000228882 90 90 90
22.500000000000 19.125000000000 23.631999969482 96 96 96
22.250000000000 19.187500000000 23.630001068115 85 85 85
22.062500000000 19.312500000000 23.628000259399 84 84 84
24.062500000000 18.187500000000 23.666000366211 76 76 76
23.750000000000 18.375000000000 23.663000106812 83 83 83
23.437500000000 18.500000000000 23.656000137329 92 92 92
23.125000000000 18.625000000000 23.653999328613 92 92 92
22.937500000000 18.750000000000 23.649999618530 98 98 98
22.687500000000 18.812500000000 23.644001007080 104 104 104
22.437500000000 19.000000000000 23.641000747681 100 100 100
22.250000000000 19.125000000000 23.635000228882 99 99 99
22.125000000000 19.187500000000 23.633001327515 98 98 98
24.062500000000 18.000000000000 23.677999496460 85 85 85
23.750000000000 18.187500000000 23.666999816895 90 90 90
23.437500000000 18.375000000000 23.662000656128 94 94 94
23.187500000000 18.500000000000 23.659000396729 98 98 98
22.937500000000 18.625000000000 23.655000686646 96 96 96
22.687500000000 18.812500000000 23.649999618530 99 99 99
22.500000000000 18.875000000000 23.644001007080 102 102 102
22.250000000000 18.937500000000 23.645000457764 97 97 97
22.125000000000 19.000000000000 23.638000488281 98 98 98
21.937500000000 19.062500000000 23.636001586914 104 104 104
24.062500000000 17.875000000000 23.681001663208 92 92 92
23.750000000000 18.062500000000 23.673000335693 95 95 95
23.437500000000 18.187500000000 23.669000625610 88 88 88
23.187500000000 18.375000000000 23.663999557495 102 102 102
22.937500000000 18.500000000000 23.660999298096 99 99 99
22.687500000000 18.562500000000 23.655000686646 99 99 99
22.500000000000 18.687500000000 23.652999877930 95 95 95
22.250000000000 18.750000000000 23.652999877930 97 97 97
22.062500000000 18.875000000000 23.642999649048 100 100 100
21.937500000000 19.000000000000 23.637001037598 104 104 104
20.312500000000 19.812500000000 23.616001129150 117 117 117
24.062500000000 17.687500000000 23.687000274658 104 104 104
23.687500000000 17.937500000000 23.679000854492 111 111 111
23.437500000000 18.062500000000 23.674999237061 96 96 96
23.187500000000 18.187500000000 23.667999267578 104 104 104
23.000000000000 18.312500000000 23.663000106812 107 107 107
22.687500000000 18.375000000000 23.663000106812 98 98 98
22.500000000000 18.562500000000 23.657999038696 101 101 101
22.312500000000 18.625000000000 23.657999038696 99 99 99
22.062500000000 18.687500000000 23.652000427246 96 96 96
21.937500000000 18.812500000000 23.648000717163 99 99 99
20.250000000000 19.625000000000 23.611000061035 123 123 123
20.187500000000 19.687500000000 23.609001159668 120 120 120
20.125000000000 19.750000000000 23.617000579834 127 127 127
20.062500000000 19.812500000000 23.608001708984 120 120 120
20.000000000000 19.812500000000 23.608001708984 121 121 121
19.875000000000 19.812500000000 23.614000320435 125 125 125
19.812500000000 19.875000000000 23.606000900269 125 125 125
19.750000000000 19.937500000000 23.609001159668 125 125 125
24.062500000000 17.625000000000 23.692001342773 110 110 110
23.687500000000 17.750000000000 23.686000823975 115 115 115
23.437500000000 17.875000000000 23.681999206543 109 109 109
23.187500000000 18.000000000000 23.673000335693 110 110 110
22.937500000000 18.187500000000 23.670999526978 108 108 108
22.750000000000 18.250000000000 23.666999816895 108 108 108
22.500000000000 18.375000000000 23.659000396729 110 110 110
22.250000000000 18.437500000000 23.662000656128 102 102 102
22.062500000000 18.562500000000 23.659000396729 104 104 104
21.937500000000 18.687500000000 23.655000686646 115 115 115
20.187500000000 19.500000000000 23.616001129150 117 117 117
20.062500000000 19.562500000000 23.617000579834 123 123 123
20.000000000000 19.625000000000 23.614000320435 120 120 120
19.937500000000 19.687500000000 23.617000579834 127 127 127
19.875000000000 19.750000000000 23.613000869751 119 119 119
19.812500000000 19.750000000000 23.616001129150 116 116 116
19.750000000000 19.812500000000 23.612001419067 127 127 127
19.687500000000 19.812500000000 23.608001708984 123 123 123
19.562500000000 19.812500000000 23.609001159668 132 132 132
19.500000000000 19.875000000000 23.603000640869 138 138 138
19.437500000000 19.937500000000 23.611000061035 146 146 146
19.437500000000 19.937500000000 23.607000350952 144 144 144
19.375000000000 19.937500000000 23.603000640869 143 143 143
19.312500000000 20.000000000000 23.603000640869 133 133 133
19.250000000000 20.000000000000 23.599000930786 126 126 126
19.250000000000 20.062500000000 23.602001190186 121 121 121
19.125000000000 20.062500000000 23.602001190186 123 123 123
19.062500000000 20.062500000000 23.597000122070 118 118 118
19.062500000000 20.125000000000 23.602001190186 116 116 116
19.000000000000 20.125000000000 23.594001770020 120 120 120
24.062500000000 17.437500000000 23.696001052856 111 111 111
23.750000000000 17.562500000000 23.690000534058 118 118 118
23.437500000000 17.750000000000 23.685001373291 112 112 112
23.187500000000 17.875000000000 23.677000045776 112 112 112
22.937500000000 18.000000000000 23.673999786377 120 120 120
22.687500000000 18.062500000000 23.667999267578 120 120 120
22.500000000000 18.250000000000 23.663999557495 111 111 111
22.250000000000 18.312500000000 23.659999847412 113 113 113
22.125000000000 18.437500000000 23.660999298096 112 112 112
21.875000000000 18.500000000000 23.653999328613 122 122 122
20.187500000000 19.437500000000 23.624000549316 115 115 115
20.187500000000 19.437500000000 23.616001129150 116 116 116
20.000000000000 19.437500000000 23.618000030518 120 120 120
19.937500000000 19.500000000000 23.620000839233 121 121 121
19.875000000000 19.562500000000 23.621000289917 126 126 126
19.812500000000 19.562500000000 23.619001388550 124 124 124
19.750000000000 19.625000000000 23.617000579834 130 130 130
19.687500000000 19.687500000000 23.612001419067 126 126 126
19.687500000000 19.687500000000 23.607000350952 125 125 125
19.562500000000 19.687500000000 23.612001419067 127 127 127
19.500000000000 19.750000000000 23.610000610352 125 125 125
19.437500000000 19.812500000000 23.609001159668 122 122 122
19.375000000000 19.812500000000 23.607000350952 131 131 131
19.312500000000 19.875000000000 23.599000930786 130 130 130
19.187500000000 19.875000000000 23.606000900269 128 128 128
19.187500000000 19.937500000000 23.603000640869 129 129 129
19.125000000000 19.937500000000 23.608001708984 125 125 125
19.125000000000 19.937500000000 23.600000381470 135 135 135
19.062500000000 20.000000000000 23.598001480103 147 147 147
19.000000000000 20.000000000000 23.593000411987 130 130 130
18.937500000000 20.062500000000 23.599000930786 135 135 135
18.937500000000 20.062500000000 23.600000381470 132 132 132
18.812500000000 20.062500000000 23.602001190186 129 129 129
18.812500000000 20.062500000000 23.597000122070 130 130 130
18.750000000000 20.125000000000 23.600000381470 122 122 122
18.687500000000 20.125000000000 23.604000091553 128 128 128
18.687500000000 20.187500000000 23.602001190186 126 126 126
18.687500000000 20.187500000000 23.596000671387 119 119 119
18.562500000000 20.187500000000 23.599000930786 141 141 141
18.500000000000 20.187500000000 23.608001708984 173 173 173
18.500000000000 20.250000000000 23.608001708984 190 190 190
24.062500000000 17.250000000000 23.697999954224 118 118 118
23.750000000000 17.437500000000 23.695001602173 114 114 114
23.437500000000 17.562500000000 23.689001083374 118 118 118
23.125000000000 17.687500000000 23.683000564575 127 127 127
22.937500000000 17.875000000000 23.679000854492 123 123 123
22.687500000000 17.937500000000 23.670999526978 126 126 126
22.437500000000 18.062500000000 23.673999786377 123 123 123
22.312500000000 18.187500000000 23.663999557495 124 124 124
22.125000000000 18.250000000000 23.663999557495 117 117 117
21.875000000000 18.375000000000 23.663000106812 120 120 120
20.250000000000 19.187500000000 23.625000000000 123 123 123
20.187500000000 19.250000000000 23.620000839233 130 130 130
20.062500000000 19.250000000000 23.618000030518 142 142 142
19.937500000000 19.312500000000 23.621000289917 136 136 136
19.875000000000 19.375000000000 23.619001388550 124 124 124
19.812500000000 19.437500000000 23.620000839233 122 122 122
19.687500000000 19.500000000000 23.619001388550 117 117 117
19.687500000000 19.562500000000 23.618000030518 129 129 129
19.625000000000 19.562500000000 23.614000320435 133 133 133
19.562500000000 19.562500000000 23.617000579834 135 135 135
19.500000000000 19.562500000000 23.607000350952 134 134 134
19.437500000000 19.625000000000 23.612001419067 133 133 133
19.375000000000 19.687500000000 23.608001708984 132 132 132
19.312500000000 19.687500000000 23.605001449585 125 125 125
19.250000000000 19.687500000000 23.606000900269 127 127 127
19.187500000000 19.750000000000 23.602001190186 127 127 127
19.187500000000 19.750000000000 23.602001190186 129 129 129
19.125000000000 19.812500000000 23.603000640869 124 124 124
19.000000000000 19.812500000000 23.603000640869 127 127 127
18.937500000000 19.812500000000 23.600000381470 123 123 123
18.937500000000 19.875000000000 23.605001449585 124 124 124
18.875000000000 19.875000000000 23.602001190186 119 119 119
18.812500000000 19.937500000000 23.599000930786 122 122 122
18.812500000000 19.937500000000 23.604000091553 126 126 126
18.750000000000 20.000000000000 23.597000122070 127 127 127
18.750000000000 20.000000000000 23.600000381470 127 127 127
18.687500000000 20.062500000000 23.604000091553 125 125 125
18.687500000000 20.062500000000 23.606000900269 122 122 122
18.562500000000 20.062500000000 23.600000381470 143 143 143
18.562500000000 20.062500000000 23.604000091553 172 172 172
18.500000000000 20.062500000000 23.598001480103 190 190 190
18.500000000000 20.125000000000 23.599000930786 191 191 191
24.062500000000 17.125000000000 23.701000213623 110 110 110
23.687500000000 17.187500000000 23.696001052856 123 123 123
23.437500000000 17.437500000000 23.693000793457 124 124 124
23.187500000000 17.562500000000 23.686000823975 121 121 121
22.937500000000 17.687500000000 23.680000305176 126 126 126
22.687500000000 17.750000000000 23.673999786377 123 123 123
22.437500000000 17.937500000000 23.673999786377 128 128 128
22.312500000000 18.062500000000 23.674999237061 123 123 123
22.062500000000 18.125000000000 23.666999816895 125 125 125
21.937500000000 18.187500000000 23.663999557495 121 121 121
20.187500000000 19.062500000000 23.633001327515 118 118 118
20.125000000000 19.125000000000 23.628000259399 114 114 114
20.062500000000 19.187500000000 23.622001647949 116 116 116
20.000000000000 19.187500000000 23.623001098633 120 120 120
19.937500000000 19.250000000000 23.626001358032 116 116 116
19.875000000000 19.312500000000 23.624000549316 118 118 118
19.750000000000 19.312500000000 23.623001098633 115 115 115
19.687500000000 19.312500000000 23.619001388550 115 115 115
19.625000000000 19.375000000000 23.617000579834 130 130 130
19.562500000000 19.437500000000 23.621000289917 134 134 134
19.437500000000 19.437500000000 23.618000030518 137 137 137
19.437500000000 19.437500000000 23.613000869751 127 127 127
19.312500000000 19.500000000000 23.615001678467 131 131 131
19.312500000000 19.562500000000 23.611000061035 142 142 142
19.250000000000 19.562500000000 23.607000350952 136 136 136
19.187500000000 19.625000000000 23.611000061035 118 118 118
19.187500000000 19.687500000000 23.607000350952 128 128 128
19.125000000000 19.687500000000 23.607000350952 127 127 127
19.000000000000 19.687500000000 23.604000091553 130 130 130
19.000000000000 19.687500000000 23.600000381470 128 128 128
18.937500000000 19.750000000000 23.606000900269 123 123 123
18.937500000000 19.750000000000 23.600000381470 130 130 130
18.875000000000 19.812500000000 23.602001190186 131 131 131
18.812500000000 19.812500000000 23.606000900269 127 127 127
18.750000000000 19.812500000000 23.606000900269 131 131 131
18.687500000000 19.812500000000 23.602001190186 134 134 134
18.687500000000 19.875000000000 23.600000381470 112 112 112
18.625000000000 19.875000000000 23.602001190186 122 122 122
18.562500000000 19.937500000000 23.602001190186 123 123 123
18.562500000000 19.875000000000 23.604000091553 173 173 173
18.500000000000 19.875000000000 23.604000091553 189 189 189
18.500000000000 19.937500000000 23.604000091553 181 181 181
24.062500000000 16.937500000000 23.704000473022 110 110 110
23.750000000000 17.187500000000 23.699001312256 119 119 119
23.437500000000 17.250000000000 23.695001602173 119 119 119
23.187500000000 17.375000000000 23.689001083374 127 127 127
22.937500000000 17.562500000000 23.681001663208 136 136 136
22.687500000000 17.625000000000 23.677999496460 134 134 134
22.500000000000 17.812500000000 23.676000595093 130 130 130
22.312500000000 17.875000000000 23.674999237061 126 126 126
22.062500000000 17.937500000000 23.674999237061 124 124 124
21.875000000000 18.062500000000 23.666000366211 121 121 121
20.187500000000 18.875000000000 23.635000228882 115 115 115
20.125000000000 18.937500000000 23.631000518799 115 115 115
20.062500000000 19.000000000000 23.635000228882 119 119 119
19.937500000000 19.000000000000 23.626001358032 120 120 120
19.875000000000 19.062500000000 23.629001617432 120 120 120
19.812500000000 19.125000000000 23.623001098633 122 122 122
19.750000000000 19.187500000000 23.628000259399 122 122 122
19.687500000000 19.187500000000 23.624000549316 121 121 121
19.625000000000 19.250000000000 23.625000000000 140 140 140
19.562500000000 19.312500000000 23.623001098633 138 138 138
19.500000000000 19.312500000000 23.615001678467 131 131 131
19.437500000000 19.312500000000 23.617000579834 122 122 122
19.375000000000 19.375000000000 23.613000869751 128 128 128
19.312500000000 19.437500000000 23.617000579834 125 125 125
19.187500000000 19.375000000000 23.610000610352 117 117 117
19.187500000000 19.437500000000 23.608001708984 120 120 120
19.125000000000 19.437500000000 23.612001419067 123 123 123
19.062500000000 19.500000000000 23.608001708984 122 122 122
19.062500000000 19.562500000000 23.609001159668 130 130 130
19.000000000000 19.500000000000 23.610000610352 132 132 132
18.937500000000 19.562500000000 23.608001708984 131 131 131
18.937500000000 19.562500000000 23.603000640869 134 134 134
18.875000000000 19.562500000000 23.608001708984 126 126 126
18.875000000000 19.625000000000 23.600000381470 148 148 148
18.750000000000 19.687500000000 23.608001708984 148 148 148
18.687500000000 19.687500000000 23.605001449585 133 133 133
18.687500000000 19.687500000000 23.601001739502 137 137 137
18.625000000000 19.750000000000 23.607000350952 131 131 131
18.625000000000 19.812500000000 23.600000381470 154 154 154
18.562500000000 19.812500000000 23.608001708984 173 173 173
18.500000000000 19.750000000000 23.606000900269 187 187 187
24.062500000000 16.812500000000 23.706001281738 112 112 112
23.687500000000 17.000000000000 23.703001022339 115 115 115
23.500000000000 17.125000000000 23.700000762939 120 120 120
23.187500000000 17.312500000000 23.689001083374 126 126 126
22.937500000000 17.375000000000 23.688001632690 126 126 126
22.750000000000 17.500000000000 23.681001663208 132 132 132
22.500000000000 17.625000000000 23.681001663208 131 131 131
22.250000000000 17.750000000000 23.677000045776 132 132 132
22.125000000000 17.812500000000 23.674999237061 133 133 133
21.875000000000 17.875000000000 23.670999526978 135 135 135
21.750000000000 18.000000000000 23.669000625610 135 135 135
20.187500000000 18.750000000000 23.640001296997 119 119 119
20.125000000000 18.812500000000 23.638999938965 123 123 123
20.062500000000 18.875000000000 23.631999969482 119 119 119
20.000000000000 18.937500000000 23.633001327515 119 119 119
19.875000000000 18.937500000000 23.634000778198 122 122 122
19.812500000000 19.000000000000 23.626001358032 121 121 121
19.750000000000 19.000000000000 23.626001358032 123 123 123
19.625000000000 19.000000000000 23.631999969482 117 117 117
19.562500000000 19.062500000000 23.629001617432 119 119 119
19.562500000000 19.125000000000 23.624000549316 129 129 129
19.500000000000 19.187500000000 23.622001647949 125 125 125
19.437500000000 19.125000000000 23.615001678467 130 130 130
19.375000000000 19.187500000000 23.616001129150 127 127 127
19.312500000000 19.187500000000 23.616001129150 121 121 121
19.312500000000 19.250000000000 23.617000579834 121 121 121
19.187500000000 19.312500000000 23.613000869751 124 124 124
19.125000000000 19.312500000000 23.616001129150 129 129 129
19.125000000000 19.375000000000 23.608001708984 122 122 122
19.062500000000 19.375000000000 23.613000869751 123 123 123
19.000000000000 19.437500000000 23.610000610352 124 124 124
18.937500000000 19.437500000000 23.608001708984 131 131 131
18.875000000000 19.437500000000 23.609001159668 133 133 133
18.812500000000 19.437500000000 23.606000900269 142 142 142
18.812500000000 19.500000000000 23.601001739502 137 137 137
18.750000000000 19.562500000000 23.609001159668 139 139 139
18.750000000000 19.500000000000 23.608001708984 147 147 147
18.687500000000 19.500000000000 23.605001449585 158 158 158
18.687500000000 19.562500000000 23.608001708984 153 153 153
18.625000000000 19.562500000000 23.610000610352 151 151 151
18.562500000000 19.625000000000 23.612001419067 167 167 167
18.562500000000 19.625000000000 23.608001708984 188 188 188
18.562500000000 19.687500000000 23.607000350952 187 187 187
24.062500000000 16.625000000000 23.704000473022 110 110 110
23.750000000000 16.812500000000 23.706001281738 114 114 114
23.437500000000 17.000000000000 23.699001312256 127 127 127
23.187500000000 17.125000000000 23.692001342773 122 122 122
22.937500000000 17.187500000000 23.687000274658 122 122 122
22.687500000000 17.375000000000 23.683000564575 127 127 127
22.500000000000 17.437500000000 23.677999496460 134 134 134
22.312500000000 17.562500000000 23.679000854492 135 135 135
22.125000000000 17.625000000000 23.673999786377 142 142 142
21.937500000000 17.750000000000 23.676000595093 139 139 139
21.750000000000 17.812500000000 23.673000335693 136 136 136
20.125000000000 18.625000000000 23.638999938965 125 125 125
20.062500000000 18.687500000000 23.637001037598 121 121 121
19.937500000000 18.750000000000 23.637001037598 124 124 124
19.875000000000 18.750000000000 23.638999938965 122 122 122
19.812500000000 18.812500000000 23.636001586914 126 126 126
19.812500000000 18.812500000000 23.631000518799 126 126 126
19.687500000000 18.875000000000 23.631000518799 125 125 125
19.625000000000 18.937500000000 23.631999969482 130 130 130
19.562500000000 19.000000000000 23.628000259399 129 129 129
19.500000000000 19.000000000000 23.625000000000 131 131 131
19.437500000000 19.062500000000 23.621000289917 128 128 128
19.312500000000 19.062500000000 23.621000289917 129 129 129
19.312500000000 19.062500000000 23.620000839233 130 130 130
19.250000000000 19.125000000000 23.615001678467 128 128 128
19.187500000000 19.125000000000 23.605001449585 123 123 123
19.187500000000 19.125000000000 23.607000350952 127 127 127
19.125000000000 19.187500000000 23.608001708984 126 126 126
19.062500000000 19.187500000000 23.613000869751 125 125 125
19.062500000000 19.250000000000 23.606000900269 132 132 132
19.000000000000 19.250000000000 23.607000350952 128 128 128
18.875000000000 19.250000000000 23.605001449585 124 124 124
18.875000000000 19.312500000000 23.613000869751 127 127 127
18.812500000000 19.312500000000 23.606000900269 131 131 131
18.812500000000 19.312500000000 23.605001449585 137 137 137
18.750000000000 19.375000000000 23.611000061035 133 133 133
18.687500000000 19.375000000000 23.612001419067 142 142 142
18.687500000000 19.437500000000 23.608001708984 160 160 160
18.625000000000 19.437500000000 23.610000610352 162 162 162
18.625000000000 19.500000000000 23.605001449585 179 179 179
18.562500000000 19.500000000000 23.612001419067 182 182 182
18.562500000000 19.562500000000 23.612001419067 187 187 187
18.500000000000 19.562500000000 23.606000900269 188 188 188
24.062500000000 16.437500000000 23.709001541138 111 111 111
23.750000000000 16.625000000000 23.704000473022 106 106 106
23.437500000000 16.750000000000 23.699001312256 115 115 115
23.187500000000 17.000000000000 23.699001312256 114 114 114
23.000000000000 17.062500000000 23.690000534058 122 122 122
22.750000000000 17.187500000000 23.685001373291 123 123 123
22.562500000000 17.250000000000 23.681999206543 126 126 126
22.312500000000 17.375000000000 23.679000854492 126 126 126
22.125000000000 17.500000000000 23.674999237061 132 132 132
21.937500000000 17.625000000000 23.676000595093 138 138 138
21.812500000000 17.687500000000 23.671998977661 140 140 140
20.062500000000 18.562500000000 23.642999649048 137 137 137
20.000000000000 18.625000000000 23.636001586914 133 133 133
19.937500000000 18.687500000000 23.631999969482 134 134 134
19.812500000000 18.687500000000 23.640001296997 135 135 135
19.750000000000 18.687500000000 23.634000778198 131 131 131
19.687500000000 18.750000000000 23.631000518799 133 133 133
19.625000000000 18.750000000000 23.628000259399 134 134 134
19.562500000000 18.812500000000 23.631999969482 133 133 133
19.500000000000 18.812500000000 23.625000000000 139 139 139
19.500000000000 18.875000000000 23.624000549316 139 139 139
19.375000000000 18.875000000000 23.628000259399 135 135 135
19.312500000000 18.875000000000 23.623001098633 139 139 139
19.250000000000 18.937500000000 23.621000289917 141 141 141
19.250000000000 18.937500000000 23.617000579834 140 140 140
19.187500000000 19.000000000000 23.612001419067 144 144 144
19.125000000000 19.062500000000 23.615001678467 141 141 141
19.125000000000 19.062500000000 23.611000061035 140 140 140
19.062500000000 19.125000000000 23.612001419067 140 140 140
19.000000000000 19.125000000000 23.610000610352 137 137 137
19.000000000000 19.187500000000 23.609001159668 137 137 137
18.875000000000 19.125000000000 23.605001449585 137 137 137
18.875000000000 19.187500000000 23.603000640869 136 136 136
18.812500000000 19.187500000000 23.614000320435 144 144 144
18.750000000000 19.250000000000 23.607000350952 141 141 141
18.750000000000 19.250000000000 23.608001708984 134 134 134
18.687500000000 19.312500000000 23.606000900269 133 133 133
18.625000000000 19.250000000000 23.609001159668 157 157 157
18.562500000000 19.312500000000 23.611000061035 169 169 169
18.562500000000 19.312500000000 23.615001678467 185 185 185
18.500000000000 19.312500000000 23.609001159668 187 187 187
18.500000000000 19.375000000000 23.610000610352 189 189 189
24.125000000000 16.312500000000 23.708000183105 109 109 109
23.750000000000 16.500000000000 23.706001281738 113 113 113
23.500000000000 16.625000000000 23.700000762939 110 110 110
23.187500000000 16.750000000000 23.695001602173 117 117 117
23.000000000000 16.875000000000 23.690999984741 125 125 125
22.750000000000 17.000000000000 23.689001083374 123 123 123
22.500000000000 17.125000000000 23.681001663208 123 123 123
22.312500000000 17.250000000000 23.680000305176 128 128 128
22.187500000000 17.312500000000 23.673999786377 132 132 132
21.937500000000 17.437500000000 23.677000045776 133 133 133
21.750000000000 17.500000000000 23.676000595093 135 135 135
20.125000000000 18.375000000000 23.645000457764 147 147 147
20.062500000000 18.375000000000 23.642999649048 146 146 146
20.000000000000 18.437500000000 23.642000198364 146 146 146
19.937500000000 18.500000000000 23.640001296997 140 140 140
19.875000000000 18.500000000000 23.637001037598 141 141 141
19.750000000000 18.500000000000 23.635000228882 148 148 148
19.687500000000 18.562500000000 23.636001586914 144 144 144
19.625000000000 18.625000000000 23.635000228882 142 142 142
19.562500000000 18.687500000000 23.631999969482 139 139 139
19.562500000000 18.687500000000 23.628000259399 137 137 137
19.500000000000 18.750000000000 23.622001647949 139 139 139
19.437500000000 18.750000000000 23.626001358032 138 138 138
19.312500000000 18.750000000000 23.627000808716 137 137 137
19.312500000000 18.812500000000 23.624000549316 139 139 139
19.250000000000 18.812500000000 23.621000289917 145 145 145
19.187500000000 18.875000000000 23.616001129150 141 141 141
19.187500000000 18.937500000000 23.616001129150 146 146 146
19.062500000000 18.875000000000 23.609001159668 145 145 145
19.000000000000 18.937500000000 23.613000869751 145 145 145
19.000000000000 18.937500000000 23.611000061035 144 144 144
18.937500000000 18.937500000000 23.609001159668 145 145 145
18.875000000000 19.000000000000 23.609001159668 140 140 140
18.875000000000 19.000000000000 23.607000350952 140 140 140
18.812500000000 19.000000000000 23.603000640869 144 144 144
18.812500000000 19.062500000000 23.611000061035 151 151 151
18.750000000000 19.062500000000 23.613000869751 150 150 150
18.687500000000 19.125000000000 23.613000869751 146 146 146
18.687500000000 19.125000000000 23.612001419067 154 154 154
18.562500000000 19.062500000000 23.611000061035 157 157 157
18.562500000000 19.125000000000 23.614000320435 180 180 180
18.500000000000 19.125000000000 23.612001419067 186 186 186
18.500000000000 19.187500000000 23.606000900269 181 181 181
18.500000000000 19.187500000000 23.578001022339 180 180 180
24.125000000000 16.187500000000 23.707000732422 111 111 111
23.812500000000 16.375000000000 23.703001022339 110 110 110
23.562500000000 16.500000000000 23.697999954224 117 117 117
23.250000000000 16.562500000000 23.697999954224 118 118 118
22.937500000000 16.750000000000 23.690000534058 124 124 124
22.750000000000 16.812500000000 23.690000534058 123 123 123
22.562500000000 17.000000000000 23.687000274658 125 125 125
22.375000000000 17.062500000000 23.683000564575 123 123 123
22.125000000000 17.187500000000 23.680000305176 123 123 123
22.000000000000 17.250000000000 23.676000595093 136 136 136
21.812500000000 17.375000000000 23.673000335693 135 135 135
21.625000000000 17.437500000000 23.670000076294 138 138 138
20.062500000000 18.250000000000 23.642000198364 152 152 152
20.062500000000 18.312500000000 23.638000488281 150 150 150
19.937500000000 18.312500000000 23.640001296997 151 151 151
19.937500000000 18.375000000000 23.638999938965 148 148 148
19.812500000000 18.375000000000 23.637001037598 151 151 151
19.687500000000 18.437500000000 23.638999938965 146 146 146
19.687500000000 18.437500000000 23.631000518799 151 151 151
19.625000000000 18.500000000000 23.633001327515 151 151 151
19.500000000000 18.500000000000 23.631999969482 152 152 152
19.437500000000 18.562500000000 23.633001327515 147 147 147
19.437500000000 18.562500000000 23.624000549316 154 154 154
19.375000000000 18.625000000000 23.624000549316 150 150 150
19.312500000000 18.562500000000 23.621000289917 152 152 152
19.250000000000 18.625000000000 23.626001358032 151 151 151
19.250000000000 18.687500000000 23.618000030518 144 144 144
