9.906250000000 11.687500000000 1.502999305725 114 114 114
9.812500000000 11.750000000000 1.497999191284 125 125 125
9.687500000000 11.750000000000 1.500000000000 131 131 131
9.593750000000 11.750000000000 1.498999595642 123 123 123
9.500000000000 11.750000000000 1.497999191284 130 130 130
9.343750000000 11.750000000000 1.490999221802 124 124 124
9.281250000000 11.687500000000 1.491999626160 138 138 138
9.156250000000 11.750000000000 1.493999481201 125 125 125
9.000000000000 11.750000000000 1.486999511719 126 126 126
8.843750000000 11.750000000000 1.487999916077 116 116 116
8.718750000000 11.750000000000 1.493000030518 115 115 115
8.593750000000 11.750000000000 1.493000030518 115 115 115
8.406250000000 11.750000000000 1.495999336243 112 112 112
8.250000000000 11.750000000000 1.497999191284 112 112 112
8.093750000000 11.812500000000 1.497999191284 109 109 109
7.906250000000 11.812500000000 1.496999740601 120 120 120
7.718750000000 11.812500000000 1.496999740601 111 111 111
7.468750000000 11.812500000000 1.493999481201 106 106 106
7.250000000000 11.812500000000 1.494999885559 113 113 113
7.031250000000 11.812500000000 1.495999336243 106 106 106
6.750000000000 11.812500000000 1.493000030518 112 112 112
6.468750000000 11.875000000000 1.496999740601 104 104 104
6.125000000000 11.875000000000 1.487999916077 104 104 104
5.781250000000 11.812500000000 1.482999801636 99 99 99
5.375000000000 11.875000000000 1.472999572754 99 99 99
4.906250000000 11.875000000000 1.457999229431 105 105 105
4.375000000000 11.937500000000 1.434999465942 100 100 100
3.781250000000 11.937500000000 1.413000106812 102 102 102
3.031250000000 12.000000000000 1.373999595642 102 102 102
2.093750000000 11.937500000000 1.315999984741 99 99 99
1.218750000000 12.062500000000 1.283999443054 93 93 93
0.156250000000 12.000000000000 1.248999595642 88 88 88
12.093750000000 11.437500000000 1.526999473572 165 165 165
12.093750000000 11.437500000000 1.526999473572 158 158 158
12.031250000000 11.500000000000 1.526000022888 153 153 153
12.000000000000 11.500000000000 1.498999595642 135 135 135
11.968750000000 11.437500000000 1.510999679565 147 147 147
11.906250000000 11.437500000000 1.509999275208 163 163 163
11.906250000000 11.437500000000 1.493000030518 108 108 108
11.843750000000 11.500000000000 1.481999397278 112 112 112
11.812500000000 11.500000000000 1.483999252319 111 111 111
11.781250000000 11.500000000000 1.481999397278 114 114 114
11.781250000000 11.500000000000 1.480999946594 122 122 122
11.718750000000 11.562500000000 1.487999916077 110 110 110
11.656250000000 11.500000000000 1.476999282837 121 121 121
11.625000000000 11.500000000000 1.490999221802 117 117 117
11.593750000000 11.500000000000 1.482999801636 112 112 112
11.562500000000 11.562500000000 1.493000030518 126 126 126
11.468750000000 11.500000000000 1.484999656677 109 109 109
11.468750000000 11.500000000000 1.487999916077 110 110 110
11.406250000000 11.500000000000 1.489999771118 107 107 107
11.406250000000 11.562500000000 1.491999626160 130 130 130
11.343750000000 11.500000000000 1.496999740601 114 114 114
11.281250000000 11.500000000000 1.496999740601 115 115 115
11.218750000000 11.562500000000 1.498999595642 113 113 113
11.156250000000 11.500000000000 1.493999481201 111 111 111
11.125000000000 11.500000000000 1.493999481201 119 119 119
11.093750000000 11.562500000000 1.496999740601 147 147 147
11.031250000000 11.500000000000 1.500000000000 115 115 115
10.968750000000 11.500000000000 1.500000000000 116 116 116
10.906250000000 11.562500000000 1.503999710083 118 118 118
10.843750000000 11.500000000000 1.505000114441 117 117 117
10.781250000000 11.500000000000 1.503999710083 123 123 123
10.718750000000 11.500000000000 1.501999855042 113 113 113
10.687500000000 11.500000000000 1.498999595642 110 110 110
10.625000000000 11.500000000000 1.505000114441 113 113 113
10.531250000000 11.500000000000 1.505000114441 110 110 110
10.468750000000 11.500000000000 1.506999969482 118 118 118
10.406250000000 11.500000000000 1.503999710083 125 125 125
10.343750000000 11.500000000000 1.503999710083 122 122 122
10.218750000000 11.562500000000 1.501999855042 112 112 112
10.156250000000 11.562500000000 1.503999710083 123 123 123
10.062500000000 11.562500000000 1.500000000000 118 118 118
9.968750000000 11.562500000000 1.503999710083 116 116 116
9.875000000000 11.562500000000 1.498999595642 121 121 121
9.781250000000 11.625000000000 1.495999336243 122 122 122
9.656250000000 11.562500000000 1.491999626160 121 121 121
9.593750000000 11.562500000000 1.495999336243 118 118 118
9.500000000000 11.625000000000 1.491999626160 116 116 116
9.375000000000 11.562500000000 1.486999511719 124 124 124
9.250000000000 11.562500000000 1.488999366760 123 123 123
9.093750000000 11.562500000000 1.487999916077 122 122 122
8.968750000000 11.562500000000 1.484999656677 121 121 121
8.843750000000 11.625000000000 1.488999366760 123 123 123
8.718750000000 11.562500000000 1.487999916077 121 121 121
8.531250000000 11.562500000000 1.488999366760 112 112 112
8.406250000000 11.625000000000 1.490999221802 117 117 117
8.250000000000 11.625000000000 1.491999626160 110 110 110
8.093750000000 11.625000000000 1.493999481201 110 110 110
7.906250000000 11.687500000000 1.493999481201 110 110 110
7.656250000000 11.625000000000 1.493999481201 113 113 113
7.468750000000 11.625000000000 1.491999626160 114 114 114
7.281250000000 11.625000000000 1.494999885559 107 107 107
6.968750000000 11.625000000000 1.486999511719 108 108 108
6.718750000000 11.687500000000 1.486999511719 105 105 105
6.437500000000 11.687500000000 1.487999916077 106 106 106
6.093750000000 11.687500000000 1.486999511719 105 105 105
5.750000000000 11.687500000000 1.479000091553 107 107 107
5.343750000000 11.687500000000 1.473999977112 101 101 101
4.906250000000 11.750000000000 1.454999923706 101 101 101
4.406250000000 11.750000000000 1.440999984741 101 101 101
3.781250000000 11.750000000000 1.415999412537 100 100 100
3.031250000000 11.812500000000 1.370999336243 105 105 105
2.093750000000 11.812500000000 1.314999580383 103 103 103
1.218750000000 11.937500000000 1.283999443054 92 92 92
0.156250000000 11.937500000000 1.246999740601 91 91 91
12.093750000000 11.375000000000 1.519999504089 163 163 163
12.062500000000 11.375000000000 1.526000022888 161 161 161
12.031250000000 11.312500000000 1.512000083923 116 116 116
11.968750000000 11.375000000000 1.498999595642 131 131 131
11.968750000000 11.375000000000 1.513999938965 158 158 158
11.906250000000 11.375000000000 1.488999366760 107 107 107
11.843750000000 11.312500000000 1.482999801636 104 104 104
11.812500000000 11.375000000000 1.486999511719 116 116 116
11.781250000000 11.375000000000 1.481999397278 108 108 108
11.750000000000 11.375000000000 1.487999916077 106 106 106
11.687500000000 11.312500000000 1.483999252319 122 122 122
11.656250000000 11.375000000000 1.481999397278 112 112 112
11.625000000000 11.375000000000 1.486000061035 118 118 118
11.593750000000 11.375000000000 1.480999946594 109 109 109
11.531250000000 11.312500000000 1.480999946594 96 96 96
11.468750000000 11.375000000000 1.477999687195 107 107 107
11.468750000000 11.375000000000 1.488999366760 99 99 99
11.406250000000 11.375000000000 1.488999366760 161 161 161
11.343750000000 11.312500000000 1.490999221802 104 104 104
11.312500000000 11.375000000000 1.486000061035 129 129 129
11.281250000000 11.375000000000 1.494999885559 112 112 112
11.218750000000 11.312500000000 1.503999710083 125 125 125
11.156250000000 11.375000000000 1.502999305725 117 117 117
11.125000000000 11.375000000000 1.501999855042 128 128 128
11.093750000000 11.312500000000 1.497999191284 118 118 118
11.031250000000 11.375000000000 1.493000030518 130 130 130
10.968750000000 11.375000000000 1.502999305725 113 113 113
10.906250000000 11.312500000000 1.495999336243 112 112 112
10.843750000000 11.375000000000 1.501999855042 128 128 128
10.812500000000 11.375000000000 1.498999595642 127 127 127
10.718750000000 11.312500000000 1.498999595642 128 128 128
10.687500000000 11.375000000000 1.509999275208 119 119 119
10.593750000000 11.375000000000 1.497999191284 119 119 119
10.531250000000 11.375000000000 1.500999450684 120 120 120
10.468750000000 11.437500000000 1.501999855042 124 124 124
10.406250000000 11.375000000000 1.502999305725 121 121 121
10.312500000000 11.437500000000 1.503999710083 112 112 112
10.218750000000 11.375000000000 1.493999481201 124 124 124
10.156250000000 11.437500000000 1.495999336243 124 124 124
10.062500000000 11.375000000000 1.498999595642 116 116 116
9.968750000000 11.375000000000 1.493999481201 120 120 120
9.906250000000 11.375000000000 1.505999565125 82 82 82
9.781250000000 11.375000000000 1.493999481201 123 123 123
9.718750000000 11.437500000000 1.487999916077 120 120 120
9.593750000000 11.375000000000 1.487999916077 127 127 127
9.468750000000 11.375000000000 1.488999366760 123 123 123
9.375000000000 11.437500000000 1.486999511719 120 120 120
9.218750000000 11.437500000000 1.484999656677 123 123 123
9.093750000000 11.437500000000 1.474999427795 128 128 128
8.968750000000 11.375000000000 1.483999252319 126 126 126
8.843750000000 11.437500000000 1.484999656677 118 118 118
8.687500000000 11.437500000000 1.483999252319 120 120 120
8.593750000000 11.500000000000 1.482999801636 113 113 113
8.406250000000 11.500000000000 1.481999397278 117 117 117
8.187500000000 11.437500000000 1.476999282837 114 114 114
8.031250000000 11.437500000000 1.479999542236 113 113 113
7.843750000000 11.437500000000 1.483999252319 104 104 104
7.656250000000 11.500000000000 1.484999656677 110 110 110
7.468750000000 11.500000000000 1.484999656677 111 111 111
7.218750000000 11.500000000000 1.481999397278 109 109 109
6.968750000000 11.562500000000 1.486000061035 110 110 110
6.718750000000 11.500000000000 1.490999221802 104 104 104
6.406250000000 11.500000000000 1.479999542236 107 107 107
6.093750000000 11.500000000000 1.480999946594 107 107 107
5.718750000000 11.562500000000 1.474999427795 101 101 101
5.343750000000 11.562500000000 1.465999603271 105 105 105
4.906250000000 11.625000000000 1.460000038147 110 110 110
4.406250000000 11.562500000000 1.436999320984 102 102 102
3.781250000000 11.687500000000 1.413000106812 105 105 105
3.031250000000 11.687500000000 1.368000030518 107 107 107
2.093750000000 11.750000000000 1.309000015259 103 103 103
1.187500000000 11.687500000000 1.282999992371 90 90 90
0.156250000000 11.812500000000 1.244999885559 87 87 87
12.093750000000 11.187500000000 1.523999214172 162 162 162
12.031250000000 11.187500000000 1.519999504089 161 161 161
12.000000000000 11.187500000000 1.519000053406 163 163 163
11.968750000000 11.187500000000 1.505000114441 103 103 103
11.968750000000 11.187500000000 1.512000083923 154 154 154
11.875000000000 11.187500000000 1.486999511719 109 109 109
11.843750000000 11.187500000000 1.479999542236 110 110 110
11.781250000000 11.187500000000 1.477999687195 112 112 112
11.781250000000 11.187500000000 1.476999282837 109 109 109
11.718750000000 11.187500000000 1.476999282837 112 112 112
11.656250000000 11.187500000000 1.483999252319 108 108 108
11.656250000000 11.187500000000 1.479000091553 117 117 117
11.593750000000 11.187500000000 1.475999832153 121 121 121
11.531250000000 11.187500000000 1.483999252319 110 110 110
11.500000000000 11.187500000000 1.473999977112 110 110 110
11.468750000000 11.187500000000 1.476999282837 115 115 115
11.437500000000 11.187500000000 1.479000091553 115 115 115
11.406250000000 11.187500000000 1.486999511719 114 114 114
11.375000000000 11.187500000000 1.487999916077 101 101 101
11.343750000000 11.187500000000 1.489999771118 104 104 104
11.250000000000 11.125000000000 1.489999771118 100 100 100
11.218750000000 11.187500000000 1.490999221802 122 122 122
11.187500000000 11.187500000000 1.495999336243 110 110 110
11.156250000000 11.187500000000 1.495999336243 116 116 116
11.093750000000 11.187500000000 1.498999595642 121 121 121
11.031250000000 11.187500000000 1.493999481201 115 115 115
10.937500000000 11.187500000000 1.497999191284 113 113 113
10.906250000000 11.250000000000 1.497999191284 131 131 131
10.843750000000 11.250000000000 1.496999740601 116 116 116
10.750000000000 11.250000000000 1.487999916077 118 118 118
10.718750000000 11.250000000000 1.501999855042 116 116 116
10.656250000000 11.250000000000 1.501999855042 118 118 118
10.593750000000 11.250000000000 1.500999450684 124 124 124
10.531250000000 11.250000000000 1.501999855042 126 126 126
10.406250000000 11.250000000000 1.495999336243 124 124 124
10.343750000000 11.250000000000 1.498999595642 122 122 122
10.312500000000 11.250000000000 1.495999336243 118 118 118
10.218750000000 11.250000000000 1.496999740601 120 120 120
10.156250000000 11.250000000000 1.491999626160 117 117 117
10.062500000000 11.250000000000 1.488999366760 112 112 112
9.968750000000 11.250000000000 1.493000030518 126 126 126
9.875000000000 11.250000000000 1.482999801636 121 121 121
9.781250000000 11.250000000000 1.477999687195 125 125 125
9.656250000000 11.250000000000 1.479000091553 124 124 124
9.562500000000 11.250000000000 1.477999687195 121 121 121
9.437500000000 11.250000000000 1.473999977112 126 126 126
9.312500000000 11.250000000000 1.480999946594 121 121 121
9.218750000000 11.250000000000 1.479000091553 125 125 125
9.093750000000 11.312500000000 1.470999717712 112 112 112
8.968750000000 11.312500000000 1.475999832153 121 121 121
8.843750000000 11.312500000000 1.476999282837 124 124 124
8.687500000000 11.312500000000 1.476999282837 120 120 120
8.531250000000 11.312500000000 1.477999687195 123 123 123
8.343750000000 11.312500000000 1.477999687195 115 115 115
8.187500000000 11.312500000000 1.473999977112 119 119 119
8.031250000000 11.312500000000 1.477999687195 117 117 117
7.843750000000 11.312500000000 1.473999977112 113 113 113
7.656250000000 11.312500000000 1.473999977112 111 111 111
7.406250000000 11.375000000000 1.476999282837 105 105 105
7.187500000000 11.375000000000 1.480999946594 107 107 107
6.968750000000 11.375000000000 1.482999801636 108 108 108
6.718750000000 11.375000000000 1.481999397278 105 105 105
6.406250000000 11.375000000000 1.480999946594 101 101 101
6.093750000000 11.375000000000 1.474999427795 107 107 107
5.750000000000 11.437500000000 1.470999717712 105 105 105
5.312500000000 11.437500000000 1.455999374390 106 106 106
4.906250000000 11.375000000000 1.451999664307 101 101 101
4.375000000000 11.437500000000 1.437999725342 100 100 100
3.781250000000 11.437500000000 1.414999961853 93 93 93
3.031250000000 11.500000000000 1.371999740601 112 112 112
2.093750000000 11.562500000000 1.309999465942 101 101 101
1.187500000000 11.562500000000 1.281999588013 96 96 96
0.093750000000 11.562500000000 1.243999481201 95 95 95
12.093750000000 11.062500000000 1.519000053406 165 165 165
12.062500000000 11.000000000000 1.520999908447 162 162 162
12.031250000000 11.000000000000 1.521999359131 165 165 165
12.000000000000 11.000000000000 1.523999214172 168 168 168
11.968750000000 11.062500000000 1.493000030518 126 126 126
11.906250000000 11.000000000000 1.505999565125 154 154 154
11.875000000000 11.000000000000 1.490999221802 127 127 127
11.843750000000 11.000000000000 1.480999946594 114 114 114
11.781250000000 11.062500000000 1.481999397278 112 112 112
11.781250000000 11.000000000000 1.480999946594 113 113 113
11.718750000000 11.000000000000 1.468999862671 112 112 112
11.718750000000 11.000000000000 1.473999977112 113 113 113
11.656250000000 11.062500000000 1.472000122070 118 118 118
11.593750000000 11.000000000000 1.469999313354 105 105 105
11.562500000000 11.000000000000 1.476999282837 117 117 117
11.531250000000 11.000000000000 1.476999282837 108 108 108
11.500000000000 11.062500000000 1.470999717712 111 111 111
11.406250000000 11.000000000000 1.475999832153 114 114 114
11.406250000000 11.000000000000 1.480999946594 105 105 105
11.375000000000 11.000000000000 1.486999511719 109 109 109
11.281250000000 11.062500000000 1.480999946594 111 111 111
11.250000000000 11.062500000000 1.486999511719 105 105 105
11.218750000000 11.062500000000 1.493999481201 101 101 101
11.187500000000 11.125000000000 1.493000030518 99 99 99
11.093750000000 11.062500000000 1.494999885559 123 123 123
11.062500000000 11.062500000000 1.493999481201 110 110 110
11.031250000000 11.125000000000 1.493999481201 110 110 110
10.937500000000 11.062500000000 1.488999366760 115 115 115
10.875000000000 11.062500000000 1.490999221802 113 113 113
10.781250000000 11.062500000000 1.489999771118 112 112 112
10.781250000000 11.062500000000 1.493999481201 134 134 134
10.718750000000 11.125000000000 1.498999595642 110 110 110
10.656250000000 11.062500000000 1.500000000000 114 114 114
10.593750000000 11.062500000000 1.490999221802 111 111 111
10.500000000000 11.062500000000 1.489999771118 119 119 119
10.468750000000 11.062500000000 1.490999221802 116 116 116
10.406250000000 11.125000000000 1.493999481201 124 124 124
10.281250000000 11.062500000000 1.494999885559 129 129 129
10.218750000000 11.125000000000 1.486000061035 121 121 121
10.125000000000 11.062500000000 1.490999221802 121 121 121
10.062500000000 11.125000000000 1.487999916077 108 108 108
9.937500000000 11.062500000000 1.479999542236 118 118 118
9.843750000000 11.062500000000 1.476999282837 121 121 121
9.750000000000 11.125000000000 1.472000122070 117 117 117
9.625000000000 11.062500000000 1.473999977112 122 122 122
9.531250000000 11.125000000000 1.468999862671 118 118 118
9.437500000000 11.187500000000 1.468999862671 122 122 122
9.343750000000 11.125000000000 1.467000007629 123 123 123
9.187500000000 11.125000000000 1.464999198914 125 125 125
9.031250000000 11.125000000000 1.465999603271 122 122 122
8.968750000000 11.187500000000 1.464999198914 120 120 120
8.812500000000 11.125000000000 1.467000007629 114 114 114
8.656250000000 11.125000000000 1.465999603271 116 116 116
8.500000000000 11.125000000000 1.467999458313 116 116 116
8.375000000000 11.125000000000 1.470999717712 113 113 113
8.218750000000 11.125000000000 1.472999572754 115 115 115
8.031250000000 11.125000000000 1.467999458313 110 110 110
7.843750000000 11.250000000000 1.473999977112 114 114 114
7.593750000000 11.187500000000 1.467999458313 111 111 111
7.437500000000 11.187500000000 1.472000122070 108 108 108
7.156250000000 11.187500000000 1.472000122070 107 107 107
6.937500000000 11.187500000000 1.474999427795 110 110 110
6.656250000000 11.187500000000 1.477999687195 104 104 104
6.375000000000 11.187500000000 1.472999572754 105 105 105
6.031250000000 11.250000000000 1.468999862671 101 101 101
5.718750000000 11.250000000000 1.470999717712 96 96 96
5.281250000000 11.250000000000 1.453000068665 109 109 109
4.843750000000 11.250000000000 1.440999984741 108 108 108
4.343750000000 11.312500000000 1.431999206543 106 106 106
3.750000000000 11.312500000000 1.406000137329 103 103 103
3.000000000000 11.312500000000 1.368999481201 103 103 103
2.093750000000 11.375000000000 1.319999694824 94 94 94
1.218750000000 11.437500000000 1.285999298096 93 93 93
0.125000000000 11.437500000000 1.246999740601 93 93 93
12.093750000000 10.812500000000 1.517999649048 166 166 166
12.093750000000 10.875000000000 1.519999504089 166 166 166
12.031250000000 10.875000000000 1.523999214172 167 167 167
12.031250000000 10.875000000000 1.522999763489 164 164 164
11.968750000000 10.812500000000 1.506999969482 148 148 148
11.906250000000 10.875000000000 1.506999969482 152 152 152
11.875000000000 10.875000000000 1.480999946594 109 109 109
11.843750000000 10.875000000000 1.486000061035 112 112 112
11.781250000000 10.812500000000 1.480999946594 114 114 114
11.750000000000 10.875000000000 1.472000122070 122 122 122
11.718750000000 10.875000000000 1.477999687195 105 105 105
11.687500000000 10.875000000000 1.479000091553 109 109 109
11.625000000000 10.875000000000 1.470999717712 101 101 101
11.593750000000 10.937500000000 1.472000122070 110 110 110
11.562500000000 10.937500000000 1.473999977112 124 124 124
11.531250000000 10.937500000000 1.476999282837 120 120 120
11.468750000000 10.875000000000 1.484999656677 108 108 108
11.406250000000 10.937500000000 1.469999313354 104 104 104
11.406250000000 10.937500000000 1.482999801636 108 108 108
11.343750000000 10.937500000000 1.483999252319 125 125 125
11.281250000000 10.875000000000 1.477999687195 108 108 108
11.250000000000 10.937500000000 1.484999656677 118 118 118
11.218750000000 10.937500000000 1.483999252319 102 102 102
11.125000000000 10.875000000000 1.479999542236 122 122 122
11.093750000000 10.937500000000 1.481999397278 123 123 123
11.031250000000 10.937500000000 1.479999542236 126 126 126
11.000000000000 10.875000000000 1.493000030518 104 104 104
10.968750000000 10.937500000000 1.481999397278 111 111 111
10.906250000000 10.937500000000 1.488999366760 115 115 115
10.843750000000 10.875000000000 1.490999221802 107 107 107
10.781250000000 10.937500000000 1.496999740601 111 111 111
10.718750000000 10.937500000000 1.495999336243 118 118 118
10.656250000000 10.875000000000 1.488999366760 105 105 105
10.593750000000 10.937500000000 1.496999740601 108 108 108
10.500000000000 10.875000000000 1.486999511719 123 123 123
10.437500000000 10.937500000000 1.493000030518 122 122 122
10.343750000000 10.875000000000 1.490999221802 108 108 108
10.281250000000 10.937500000000 1.488999366760 117 117 117
10.187500000000 10.875000000000 1.482999801636 118 118 118
10.093750000000 10.937500000000 1.482999801636 112 112 112
10.031250000000 10.875000000000 1.479999542236 107 107 107
9.906250000000 10.937500000000 1.472999572754 118 118 118
9.843750000000 11.000000000000 1.468999862671 116 116 116
9.718750000000 10.937500000000 1.465999603271 121 121 121
9.656250000000 11.000000000000 1.463999748230 127 127 127
9.531250000000 10.937500000000 1.467000007629 120 120 120
9.406250000000 10.937500000000 1.461999893188 125 125 125
9.312500000000 11.000000000000 1.460999488831 122 122 122
9.156250000000 11.000000000000 1.458999633789 121 121 121
9.031250000000 11.000000000000 1.453999519348 128 128 128
8.906250000000 10.937500000000 1.448999404907 123 123 123
8.781250000000 10.937500000000 1.454999923706 125 125 125
8.625000000000 10.937500000000 1.454999923706 124 124 124
8.500000000000 11.000000000000 1.457999229431 116 116 116
8.343750000000 11.000000000000 1.460000038147 111 111 111
8.156250000000 11.000000000000 1.460000038147 110 110 110
7.968750000000 11.000000000000 1.463999748230 111 111 111
7.812500000000 11.000000000000 1.462999343872 112 112 112
7.593750000000 11.062500000000 1.467000007629 104 104 104
7.406250000000 11.062500000000 1.467999458313 107 107 107
7.156250000000 11.000000000000 1.470999717712 108 108 108
6.937500000000 11.062500000000 1.472999572754 105 105 105
6.656250000000 11.062500000000 1.469999313354 106 106 106
6.375000000000 11.062500000000 1.469999313354 105 105 105
6.031250000000 11.062500000000 1.465999603271 101 101 101
5.687500000000 11.125000000000 1.463999748230 98 98 98
5.281250000000 11.062500000000 1.453999519348 99 99 99
4.843750000000 11.187500000000 1.439999580383 107 107 107
4.375000000000 11.187500000000 1.432999610901 103 103 103
3.750000000000 11.187500000000 1.406999588013 110 110 110
3.031250000000 11.187500000000 1.370999336243 103 103 103
2.093750000000 11.187500000000 1.314999580383 102 102 102
1.218750000000 11.312500000000 1.288000106812 94 94 94
0.156250000000 11.250000000000 1.247999191284 93 93 93
12.093750000000 10.687500000000 1.519999504089 164 164 164
12.093750000000 10.687500000000 1.514999389648 158 158 158
12.062500000000 10.687500000000 1.513999938965 163 163 163
12.031250000000 10.687500000000 1.517999649048 164 164 164
11.968750000000 10.750000000000 1.519999504089 157 157 157
11.968750000000 10.750000000000 1.512999534607 144 144 144
11.906250000000 10.750000000000 1.503999710083 153 153 153
11.875000000000 10.750000000000 1.475999832153 113 113 113
11.812500000000 10.750000000000 1.484999656677 104 104 104
11.781250000000 10.750000000000 1.476999282837 101 101 101
11.750000000000 10.750000000000 1.472999572754 113 113 113
11.718750000000 10.750000000000 1.480999946594 112 112 112
11.656250000000 10.750000000000 1.483999252319 130 130 130
11.625000000000 10.750000000000 1.479999542236 121 121 121
11.593750000000 10.750000000000 1.473999977112 110 110 110
11.562500000000 10.750000000000 1.479000091553 115 115 115
11.500000000000 10.750000000000 1.483999252319 116 116 116
11.468750000000 10.750000000000 1.480999946594 99 99 99
11.406250000000 10.750000000000 1.486000061035 108 108 108
11.375000000000 10.750000000000 1.472999572754 104 104 104
11.343750000000 10.750000000000 1.483999252319 117 117 117
11.281250000000 10.750000000000 1.475999832153 112 112 112
11.250000000000 10.750000000000 1.479000091553 120 120 120
11.187500000000 10.750000000000 1.474999427795 113 113 113
11.156250000000 10.750000000000 1.479000091553 117 117 117
11.093750000000 10.750000000000 1.486000061035 101 101 101
11.031250000000 10.750000000000 1.483999252319 104 104 104
10.968750000000 10.750000000000 1.479999542236 114 114 114
10.937500000000 10.750000000000 1.487999916077 124 124 124
10.875000000000 10.750000000000 1.493999481201 108 108 108
10.843750000000 10.750000000000 1.494999885559 120 120 120
10.781250000000 10.750000000000 1.497999191284 102 102 102
10.687500000000 10.750000000000 1.494999885559 116 116 116
10.656250000000 10.750000000000 1.498999595642 110 110 110
10.531250000000 10.750000000000 1.491999626160 111 111 111
10.500000000000 10.750000000000 1.493999481201 110 110 110
10.437500000000 10.750000000000 1.489999771118 113 113 113
10.343750000000 10.750000000000 1.480999946594 109 109 109
10.281250000000 10.750000000000 1.483999252319 119 119 119
10.187500000000 10.812500000000 1.468999862671 125 125 125
10.093750000000 10.750000000000 1.475999832153 107 107 107
10.031250000000 10.812500000000 1.472000122070 108 108 108
9.906250000000 10.812500000000 1.462999343872 114 114 114
9.843750000000 10.812500000000 1.468999862671 116 116 116
9.718750000000 10.812500000000 1.465999603271 117 117 117
9.593750000000 10.750000000000 1.458999633789 118 118 118
9.531250000000 10.812500000000 1.464999198914 117 117 117
9.406250000000 10.812500000000 1.457999229431 126 126 126
9.250000000000 10.812500000000 1.450999259949 125 125 125
9.156250000000 10.750000000000 1.446000099182 126 126 126
9.031250000000 10.812500000000 1.447999954224 122 122 122
8.906250000000 10.812500000000 1.446999549866 121 121 121
8.781250000000 10.812500000000 1.448999404907 123 123 123
8.593750000000 10.875000000000 1.446999549866 118 118 118
8.468750000000 10.875000000000 1.449999809265 118 118 118
8.312500000000 10.875000000000 1.455999374390 118 118 118
8.156250000000 10.875000000000 1.451999664307 115 115 115
7.968750000000 10.875000000000 1.453999519348 114 114 114
7.781250000000 10.875000000000 1.457999229431 112 112 112
7.593750000000 10.875000000000 1.460999488831 115 115 115
7.375000000000 10.812500000000 1.463999748230 105 105 105
7.156250000000 10.875000000000 1.463999748230 113 113 113
6.906250000000 10.875000000000 1.467000007629 108 108 108
6.656250000000 10.937500000000 1.463999748230 107 107 107
6.343750000000 10.937500000000 1.460999488831 105 105 105
6.031250000000 10.937500000000 1.462999343872 106 106 106
5.718750000000 10.937500000000 1.453999519348 104 104 104
5.281250000000 11.000000000000 1.449999809265 99 99 99
4.843750000000 11.000000000000 1.434999465942 108 108 108
4.343750000000 11.000000000000 1.429999351501 101 101 101
3.718750000000 10.937500000000 1.401000022888 102 102 102
3.031250000000 11.062500000000 1.377999305725 96 96 96
2.093750000000 11.062500000000 1.312999725342 105 105 105
1.218750000000 11.125000000000 1.285999298096 94 94 94
0.156250000000 11.187500000000 1.247999191284 84 84 84
12.093750000000 10.562500000000 1.517999649048 157 157 157
12.093750000000 10.625000000000 1.519999504089 159 159 159
12.031250000000 10.625000000000 1.512000083923 160 160 160
12.000000000000 10.562500000000 1.513999938965 161 161 161
11.968750000000 10.562500000000 1.516999244690 163 163 163
11.937500000000 10.562500000000 1.506999969482 149 149 149
11.906250000000 10.625000000000 1.509999275208 158 158 158
11.843750000000 10.562500000000 1.486000061035 106 106 106
11.812500000000 10.562500000000 1.487999916077 104 104 104
11.781250000000 10.562500000000 1.483999252319 112 112 112
11.750000000000 10.625000000000 1.482999801636 107 107 107
11.718750000000 10.562500000000 1.480999946594 105 105 105
11.687500000000 10.562500000000 1.486999511719 95 95 95
11.656250000000 10.562500000000 1.484999656677 103 103 103
11.593750000000 10.625000000000 1.482999801636 113 113 113
11.531250000000 10.562500000000 1.483999252319 109 109 109
11.531250000000 10.562500000000 1.481999397278 108 108 108
11.468750000000 10.562500000000 1.474999427795 110 110 110
11.437500000000 10.625000000000 1.477999687195 102 102 102
11.375000000000 10.562500000000 1.477999687195 109 109 109
11.343750000000 10.562500000000 1.481999397278 101 101 101
11.281250000000 10.625000000000 1.479999542236 116 116 116
11.218750000000 10.562500000000 1.477999687195 102 102 102
11.156250000000 10.562500000000 1.479000091553 116 116 116
11.156250000000 10.562500000000 1.486999511719 100 100 100
11.093750000000 10.625000000000 1.486999511719 100 100 100
11.031250000000 10.562500000000 1.484999656677 114 114 114
10.968750000000 10.562500000000 1.484999656677 115 115 115
10.937500000000 10.625000000000 1.486999511719 118 118 118
10.843750000000 10.562500000000 1.487999916077 117 117 117
10.812500000000 10.625000000000 1.491999626160 114 114 114
10.718750000000 10.562500000000 1.488999366760 108 108 108
10.656250000000 10.562500000000 1.486000061035 109 109 109
10.625000000000 10.625000000000 1.490999221802 116 116 116
10.593750000000 10.625000000000 1.483999252319 114 114 114
10.531250000000 10.625000000000 1.488999366760 111 111 111
10.406250000000 10.625000000000 1.479999542236 107 107 107
10.343750000000 10.687500000000 1.475999832153 109 109 109
10.281250000000 10.625000000000 1.474999427795 111 111 111
10.187500000000 10.625000000000 1.472000122070 118 118 118
10.093750000000 10.625000000000 1.464999198914 112 112 112
10.031250000000 10.687500000000 1.467999458313 119 119 119
9.906250000000 10.625000000000 1.462999343872 117 117 117
9.781250000000 10.625000000000 1.455999374390 119 119 119
9.718750000000 10.625000000000 1.455999374390 114 114 114
9.593750000000 10.625000000000 1.453000068665 116 116 116
9.500000000000 10.625000000000 1.453000068665 118 118 118
9.406250000000 10.687500000000 1.446999549866 115 115 115
9.281250000000 10.625000000000 1.446000099182 122 122 122
9.156250000000 10.625000000000 1.443999290466 127 127 127
9.000000000000 10.687500000000 1.439999580383 127 127 127
8.906250000000 10.750000000000 1.441999435425 129 129 129
8.750000000000 10.750000000000 1.440999984741 121 121 121
8.593750000000 10.687500000000 1.441999435425 118 118 118
8.468750000000 10.687500000000 1.443999290466 119 119 119
8.312500000000 10.687500000000 1.451999664307 112 112 112
8.156250000000 10.687500000000 1.446999549866 118 118 118
7.968750000000 10.750000000000 1.446999549866 113 113 113
7.781250000000 10.750000000000 1.450999259949 112 112 112
7.562500000000 10.687500000000 1.455999374390 107 107 107
7.375000000000 10.687500000000 1.454999923706 109 109 109
7.156250000000 10.812500000000 1.455999374390 109 109 109
6.906250000000 10.750000000000 1.458999633789 111 111 111
6.625000000000 10.750000000000 1.462999343872 107 107 107
6.343750000000 10.812500000000 1.458999633789 108 108 108
6.031250000000 10.812500000000 1.454999923706 110 110 110
5.656250000000 10.812500000000 1.455999374390 106 106 106
5.281250000000 10.812500000000 1.448999404907 102 102 102
4.843750000000 10.812500000000 1.432999610901 96 96 96
4.343750000000 10.812500000000 1.424999237061 106 106 106
3.750000000000 10.875000000000 1.404999732971 98 98 98
3.093750000000 10.875000000000 1.375999450684 94 94 94
2.093750000000 10.937500000000 1.311999320984 105 105 105
1.281250000000 10.937500000000 1.293999671936 95 95 95
0.156250000000 11.000000000000 1.250000000000 88 88 88
12.093750000000 10.437500000000 1.512999534607 158 158 158
12.093750000000 10.437500000000 1.512000083923 161 161 161
12.031250000000 10.375000000000 1.512999534607 161 161 161
12.031250000000 10.437500000000 1.515999794006 162 162 162
12.000000000000 10.437500000000 1.516999244690 171 171 171
11.968750000000 10.437500000000 1.508999824524 155 155 155
11.937500000000 10.437500000000 1.498999595642 151 151 151
11.843750000000 10.437500000000 1.487999916077 120 120 120
11.843750000000 10.437500000000 1.479999542236 123 123 123
11.812500000000 10.437500000000 1.479000091553 105 105 105
11.781250000000 10.437500000000 1.487999916077 110 110 110
11.718750000000 10.375000000000 1.484999656677 110 110 110
11.656250000000 10.437500000000 1.483999252319 120 120 120
11.656250000000 10.437500000000 1.480999946594 119 119 119
11.593750000000 10.375000000000 1.470999717712 124 124 124
11.531250000000 10.375000000000 1.474999427795 103 103 103
11.500000000000 10.437500000000 1.472000122070 109 109 109
11.468750000000 10.437500000000 1.480999946594 104 104 104
11.406250000000 10.375000000000 1.481999397278 117 117 117
11.375000000000 10.437500000000 1.482999801636 101 101 101
11.343750000000 10.437500000000 1.480999946594 107 107 107
11.281250000000 10.437500000000 1.479999542236 104 104 104
11.218750000000 10.375000000000 1.482999801636 102 102 102
11.187500000000 10.437500000000 1.480999946594 101 101 101
11.125000000000 10.437500000000 1.475999832153 117 117 117
11.062500000000 10.375000000000 1.486000061035 112 112 112
11.031250000000 10.437500000000 1.493999481201 102 102 102
10.968750000000 10.437500000000 1.493999481201 112 112 112
10.937500000000 10.437500000000 1.488999366760 105 105 105
10.906250000000 10.500000000000 1.483999252319 109 109 109
10.843750000000 10.500000000000 1.490999221802 111 111 111
10.750000000000 10.500000000000 1.484999656677 109 109 109
10.718750000000 10.500000000000 1.488999366760 105 105 105
10.593750000000 10.437500000000 1.481999397278 107 107 107
10.562500000000 10.500000000000 1.487999916077 117 117 117
10.500000000000 10.500000000000 1.482999801636 110 110 110
10.406250000000 10.500000000000 1.484999656677 109 109 109
10.343750000000 10.500000000000 1.479999542236 118 118 118
10.250000000000 10.500000000000 1.472999572754 117 117 117
10.156250000000 10.437500000000 1.467000007629 119 119 119
10.062500000000 10.500000000000 1.460000038147 111 111 111
9.968750000000 10.437500000000 1.462999343872 111 111 111
9.906250000000 10.500000000000 1.458999633789 116 116 116
9.812500000000 10.437500000000 1.453999519348 110 110 110
9.718750000000 10.500000000000 1.454999923706 114 114 114
9.593750000000 10.500000000000 1.444999694824 113 113 113
9.468750000000 10.500000000000 1.443999290466 118 118 118
9.343750000000 10.500000000000 1.442999839783 124 124 124
9.281250000000 10.562500000000 1.441999435425 121 121 121
9.125000000000 10.562500000000 1.435999870300 122 122 122
8.968750000000 10.562500000000 1.430999755859 125 125 125
8.875000000000 10.500000000000 1.432999610901 132 132 132
8.718750000000 10.500000000000 1.428999900818 126 126 126
8.593750000000 10.500000000000 1.432999610901 132 132 132
8.437500000000 10.562500000000 1.434999465942 120 120 120
8.281250000000 10.562500000000 1.439999580383 118 118 118
8.093750000000 10.562500000000 1.436999320984 120 120 120
7.906250000000 10.500000000000 1.437999725342 109 109 109
7.750000000000 10.500000000000 1.439999580383 109 109 109
7.562500000000 10.625000000000 1.448999404907 108 108 108
7.375000000000 10.625000000000 1.454999923706 109 109 109
7.125000000000 10.562500000000 1.455999374390 111 111 111
6.875000000000 10.625000000000 1.450999259949 111 111 111
6.625000000000 10.625000000000 1.453000068665 109 109 109
6.312500000000 10.562500000000 1.453000068665 105 105 105
5.968750000000 10.625000000000 1.446999549866 111 111 111
5.656250000000 10.625000000000 1.446000099182 106 106 106
5.281250000000 10.687500000000 1.441999435425 100 100 100
4.843750000000 10.687500000000 1.432999610901 105 105 105
4.343750000000 10.687500000000 1.420999526978 95 95 95
3.718750000000 10.750000000000 1.399999618530 103 103 103
3.031250000000 10.750000000000 1.365999221802 100 100 100
2.156250000000 10.812500000000 1.316999435425 103 103 103
1.281250000000 10.812500000000 1.289999961853 99 99 99
0.156250000000 10.875000000000 1.247999191284 89 89 89
12.093750000000 10.250000000000 1.510999679565 152 152 152
12.031250000000 10.250000000000 1.506999969482 163 163 163
12.031250000000 10.250000000000 1.510999679565 163 163 163
11.968750000000 10.250000000000 1.516999244690 156 156 156
11.968750000000 10.312500000000 1.502999305725 135 135 135
11.906250000000 10.250000000000 1.505999565125 145 145 145
11.843750000000 10.250000000000 1.484999656677 110 110 110
11.843750000000 10.250000000000 1.482999801636 108 108 108
11.781250000000 10.312500000000 1.477999687195 111 111 111
11.718750000000 10.250000000000 1.481999397278 110 110 110
11.718750000000 10.250000000000 1.469999313354 113 113 113
11.656250000000 10.250000000000 1.470999717712 116 116 116
11.625000000000 10.312500000000 1.476999282837 109 109 109
11.562500000000 10.250000000000 1.481999397278 110 110 110
11.531250000000 10.250000000000 1.480999946594 116 116 116
11.500000000000 10.250000000000 1.473999977112 119 119 119
11.437500000000 10.250000000000 1.484999656677 118 118 118
11.406250000000 10.250000000000 1.480999946594 108 108 108
11.343750000000 10.250000000000 1.482999801636 109 109 109
11.343750000000 10.250000000000 1.481999397278 126 126 126
11.281250000000 10.312500000000 1.479999542236 107 107 107
11.250000000000 10.312500000000 1.484999656677 114 114 114
11.218750000000 10.312500000000 1.486000061035 112 112 112
11.156250000000 10.312500000000 1.488999366760 117 117 117
11.093750000000 10.312500000000 1.493000030518 94 94 94
11.031250000000 10.312500000000 1.490999221802 102 102 102
10.968750000000 10.312500000000 1.490999221802 93 93 93
10.937500000000 10.312500000000 1.490999221802 109 109 109
10.875000000000 10.312500000000 1.487999916077 100 100 100
10.812500000000 10.312500000000 1.490999221802 109 109 109
10.750000000000 10.312500000000 1.484999656677 109 109 109
10.687500000000 10.375000000000 1.479999542236 113 113 113
10.593750000000 10.312500000000 1.479000091553 116 116 116
10.531250000000 10.312500000000 1.479999542236 105 105 105
10.468750000000 10.312500000000 1.480999946594 115 115 115
10.406250000000 10.312500000000 1.479999542236 117 117 117
10.312500000000 10.312500000000 1.479999542236 122 122 122
10.250000000000 10.312500000000 1.470999717712 115 115 115
10.156250000000 10.312500000000 1.467000007629 116 116 116
10.093750000000 10.312500000000 1.458999633789 116 116 116
9.968750000000 10.312500000000 1.457999229431 118 118 118
9.875000000000 10.250000000000 1.447999954224 123 123 123
9.781250000000 10.312500000000 1.449999809265 125 125 125
9.687500000000 10.375000000000 1.446999549866 126 126 126
9.593750000000 10.375000000000 1.446999549866 119 119 119
9.468750000000 10.375000000000 1.440999984741 122 122 122
9.343750000000 10.375000000000 1.434999465942 119 119 119
9.218750000000 10.375000000000 1.435999870300 126 126 126
9.156250000000 10.375000000000 1.431999206543 123 123 123
9.000000000000 10.375000000000 1.427999496460 125 125 125
8.875000000000 10.375000000000 1.434000015259 126 126 126
8.718750000000 10.375000000000 1.428999900818 125 125 125
8.593750000000 10.375000000000 1.434999465942 123 123 123
8.406250000000 10.375000000000 1.428999900818 126 126 126
8.218750000000 10.375000000000 1.429999351501 119 119 119
8.093750000000 10.375000000000 1.430999755859 111 111 111
7.906250000000 10.437500000000 1.432999610901 115 115 115
7.750000000000 10.437500000000 1.437999725342 118 118 118
7.531250000000 10.437500000000 1.441999435425 116 116 116
7.312500000000 10.375000000000 1.443999290466 110 110 110
7.093750000000 10.437500000000 1.444999694824 110 110 110
6.843750000000 10.375000000000 1.446999549866 107 107 107
6.593750000000 10.437500000000 1.446000099182 114 114 114
6.312500000000 10.500000000000 1.450999259949 110 110 110
5.968750000000 10.500000000000 1.443999290466 107 107 107
5.656250000000 10.500000000000 1.439999580383 103 103 103
5.250000000000 10.500000000000 1.440999984741 105 105 105
4.843750000000 10.500000000000 1.427000045776 97 97 97
4.281250000000 10.500000000000 1.417999267578 99 99 99
3.750000000000 10.562500000000 1.401999473572 99 99 99
2.968750000000 10.625000000000 1.363999366760 95 95 95
2.156250000000 10.625000000000 1.316999435425 102 102 102
1.218750000000 10.687500000000 1.283999443054 102 102 102
0.187500000000 10.687500000000 1.245999336243 91 91 91
12.031250000000 10.125000000000 1.512000083923 165 165 165
12.031250000000 10.125000000000 1.506999969482 161 161 161
11.968750000000 10.125000000000 1.506999969482 164 164 164
11.906250000000 10.062500000000 1.503999710083 139 139 139
11.906250000000 10.062500000000 1.502999305725 165 165 165
11.843750000000 10.125000000000 1.486000061035 108 108 108
11.781250000000 10.062500000000 1.472999572754 117 117 117
11.781250000000 10.062500000000 1.482999801636 105 105 105
11.718750000000 10.062500000000 1.472000122070 119 119 119
11.687500000000 10.125000000000 1.476999282837 112 112 112
11.656250000000 10.125000000000 1.476999282837 111 111 111
11.656250000000 10.125000000000 1.484999656677 111 111 111
11.593750000000 10.125000000000 1.480999946594 113 113 113
11.562500000000 10.187500000000 1.475999832153 110 110 110
11.531250000000 10.187500000000 1.477999687195 115 115 115
11.468750000000 10.125000000000 1.483999252319 109 109 109
11.406250000000 10.125000000000 1.479000091553 113 113 113
11.375000000000 10.187500000000 1.475999832153 120 120 120
11.312500000000 10.125000000000 1.483999252319 116 116 116
11.281250000000 10.125000000000 1.493999481201 103 103 103
11.218750000000 10.187500000000 1.480999946594 113 113 113
11.218750000000 10.187500000000 1.480999946594 111 111 111
11.125000000000 10.125000000000 1.483999252319 111 111 111
11.093750000000 10.125000000000 1.481999397278 111 111 111
11.031250000000 10.187500000000 1.482999801636 118 118 118
10.968750000000 10.125000000000 1.486000061035 109 109 109
10.906250000000 10.187500000000 1.484999656677 111 111 111
10.875000000000 10.187500000000 1.486000061035 118 118 118
10.781250000000 10.125000000000 1.482999801636 122 122 122
10.750000000000 10.187500000000 1.489999771118 95 95 95
10.656250000000 10.125000000000 1.484999656677 118 118 118
10.593750000000 10.125000000000 1.482999801636 110 110 110
10.531250000000 10.125000000000 1.480999946594 110 110 110
10.468750000000 10.125000000000 1.477999687195 116 116 116
10.406250000000 10.187500000000 1.480999946594 117 117 117
10.343750000000 10.125000000000 1.472999572754 108 108 108
10.281250000000 10.187500000000 1.469999313354 106 106 106
10.156250000000 10.125000000000 1.467999458313 111 111 111
10.031250000000 10.187500000000 1.457999229431 115 115 115
9.968750000000 10.187500000000 1.455999374390 119 119 119
9.875000000000 10.187500000000 1.455999374390 118 118 118
9.781250000000 10.250000000000 1.446000099182 120 120 120
9.656250000000 10.187500000000 1.442999839783 122 122 122
9.593750000000 10.187500000000 1.443999290466 120 120 120
9.500000000000 10.250000000000 1.437999725342 122 122 122
9.343750000000 10.187500000000 1.434999465942 123 123 123
9.218750000000 10.187500000000 1.429999351501 130 130 130
9.093750000000 10.187500000000 1.424999237061 130 130 130
9.000000000000 10.250000000000 1.424999237061 127 127 127
8.843750000000 10.187500000000 1.431999206543 113 113 113
8.718750000000 10.187500000000 1.424999237061 109 109 109
8.531250000000 10.187500000000 1.424999237061 120 120 120
8.406250000000 10.187500000000 1.424999237061 123 123 123
8.281250000000 10.250000000000 1.423999786377 118 118 118
8.093750000000 10.250000000000 1.424999237061 116 116 116
7.906250000000 10.312500000000 1.420000076294 121 121 121
7.718750000000 10.312500000000 1.432999610901 110 110 110
7.531250000000 10.250000000000 1.436999320984 109 109 109
7.343750000000 10.250000000000 1.440999984741 110 110 110
7.093750000000 10.312500000000 1.437999725342 111 111 111
6.843750000000 10.250000000000 1.441999435425 110 110 110
6.593750000000 10.375000000000 1.441999435425 111 111 111
6.281250000000 10.375000000000 1.441999435425 104 104 104
5.968750000000 10.375000000000 1.439000129700 102 102 102
5.593750000000 10.312500000000 1.434000015259 102 102 102
5.250000000000 10.312500000000 1.431999206543 98 98 98
4.781250000000 10.375000000000 1.424999237061 101 101 101
4.281250000000 10.375000000000 1.416999816895 99 99 99
3.750000000000 10.437500000000 1.396999359131 100 100 100
3.031250000000 10.437500000000 1.370999336243 98 98 98
2.125000000000 10.500000000000 1.311999320984 107 107 107
1.218750000000 10.500000000000 1.283999443054 95 95 95
0.218750000000 10.562500000000 1.248999595642 89 89 89
11.218750000000 10.000000000000 1.476999282837 119 119 119
11.156250000000 10.000000000000 1.479999542236 117 117 117
11.093750000000 10.000000000000 1.479999542236 113 113 113
11.093750000000 10.000000000000 1.483999252319 107 107 107
10.968750000000 10.000000000000 1.479999542236 109 109 109
10.906250000000 10.000000000000 1.480999946594 110 110 110
10.843750000000 10.000000000000 1.477999687195 115 115 115
10.812500000000 10.000000000000 1.479999542236 116 116 116
10.781250000000 10.000000000000 1.482999801636 112 112 112
10.687500000000 10.000000000000 1.477999687195 117 117 117
10.625000000000 10.000000000000 1.479999542236 111 111 111
10.531250000000 10.000000000000 1.481999397278 112 112 112
10.500000000000 10.000000000000 1.483999252319 107 107 107
10.406250000000 10.000000000000 1.481999397278 116 116 116
10.343750000000 10.062500000000 1.479000091553 95 95 95
10.218750000000 10.000000000000 1.472999572754 111 111 111
10.156250000000 10.062500000000 1.465999603271 110 110 110
10.031250000000 10.000000000000 1.457999229431 110 110 110
9.968750000000 10.062500000000 1.451999664307 116 116 116
9.906250000000 10.000000000000 1.454999923706 116 116 116
9.843750000000 10.062500000000 1.449999809265 120 120 120
9.718750000000 10.062500000000 1.444999694824 116 116 116
9.593750000000 10.062500000000 1.440999984741 121 121 121
9.468750000000 10.062500000000 1.439000129700 123 123 123
9.343750000000 10.062500000000 1.434999465942 119 119 119
9.218750000000 10.062500000000 1.432999610901 129 129 129
9.093750000000 10.000000000000 1.427000045776 119 119 119
8.968750000000 10.000000000000 1.422999382019 129 129 129
8.843750000000 10.000000000000 1.417999267578 129 129 129
8.718750000000 10.062500000000 1.425999641418 119 119 119
8.593750000000 10.125000000000 1.427999496460 110 110 110
8.406250000000 10.125000000000 1.425999641418 117 117 117
8.250000000000 10.125000000000 1.421999931335 120 120 120
8.031250000000 10.125000000000 1.413999557495 119 119 119
7.843750000000 10.062500000000 1.416999816895 114 114 114
7.718750000000 10.062500000000 1.422999382019 110 110 110
7.531250000000 10.062500000000 1.428999900818 115 115 115
7.312500000000 10.125000000000 1.432999610901 113 113 113
7.031250000000 10.125000000000 1.429999351501 112 112 112
6.843750000000 10.187500000000 1.435999870300 108 108 108
6.593750000000 10.125000000000 1.439000129700 106 106 106
6.281250000000 10.125000000000 1.435999870300 106 106 106
5.968750000000 10.187500000000 1.439000129700 99 99 99
5.625000000000 10.125000000000 1.434000015259 103 103 103
5.250000000000 10.250000000000 1.432999610901 100 100 100
4.781250000000 10.250000000000 1.425999641418 99 99 99
4.343750000000 10.187500000000 1.422999382019 100 100 100
3.781250000000 10.250000000000 1.401999473572 99 99 99
3.093750000000 10.250000000000 1.377999305725 92 92 92
2.187500000000 10.312500000000 1.319999694824 102 102 102
1.250000000000 10.375000000000 1.286999702454 98 98 98
