27.812500000000 5.828125000000 4.793991088867 198 198 198
27.843750000000 5.828125000000 4.759994506836 203 203 203
28.312500000000 5.812500000000 4.774993896484 130 130 130
29.687500000000 5.843750000000 8.981994628906 113 113 113
28.937500000000 5.843750000000 7.183990478516 130 130 130
27.062500000000 5.562500000000 9.354995727539 248 248 248
26.968750000000 5.578125000000 9.201995849609 128 128 128
27.000000000000 5.546875000000 9.170989990234 226 226 226
26.968750000000 5.562500000000 9.102996826172 196 196 196
26.968750000000 5.562500000000 9.042999267578 187 187 187
26.968750000000 5.546875000000 8.975997924805 192 192 192
27.000000000000 5.546875000000 8.963989257813 182 182 182
27.093750000000 5.562500000000 8.975997924805 90 90 90
27.125000000000 5.546875000000 8.936996459961 173 173 173
27.062500000000 5.546875000000 8.848999023438 184 184 184
27.031250000000 5.546875000000 8.753997802734 172 172 172
26.968750000000 5.546875000000 8.647994995117 172 172 172
26.968750000000 5.546875000000 8.591995239258 182 182 182
27.000000000000 5.546875000000 8.574996948242 180 180 180
28.453125000000 5.531250000000 9.720993041992 125 125 125
28.515625000000 5.515625000000 9.722000122070 142 142 142
28.578125000000 5.515625000000 9.707992553711 74 74 74
28.515625000000 5.515625000000 9.586990356445 34 34 34
28.546875000000 5.531250000000 9.541000366211 85 85 85
28.546875000000 5.531250000000 9.477996826172 136 136 136
28.546875000000 5.500000000000 9.425994873047 175 175 175
28.609375000000 5.531250000000 9.404998779297 155 155 155
28.984375000000 5.515625000000 9.610992431641 118 118 118
28.828125000000 5.515625000000 9.442993164063 147 147 147
28.984375000000 5.515625000000 9.479995727539 178 178 178
28.890625000000 5.515625000000 9.360000610352 166 166 166
28.890625000000 5.515625000000 9.296997070313 177 177 177
28.921875000000 5.500000000000 9.246994018555 160 160 160
28.984375000000 5.500000000000 9.239990234375 146 146 146
28.359375000000 5.531250000000 8.738998413086 176 176 176
28.390625000000 5.515625000000 8.690994262695 170 170 170
28.390625000000 5.515625000000 8.638992309570 165 165 165
28.296875000000 5.515625000000 8.526000976563 181 181 181
28.328125000000 5.531250000000 8.472991943359 167 167 167
29.953125000000 5.484375000000 9.503997802734 119 119 119
29.078125000000 5.500000000000 8.866989135742 194 194 194
28.421875000000 5.500000000000 8.391998291016 213 213 213
28.359375000000 5.500000000000 8.289993286133 174 174 174
28.359375000000 5.500000000000 8.236999511719 161 161 161
28.671875000000 5.515625000000 8.369995117188 149 149 149
28.828125000000 5.500000000000 8.414993286133 159 159 159
28.953125000000 5.484375000000 8.434997558594 80 80 80
28.734375000000 5.484375000000 8.252990722656 146 146 146
28.359375000000 5.500000000000 7.962997436523 158 158 158
28.328125000000 5.500000000000 7.901992797852 180 180 180
28.328125000000 5.500000000000 7.843994140625 178 178 178
28.046875000000 5.515625000000 7.636001586914 167 167 167
28.265625000000 5.515625000000 7.710998535156 180 180 180
28.265625000000 5.500000000000 7.652999877930 185 185 185
28.203125000000 5.515625000000 7.576995849609 174 174 174
28.390625000000 5.500000000000 7.630996704102 178 178 178
28.359375000000 5.500000000000 7.558990478516 170 170 170
28.390625000000 5.500000000000 7.526992797852 164 164 164
28.359375000000 5.500000000000 7.466995239258 163 163 163
28.421875000000 5.500000000000 7.449996948242 167 167 167
28.703125000000 5.484375000000 7.548995971680 204 204 204
29.421875000000 5.468750000000 7.853988647461 181 181 181
30.109375000000 5.468750000000 8.131988525391 136 136 136
30.046875000000 5.468750000000 8.032989501953 120 120 120
30.078125000000 5.468750000000 7.990997314453 86 86 86
30.140625000000 5.453125000000 7.961990356445 139 139 139
30.171875000000 5.468750000000 7.921997070313 101 101 101
27.984375000000 5.500000000000 6.869003295898 150 150 150
27.984375000000 5.500000000000 6.828002929688 132 132 132
28.078125000000 5.484375000000 6.832000732422 120 120 120
28.203125000000 5.500000000000 6.843994140625 174 174 174
28.421875000000 5.500000000000 6.889999389648 156 156 156
28.484375000000 5.468750000000 6.865997314453 170 170 170
28.359375000000 5.500000000000 6.770996093750 164 164 164
28.453125000000 5.468750000000 6.757995605469 162 162 162
28.578125000000 5.484375000000 6.768997192383 167 167 167
28.390625000000 5.500000000000 6.647003173828 149 149 149
28.140625000000 5.500000000000 6.513000488281 167 167 167
28.140625000000 5.500000000000 6.468002319336 186 186 186
28.171875000000 5.484375000000 6.431991577148 177 177 177
28.265625000000 5.500000000000 6.425003051758 174 174 174
28.359375000000 5.484375000000 6.423995971680 185 185 185
29.015625000000 5.468750000000 6.606002807617 181 181 181
30.359375000000 5.437500000000 7.018997192383 148 148 148
28.203125000000 5.500000000000 6.233001708984 176 176 176
28.171875000000 5.500000000000 6.188003540039 179 179 179
28.171875000000 5.500000000000 6.147994995117 208 208 208
28.140625000000 5.500000000000 6.091995239258 187 187 187
28.203125000000 5.500000000000 6.069000244141 84 84 84
30.734375000000 5.421875000000 6.797988891602 63 63 63
30.953125000000 5.421875000000 6.746002197266 121 121 121
31.078125000000 5.406250000000 6.723999023438 71 71 71
31.171875000000 5.421875000000 6.698989868164 28 28 28
30.203125000000 5.437500000000 6.375000000000 24 24 24
30.234375000000 5.437500000000 6.330001831055 58 58 58
30.296875000000 5.421875000000 6.293991088867 25 25 25
29.765625000000 5.437500000000 6.102996826172 19 19 19
29.796875000000 5.453125000000 6.061996459961 17 17 17
29.921875000000 5.421875000000 6.045989990234 34 34 34
29.546875000000 5.453125000000 5.617996215820 81 81 81
29.390625000000 5.437500000000 5.545989990234 172 172 172
29.453125000000 5.437500000000 5.507995605469 155 155 155
29.765625000000 5.437500000000 5.516998291016 101 101 101
29.734375000000 5.437500000000 5.464996337891 57 57 57
27.828125000000 5.484375000000 5.098999023438 185 185 185
27.765625000000 5.484375000000 5.052001953125 196 196 196
27.421875000000 5.484375000000 4.961990356445 216 216 216
27.296875000000 5.500000000000 4.906997680664 171 171 171
27.296875000000 5.484375000000 4.876998901367 164 164 164
27.359375000000 5.484375000000 4.847991943359 181 181 181
27.359375000000 5.484375000000 4.815002441406 177 177 177
27.453125000000 5.484375000000 4.797988891602 183 183 183
27.390625000000 5.484375000000 4.753997802734 189 189 189
27.421875000000 5.484375000000 4.725997924805 157 157 157
27.890625000000 5.484375000000 4.708999633789 162 162 162
27.640625000000 5.484375000000 4.645996093750 139 139 139
27.765625000000 5.484375000000 4.623001098633 151 151 151
27.734375000000 5.484375000000 4.586990356445 177 177 177
28.046875000000 5.453125000000 4.576995849609 154 154 154
27.921875000000 5.468750000000 4.529998779297 178 178 178
27.828125000000 5.453125000000 4.488998413086 177 177 177
27.859375000000 5.484375000000 4.453994750977 175 175 175
27.890625000000 5.468750000000 4.420989990234 183 183 183
27.859375000000 5.468750000000 4.384002685547 112 112 112
30.890625000000 5.421875000000 6.904998779297 87 87 87
26.859375000000 5.234375000000 8.914001464844 197 197 197
26.859375000000 5.234375000000 8.852996826172 171 171 171
26.890625000000 5.218750000000 8.804992675781 180 180 180
26.828125000000 5.218750000000 8.720001220703 172 172 172
26.828125000000 5.218750000000 8.653991699219 173 173 173
26.828125000000 5.218750000000 8.603988647461 190 190 190
26.859375000000 5.234375000000 8.580001831055 170 170 170
27.609375000000 5.187500000000 9.162994384766 184 184 184
27.546875000000 5.187500000000 9.057998657227 164 164 164
27.046875000000 5.203125000000 8.582000732422 194 194 194
26.984375000000 5.203125000000 8.475997924805 170 170 170
27.046875000000 5.203125000000 8.485992431641 176 176 176
27.109375000000 5.203125000000 8.483001708984 171 171 171
27.265625000000 5.218750000000 8.554992675781 171 171 171
27.265625000000 5.218750000000 8.513000488281 187 187 187
27.234375000000 5.218750000000 8.412002563477 171 171 171
27.265625000000 5.203125000000 8.390991210938 177 177 177
27.265625000000 5.203125000000 8.335998535156 171 171 171
27.453125000000 5.187500000000 8.438003540039 171 171 171
27.359375000000 5.203125000000 8.320999145508 151 151 151
27.390625000000 5.187500000000 8.289001464844 186 186 186
27.453125000000 5.187500000000 8.285995483398 169 169 169
27.609375000000 5.187500000000 8.336990356445 242 242 242
28.609375000000 5.171875000000 9.000000000000 175 175 175
27.640625000000 5.203125000000 8.246994018555 215 215 215
27.609375000000 5.187500000000 8.180999755859 144 144 144
27.859375000000 5.187500000000 8.304000854492 198 198 198
27.796875000000 5.187500000000 8.227996826172 161 161 161
28.609375000000 5.171875000000 8.712997436523 106 106 106
28.578125000000 5.156250000000 8.621994018555 177 177 177
28.671875000000 5.171875000000 8.632995605469 177 177 177
28.734375000000 5.171875000000 8.634002685547 203 203 203
28.734375000000 5.171875000000 8.556991577148 218 218 218
28.421875000000 5.156250000000 8.317993164063 221 221 221
28.359375000000 5.171875000000 8.222000122070 186 186 186
28.234375000000 5.171875000000 8.083999633789 173 173 173
28.171875000000 5.187500000000 7.991989135742 173 173 173
28.109375000000 5.171875000000 7.916000366211 171 171 171
28.171875000000 5.187500000000 7.901000976563 186 186 186
28.765625000000 5.156250000000 8.188003540039 167 167 167
28.484375000000 5.156250000000 7.981994628906 169 169 169
28.390625000000 5.156250000000 7.858001708984 167 167 167
28.109375000000 5.171875000000 7.655990600586 159 159 159
27.953125000000 5.171875000000 7.526992797852 171 171 171
27.984375000000 5.171875000000 7.486999511719 167 167 167
28.140625000000 5.187500000000 7.528991699219 181 181 181
29.328125000000 5.140625000000 8.114990234375 84 84 84
28.515625000000 5.140625000000 7.625000000000 155 155 155
28.421875000000 5.156250000000 7.531997680664 193 193 193
28.421875000000 5.156250000000 7.481002807617 164 164 164
28.984375000000 5.140625000000 7.718002319336 200 200 200
29.078125000000 5.140625000000 7.718994140625 180 180 180
29.203125000000 5.140625000000 7.718994140625 196 196 196
29.968750000000 5.109375000000 8.031997680664 165 165 165
29.296875000000 5.156250000000 7.658996582031 204 204 204
30.281250000000 5.125000000000 8.063995361328 150 150 150
30.500000000000 5.109375000000 8.102996826172 162 162 162
30.593750000000 5.109375000000 8.082000732422 128 128 128
28.671875000000 5.156250000000 7.166992187500 30 30 30
28.734375000000 5.140625000000 7.143997192383 54 54 54
28.734375000000 5.140625000000 7.104995727539 87 87 87
28.859375000000 5.140625000000 7.055999755859 94 94 94
28.828125000000 5.140625000000 7.001998901367 190 190 190
29.015625000000 5.140625000000 6.966003417969 16 16 16
28.234375000000 5.156250000000 6.569992065430 142 142 142
28.296875000000 5.140625000000 6.559997558594 159 159 159
28.171875000000 5.156250000000 6.459991455078 137 137 137
28.171875000000 5.156250000000 6.429992675781 196 196 196
28.109375000000 5.140625000000 6.360992431641 178 178 178
30.125000000000 5.125000000000 7.024002075195 151 151 151
30.000000000000 5.093750000000 6.929000854492 168 168 168
28.234375000000 5.156250000000 6.278991699219 219 219 219
28.234375000000 5.156250000000 6.237991333008 134 134 134
28.484375000000 5.125000000000 6.274993896484 29 29 29
30.281250000000 5.093750000000 6.797988891602 190 190 190
28.640625000000 5.140625000000 6.233993530273 30 30 30
28.546875000000 5.140625000000 6.164001464844 29 29 29
28.453125000000 5.125000000000 6.093002319336 167 167 167
28.421875000000 5.140625000000 6.042999267578 181 181 181
28.453125000000 5.125000000000 6.002990722656 163 163 163
28.515625000000 5.125000000000 5.981994628906 140 140 140
28.484375000000 5.125000000000 5.929992675781 15 15 15
30.437500000000 5.093750000000 6.418991088867 117 117 117
30.406250000000 5.093750000000 6.347991943359 62 62 62
30.187500000000 5.093750000000 6.239990234375 119 119 119
29.875000000000 5.093750000000 6.112991333008 68 68 68
29.906250000000 5.093750000000 6.067993164063 97 97 97
29.875000000000 5.093750000000 6.009002685547 26 26 26
29.875000000000 5.093750000000 5.964996337891 114 114 114
29.328125000000 5.109375000000 5.515991210938 54 54 54
29.421875000000 5.125000000000 5.483993530273 38 38 38
29.453125000000 5.109375000000 5.449996948242 82 82 82
27.671875000000 5.156250000000 5.093002319336 111 111 111
27.671875000000 5.156250000000 5.056991577148 161 161 161
27.640625000000 5.140625000000 5.019989013672 178 178 178
27.703125000000 5.140625000000 4.992996215820 172 172 172
27.734375000000 5.140625000000 4.959991455078 159 159 159
27.890625000000 5.140625000000 4.947998046875 165 165 165
27.734375000000 5.140625000000 4.889999389648 176 176 176
27.796875000000 5.140625000000 4.861999511719 193 193 193
27.796875000000 5.140625000000 4.828002929688 178 178 178
27.828125000000 5.140625000000 4.796997070313 176 176 176
27.921875000000 5.140625000000 4.772994995117 165 165 165
28.046875000000 5.125000000000 4.748001098633 157 157 157
28.046875000000 5.125000000000 4.709991455078 147 147 147
27.765625000000 5.140625000000 4.645996093750 162 162 162
27.703125000000 5.140625000000 4.604995727539 193 193 193
27.734375000000 5.140625000000 4.573989868164 179 179 179
27.703125000000 5.140625000000 4.537002563477 173 173 173
27.765625000000 5.140625000000 4.504989624023 164 164 164
27.734375000000 5.140625000000 4.468002319336 179 179 179
27.578125000000 5.125000000000 4.425994873047 167 167 167
27.328125000000 5.125000000000 4.376998901367 190 190 190
27.265625000000 5.140625000000 4.341003417969 199 199 199
27.140625000000 5.140625000000 4.304000854492 185 185 185
26.828125000000 5.171875000000 4.261993408203 202 202 202
26.765625000000 5.140625000000 4.229995727539 193 193 193
26.765625000000 5.171875000000 4.200988769531 193 193 193
26.828125000000 5.140625000000 4.172988891602 171 171 171
27.078125000000 5.140625000000 4.147003173828 172 172 172
27.171875000000 5.140625000000 4.116989135742 169 169 169
27.203125000000 5.156250000000 4.084991455078 130 130 130
27.359375000000 5.125000000000 4.052993774414 25 25 25
28.546875000000 5.156250000000 9.209991455078 128 128 128
29.484375000000 5.156250000000 9.515991210938 99 99 99
30.781250000000 5.109375000000 8.100997924805 118 118 118
30.812500000000 5.109375000000 8.050003051758 25 25 25
29.328125000000 5.125000000000 6.602996826172 141 141 141
31.218750000000 5.078125000000 6.737991333008 10 10 10
30.218750000000 5.093750000000 6.412002563477 75 75 75
29.718750000000 5.109375000000 5.444992065430 111 111 111
26.812500000000 4.890625000000 9.606994628906 175 175 175
26.843750000000 4.890625000000 9.567993164063 133 133 133
26.843750000000 4.890625000000 9.528991699219 229 229 229
26.625000000000 4.890625000000 9.227996826172 176 176 176
26.593750000000 4.906250000000 9.145996093750 173 173 173
26.656250000000 4.875000000000 9.123001098633 177 177 177
26.625000000000 4.890625000000 9.050994873047 185 185 185
26.625000000000 4.890625000000 8.986999511719 190 190 190
26.343750000000 4.906250000000 8.660995483398 222 222 222
26.343750000000 4.906250000000 8.587997436523 185 185 185
26.343750000000 4.906250000000 8.557998657227 189 189 189
26.312500000000 4.906250000000 8.466003417969 166 166 166
26.343750000000 4.906250000000 8.438003540039 176 176 176
26.343750000000 4.906250000000 8.399002075195 184 184 184
26.375000000000 4.906250000000 8.364990234375 190 190 190
26.406250000000 4.890625000000 8.347991943359 185 185 185
26.500000000000 4.890625000000 8.381988525391 195 195 195
26.562500000000 4.875000000000 8.399002075195 208 208 208
26.500000000000 4.890625000000 8.276992797852 205 205 205
26.406250000000 4.890625000000 8.151000976563 198 198 198
26.406250000000 4.875000000000 8.086990356445 127 127 127
26.468750000000 4.875000000000 8.099990844727 204 204 204
26.656250000000 4.875000000000 8.222000122070 197 197 197
26.687500000000 4.875000000000 8.207992553711 202 202 202
26.937500000000 4.875000000000 8.352996826172 167 167 167
26.937500000000 4.859375000000 8.317993164063 174 174 174
26.875000000000 4.875000000000 8.222000122070 187 187 187
26.937500000000 4.875000000000 8.207992553711 185 185 185
27.000000000000 4.875000000000 8.216995239258 206 206 206
27.000000000000 4.875000000000 8.166000366211 167 167 167
27.375000000000 4.875000000000 8.410995483398 171 171 171
27.187500000000 4.859375000000 8.205001831055 96 96 96
27.187500000000 4.859375000000 8.167999267578 169 169 169
27.281250000000 4.875000000000 8.188995361328 205 205 205
27.375000000000 4.875000000000 8.203994750977 227 227 227
27.343750000000 4.859375000000 8.127990722656 184 184 184
27.062500000000 4.859375000000 7.880996704102 210 210 210
26.968750000000 4.875000000000 7.761993408203 182 182 182
27.031250000000 4.859375000000 7.769989013672 176 176 176
27.125000000000 4.859375000000 7.789993286133 166 166 166
27.281250000000 4.875000000000 7.845001220703 203 203 203
27.312500000000 4.859375000000 7.811996459961 175 175 175
27.468750000000 4.859375000000 7.862991333008 128 128 128
28.125000000000 4.859375000000 8.254989624023 178 178 178
28.218750000000 4.843750000000 8.267990112305 192 192 192
28.281250000000 4.843750000000 8.248001098633 166 166 166
28.250000000000 4.843750000000 8.190002441406 172 172 172
28.281250000000 4.843750000000 8.155990600586 174 174 174
28.437500000000 4.828125000000 8.194992065430 252 252 252
28.375000000000 4.843750000000 8.099990844727 129 129 129
28.531250000000 4.828125000000 8.149002075195 174 174 174
28.718750000000 4.828125000000 8.199996948242 158 158 158
28.718750000000 4.828125000000 8.157989501953 182 182 182
28.375000000000 4.843750000000 7.888000488281 116 116 116
28.281250000000 4.843750000000 7.792999267578 190 190 190
28.281250000000 4.843750000000 7.744003295898 170 170 170
28.343750000000 4.828125000000 7.724990844727 130 130 130
28.718750000000 4.828125000000 7.875000000000 89 89 89
28.781250000000 4.828125000000 7.860992431641 167 167 167
28.875000000000 4.812500000000 7.860000610352 168 168 168
28.781250000000 4.828125000000 7.746994018555 200 200 200
29.718750000000 4.796875000000 8.181991577148 89 89 89
29.812500000000 4.796875000000 8.170989990234 48 48 48
29.812500000000 4.796875000000 8.112991333008 72 72 72
28.562500000000 4.812500000000 7.444992065430 159 159 159
28.968750000000 4.796875000000 7.588989257813 155 155 155
28.968750000000 4.812500000000 7.543991088867 187 187 187
30.312500000000 4.781250000000 8.126998901367 82 82 82
30.281250000000 4.781250000000 8.043991088867 146 146 146
30.468750000000 4.781250000000 8.080993652344 151 151 151
30.625000000000 4.781250000000 8.082992553711 5 5 5
28.656250000000 4.812500000000 6.947998046875 24 24 24
28.843750000000 4.796875000000 6.985992431641 119 119 119
28.843750000000 4.796875000000 6.892990112305 78 78 78
28.812500000000 4.796875000000 6.832000732422 190 190 190
28.906250000000 4.796875000000 6.811996459961 96 96 96
29.718750000000 4.796875000000 7.024993896484 69 69 69
29.750000000000 4.796875000000 6.981994628906 150 150 150
29.937500000000 4.781250000000 7.003997802734 138 138 138
29.843750000000 4.796875000000 6.912002563477 152 152 152
29.812500000000 4.765625000000 6.852996826172 169 169 169
28.406250000000 4.812500000000 6.313995361328 105 105 105
30.218750000000 4.781250000000 6.879989624023 145 145 145
29.218750000000 4.796875000000 6.498001098633 223 223 223
30.812500000000 4.765625000000 6.960998535156 121 121 121
28.593750000000 4.796875000000 6.207992553711 187 187 187
28.781250000000 4.796875000000 6.224990844727 198 198 198
31.093750000000 4.765625000000 6.866989135742 149 149 149
30.968750000000 4.750000000000 6.776992797852 157 157 157
31.031250000000 4.765625000000 6.731002807617 122 122 122
31.062500000000 4.750000000000 6.683990478516 51 51 51
29.156250000000 4.812500000000 6.100997924805 31 31 31
31.218750000000 4.750000000000 6.611999511719 113 113 113
31.218750000000 4.750000000000 6.552993774414 109 109 109
31.250000000000 4.750000000000 6.505996704102 23 23 23
29.687500000000 4.765625000000 6.050994873047 134 134 134
29.625000000000 4.781250000000 5.985000610352 138 138 138
29.812500000000 4.765625000000 5.986999511719 84 84 84
29.843750000000 4.765625000000 5.940994262695 155 155 155
29.781250000000 4.765625000000 5.881988525391 23 23 23
29.875000000000 4.765625000000 5.701995849609 31 31 31
30.093750000000 4.781250000000 5.647003173828 14 14 14
29.125000000000 4.781250000000 5.285995483398 173 173 173
28.968750000000 4.781250000000 5.172988891602 81 81 81
29.000000000000 4.781250000000 5.138992309570 159 159 159
29.312500000000 4.781250000000 5.138992309570 105 105 105
28.031250000000 4.796875000000 4.848999023438 191 191 191
27.968750000000 4.796875000000 4.802001953125 173 173 173
27.843750000000 4.796875000000 4.752990722656 151 151 151
27.843750000000 4.812500000000 4.716003417969 170 170 170
27.968750000000 4.796875000000 4.692993164063 154 154 154
27.937500000000 4.796875000000 4.653991699219 103 103 103
28.406250000000 4.781250000000 4.659988403320 104 104 104
27.812500000000 4.796875000000 4.570999145508 138 138 138
27.593750000000 4.812500000000 4.485000610352 87 87 87
27.562500000000 4.796875000000 4.449996948242 165 165 165
29.718750000000 4.750000000000 4.541000366211 87 87 87
29.437500000000 4.750000000000 4.479995727539 70 70 70
27.031250000000 4.812500000000 4.322998046875 167 167 167
27.062500000000 4.812500000000 4.292999267578 169 169 169
27.031250000000 4.812500000000 4.261001586914 186 186 186
26.968750000000 4.828125000000 4.228988647461 191 191 191
26.968750000000 4.828125000000 4.198989868164 186 186 186
27.000000000000 4.812500000000 4.168991088867 168 168 168
27.062500000000 4.796875000000 4.139999389648 121 121 121
29.468750000000 4.750000000000 4.032989501953 15 15 15
27.031250000000 4.890625000000 8.651000976563 163 163 163
28.156250000000 4.859375000000 8.933990478516 153 153 153
28.031250000000 4.828125000000 8.259002685547 161 161 161
30.593750000000 4.796875000000 9.455993652344 96 96 96
29.875000000000 4.781250000000 6.820999145508 129 129 129
31.218750000000 4.750000000000 6.669998168945 136 136 136
26.875000000000 4.562500000000 9.871994018555 180 180 180
26.937500000000 4.562500000000 9.845001220703 174 174 174
26.500000000000 4.562500000000 9.304000854492 179 179 179
26.500000000000 4.562500000000 9.251998901367 172 172 172
26.531250000000 4.562500000000 9.208999633789 183 183 183
26.531250000000 4.562500000000 9.180999755859 171 171 171
26.593750000000 4.562500000000 9.156997680664 176 176 176
26.593750000000 4.562500000000 9.123001098633 179 179 179
26.656250000000 4.562500000000 9.108001708984 184 184 184
26.656250000000 4.562500000000 9.052001953125 237 237 237
26.625000000000 4.546875000000 8.968994140625 169 169 169
26.656250000000 4.546875000000 8.932998657227 172 172 172
26.687500000000 4.546875000000 8.932998657227 188 188 188
26.718750000000 4.578125000000 8.889999389648 177 177 177
26.531250000000 4.562500000000 8.668991088867 196 196 196
26.375000000000 4.562500000000 8.472000122070 174 174 174
26.375000000000 4.546875000000 8.401000976563 169 169 169
26.468750000000 4.562500000000 8.444992065430 220 220 220
26.468750000000 4.562500000000 8.397994995117 184 184 184
26.437500000000 4.562500000000 8.323989868164 183 183 183
26.468750000000 4.546875000000 8.300994873047 183 183 183
26.500000000000 4.562500000000 8.283996582031 176 176 176
26.562500000000 4.562500000000 8.282989501953 208 208 208
26.437500000000 4.562500000000 8.126998901367 197 197 197
26.437500000000 4.562500000000 8.082992553711 190 190 190
26.500000000000 4.562500000000 8.093002319336 184 184 184
26.531250000000 4.562500000000 8.059997558594 181 181 181
26.562500000000 4.562500000000 8.050994873047 180 180 180
26.625000000000 4.546875000000 8.042999267578 185 185 185
26.656250000000 4.546875000000 8.031997680664 187 187 187
26.750000000000 4.546875000000 8.041000366211 168 168 168
26.968750000000 4.546875000000 8.171997070313 193 193 193
26.812500000000 4.546875000000 8.000991821289 181 181 181
26.750000000000 4.546875000000 7.905990600586 186 186 186
26.843750000000 4.546875000000 7.927001953125 182 182 182
27.078125000000 4.531250000000 8.052993774414 182 182 182
27.453125000000 4.531250000000 8.284988403320 167 167 167
27.296875000000 4.531250000000 8.116989135742 9 9 9
27.265625000000 4.531250000000 8.030990600586 182 182 182
27.359375000000 4.531250000000 8.063003540039 203 203 203
27.453125000000 4.531250000000 8.080993652344 9 9 9
27.484375000000 4.531250000000 8.054992675781 173 173 173
27.234375000000 4.531250000000 7.826995849609 6 6 6
27.171875000000 4.531250000000 7.738998413086 188 188 188
27.734375000000 4.515625000000 8.088989257813 231 231 231
27.515625000000 4.531250000000 7.890991210938 238 238 238
28.015625000000 4.515625000000 8.166000366211 169 169 169
28.140625000000 4.515625000000 8.188003540039 178 178 178
28.296875000000 4.515625000000 8.235000610352 220 220 220
28.390625000000 4.515625000000 8.248001098633 223 223 223
28.328125000000 4.500000000000 8.149993896484 216 216 216
30.078125000000 4.500000000000 9.166992187500 143 143 143
28.765625000000 4.515625000000 8.306991577148 171 171 171
28.703125000000 4.515625000000 8.207000732422 184 184 184
28.734375000000 4.500000000000 8.183990478516 176 176 176
28.796875000000 4.500000000000 8.159988403320 141 141 141
28.296875000000 4.500000000000 7.823989868164 165 165 165
28.203125000000 4.500000000000 7.709991455078 165 165 165
28.140625000000 4.515625000000 7.634994506836 171 171 171
28.234375000000 4.500000000000 7.631988525391 149 149 149
28.203125000000 4.500000000000 7.571990966797 163 163 163
28.140625000000 4.515625000000 7.479995727539 173 173 173
28.140625000000 4.484375000000 7.442993164063 152 152 152
28.921875000000 4.484375000000 7.793991088867 102 102 102
29.828125000000 4.468750000000 8.213989257813 124 124 124
29.765625000000 4.484375000000 8.116989135742 160 160 160
29.703125000000 4.484375000000 8.039993286133 153 153 153
28.984375000000 4.484375000000 7.625000000000 106 106 106
29.015625000000 4.484375000000 7.589996337891 168 168 168
29.984375000000 4.453125000000 8.005996704102 123 123 123
28.859375000000 4.484375000000 7.418991088867 11 11 11
28.921875000000 4.484375000000 7.388000488281 186 186 186
28.984375000000 4.484375000000 7.371994018555 173 173 173
29.015625000000 4.468750000000 7.332000732422 143 143 143
29.109375000000 4.468750000000 7.319000244141 77 77 77
28.890625000000 4.468750000000 6.744003295898 194 194 194
29.046875000000 4.468750000000 6.756988525391 115 115 115
29.828125000000 4.453125000000 6.994995117188 20 20 20
29.859375000000 4.453125000000 6.951995849609 52 52 52
30.296875000000 4.468750000000 7.041992187500 129 129 129
29.109375000000 4.468750000000 6.591995239258 162 162 162
30.140625000000 4.453125000000 6.880996704102 127 127 127
29.296875000000 4.468750000000 6.552001953125 190 190 190
30.390625000000 4.437500000000 6.856994628906 163 163 163
30.859375000000 4.421875000000 6.949996948242 103 103 103
31.078125000000 4.437500000000 6.962997436523 117 117 117
31.265625000000 4.421875000000 6.958999633789 111 111 111
29.046875000000 4.453125000000 6.242996215820 172 172 172
29.203125000000 4.468750000000 6.233993530273 145 145 145
29.171875000000 4.453125000000 6.183990478516 191 191 191
29.359375000000 4.453125000000 6.188995361328 158 158 158
29.203125000000 4.468750000000 6.098999023438 105 105 105
29.171875000000 4.453125000000 5.998001098633 117 117 117
29.140625000000 4.468750000000 5.897994995117 107 107 107
29.578125000000 4.453125000000 5.817993164063 131 131 131
29.765625000000 4.453125000000 5.804992675781 139 139 139
29.765625000000 4.453125000000 5.759002685547 22 22 22
29.859375000000 4.453125000000 5.729995727539 105 105 105
29.265625000000 4.453125000000 5.560989379883 74 74 74
29.140625000000 4.468750000000 5.490997314453 31 31 31
29.140625000000 4.468750000000 5.446990966797 27 27 27
29.484375000000 4.437500000000 5.375991821289 75 75 75
28.828125000000 4.453125000000 5.218994140625 178 178 178
29.546875000000 4.437500000000 5.244995117188 20 20 20
29.046875000000 4.437500000000 5.125000000000 128 128 128
29.234375000000 4.437500000000 5.110992431641 80 80 80
29.515625000000 4.421875000000 5.057998657227 77 77 77
29.453125000000 4.437500000000 5.004989624023 47 47 47
29.359375000000 4.437500000000 4.945999145508 178 178 178
28.140625000000 4.453125000000 4.768997192383 160 160 160
28.421875000000 4.453125000000 4.763992309570 199 199 199
28.328125000000 4.453125000000 4.713989257813 32 32 32
28.640625000000 4.453125000000 4.703994750977 90 90 90
28.671875000000 4.453125000000 4.666992187500 160 160 160
29.328125000000 4.437500000000 4.677001953125 56 56 56
29.453125000000 4.437500000000 4.641998291016 56 56 56
29.078125000000 4.421875000000 4.486999511719 73 73 73
29.765625000000 4.421875000000 4.386001586914 102 102 102
29.765625000000 4.421875000000 4.338989257813 97 97 97
29.296875000000 4.421875000000 4.236999511719 64 64 64
29.390625000000 4.437500000000 4.194000244141 100 100 100
29.359375000000 4.406250000000 4.149993896484 93 93 93
29.859375000000 4.406250000000 3.871994018555 31 31 31
29.421875000000 4.406250000000 3.793991088867 26 26 26
29.390625000000 4.406250000000 3.750000000000 55 55 55
29.390625000000 4.406250000000 3.705993652344 67 67 67
29.421875000000 4.406250000000 3.660995483398 49 49 49
29.765625000000 4.468750000000 8.020996093750 145 145 145
30.265625000000 4.468750000000 8.080993652344 129 129 129
26.171875000000 4.218750000000 8.922988891602 238 238 238
26.140625000000 4.234375000000 8.819000244141 126 126 126
26.203125000000 4.218750000000 8.819000244141 250 250 250
26.171875000000 4.218750000000 8.741989135742 190 190 190
26.171875000000 4.218750000000 8.699996948242 148 148 148
26.296875000000 4.218750000000 8.774993896484 117 117 117
26.328125000000 4.218750000000 8.750000000000 112 112 112
26.359375000000 4.218750000000 8.716995239258 186 186 186
26.359375000000 4.218750000000 8.675003051758 142 142 142
27.359375000000 4.203125000000 9.584991455078 177 177 177
27.359375000000 4.203125000000 9.545989990234 172 172 172
27.359375000000 4.187500000000 9.476989746094 180 180 180
27.453125000000 4.187500000000 9.488998413086 177 177 177
26.453125000000 4.203125000000 8.498992919922 169 169 169
26.515625000000 4.218750000000 8.501998901367 187 187 187
26.578125000000 4.203125000000 8.494003295898 169 169 169
26.578125000000 4.218750000000 8.453002929688 171 171 171
26.796875000000 4.218750000000 8.611999511719 223 223 223
26.828125000000 4.203125000000 8.582000732422 171 171 171
26.859375000000 4.203125000000 8.563995361328 176 176 176
28.015625000000 4.171875000000 9.501998901367 163 163 163
27.046875000000 4.187500000000 8.604995727539 181 181 181
27.078125000000 4.187500000000 8.587997436523 183 183 183
27.140625000000 4.187500000000 8.567001342773 191 191 191
27.359375000000 4.187500000000 8.709991455078 202 202 202
27.234375000000 4.187500000000 8.554992675781 193 193 193
27.140625000000 4.187500000000 8.427001953125 190 190 190
26.765625000000 4.203125000000 8.065994262695 174 174 174
26.796875000000 4.203125000000 8.045989990234 183 183 183
26.828125000000 4.203125000000 8.022003173828 179 179 179
26.921875000000 4.203125000000 8.042999267578 175 175 175
26.953125000000 4.187500000000 8.020996093750 172 172 172
27.046875000000 4.187500000000 8.043991088867 192 192 192
27.046875000000 4.171875000000 8.009994506836 170 170 170
27.078125000000 4.203125000000 7.968002319336 167 167 167
27.109375000000 4.171875000000 7.944992065430 171 171 171
27.140625000000 4.187500000000 7.918991088867 168 168 168
27.171875000000 4.171875000000 7.897994995117 151 151 151
27.265625000000 4.187500000000 7.927993774414 13 13 13
27.265625000000 4.187500000000 7.866989135742 209 209 209
27.359375000000 4.171875000000 7.892990112305 8 8 8
27.328125000000 4.187500000000 7.824996948242 171 171 171
27.421875000000 4.187500000000 7.832992553711 174 174 174
27.546875000000 4.171875000000 7.879989624023 196 196 196
27.546875000000 4.156250000000 7.836990356445 171 171 171
28.015625000000 4.171875000000 8.083999633789 128 128 128
29.625000000000 4.140625000000 9.037002563477 110 110 110
28.578125000000 4.156250000000 8.335998535156 191 191 191
29.656250000000 4.140625000000 8.938995361328 168 168 168
28.578125000000 4.156250000000 8.212997436523 202 202 202
28.484375000000 4.156250000000 8.108993530273 174 174 174
28.640625000000 4.171875000000 8.157989501953 172 172 172
29.562500000000 4.125000000000 8.261001586914 125 125 125
28.140625000000 4.140625000000 7.464996337891 145 145 145
28.171875000000 4.156250000000 7.427001953125 110 110 110
28.328125000000 4.156250000000 7.468994140625 182 182 182
28.484375000000 4.140625000000 7.491989135742 168 168 168
29.531250000000 4.125000000000 7.963989257813 18 18 18
29.281250000000 4.125000000000 7.626998901367 14 14 14
29.375000000000 4.125000000000 7.617996215820 66 66 66
28.875000000000 4.125000000000 7.179000854492 200 200 200
29.000000000000 4.109375000000 7.186996459961 160 160 160
28.890625000000 4.140625000000 7.095001220703 119 119 119
28.937500000000 4.125000000000 7.056991577148 16 16 16
28.546875000000 4.125000000000 6.860992431641 83 83 83
28.578125000000 4.125000000000 6.830993652344 98 98 98
29.156250000000 4.125000000000 6.950988769531 86 86 86
29.125000000000 4.125000000000 6.894989013672 91 91 91
28.750000000000 4.125000000000 6.708999633789 135 135 135
29.812500000000 4.109375000000 7.054000854492 120 120 120
29.843750000000 4.109375000000 7.009002685547 75 75 75
29.000000000000 4.109375000000 6.655990600586 134 134 134
29.000000000000 4.109375000000 6.604995727539 174 174 174
29.937500000000 4.109375000000 6.879989624023 34 34 34
28.968750000000 4.109375000000 6.498001098633 171 171 171
29.312500000000 4.125000000000 6.574996948242 114 114 114
28.750000000000 4.125000000000 6.341003417969 165 165 165
29.406250000000 4.109375000000 6.500000000000 46 46 46
29.125000000000 4.125000000000 6.322998046875 96 96 96
29.156250000000 4.109375000000 6.007995605469 152 152 152
29.156250000000 4.109375000000 5.961990356445 188 188 188
29.468750000000 4.093750000000 5.989990234375 128 128 128
29.187500000000 4.125000000000 5.873992919922 156 156 156
29.625000000000 4.109375000000 5.929992675781 126 126 126
29.406250000000 4.093750000000 5.832992553711 138 138 138
29.312500000000 4.093750000000 5.765991210938 96 96 96
28.781250000000 4.109375000000 5.601989746094 117 117 117
29.750000000000 4.093750000000 5.768997192383 57 57 57
28.593750000000 4.109375000000 5.478988647461 19 19 19
28.812500000000 4.109375000000 5.486999511719 136 136 136
28.812500000000 4.093750000000 5.444992065430 118 118 118
29.093750000000 4.093750000000 5.450988769531 30 30 30
29.281250000000 4.093750000000 5.442993164063 154 154 154
29.656250000000 4.093750000000 5.463989257813 155 155 155
29.437500000000 4.093750000000 5.377990722656 130 130 130
29.281250000000 4.093750000000 5.308990478516 67 67 67
28.718750000000 4.109375000000 5.130996704102 175 175 175
28.718750000000 4.109375000000 5.093002319336 152 152 152
29.468750000000 4.078125000000 5.153991699219 147 147 147
29.312500000000 4.093750000000 5.089996337891 96 96 96
29.312500000000 4.093750000000 5.044998168945 72 72 72
28.687500000000 4.109375000000 4.922988891602 134 134 134
28.687500000000 4.109375000000 4.879989624023 89 89 89
28.812500000000 4.109375000000 4.813003540039 78 78 78
28.718750000000 4.109375000000 4.763000488281 41 41 41
28.656250000000 4.093750000000 4.714996337891 28 28 28
28.593750000000 4.093750000000 4.671997070313 198 198 198
29.250000000000 4.093750000000 4.684997558594 163 163 163
28.781250000000 4.109375000000 4.604995727539 132 132 132
28.656250000000 4.109375000000 4.555999755859 86 86 86
29.156250000000 4.093750000000 4.460998535156 108 108 108
29.125000000000 4.093750000000 4.416000366211 133 133 133
28.500000000000 4.093750000000 4.347991943359 118 118 118
29.125000000000 4.093750000000 4.330001831055 44 44 44
29.500000000000 4.062500000000 4.297988891602 53 53 53
29.437500000000 4.078125000000 4.251998901367 16 16 16
29.718750000000 4.078125000000 4.166000366211 78 78 78
29.656250000000 4.078125000000 4.119995117188 66 66 66
29.531250000000 4.062500000000 4.073989868164 138 138 138
29.625000000000 4.078125000000 4.027999877930 86 86 86
29.218750000000 4.078125000000 3.815002441406 26 26 26
29.500000000000 4.062500000000 3.623992919922 69 69 69
29.531250000000 4.062500000000 3.575988769531 47 47 47
29.562500000000 4.062500000000 3.528991699219 38 38 38
29.531250000000 4.062500000000 3.485992431641 75 75 75
29.468750000000 4.062500000000 3.444992065430 29 29 29
29.437500000000 4.062500000000 3.401992797852 33 33 33
27.046875000000 4.203125000000 9.804992675781 155 155 155
27.171875000000 4.203125000000 9.736999511719 134 134 134
27.203125000000 4.203125000000 9.688995361328 177 177 177
27.234375000000 4.203125000000 9.660995483398 162 162 162
27.328125000000 4.187500000000 9.641998291016 139 139 139
29.156250000000 4.140625000000 7.942001342773 153 153 153
29.906250000000 4.109375000000 6.970001220703 132 132 132
30.156250000000 4.062500000000 4.852996826172 51 51 51
25.906250000000 3.890625000000 8.955001831055 134 134 134
25.906250000000 3.859375000000 8.909988403320 156 156 156
25.937500000000 3.875000000000 8.876998901367 142 142 142
25.968750000000 3.859375000000 8.853988647461 127 127 127
26.000000000000 3.890625000000 8.823989868164 161 161 161
26.062500000000 3.859375000000 8.850997924805 235 235 235
26.031250000000 3.859375000000 8.744995117188 175 175 175
26.062500000000 3.859375000000 8.720001220703 134 134 134
27.125000000000 3.843750000000 9.815002441406 159 159 159
27.125000000000 3.843750000000 9.737991333008 184 184 184
27.125000000000 3.843750000000 9.705001831055 177 177 177
27.187500000000 3.828125000000 9.703994750977 160 160 160
26.281250000000 3.875000000000 8.707992553711 210 210 210
26.281250000000 3.875000000000 8.651992797852 167 167 167
26.218750000000 3.859375000000 8.529998779297 182 182 182
26.218750000000 3.859375000000 8.470001220703 173 173 173
26.281250000000 3.875000000000 8.494995117188 188 188 188
26.343750000000 3.859375000000 8.496994018555 174 174 174
26.375000000000 3.859375000000 8.483993530273 167 167 167
26.468750000000 3.875000000000 8.524002075195 223 223 223
26.562500000000 3.843750000000 8.569992065430 214 214 214
26.593750000000 3.843750000000 8.520996093750 168 168 168
26.531250000000 3.843750000000 8.401992797852 141 141 141
27.250000000000 3.843750000000 9.001998901367 169 169 169
27.218750000000 3.828125000000 8.930999755859 169 169 169
27.437500000000 3.828125000000 9.057998657227 207 207 207
27.125000000000 3.828125000000 8.756988525391 172 172 172
27.125000000000 3.828125000000 8.671997070313 182 182 182
27.218750000000 3.828125000000 8.698989868164 171 171 171
27.468750000000 3.828125000000 8.873992919922 170 170 170
26.593750000000 3.843750000000 8.088989257813 178 178 178
26.562500000000 3.843750000000 8.022003173828 180 180 180
26.687500000000 3.843750000000 8.065002441406 234 234 234
26.812500000000 3.843750000000 8.100997924805 216 216 216
26.968750000000 3.828125000000 8.175003051758 25 25 25
27.531250000000 3.812500000000 8.589996337891 86 86 86
28.750000000000 3.796875000000 9.472000122070 190 190 190
27.187500000000 3.812500000000 8.200988769531 0 0 0
27.187500000000 3.812500000000 8.160995483398 247 247 247
27.062500000000 3.828125000000 8.026000976563 173 173 173
27.156250000000 3.828125000000 8.042999267578 128 128 128
27.281250000000 3.843750000000 8.097000122070 156 156 156
27.250000000000 3.828125000000 8.011993408203 175 175 175
27.375000000000 3.812500000000 8.050994873047 203 203 203
27.562500000000 3.812500000000 8.130996704102 209 209 209
29.781250000000 3.765625000000 9.626998901367 103 103 103
27.468750000000 3.812500000000 7.981002807617 174 174 174
27.781250000000 3.828125000000 8.138000488281 222 222 222
27.906250000000 3.812500000000 8.157989501953 217 217 217
27.750000000000 3.828125000000 8.007995605469 30 30 30
27.562500000000 3.812500000000 7.847000122070 180 180 180
27.750000000000 3.796875000000 7.916992187500 29 29 29
28.156250000000 3.796875000000 8.125991821289 193 193 193
28.187500000000 3.812500000000 8.102996826172 165 165 165
29.312500000000 3.781250000000 8.751998901367 106 106 106
29.375000000000 3.781250000000 8.705993652344 97 97 97
27.937500000000 3.796875000000 7.738998413086 53 53 53
27.937500000000 3.796875000000 7.699996948242 193 193 193
27.968750000000 3.796875000000 7.668991088867 174 174 174
28.125000000000 3.796875000000 7.699996948242 177 177 177
28.968750000000 3.781250000000 8.128997802734 137 137 137
29.187500000000 3.781250000000 8.198989868164 173 173 173
29.218750000000 3.781250000000 8.167999267578 102 102 102
29.312500000000 3.781250000000 8.147994995117 61 61 61
28.750000000000 3.781250000000 7.744995117188 64 64 64
28.343750000000 3.796875000000 7.378997802734 104 104 104
28.937500000000 3.765625000000 7.626998901367 198 198 198
28.937500000000 3.765625000000 7.572998046875 140 140 140
28.906250000000 3.765625000000 7.509994506836 82 82 82
28.875000000000 3.765625000000 7.440002441406 145 145 145
28.812500000000 3.781250000000 7.367996215820 54 54 54
28.875000000000 3.765625000000 7.336990356445 79 79 79
28.812500000000 3.781250000000 7.259002685547 139 139 139
28.687500000000 3.781250000000 7.158996582031 167 167 167
28.656250000000 3.765625000000 7.098999023438 151 151 151
28.812500000000 3.781250000000 7.116989135742 86 86 86
28.812500000000 3.781250000000 7.016998291016 11 11 11
29.062500000000 3.765625000000 7.080001831055 139 139 139
29.062500000000 3.750000000000 7.034988403320 192 192 192
28.750000000000 3.765625000000 6.856002807617 85 85 85
28.781250000000 3.765625000000 6.824996948242 180 180 180
28.625000000000 3.765625000000 6.718002319336 61 61 61
30.250000000000 3.750000000000 7.285995483398 20 20 20
30.375000000000 3.734375000000 7.220993041992 13 13 13
28.531250000000 3.765625000000 6.494995117188 152 152 152
28.593750000000 3.765625000000 6.475997924805 145 145 145
28.656250000000 3.765625000000 6.449996948242 112 112 112
28.687500000000 3.781250000000 6.416000366211 163 163 163
29.062500000000 3.750000000000 6.496994018555 183 183 183
29.062500000000 3.750000000000 6.453994750977 180 180 180
28.656250000000 3.765625000000 6.276992797852 122 122 122
28.593750000000 3.750000000000 6.212997436523 111 111 111
28.812500000000 3.765625000000 6.238998413086 118 118 118
28.812500000000 3.765625000000 6.194992065430 119 119 119
28.937500000000 3.750000000000 5.955001831055 90 90 90
29.125000000000 3.750000000000 5.784988403320 178 178 178
29.156250000000 3.750000000000 5.742996215820 178 178 178
29.281250000000 3.750000000000 5.725997924805 51 51 51
28.937500000000 3.734375000000 5.610000610352 161 161 161
29.500000000000 3.750000000000 5.682998657227 89 89 89
28.937500000000 3.734375000000 5.520996093750 78 78 78
28.625000000000 3.750000000000 5.416992187500 94 94 94
29.093750000000 3.734375000000 5.462997436523 36 36 36
28.812500000000 3.734375000000 5.365997314453 150 150 150
28.593750000000 3.750000000000 5.282989501953 83 83 83
28.750000000000 3.750000000000 5.270996093750 120 120 120
29.031250000000 3.734375000000 5.190994262695 137 137 137
29.031250000000 3.734375000000 5.147003173828 161 161 161
29.406250000000 3.718750000000 5.155990600586 93 93 93
29.093750000000 3.734375000000 5.069000244141 114 114 114
29.125000000000 3.750000000000 5.027999877930 161 161 161
29.906250000000 3.703125000000 5.035995483398 121 121 121
29.625000000000 3.718750000000 4.957992553711 78 78 78
29.750000000000 3.734375000000 4.920989990234 111 111 111
29.562500000000 3.703125000000 4.858001708984 103 103 103
29.562500000000 3.718750000000 4.810989379883 82 82 82
29.750000000000 3.718750000000 4.782989501953 42 42 42
30.218750000000 3.703125000000 4.722991943359 18 18 18
30.218750000000 3.718750000000 4.675994873047 13 13 13
28.812500000000 3.734375000000 4.533996582031 159 159 159
28.812500000000 3.734375000000 4.492996215820 195 195 195
29.000000000000 3.734375000000 4.461990356445 204 204 204
28.968750000000 3.734375000000 4.418991088867 81 81 81
29.375000000000 3.718750000000 4.348999023438 94 94 94
29.468750000000 3.718750000000 4.306991577148 58 58 58
29.625000000000 3.703125000000 3.945999145508 23 23 23
29.406250000000 3.718750000000 3.904998779297 125 125 125
29.375000000000 3.718750000000 3.861999511719 171 171 171
29.593750000000 3.703125000000 3.809997558594 49 49 49
29.468750000000 3.718750000000 3.768997192383 26 26 26
29.593750000000 3.703125000000 3.490997314453 53 53 53
29.531250000000 3.687500000000 3.450988769531 13 13 13
27.125000000000 3.828125000000 8.973999023438 155 155 155
28.406250000000 3.812500000000 8.958999633789 150 150 150
28.406250000000 3.796875000000 8.903991699219 137 137 137
29.093750000000 3.781250000000 8.664993286133 152 152 152
29.500000000000 3.734375000000 6.741989135742 155 155 155
27.265625000000 3.500000000000 9.836990356445 173 173 173
27.265625000000 3.500000000000 9.810989379883 180 180 180
26.140625000000 3.515625000000 8.561996459961 170 170 170
26.171875000000 3.515625000000 8.534988403320 176 176 176
26.203125000000 3.500000000000 8.537994384766 201 201 201
26.203125000000 3.500000000000 8.486999511719 102 102 102
26.328125000000 3.500000000000 8.539993286133 103 103 103
26.359375000000 3.515625000000 8.526992797852 169 169 169
26.328125000000 3.500000000000 8.436996459961 166 166 166
26.234375000000 3.500000000000 8.302001953125 175 175 175
26.234375000000 3.500000000000 8.261001586914 186 186 186
26.328125000000 3.500000000000 8.289993286133 179 179 179
26.390625000000 3.500000000000 8.300994873047 189 189 189
26.390625000000 3.500000000000 8.251998901367 182 182 182
26.453125000000 3.500000000000 8.246002197266 185 185 185
26.390625000000 3.500000000000 8.166000366211 192 192 192
26.421875000000 3.500000000000 8.132995605469 178 178 178
26.515625000000 3.500000000000 8.166000366211 169 169 169
26.578125000000 3.500000000000 8.164001464844 201 201 201
26.609375000000 3.484375000000 8.141998291016 166 166 166
26.671875000000 3.484375000000 8.142990112305 174 174 174
26.859375000000 3.484375000000 8.263000488281 219 219 219
26.984375000000 3.484375000000 8.324996948242 169 169 169
26.890625000000 3.484375000000 8.180999755859 201 201 201
27.046875000000 3.468750000000 8.259002685547 232 232 232
27.296875000000 3.468750000000 8.416992187500 236 236 236
27.390625000000 3.468750000000 8.440002441406 191 191 191
27.609375000000 3.468750000000 8.550994873047 235 235 235
27.421875000000 3.468750000000 8.356002807617 172 172 172
26.984375000000 3.484375000000 7.973999023438 148 148 148
26.953125000000 3.484375000000 7.914993286133 166 166 166
27.703125000000 3.453125000000 8.409988403320 148 148 148
27.265625000000 3.484375000000 8.034988403320 26 26 26
27.265625000000 3.484375000000 7.990997314453 235 235 235
27.265625000000 3.484375000000 7.944000244141 164 164 164
27.171875000000 3.468750000000 7.845993041992 130 130 130
27.296875000000 3.468750000000 7.869995117188 130 130 130
27.453125000000 3.468750000000 7.925994873047 75 75 75
27.546875000000 3.468750000000 7.942993164063 223 223 223
28.515625000000 3.437500000000 8.537994384766 207 207 207
27.828125000000 3.468750000000 8.020996093750 247 247 247
27.734375000000 3.453125000000 7.906997680664 135 135 135
27.890625000000 3.453125000000 7.985000610352 105 105 105
29.078125000000 3.421875000000 8.675994873047 167 167 167
28.890625000000 3.453125000000 8.485000610352 202 202 202
28.984375000000 3.421875000000 8.488998413086 148 148 148
29.390625000000 3.421875000000 8.679992675781 78 78 78
29.390625000000 3.421875000000 8.636993408203 115 115 115
