38.984375000000 13.359375000000 73.591995239258 158 158 158
39.015625000000 13.328125000000 73.484008789063 159 159 159
40.390625000000 12.468750000000 72.406005859375 71 71 71
40.375000000000 12.476562500000 72.274002075195 116 116 116
39.359375000000 13.023437500000 71.593002319336 80 80 80
40.171875000000 12.468750000000 69.760009765625 134 134 134
40.562500000000 12.203125000000 69.163009643555 34 34 34
39.171875000000 12.937500000000 67.311996459961 13 13 13
39.359375000000 12.820312500000 67.128005981445 23 23 23
39.343750000000 12.828125000000 67.018997192383 48 48 48
39.390625000000 12.796875000000 66.916000366211 140 140 140
39.343750000000 12.804687500000 66.805007934570 135 135 135
39.265625000000 12.859375000000 66.688003540039 104 104 104
39.390625000000 12.773437500000 66.597000122070 232 232 232
39.296875000000 12.812500000000 66.482009887695 98 98 98
39.328125000000 12.796875000000 66.378997802734 177 177 177
40.484375000000 12.492187500000 73.893997192383 28 28 28
40.328125000000 12.531250000000 72.891006469727 40 40 40
40.546875000000 12.406250000000 72.861007690430 21 21 21
39.328125000000 13.054687500000 71.692001342773 12 12 12
38.890625000000 13.296875000000 71.270004272461 155 155 155
40.171875000000 12.468750000000 70.001998901367 17 17 17
40.171875000000 12.468750000000 69.886001586914 86 86 86
39.328125000000 12.796875000000 66.273010253906 119 119 119
39.328125000000 13.546875000000 74.520996093750 55 55 55
39.234375000000 13.585937500000 74.330001831055 159 159 159
39.390625000000 13.500000000000 74.302001953125 165 165 165
39.406250000000 13.484375000000 74.169006347656 190 190 190
39.640625000000 13.234375000000 72.026000976563 222 222 222
39.546875000000 13.281250000000 71.501998901367 165 165 165
39.578125000000 13.250000000000 71.398010253906 169 169 169
40.203125000000 12.960937500000 73.176010131836 42 42 42
40.406250000000 12.843750000000 73.138000488281 32 32 32
40.484375000000 12.804687500000 73.042999267578 16 16 16
40.046875000000 12.875000000000 69.449996948242 12 12 12
40.109375000000 12.843750000000 69.348999023438 37 37 37
40.171875000000 12.773437500000 68.906005859375 3 3 3
40.468750000000 12.445312500000 65.531997680664 18 18 18
40.296875000000 13.273437500000 73.688003540039 14 14 14
40.421875000000 13.203125000000 73.626998901367 11 11 11
40.515625000000 13.148437500000 73.401000976563 16 16 16
40.296875000000 13.257812500000 73.160003662109 30 30 30
40.281250000000 13.203125000000 71.628005981445 26 26 26
40.515625000000 13.039062500000 71.350997924805 10 10 10
40.468750000000 13.070312500000 71.205001831055 21 21 21
40.468750000000 13.492187500000 73.309997558594 141 141 141
40.531250000000 13.453125000000 73.477005004883 117 117 117
40.500000000000 10.898437500000 70.169006347656 32 32 32
40.437500000000 10.851562500000 70.263000488281 13 13 13
39.859375000000 10.890625000000 69.934005737305 42 42 42
39.828125000000 10.851562500000 70.139999389648 20 20 20
39.921875000000 10.898437500000 70.285003662109 121 121 121
39.484375000000 11.429687500000 67.143005371094 13 13 13
39.703125000000 11.539062500000 67.699996948242 21 21 21
39.390625000000 11.320312500000 68.380004882813 44 44 44
39.109375000000 11.148437500000 68.527008056641 113 113 113
39.203125000000 11.195312500000 68.652999877930 28 28 28
40.296875000000 11.820312500000 69.703002929688 109 109 109
38.359375000000 10.656250000000 69.654998779297 149 149 149
39.046875000000 11.031250000000 70.630996704102 180 180 180
38.515625000000 10.710937500000 70.639007568359 100 100 100
39.078125000000 11.031250000000 70.969009399414 213 213 213
39.640625000000 11.492187500000 68.005996704102 37 37 37
40.453125000000 11.945312500000 69.061996459961 23 23 23
38.953125000000 10.968750000000 70.704010009766 40 40 40
39.046875000000 11.015625000000 71.063995361328 56 56 56
39.968750000000 11.554687500000 71.561996459961 18 18 18
40.281250000000 11.734375000000 71.807998657227 84 84 84
40.515625000000 11.843750000000 72.145996093750 34 34 34
38.828125000000 11.382812500000 66.794998168945 43 43 43
38.984375000000 11.460937500000 66.915008544922 76 76 76
38.953125000000 11.445312500000 67.012008666992 31 31 31
38.984375000000 11.460937500000 67.115005493164 123 123 123
39.265625000000 11.585937500000 68.398010253906 44 44 44
38.968750000000 11.414062500000 68.432998657227 113 113 113
38.015625000000 10.812500000000 69.288009643555 126 126 126
38.265625000000 10.929687500000 69.966995239258 8 8 8
38.828125000000 11.234375000000 70.266998291016 134 134 134
38.328125000000 10.953125000000 70.514007568359 166 166 166
38.437500000000 11.007812500000 70.656997680664 212 212 212
38.296875000000 10.921875000000 70.706008911133 138 138 138
38.296875000000 10.914062500000 70.809997558594 165 165 165
38.640625000000 11.109375000000 71.061996459961 246 246 246
39.421875000000 11.562500000000 71.498001098633 179 179 179
39.421875000000 11.562500000000 71.611999511719 143 143 143
38.140625000000 10.804687500000 71.166000366211 161 161 161
38.140625000000 10.804687500000 71.275009155273 219 219 219
39.859375000000 11.789062500000 72.152008056641 32 32 32
39.046875000000 11.320312500000 72.255004882813 133 133 133
38.984375000000 11.273437500000 72.339004516602 146 146 146
38.875000000000 11.203125000000 72.393997192383 147 147 147
39.078125000000 11.320312500000 72.611007690430 179 179 179
39.046875000000 11.304687500000 72.718002319336 13 13 13
39.328125000000 11.453125000000 72.983001708984 158 158 158
40.250000000000 11.984375000000 73.591003417969 41 41 41
39.828125000000 11.726562500000 74.134002685547 130 130 130
40.187500000000 12.000000000000 72.429000854492 20 20 20
39.015625000000 11.296875000000 72.120010375977 124 124 124
40.109375000000 11.914062500000 73.261001586914 73 73 73
39.796875000000 11.695312500000 74.240005493164 29 29 29
39.296875000000 11.460937500000 72.130996704102 28 28 28
38.546875000000 11.593750000000 66.430999755859 119 119 119
39.265625000000 11.992187500000 67.315002441406 214 214 214
39.312500000000 12.007812500000 67.529998779297 145 145 145
38.515625000000 11.515625000000 67.990997314453 124 124 124
39.625000000000 12.171875000000 68.322998046875 27 27 27
38.828125000000 11.679687500000 68.257995605469 169 169 169
38.093750000000 11.257812500000 68.197006225586 148 148 148
38.890625000000 11.726562500000 68.475997924805 114 114 114
37.828125000000 11.070312500000 68.708999633789 18 18 18
40.140625000000 12.429687500000 69.544998168945 76 76 76
38.062500000000 11.195312500000 69.163009643555 198 198 198
38.421875000000 11.414062500000 69.371002197266 126 126 126
37.937500000000 11.117187500000 69.324005126953 155 155 155
38.234375000000 11.273437500000 69.510009765625 213 213 213
37.515625000000 10.851562500000 69.382003784180 167 167 167
37.546875000000 10.882812500000 69.492004394531 176 176 176
38.015625000000 11.140625000000 69.943008422852 159 159 159
37.484375000000 10.835937500000 69.857009887695 171 171 171
37.453125000000 10.812500000000 69.942001342773 150 150 150
37.500000000000 10.820312500000 70.055007934570 234 234 234
38.109375000000 11.164062500000 70.380996704102 178 178 178
37.218750000000 10.648437500000 70.143997192383 125 125 125
38.328125000000 11.296875000000 70.677001953125 171 171 171
38.421875000000 11.359375000000 70.824005126953 212 212 212
38.765625000000 11.562500000000 71.076004028320 181 181 181
40.531250000000 12.570312500000 72.040008544922 26 26 26
38.859375000000 11.585937500000 71.438003540039 155 155 155
39.984375000000 12.250000000000 72.046005249023 130 130 130
39.921875000000 12.195312500000 72.499008178711 121 121 121
39.218750000000 11.773437500000 72.287002563477 158 158 158
39.390625000000 11.882812500000 72.494003295898 138 138 138
39.640625000000 12.015625000000 72.734008789063 8 8 8
39.203125000000 11.757812500000 72.755004882813 134 134 134
39.828125000000 12.109375000000 73.199996948242 135 135 135
39.046875000000 11.656250000000 72.913009643555 170 170 170
39.203125000000 11.742187500000 73.242004394531 172 172 172
39.500000000000 11.898437500000 73.770004272461 114 114 114
39.640625000000 11.976562500000 73.986007690430 110 110 110
39.718750000000 12.007812500000 74.151000976563 14 14 14
39.078125000000 11.890625000000 66.983001708984 34 34 34
39.203125000000 11.937500000000 67.201004028320 22 22 22
37.578125000000 10.937500000000 68.358001708984 62 62 62
40.265625000000 12.515625000000 69.356002807617 36 36 36
38.078125000000 11.195312500000 69.065002441406 15 15 15
37.515625000000 10.859375000000 69.576004028320 37 37 37
38.062500000000 11.171875000000 69.857009887695 12 12 12
40.328125000000 12.445312500000 72.320999145508 41 41 41
39.296875000000 11.828125000000 72.094009399414 104 104 104
39.437500000000 11.875000000000 73.486007690430 22 22 22
39.140625000000 11.687500000000 73.443008422852 20 20 20
39.328125000000 11.921875000000 70.294006347656 14 14 14
38.609375000000 11.773437500000 72.311004638672 146 146 146
38.046875000000 11.437500000000 72.132003784180 158 158 158
37.953125000000 11.390625000000 72.197006225586 141 141 141
40.109375000000 12.632812500000 73.432998657227 24 24 24
38.984375000000 11.984375000000 72.971008300781 129 129 129
40.296875000000 12.742187500000 73.796997070313 121 121 121
40.296875000000 12.734375000000 73.930999755859 104 104 104
38.765625000000 11.828125000000 73.206008911133 181 181 181
40.078125000000 12.593750000000 74.063003540039 36 36 36
39.671875000000 12.351562500000 73.962005615234 42 42 42
39.375000000000 12.179687500000 73.917007446289 136 136 136
39.109375000000 12.015625000000 73.886001586914 121 121 121
39.109375000000 12.015625000000 74.018005371094 145 145 145
39.140625000000 12.015625000000 74.156005859375 103 103 103
39.046875000000 11.968750000000 74.231002807617 113 113 113
38.984375000000 11.929687500000 74.319000244141 25 25 25
37.953125000000 11.484375000000 69.598999023438 6 6 6
37.546875000000 11.234375000000 69.658996582031 30 30 30
37.515625000000 11.195312500000 69.736999511719 28 28 28
38.046875000000 11.515625000000 70.029006958008 18 18 18
37.593750000000 11.250000000000 70.066009521484 18 18 18
40.453125000000 12.929687500000 71.251007080078 7 7 7
37.046875000000 10.914062500000 70.053009033203 84 84 84
37.218750000000 11.023437500000 70.216003417969 52 52 52
37.359375000000 11.085937500000 70.367004394531 72 72 72
37.562500000000 11.203125000000 70.544998168945 56 56 56
39.703125000000 12.460937500000 71.538009643555 40 40 40
38.062500000000 11.484375000000 70.960006713867 20 20 20
38.953125000000 12.015625000000 71.455001831055 98 98 98
38.953125000000 12.000000000000 71.559005737305 88 88 88
38.359375000000 11.656250000000 71.522003173828 80 80 80
39.093750000000 12.085937500000 71.971008300781 13 13 13
39.890625000000 12.539062500000 72.456008911133 40 40 40
39.734375000000 12.453125000000 72.503997802734 18 18 18
38.781250000000 11.875000000000 72.165008544922 100 100 100
38.953125000000 11.976562500000 72.365005493164 149 149 149
40.515625000000 12.968750000000 71.152999877930 12 12 12
39.187500000000 12.156250000000 71.438995361328 39 39 39
39.250000000000 12.734375000000 66.527999877930 156 156 156
39.281250000000 12.757812500000 66.635009765625 112 112 112
39.265625000000 12.742187500000 66.735000610352 151 151 151
39.265625000000 12.734375000000 66.837005615234 160 160 160
39.265625000000 12.726562500000 66.938995361328 154 154 154
39.265625000000 12.734375000000 67.044006347656 157 157 157
38.937500000000 12.531250000000 67.100997924805 187 187 187
38.796875000000 12.437500000000 67.180007934570 203 203 203
38.921875000000 12.500000000000 67.298004150391 185 185 185
39.250000000000 12.695312500000 67.451995849609 161 161 161
39.234375000000 12.687500000000 67.554000854492 154 154 154
39.265625000000 12.703125000000 67.660995483398 185 185 185
39.265625000000 12.710937500000 67.766998291016 196 196 196
39.265625000000 12.687500000000 67.871002197266 185 185 185
39.312500000000 12.718750000000 67.984008789063 157 157 157
38.078125000000 11.968750000000 67.841003417969 21 21 21
38.140625000000 12.007812500000 67.949996948242 24 24 24
38.218750000000 12.062500000000 68.066009521484 9 9 9
37.453125000000 11.585937500000 67.992996215820 230 230 230
37.421875000000 11.578125000000 68.081008911133 164 164 164
37.640625000000 11.703125000000 68.223999023438 158 158 158
37.609375000000 11.671875000000 68.309005737305 229 229 229
39.328125000000 12.687500000000 68.826004028320 67 67 67
39.296875000000 12.671875000000 68.926010131836 153 153 153
38.140625000000 11.984375000000 68.732009887695 239 239 239
38.015625000000 11.906250000000 68.794006347656 174 174 174
38.140625000000 11.984375000000 68.930007934570 137 137 137
37.828125000000 11.781250000000 68.936004638672 145 145 145
37.500000000000 11.585937500000 68.940002441406 161 161 161
37.593750000000 11.632812500000 69.061004638672 155 155 155
37.734375000000 11.718750000000 69.203002929688 132 132 132
39.250000000000 12.617187500000 69.768997192383 104 104 104
37.890625000000 11.812500000000 69.447006225586 168 168 168
37.812500000000 11.750000000000 69.516998291016 157 157 157
37.781250000000 11.734375000000 69.607009887695 180 180 180
37.828125000000 11.765625000000 69.721008300781 189 189 189
37.703125000000 11.679687500000 69.775009155273 186 186 186
38.031250000000 11.875000000000 69.992004394531 164 164 164
38.140625000000 11.921875000000 70.132995605469 194 194 194
38.156250000000 11.937500000000 70.240997314453 196 196 196
38.046875000000 11.867187500000 70.301010131836 138 138 138
37.328125000000 11.437500000000 70.130004882813 178 178 178
37.234375000000 11.382812500000 70.186996459961 150 150 150
37.203125000000 11.367187500000 70.276000976563 150 150 150
37.093750000000 11.304687500000 70.328002929688 153 153 153
37.046875000000 11.257812500000 70.400009155273 156 156 156
37.046875000000 11.265625000000 70.503005981445 162 162 162
36.984375000000 11.226562500000 70.574996948242 148 148 148
38.046875000000 11.828125000000 71.132003784180 138 138 138
37.953125000000 11.765625000000 71.191009521484 144 144 144
37.921875000000 11.742187500000 71.281005859375 162 162 162
37.687500000000 11.609375000000 71.285003662109 162 162 162
37.609375000000 11.554687500000 71.354003906250 190 190 190
38.109375000000 11.851562500000 71.695007324219 197 197 197
37.984375000000 11.796875000000 71.749008178711 207 207 207
37.937500000000 11.750000000000 71.831008911133 148 148 148
38.140625000000 11.859375000000 72.033004760742 140 140 140
38.234375000000 11.914062500000 72.192001342773 166 166 166
38.093750000000 11.828125000000 72.236007690430 154 154 154
38.078125000000 11.812500000000 72.333999633789 138 138 138
37.890625000000 11.703125000000 72.357009887695 119 119 119
37.828125000000 11.671875000000 72.430007934570 145 145 145
37.890625000000 11.703125000000 72.578002929688 155 155 155
38.578125000000 12.078125000000 73.063995361328 131 131 131
38.609375000000 12.101562500000 73.201004028320 175 175 175
38.515625000000 12.039062500000 73.266998291016 155 155 155
38.609375000000 12.078125000000 73.434005737305 169 169 169
39.140625000000 12.390625000000 73.875000000000 201 201 201
38.906250000000 12.250000000000 73.852996826172 175 175 175
38.765625000000 12.164062500000 73.893005371094 169 169 169
39.234375000000 12.429687500000 74.304000854492 119 119 119
39.500000000000 12.585937500000 74.600997924805 75 75 75
38.921875000000 12.242187500000 74.363006591797 163 163 163
38.984375000000 12.273437500000 74.535995483398 140 140 140
39.375000000000 12.492187500000 74.916000366211 85 85 85
39.265625000000 12.429687500000 74.973007202148 115 115 115
39.250000000000 12.734375000000 66.426010131836 68 68 68
39.296875000000 12.703125000000 68.083007812500 160 160 160
39.296875000000 12.710937500000 68.190002441406 150 150 150
39.296875000000 12.695312500000 68.292999267578 133 133 133
40.140625000000 13.007812500000 73.413009643555 7 7 7
40.281250000000 13.093750000000 73.620010375977 10 10 10
37.921875000000 12.265625000000 66.816009521484 123 123 123
38.078125000000 12.359375000000 66.930007934570 57 57 57
38.734375000000 12.750000000000 67.216995239258 103 103 103
38.125000000000 12.343750000000 67.893997192383 132 132 132
38.140625000000 12.351562500000 67.994003295898 176 176 176
38.265625000000 12.437500000000 68.119003295898 204 204 204
37.890625000000 12.195312500000 68.130004882813 20 20 20
37.609375000000 12.039062500000 68.166000366211 149 149 149
37.843750000000 12.164062500000 68.313003540039 143 143 143
37.906250000000 12.203125000000 68.423004150391 117 117 117
38.484375000000 12.546875000000 68.666000366211 157 157 157
38.390625000000 12.476562500000 68.738998413086 124 124 124
38.750000000000 12.679687500000 68.934005737305 117 117 117
38.390625000000 12.468750000000 68.938003540039 135 135 135
38.046875000000 12.273437500000 68.947006225586 141 141 141
38.078125000000 12.289062500000 69.055007934570 143 143 143
38.484375000000 12.523437500000 69.275009155273 130 130 130
37.765625000000 12.093750000000 69.158004760742 172 172 172
37.562500000000 11.945312500000 69.380996704102 24 24 24
37.531250000000 11.921875000000 69.468002319336 21 21 21
37.468750000000 11.898437500000 69.546005249023 194 194 194
38.093750000000 12.257812500000 69.958999633789 31 31 31
38.296875000000 12.375000000000 70.135009765625 85 85 85
37.765625000000 12.046875000000 70.039001464844 133 133 133
37.640625000000 11.968750000000 70.093002319336 147 147 147
37.640625000000 11.968750000000 70.192001342773 162 162 162
37.578125000000 11.929687500000 70.273010253906 157 157 157
37.546875000000 11.921875000000 70.357009887695 184 184 184
38.546875000000 12.492187500000 70.859008789063 101 101 101
38.468750000000 12.453125000000 70.936996459961 248 248 248
38.546875000000 12.492187500000 71.076004028320 214 214 214
39.421875000000 12.992187500000 71.553009033203 64 64 64
39.359375000000 12.953125000000 71.643005371094 20 20 20
38.046875000000 12.179687500000 71.180999755859 9 9 9
39.015625000000 12.757812500000 71.727996826172 105 105 105
38.187500000000 12.250000000000 71.456008911133 172 172 172
38.093750000000 12.195312500000 71.520996093750 224 224 224
37.765625000000 12.000000000000 71.472000122070 163 163 163
37.609375000000 11.906250000000 71.503005981445 161 161 161
37.578125000000 11.875000000000 71.589996337891 148 148 148
37.734375000000 11.968750000000 71.777008056641 201 201 201
37.656250000000 11.921875000000 71.847000122070 188 188 188
37.718750000000 11.953125000000 71.985000610352 195 195 195
37.671875000000 11.921875000000 72.070007324219 210 210 210
37.859375000000 12.015625000000 72.264007568359 254 254 254
37.953125000000 12.078125000000 72.438995361328 198 198 198
38.046875000000 12.132812500000 72.598999023438 191 191 191
38.000000000000 12.093750000000 72.682006835938 169 169 169
37.953125000000 12.062500000000 72.764999389648 194 194 194
37.890625000000 12.031250000000 72.854003906250 153 153 153
38.078125000000 12.132812500000 73.070999145508 167 167 167
38.796875000000 12.531250000000 73.720001220703 167 167 167
38.421875000000 12.320312500000 73.623001098633 152 152 152
38.468750000000 12.328125000000 73.768997192383 145 145 145
38.578125000000 12.382812500000 73.954010009766 163 163 163
38.562500000000 12.375000000000 74.068008422852 149 149 149
38.640625000000 12.421875000000 74.246002197266 161 161 161
39.109375000000 12.679687500000 74.666000366211 146 146 146
39.109375000000 12.687500000000 74.809997558594 115 115 115
39.046875000000 12.640625000000 74.893997192383 98 98 98
39.203125000000 12.921875000000 70.023010253906 27 27 27
38.828125000000 12.640625000000 71.525009155273 19 19 19
40.234375000000 13.468750000000 72.143005371094 14 14 14
37.890625000000 12.585937500000 66.651000976563 12 12 12
37.796875000000 12.515625000000 66.826004028320 34 34 34
38.187500000000 12.726562500000 68.033004760742 77 77 77
38.203125000000 12.726562500000 68.134002685547 207 207 207
38.500000000000 12.882812500000 68.495010375977 140 140 140
37.515625000000 12.296875000000 68.352996826172 163 163 163
37.468750000000 12.273437500000 68.438003540039 184 184 184
37.796875000000 12.460937500000 68.712005615234 18 18 18
37.796875000000 12.460937500000 68.811004638672 160 160 160
37.812500000000 12.460937500000 68.910003662109 211 211 211
37.781250000000 12.437500000000 68.997009277344 116 116 116
38.968750000000 13.125000000000 69.975006103516 136 136 136
37.625000000000 12.320312500000 69.628005981445 167 167 167
37.640625000000 12.335937500000 69.736007690430 3 3 3
38.984375000000 13.125000000000 70.303009033203 141 141 141
38.031250000000 12.546875000000 70.069000244141 195 195 195
37.890625000000 12.453125000000 70.111999511719 165 165 165
37.500000000000 12.234375000000 70.076004028320 156 156 156
37.562500000000 12.273437500000 70.197998046875 240 240 240
37.234375000000 12.062500000000 70.264007568359 82 82 82
39.187500000000 13.195312500000 71.150009155273 166 166 166
39.328125000000 13.289062500000 71.324005126953 171 171 171
39.062500000000 13.117187500000 71.320007324219 195 195 195
38.578125000000 12.812500000000 71.442001342773 25 25 25
38.421875000000 12.718750000000 71.485000610352 98 98 98
38.640625000000 12.867187500000 71.701995849609 191 191 191
38.453125000000 12.742187500000 71.718002319336 133 133 133
38.703125000000 12.875000000000 71.947998046875 227 227 227
37.640625000000 12.273437500000 71.557006835938 252 252 252
37.593750000000 12.226562500000 71.635009765625 163 163 163
37.578125000000 12.218750000000 71.733001708984 169 169 169
37.609375000000 12.226562500000 71.858001708984 148 148 148
37.578125000000 12.218750000000 71.947006225586 155 155 155
39.515625000000 13.335937500000 73.061996459961 43 43 43
38.421875000000 12.695312500000 72.610000610352 228 228 228
38.421875000000 12.687500000000 72.721008300781 174 174 174
38.156250000000 12.523437500000 72.688995361328 155 155 155
38.109375000000 12.492187500000 72.779006958008 163 163 163
38.109375000000 12.484375000000 72.889999389648 187 187 187
38.046875000000 12.468750000000 72.975997924805 187 187 187
38.015625000000 12.445312500000 73.076004028320 143 143 143
37.953125000000 12.398437500000 73.152999877930 154 154 154
37.875000000000 12.351562500000 73.222000122070 177 177 177
37.843750000000 12.320312500000 73.315002441406 207 207 207
38.703125000000 12.812500000000 73.957000732422 156 156 156
38.609375000000 12.757812500000 74.027008056641 136 136 136
38.859375000000 12.882812500000 74.291000366211 111 111 111
38.890625000000 12.906250000000 74.441009521484 113 113 113
38.859375000000 12.882812500000 74.546997070313 78 78 78
37.703125000000 12.726562500000 68.818008422852 172 172 172
38.140625000000 12.984375000000 69.438003540039 55 55 55
38.234375000000 13.023437500000 69.561996459961 189 189 189
37.859375000000 12.812500000000 69.548995971680 129 129 129
38.140625000000 12.953125000000 69.735000610352 238 238 238
38.000000000000 12.882812500000 69.997009277344 171 171 171
37.765625000000 12.726562500000 70.007003784180 156 156 156
37.812500000000 12.757812500000 70.124008178711 125 125 125
38.578125000000 13.187500000000 70.945007324219 181 181 181
38.609375000000 13.210937500000 71.068008422852 174 174 174
38.484375000000 13.132812500000 71.121002197266 175 175 175
38.406250000000 13.070312500000 71.195007324219 176 176 176
38.265625000000 12.984375000000 71.348999023438 56 56 56
38.078125000000 12.875000000000 71.372009277344 171 171 171
37.937500000000 12.789062500000 71.417999267578 136 136 136
37.859375000000 12.742187500000 71.492004394531 150 150 150
38.375000000000 13.031250000000 71.837997436523 205 205 205
38.359375000000 13.015625000000 71.944000244141 206 206 206
38.578125000000 13.140625000000 72.158996582031 227 227 227
38.546875000000 13.125000000000 72.375000000000 157 157 157
38.109375000000 12.859375000000 72.259002685547 162 162 162
38.484375000000 13.078125000000 72.574005126953 147 147 147
38.359375000000 12.992187500000 72.617996215820 132 132 132
38.187500000000 12.882812500000 72.634002685547 135 135 135
38.234375000000 12.921875000000 72.781997680664 130 130 130
38.203125000000 12.898437500000 72.876998901367 59 59 59
38.515625000000 13.062500000000 73.166000366211 129 129 129
37.953125000000 12.726562500000 73.072006225586 215 215 215
38.890625000000 13.265625000000 73.744003295898 132 132 132
38.406250000000 12.992187500000 73.578002929688 171 171 171
38.250000000000 12.898437500000 73.602996826172 151 151 151
38.250000000000 12.898437500000 73.725997924805 194 194 194
38.984375000000 13.289062500000 74.292007446289 153 153 153
38.906250000000 13.257812500000 74.376998901367 23 23 23
37.812500000000 13.109375000000 70.087005615234 225 225 225
38.109375000000 13.265625000000 70.927001953125 136 136 136
38.046875000000 13.218750000000 71.110000610352 20 20 20
38.046875000000 13.218750000000 71.216995239258 151 151 151
38.171875000000 13.257812500000 71.367996215820 162 162 162
37.984375000000 13.156250000000 71.393005371094 150 150 150
37.796875000000 13.031250000000 71.415008544922 156 156 156
37.687500000000 12.968750000000 71.466995239258 160 160 160
37.796875000000 13.039062500000 71.632003784180 209 209 209
38.343750000000 13.335937500000 72.567001342773 210 210 210
38.203125000000 13.257812500000 72.610000610352 11 11 11
38.125000000000 13.234375000000 70.824005126953 137 137 137
38.109375000000 13.218750000000 70.921997070313 107 107 107
38.015625000000 13.171875000000 70.997009277344 178 178 178
38.046875000000 13.171875000000 71.432006835938 73 73 73
37.796875000000 13.015625000000 71.526000976563 9 9 9
38.406250000000 13.343750000000 72.152008056641 14 14 14
38.343750000000 13.296875000000 72.231002807617 11 11 11
38.015625000000 12.953125000000 67.936004638672 154 154 154
38.046875000000 12.945312500000 68.037002563477 11 11 11
37.703125000000 12.703125000000 68.819000244141 228 228 228
37.609375000000 12.648437500000 68.889007568359 37 37 37
38.078125000000 12.890625000000 69.723999023438 133 133 133
38.453125000000 13.109375000000 69.954010009766 185 185 185
37.796875000000 12.718750000000 69.930007934570 129 129 129
38.078125000000 12.875000000000 70.236007690430 197 197 197
38.640625000000 13.187500000000 70.660995483398 145 145 145
38.625000000000 13.187500000000 70.878005981445 180 180 180
38.437500000000 13.054687500000 70.904006958008 209 209 209
38.593750000000 13.156250000000 71.080001831055 191 191 191
38.078125000000 12.828125000000 71.393997192383 192 192 192
37.984375000000 12.765625000000 71.455001831055 123 123 123
37.890625000000 12.710937500000 71.518005371094 140 140 140
37.890625000000 12.703125000000 71.632995605469 151 151 151
39.140625000000 13.421875000000 72.589004516602 16 16 16
38.546875000000 13.062500000000 72.397003173828 183 183 183
38.421875000000 12.984375000000 72.445999145508 131 131 131
38.546875000000 13.054687500000 72.623001098633 121 121 121
38.203125000000 12.859375000000 72.563995361328 70 70 70
38.140625000000 12.812500000000 72.643997192383 124 124 124
38.125000000000 12.804687500000 72.749008178711 121 121 121
38.046875000000 12.742187500000 72.813995361328 108 108 108
38.703125000000 13.109375000000 73.421005249023 139 139 139
38.328125000000 12.898437500000 73.332000732422 160 160 160
38.843750000000 13.187500000000 73.753005981445 112 112 112
38.984375000000 13.250000000000 73.954010009766 110 110 110
38.984375000000 13.257812500000 74.082000732422 42 42 42
38.484375000000 12.953125000000 73.904998779297 21 21 21
38.484375000000 12.921875000000 67.208007812500 12 12 12
38.484375000000 12.906250000000 67.303009033203 127 127 127
38.234375000000 12.726562500000 67.945999145508 15 15 15
38.187500000000 12.703125000000 68.031997680664 23 23 23
38.203125000000 12.703125000000 68.136001586914 116 116 116
38.515625000000 12.875000000000 68.404006958008 40 40 40
38.390625000000 12.812500000000 68.475997924805 166 166 166
37.703125000000 12.398437500000 68.402999877930 172 172 172
37.578125000000 12.312500000000 68.466003417969 6 6 6
37.703125000000 12.390625000000 68.693008422852 50 50 50
37.843750000000 12.453125000000 68.824005126953 198 198 198
37.546875000000 12.265625000000 68.835006713867 164 164 164
37.609375000000 12.312500000000 68.955001831055 63 63 63
38.937500000000 13.062500000000 69.867004394531 157 157 157
38.046875000000 12.539062500000 69.675003051758 245 245 245
37.640625000000 12.296875000000 69.641006469727 210 210 210
37.546875000000 12.226562500000 69.703002929688 238 238 238
38.890625000000 13.023437500000 70.281005859375 73 73 73
37.921875000000 12.429687500000 70.031005859375 156 156 156
37.953125000000 12.468750000000 70.152008056641 155 155 155
37.546875000000 12.218750000000 70.098999023438 217 217 217
37.375000000000 12.132812500000 70.135009765625 155 155 155
37.296875000000 12.062500000000 70.195999145508 99 99 99
37.171875000000 11.992187500000 70.250000000000 78 78 78
39.515625000000 13.343750000000 71.303009033203 103 103 103
38.890625000000 12.984375000000 71.158996582031 146 146 146
38.781250000000 12.898437500000 71.220001220703 199 199 199
38.859375000000 12.945312500000 71.367996215820 195 195 195
38.265625000000 12.617187500000 71.223007202148 74 74 74
38.359375000000 12.648437500000 71.363998413086 131 131 131
38.390625000000 12.664062500000 71.488006591797 161 161 161
38.453125000000 12.695312500000 71.742004394531 128 128 128
38.484375000000 12.703125000000 71.869003295898 176 176 176
38.515625000000 12.726562500000 71.995010375977 180 180 180
38.765625000000 12.867187500000 72.236999511719 160 160 160
39.796875000000 13.445312500000 72.857009887695 25 25 25
37.640625000000 12.195312500000 71.891006469727 182 182 182
38.125000000000 12.476562500000 72.249008178711 137 137 137
38.078125000000 12.437500000000 72.333007812500 35 35 35
38.453125000000 12.648437500000 72.643997192383 199 199 199
38.296875000000 12.554687500000 72.671997070313 164 164 164
38.078125000000 12.421875000000 72.669998168945 135 135 135
37.984375000000 12.367187500000 72.729995727539 155 155 155
38.015625000000 12.382812500000 72.865997314453 147 147 147
37.953125000000 12.328125000000 72.938995361328 149 149 149
37.890625000000 12.304687500000 73.024002075195 158 158 158
37.859375000000 12.265625000000 73.111007690430 161 161 161
37.890625000000 12.289062500000 73.255004882813 213 213 213
38.390625000000 12.578125000000 73.677001953125 161 161 161
38.609375000000 12.703125000000 73.932006835938 151 151 151
38.671875000000 12.718750000000 74.085998535156 150 150 150
38.890625000000 12.835937500000 74.358001708984 137 137 137
39.015625000000 12.914062500000 74.561004638672 22 22 22
38.578125000000 12.906250000000 68.722000122070 157 157 157
39.453125000000 13.242187500000 73.055999755859 82 82 82
38.734375000000 12.742187500000 66.889007568359 25 25 25
37.921875000000 12.242187500000 66.973999023438 48 48 48
38.687500000000 12.695312500000 67.182006835938 97 97 97
38.109375000000 12.328125000000 67.865997314453 179 179 179
38.093750000000 12.320312500000 67.958999633789 149 149 149
38.156250000000 12.343750000000 68.069000244141 207 207 207
38.296875000000 12.421875000000 68.199996948242 240 240 240
37.546875000000 11.984375000000 68.126007080078 152 152 152
37.671875000000 12.039062500000 68.247009277344 170 170 170
37.718750000000 12.062500000000 68.352005004883 130 130 130
38.734375000000 12.648437500000 68.804000854492 97 97 97
38.640625000000 12.593750000000 68.884002685547 126 126 126
38.265625000000 12.367187500000 68.882003784180 141 141 141
38.000000000000 12.210937500000 68.910003662109 143 143 143
37.921875000000 12.164062500000 68.984008789063 162 162 162
38.359375000000 12.421875000000 69.212997436523 128 128 128
38.609375000000 12.562500000000 69.389999389648 95 95 95
39.140625000000 12.867187500000 69.766998291016 18 18 18
39.093750000000 12.835937500000 69.969009399414 56 56 56
38.000000000000 12.171875000000 69.906997680664 40 40 40
37.953125000000 12.140625000000 69.995010375977 63 63 63
37.640625000000 11.953125000000 69.977996826172 126 126 126
37.625000000000 11.945312500000 70.072998046875 141 141 141
37.562500000000 11.890625000000 70.143005371094 127 127 127
37.578125000000 11.898437500000 70.250000000000 215 215 215
37.312500000000 11.742187500000 70.248001098633 12 12 12
38.453125000000 12.398437500000 70.807998657227 96 96 96
38.484375000000 12.421875000000 70.928009033203 208 208 208
39.359375000000 12.914062500000 71.516998291016 140 140 140
39.375000000000 12.929687500000 71.639999389648 201 201 201
40.203125000000 13.398437500000 72.121002197266 71 71 71
39.156250000000 12.781250000000 71.772003173828 146 146 146
38.140625000000 12.195312500000 71.423004150391 164 164 164
37.875000000000 12.031250000000 71.406997680664 158 158 158
37.671875000000 11.898437500000 71.417999267578 200 200 200
37.562500000000 11.835937500000 71.473999023438 149 149 149
37.515625000000 11.796875000000 71.551010131836 171 171 171
37.546875000000 11.820312500000 71.675003051758 166 166 166
37.578125000000 11.828125000000 71.798995971680 154 154 154
37.468750000000 11.765625000000 71.847000122070 132 132 132
37.437500000000 11.734375000000 71.936004638672 187 187 187
37.406250000000 11.710937500000 72.025009155273 147 147 147
37.515625000000 11.781250000000 72.195999145508 184 184 184
38.078125000000 12.093750000000 72.602005004883 150 150 150
38.000000000000 12.046875000000 72.675003051758 170 170 170
39.812500000000 13.085937500000 73.805007934570 27 27 27
37.953125000000 12.007812500000 72.873001098633 175 175 175
38.171875000000 12.132812500000 73.115005493164 230 230 230
38.656250000000 12.414062500000 73.520996093750 188 188 188
38.546875000000 12.328125000000 73.570999145508 159 159 159
38.328125000000 12.203125000000 73.559997558594 142 142 142
38.500000000000 12.296875000000 73.785995483398 142 142 142
38.468750000000 12.273437500000 73.891006469727 147 147 147
38.515625000000 12.304687500000 74.038009643555 152 152 152
38.578125000000 12.343750000000 74.214996337891 166 166 166
38.937500000000 12.531250000000 74.563995361328 137 137 137
38.453125000000 12.421875000000 70.701995849609 136 136 136
38.234375000000 12.117187500000 66.387008666992 2 2 2
38.203125000000 12.101562500000 66.479995727539 227 227 227
39.218750000000 12.710937500000 66.688003540039 134 134 134
39.218750000000 12.710937500000 66.791000366211 137 137 137
39.234375000000 12.695312500000 66.891998291016 135 135 135
39.234375000000 12.703125000000 66.997009277344 148 148 148
38.796875000000 12.445312500000 67.040008544922 178 178 178
38.703125000000 12.375000000000 67.126998901367 201 201 201
38.781250000000 12.406250000000 67.236999511719 173 173 173
39.234375000000 12.679687500000 67.406997680664 147 147 147
39.203125000000 12.648437500000 67.505996704102 148 148 148
39.234375000000 12.679687500000 67.615997314453 189 189 189
39.218750000000 12.671875000000 67.718002319336 185 185 185
39.234375000000 12.664062500000 67.824996948242 182 182 182
39.234375000000 12.664062500000 67.928009033203 186 186 186
39.234375000000 12.664062500000 68.031997680664 182 182 182
39.296875000000 12.687500000000 68.150009155273 141 141 141
38.140625000000 12.015625000000 68.012008666992 11 11 11
39.218750000000 12.632812500000 68.343002319336 147 147 147
37.609375000000 11.679687500000 68.083999633789 198 198 198
37.484375000000 11.601562500000 68.148010253906 154 154 154
37.515625000000 11.617187500000 68.248001098633 245 245 245
37.453125000000 11.585937500000 68.330001831055 141 141 141
38.203125000000 11.992187500000 68.607009887695 233 233 233
38.328125000000 12.078125000000 68.738998413086 233 233 233
37.921875000000 11.843750000000 68.734008789063 153 153 153
37.984375000000 11.867187500000 68.848999023438 153 153 153
37.765625000000 11.742187500000 68.888000488281 155 155 155
37.453125000000 11.562500000000 68.893997192383 168 168 168
37.515625000000 11.578125000000 69.003005981445 160 160 160
37.703125000000 11.695312500000 69.160003662109 56 56 56
37.781250000000 11.734375000000 69.277999877930 14 14 14
37.859375000000 11.765625000000 69.401000976563 155 155 155
37.734375000000 11.695312500000 69.458007812500 192 192 192
37.656250000000 11.648437500000 69.531005859375 175 175 175
37.718750000000 11.687500000000 69.651000976563 192 192 192
37.765625000000 11.695312500000 69.764999389648 182 182 182
37.953125000000 11.804687500000 69.932998657227 150 150 150
38.062500000000 11.859375000000 70.070999145508 161 161 161
38.109375000000 11.882812500000 70.188003540039 203 203 203
37.953125000000 11.796875000000 70.233001708984 149 149 149
37.953125000000 11.773437500000 70.332000732422 139 139 139
37.203125000000 11.343750000000 70.145996093750 200 200 200
37.140625000000 11.296875000000 70.216995239258 153 153 153
37.109375000000 11.273437500000 70.301010131836 16 16 16
39.640625000000 12.757812500000 71.447006225586 35 35 35
38.203125000000 11.921875000000 70.962997436523 137 137 137
38.359375000000 11.984375000000 71.128005981445 155 155 155
37.984375000000 11.773437500000 71.080001831055 82 82 82
37.968750000000 11.757812500000 71.175003051758 133 133 133
37.765625000000 11.640625000000 71.192001342773 131 131 131
37.640625000000 11.562500000000 71.235000610352 149 149 149
39.578125000000 12.695312500000 72.251007080078 51 51 51
38.171875000000 11.867187500000 71.699005126953 180 180 180
38.171875000000 11.835937500000 71.801010131836 137 137 137
38.015625000000 11.765625000000 71.835998535156 137 137 137
40.234375000000 13.062500000000 73.067001342773 24 24 24
38.078125000000 11.781250000000 72.094009399414 155 155 155
38.031250000000 11.757812500000 72.175003051758 155 155 155
37.984375000000 11.734375000000 72.268005371094 129 129 129
37.921875000000 11.671875000000 72.333007812500 136 136 136
37.765625000000 11.585937500000 72.369003295898 137 137 137
37.859375000000 11.632812500000 72.531005859375 141 141 141
38.546875000000 12.015625000000 73.138000488281 155 155 155
38.453125000000 11.968750000000 73.208999633789 168 168 168
38.546875000000 12.023437500000 73.380996704102 146 146 146
38.640625000000 12.070312500000 73.559005737305 160 160 160
38.765625000000 12.125000000000 73.749008178711 154 154 154
38.734375000000 12.093750000000 73.848999023438 161 161 161
38.828125000000 12.156250000000 74.165008544922 141 141 141
38.828125000000 12.148437500000 74.292007446289 146 146 146
38.828125000000 12.132812500000 74.408996582031 153 153 153
39.218750000000 12.359375000000 74.798004150391 132 132 132
39.109375000000 12.289062500000 74.854003906250 125 125 125
39.218750000000 12.710937500000 66.380004882813 69 69 69
39.203125000000 12.703125000000 66.481002807617 145 145 145
39.234375000000 12.656250000000 68.244003295898 135 135 135
39.296875000000 12.664062500000 68.781997680664 75 75 75
39.218750000000 12.593750000000 69.617004394531 40 40 40
38.171875000000 11.914062500000 70.738998413086 98 98 98
39.078125000000 12.304687500000 74.191009521484 77 77 77
39.921875000000 12.929687500000 71.445999145508 13 13 13
39.109375000000 11.984375000000 74.020996093750 123 123 123
39.046875000000 11.921875000000 74.097000122070 157 157 157
38.953125000000 11.867187500000 74.169006347656 126 126 126
39.796875000000 12.343750000000 74.822998046875 78 78 78
39.781250000000 12.335937500000 74.951004028320 47 47 47
37.875000000000 11.460937500000 68.770004272461 12 12 12
37.781250000000 11.390625000000 68.839004516602 18 18 18
38.328125000000 11.703125000000 69.503005981445 28 28 28
37.984375000000 11.484375000000 69.488006591797 20 20 20
37.796875000000 11.375000000000 69.527008056641 32 32 32
38.046875000000 11.507812500000 69.708999633789 12 12 12
37.765625000000 11.335937500000 69.714996337891 39 39 39
38.203125000000 11.601562500000 69.969009399414 22 22 22
38.140625000000 11.562500000000 70.046005249023 20 20 20
37.453125000000 11.148437500000 69.902008056641 63 63 63
37.468750000000 11.156250000000 70.100006103516 42 42 42
37.546875000000 11.187500000000 70.225997924805 33 33 33
37.359375000000 11.078125000000 70.253005981445 57 57 57
37.203125000000 10.992187500000 70.294006347656 70 70 70
37.234375000000 10.992187500000 70.401000976563 67 67 67
37.109375000000 10.929687500000 70.451995849609 80 80 80
37.328125000000 11.039062500000 70.635009765625 62 62 62
38.906250000000 11.960937500000 71.421997070313 35 35 35
38.890625000000 11.945312500000 71.524002075195 48 48 48
39.171875000000 12.109375000000 71.768005371094 26 26 26
38.265625000000 11.562500000000 71.464004516602 85 85 85
38.046875000000 11.429687500000 71.469009399414 34 34 34
38.953125000000 11.953125000000 72.121002197266 19 19 19
38.828125000000 11.875000000000 72.179000854492 47 47 47
38.765625000000 11.828125000000 72.262008666992 118 118 118
40.437500000000 12.804687500000 73.221008300781 19 19 19
37.906250000000 11.328125000000 72.055999755859 69 69 69
38.015625000000 11.390625000000 72.222000122070 16 16 16
38.156250000000 11.460937500000 72.406005859375 93 93 93
38.890625000000 11.882812500000 72.910995483398 36 36 36
40.390625000000 12.757812500000 73.850997924805 52 52 52
38.906250000000 11.875000000000 73.160995483398 10 10 10
38.718750000000 11.773437500000 73.176010131836 119 119 119
39.593750000000 12.265625000000 73.792999267578 49 49 49
39.359375000000 12.132812500000 73.787002563477 116 116 116
39.078125000000 11.976562500000 73.751998901367 103 103 103
38.984375000000 11.898437500000 73.816009521484 93 93 93
39.515625000000 12.257812500000 72.999008178711 18 18 18
40.421875000000 12.789062500000 73.738998413086 21 21 21
40.453125000000 12.781250000000 74.014007568359 47 47 47
38.515625000000 11.601562500000 66.335998535156 52 52 52
38.484375000000 11.578125000000 66.430007934570 86 86 86
38.640625000000 11.648437500000 66.639999389648 11 11 11
39.109375000000 11.929687500000 67.204010009766 80 80 80
38.984375000000 11.851562500000 67.287002563477 151 151 151
39.328125000000 12.046875000000 67.441009521484 81 81 81
39.265625000000 12.000000000000 67.535995483398 87 87 87
38.515625000000 11.515625000000 67.901000976563 52 52 52
38.640625000000 11.593750000000 68.027999877930 46 46 46
38.875000000000 11.734375000000 68.180999755859 176 176 176
38.093750000000 11.257812500000 68.110000610352 206 206 206
38.078125000000 11.250000000000 68.204010009766 183 183 183
38.765625000000 11.664062500000 68.464004516602 137 137 137
37.578125000000 10.945312500000 68.464996337891 85 85 85
37.750000000000 11.031250000000 68.600997924805 85 85 85
40.171875000000 12.468750000000 69.356002807617 124 124 124
38.828125000000 11.664062500000 69.094009399414 149 149 149
37.875000000000 11.085937500000 69.122009277344 156 156 156
38.078125000000 11.210937500000 69.287002563477 128 128 128
37.828125000000 11.054687500000 69.305999755859 162 162 162
38.531250000000 11.453125000000 69.628005981445 224 224 224
38.328125000000 11.335937500000 69.660995483398 45 45 45
39.015625000000 11.726562500000 69.997009277344 135 135 135
37.921875000000 11.085937500000 69.832000732422 171 171 171
37.859375000000 11.039062500000 69.910003662109 158 158 158
37.453125000000 10.804687500000 69.858001708984 169 169 169
37.453125000000 10.781250000000 69.949996948242 235 235 235
37.328125000000 10.710937500000 70.007995605469 131 131 131
37.218750000000 10.648437500000 70.063995361328 147 147 147
37.312500000000 10.695312500000 70.195007324219 151 151 151
37.265625000000 10.671875000000 70.277999877930 199 199 199
38.781250000000 11.539062500000 70.988006591797 181 181 181
38.750000000000 11.515625000000 71.085998535156 184 184 184
38.953125000000 11.632812500000 71.395004272461 104 104 104
38.921875000000 11.609375000000 71.492996215820 170 170 170
39.234375000000 11.773437500000 72.091995239258 96 96 96
39.921875000000 12.171875000000 72.544006347656 69 69 69
39.234375000000 11.750000000000 72.324996948242 178 178 178
39.796875000000 12.093750000000 72.729995727539 161 161 161
39.265625000000 11.773437500000 72.826995849609 137 137 137
39.078125000000 11.640625000000 72.848007202148 141 141 141
38.937500000000 11.546875000000 72.884002685547 152 152 152
39.421875000000 11.820312500000 73.389007568359 95 95 95
39.640625000000 11.929687500000 74.020996093750 86 86 86
39.734375000000 11.976562500000 74.197006225586 12 12 12
39.703125000000 11.968750000000 74.322006225586 38 38 38
38.953125000000 11.828125000000 66.876007080078 19 19 19
40.328125000000 12.585937500000 68.944000244141 35 35 35
40.234375000000 12.500000000000 69.141006469727 18 18 18
38.984375000000 11.750000000000 69.244003295898 85 85 85
38.703125000000 11.585937500000 69.266006469727 83 83 83
40.015625000000 12.335937500000 70.216003417969 72 72 72
39.718750000000 12.109375000000 71.145004272461 13 13 13
39.828125000000 12.125000000000 72.007003784180 110 110 110
39.281250000000 11.789062500000 71.999008178711 31 31 31
39.671875000000 12.007812500000 72.781005859375 12 12 12
39.250000000000 11.757812500000 72.692001342773 81 81 81
39.484375000000 11.875000000000 73.303009033203 18 18 18
39.296875000000 11.757812500000 73.576995849609 53 53 53
40.453125000000 12.500000000000 72.546005249023 27 27 27
38.531250000000 11.250000000000 66.492004394531 14 14 14
38.515625000000 11.242187500000 66.587005615234 87 87 87
38.453125000000 11.195312500000 66.677001953125 110 110 110
38.546875000000 11.242187500000 66.785003662109 23 23 23
39.265625000000 11.679687500000 66.975997924805 57 57 57
38.890625000000 11.460937500000 67.029998779297 33 33 33
38.890625000000 11.460937500000 67.130004882813 99 99 99
39.078125000000 11.562500000000 67.257003784180 14 14 14
38.953125000000 11.429687500000 68.359008789063 72 72 72
38.234375000000 10.984375000000 68.294006347656 180 180 180
38.890625000000 11.343750000000 69.166000366211 28 28 28
39.046875000000 11.445312500000 69.320999145508 171 171 171
38.062500000000 10.851562500000 69.135009765625 126 126 126
38.031250000000 10.828125000000 69.223007202148 132 132 132
38.015625000000 10.820312500000 69.318008422852 141 141 141
38.046875000000 10.835937500000 69.428009033203 139 139 139
38.468750000000 11.023437500000 70.598999023438 150 150 150
38.328125000000 10.945312500000 70.651000976563 128 128 128
38.296875000000 10.929687500000 70.747009277344 167 167 167
39.421875000000 11.562500000000 71.428009033203 41 41 41
39.328125000000 11.515625000000 71.507995605469 135 135 135
39.953125000000 11.875000000000 71.893005371094 97 97 97
39.234375000000 11.445312500000 71.695999145508 146 146 146
39.734375000000 11.734375000000 72.037002563477 110 110 110
39.250000000000 11.429687500000 72.046997070313 36 36 36
39.015625000000 11.296875000000 72.175003051758 152 152 152
38.890625000000 11.218750000000 72.223007202148 132 132 132
38.859375000000 11.187500000000 72.322006225586 128 128 128
39.078125000000 11.296875000000 72.662002563477 134 134 134
40.171875000000 12.109375000000 69.761001586914 5 5 5
37.968750000000 10.750000000000 70.001998901367 69 69 69
38.265625000000 10.906250000000 70.415008544922 98 98 98
40.171875000000 11.992187500000 72.360000610352 91 91 91
40.109375000000 11.882812500000 73.316009521484 78 78 78
39.421875000000 11.484375000000 73.204010009766 20 20 20
39.484375000000 11.500000000000 73.356002807617 17 17 17
40.484375000000 12.109375000000 73.779998779297 50 50 50
39.296875000000 11.328125000000 68.376007080078 32 32 32
39.140625000000 11.195312500000 68.964996337891 16 16 16
38.578125000000 10.773437500000 70.691009521484 16 16 16
40.046875000000 11.609375000000 71.617996215820 220 220 220
39.640625000000 11.523437500000 67.910003662109 10 10 10
38.796875000000 11.000000000000 68.462997436523 95 95 95
40.484375000000 12.000000000000 69.089004516602 20 20 20
38.984375000000 11.015625000000 70.628997802734 25 25 25
38.453125000000 10.703125000000 70.531997680664 67 67 67
38.578125000000 10.773437500000 70.796997070313 17 17 17
38.796875000000 10.890625000000 70.992004394531 76 76 76
38.671875000000 10.875000000000 69.456008911133 19 19 19
40.453125000000 11.875000000000 71.179000854492 7 7 7
