36.562500000000 6.625000000000 10.574996948242 39 39 39
36.687500000000 6.562500000000 10.505996704102 35 35 35
37.484375000000 5.984375000000 15.175003051758 123 123 123
37.609375000000 5.937500000000 15.108001708984 134 134 134
37.171875000000 6.171875000000 14.662002563477 159 159 159
37.234375000000 6.140625000000 14.565994262695 159 159 159
37.546875000000 5.937500000000 14.643997192383 137 137 137
37.296875000000 6.078125000000 14.347000122070 152 152 152
37.359375000000 6.015625000000 14.257995605469 130 130 130
37.296875000000 6.078125000000 14.069992065430 150 150 150
37.390625000000 5.984375000000 14.013992309570 174 174 174
36.953125000000 6.187500000000 12.711990356445 234 234 234
36.593750000000 6.359375000000 12.162994384766 159 159 159
36.406250000000 6.468750000000 11.819000244141 65 65 65
37.875000000000 5.484375000000 10.116989135742 117 117 117
37.171875000000 6.109375000000 13.483001708984 54 54 54
36.890625000000 6.218750000000 12.558990478516 20 20 20
36.500000000000 6.437500000000 12.228988647461 74 74 74
36.406250000000 6.484375000000 11.945999145508 138 138 138
36.000000000000 6.718750000000 11.376998901367 56 56 56
38.546875000000 5.156250000000 11.754989624023 9 9 9
36.375000000000 6.421875000000 10.666992187500 29 29 29
38.421875000000 5.109375000000 9.474990844727 37 37 37
38.515625000000 5.171875000000 11.865997314453 33 33 33
37.468750000000 5.671875000000 15.353988647461 42 42 42
37.468750000000 5.671875000000 15.197998046875 134 134 134
37.343750000000 5.734375000000 14.977996826172 129 129 129
37.343750000000 5.718750000000 14.836990356445 148 148 148
37.468750000000 5.640625000000 14.787002563477 131 131 131
37.531250000000 5.593750000000 14.690002441406 119 119 119
37.593750000000 5.546875000000 14.587997436523 119 119 119
37.500000000000 5.578125000000 14.403991699219 59 59 59
37.187500000000 5.765625000000 13.530990600586 17 17 17
36.546875000000 6.078125000000 12.532989501953 25 25 25
36.671875000000 6.000000000000 12.361999511719 25 25 25
36.234375000000 6.234375000000 11.894989013672 18 18 18
36.296875000000 6.171875000000 11.573989868164 11 11 11
38.015625000000 5.156250000000 12.315994262695 36 36 36
37.062500000000 5.703125000000 11.722991943359 38 38 38
36.453125000000 6.046875000000 11.084991455078 8 8 8
36.812500000000 5.812500000000 10.787994384766 106 106 106
36.968750000000 5.718750000000 10.739990234375 131 131 131
37.453125000000 5.296875000000 15.080001831055 12 12 12
36.296875000000 5.875000000000 12.781997680664 15 15 15
36.078125000000 5.968750000000 12.181991577148 68 68 68
36.375000000000 5.781250000000 12.233993530273 78 78 78
36.531250000000 5.703125000000 12.188003540039 100 100 100
36.468750000000 5.703125000000 12.041000366211 90 90 90
36.140625000000 5.843750000000 11.307998657227 67 67 67
36.531250000000 5.640625000000 11.369995117188 47 47 47
36.437500000000 5.703125000000 11.205993652344 52 52 52
36.468750000000 5.671875000000 11.104995727539 39 39 39
36.250000000000 5.546875000000 12.559997558594 77 77 77
36.281250000000 5.500000000000 12.229995727539 70 70 70
36.515625000000 5.078125000000 12.682998657227 16 16 16
36.515625000000 5.046875000000 12.560989379883 41 41 41
36.296875000000 5.171875000000 12.078994750977 15 15 15
37.312500000000 4.453125000000 8.276992797852 100 100 100
37.281250000000 4.453125000000 8.556991577148 130 130 130
37.437500000000 4.750000000000 8.565002441406 9 9 9
37.109375000000 5.078125000000 8.705001831055 10 10 10
37.906250000000 5.421875000000 8.268997192383 14 14 14
39.531250000000 5.703125000000 3.981002807617 88 88 88
39.500000000000 5.671875000000 4.083999633789 109 109 109
39.500000000000 5.703125000000 4.186996459961 150 150 150
39.500000000000 5.703125000000 4.289993286133 167 167 167
39.500000000000 5.703125000000 4.392990112305 180 180 180
39.500000000000 5.703125000000 4.496002197266 183 183 183
39.468750000000 5.687500000000 4.597991943359 169 169 169
39.500000000000 5.703125000000 4.701995849609 172 172 172
39.500000000000 5.703125000000 4.804992675781 150 150 150
39.500000000000 5.703125000000 4.907989501953 106 106 106
39.531250000000 5.718750000000 5.115997314453 76 76 76
39.500000000000 5.734375000000 5.218994140625 74 74 74
39.531250000000 5.734375000000 5.323989868164 43 43 43
39.468750000000 5.765625000000 8.491989135742 27 27 27
39.562500000000 5.796875000000 8.619003295898 34 34 34
39.593750000000 5.796875000000 8.741989135742 69 69 69
39.687500000000 5.781250000000 8.875991821289 32 32 32
39.500000000000 5.703125000000 5.009994506836 85 85 85
39.531250000000 5.718750000000 5.425003051758 6 6 6
39.531250000000 5.734375000000 5.529998779297 41 41 41
39.531250000000 5.734375000000 5.632995605469 44 44 44
39.437500000000 5.765625000000 8.259994506836 5 5 5
39.468750000000 5.781250000000 8.373001098633 58 58 58
39.515625000000 6.031250000000 4.964996337891 33 33 33
39.578125000000 6.046875000000 5.488998413086 40 40 40
39.046875000000 6.093750000000 7.701995849609 99 99 99
37.046875000000 6.062500000000 7.935989379883 116 116 116
38.421875000000 6.109375000000 9.014999389648 30 30 30
39.296875000000 6.078125000000 7.019989013672 9 9 9
39.359375000000 6.078125000000 7.237991333008 22 22 22
39.328125000000 6.078125000000 7.341003417969 92 92 92
39.296875000000 6.078125000000 7.442001342773 65 65 65
39.296875000000 6.078125000000 7.543991088867 67 67 67
39.296875000000 6.078125000000 7.652999877930 83 83 83
38.890625000000 6.078125000000 7.772003173828 33 33 33
36.984375000000 6.078125000000 7.834991455078 21 21 21
39.421875000000 6.328125000000 5.026000976563 83 83 83
39.640625000000 6.343750000000 5.559997558594 22 22 22
39.640625000000 6.343750000000 5.666000366211 19 19 19
39.531250000000 6.390625000000 7.659988403320 66 66 66
37.000000000000 6.375000000000 8.083999633789 157 157 157
37.593750000000 6.406250000000 8.436996459961 48 48 48
37.031250000000 6.390625000000 8.759002685547 148 148 148
37.437500000000 6.390625000000 8.000991821289 16 16 16
39.156250000000 6.421875000000 8.867996215820 56 56 56
39.031250000000 6.421875000000 8.935989379883 57 57 57
36.906250000000 6.390625000000 8.442001342773 27 27 27
36.875000000000 6.390625000000 8.519989013672 12 12 12
37.031250000000 6.375000000000 8.002990722656 70 70 70
39.062500000000 6.656250000000 4.962997436523 36 36 36
39.218750000000 6.640625000000 5.071990966797 85 85 85
38.375000000000 6.671875000000 7.276000976563 118 118 118
38.031250000000 6.687500000000 7.306991577148 125 125 125
37.968750000000 6.687500000000 7.397003173828 27 27 27
36.406250000000 6.703125000000 8.155990600586 41 41 41
36.937500000000 6.718750000000 8.782989501953 168 168 168
38.937500000000 6.656250000000 6.162994384766 50 50 50
38.343750000000 6.671875000000 7.175003051758 83 83 83
39.375000000000 6.703125000000 8.332000732422 27 27 27
36.500000000000 6.703125000000 7.726989746094 17 17 17
37.718750000000 6.703125000000 8.128997802734 41 41 41
36.531250000000 6.687500000000 7.918991088867 51 51 51
37.187500000000 6.703125000000 8.472991943359 91 91 91
36.343750000000 6.718750000000 8.323989868164 124 124 124
36.437500000000 6.703125000000 8.444000244141 111 111 111
36.750000000000 6.718750000000 8.631988525391 131 131 131
36.937500000000 6.718750000000 8.875000000000 31 31 31
37.000000000000 6.703125000000 9.001998901367 31 31 31
39.171875000000 6.984375000000 5.108001708984 69 69 69
38.609375000000 7.000000000000 6.059997558594 57 57 57
36.953125000000 7.000000000000 6.675994873047 41 41 41
39.015625000000 7.031250000000 7.228988647461 108 108 108
37.703125000000 7.031250000000 7.375000000000 50 50 50
36.109375000000 7.000000000000 7.569000244141 83 83 83
36.359375000000 7.031250000000 7.720993041992 26 26 26
36.484375000000 7.015625000000 7.843002319336 38 38 38
36.515625000000 7.046875000000 8.034988403320 118 118 118
36.359375000000 7.031250000000 8.088989257813 93 93 93
36.234375000000 7.046875000000 8.140991210938 27 27 27
36.828125000000 7.046875000000 8.589996337891 22 22 22
36.703125000000 7.046875000000 8.649993896484 34 34 34
36.968750000000 7.343750000000 6.522003173828 119 119 119
36.968750000000 7.343750000000 6.612991333008 23 23 23
36.968750000000 7.343750000000 6.703994750977 126 126 126
36.937500000000 7.343750000000 6.427001953125 13 13 13
37.156250000000 7.359375000000 7.011001586914 9 9 9
37.250000000000 7.359375000000 7.216995239258 25 25 25
36.406250000000 7.359375000000 7.310989379883 66 66 66
36.281250000000 7.359375000000 7.377990722656 19 19 19
36.656250000000 7.375000000000 7.644989013672 67 67 67
37.250000000000 7.375000000000 7.881988525391 7 7 7
36.281250000000 7.359375000000 7.822998046875 123 123 123
36.250000000000 7.359375000000 7.901000976563 32 32 32
36.343750000000 7.375000000000 8.200988769531 74 74 74
36.343750000000 7.390625000000 8.297988891602 84 84 84
38.125000000000 7.390625000000 9.018997192383 31 31 31
36.843750000000 7.687500000000 7.628997802734 154 154 154
36.843750000000 7.687500000000 7.720001220703 162 162 162
37.062500000000 7.671875000000 6.390991210938 23 23 23
37.062500000000 7.671875000000 6.474990844727 12 12 12
36.625000000000 7.703125000000 7.034988403320 76 76 76
36.375000000000 7.703125000000 7.159988403320 19 19 19
36.468750000000 7.703125000000 7.268997192383 152 152 152
36.468750000000 7.703125000000 7.361999511719 9 9 9
36.656250000000 7.687500000000 7.490997314453 22 22 22
36.781250000000 7.703125000000 7.888000488281 82 82 82
39.718750000000 7.718750000000 8.748992919922 13 13 13
37.500000000000 7.703125000000 8.272003173828 21 21 21
37.500000000000 7.734375000000 9.063995361328 23 23 23
39.781250000000 7.734375000000 8.882995605469 78 78 78
36.765625000000 8.000000000000 6.752990722656 34 34 34
36.796875000000 8.000000000000 6.848999023438 83 83 83
36.734375000000 8.015625000000 7.017990112305 17 17 17
36.671875000000 8.000000000000 7.097991943359 127 127 127
36.609375000000 8.031250000000 7.261993408203 67 67 67
37.953125000000 8.031250000000 7.647994995117 6 6 6
36.484375000000 8.015625000000 7.414001464844 80 80 80
36.640625000000 8.031250000000 7.539001464844 109 109 109
37.734375000000 8.031250000000 8.888000488281 60 60 60
37.703125000000 8.046875000000 9.091003417969 28 28 28
36.703125000000 8.000000000000 6.653991699219 16 16 16
36.718750000000 8.312500000000 7.431991577148 131 131 131
36.750000000000 8.343750000000 8.841003417969 127 127 127
38.718750000000 8.312500000000 7.366989135742 11 11 11
39.062500000000 8.328125000000 7.542999267578 49 49 49
36.781250000000 8.312500000000 7.356002807617 51 51 51
39.718750000000 8.343750000000 8.328002929688 36 36 36
37.062500000000 8.359375000000 8.845993041992 126 126 126
37.343750000000 8.343750000000 8.835998535156 20 20 20
36.765625000000 8.671875000000 8.901000976563 169 169 169
38.062500000000 8.640625000000 7.297988891602 113 113 113
37.906250000000 8.640625000000 7.360000610352 27 27 27
38.000000000000 8.640625000000 7.481994628906 111 111 111
36.875000000000 8.625000000000 7.330993652344 28 28 28
36.906250000000 8.625000000000 7.524993896484 12 12 12
36.718750000000 8.656250000000 7.571990966797 18 18 18
36.937500000000 8.656250000000 8.856002807617 110 110 110
36.937500000000 8.656250000000 9.052001953125 95 95 95
39.093750000000 8.640625000000 7.608001708984 16 16 16
38.171875000000 8.968750000000 7.550994873047 106 106 106
36.859375000000 8.968750000000 7.739990234375 200 200 200
38.078125000000 8.968750000000 7.236999511719 90 90 90
37.953125000000 8.953125000000 7.313995361328 117 117 117
37.984375000000 8.984375000000 7.418991088867 110 110 110
36.859375000000 8.968750000000 7.639999389648 122 122 122
37.140625000000 8.984375000000 7.897994995117 116 116 116
37.890625000000 9.000000000000 8.591995239258 72 72 72
37.609375000000 9.000000000000 8.613998413086 58 58 58
37.203125000000 8.984375000000 8.587997436523 24 24 24
37.265625000000 8.984375000000 8.700988769531 107 107 107
37.281250000000 4.484375000000 8.412002563477 51 51 51
37.265625000000 5.140625000000 8.975997924805 137 137 137
37.203125000000 5.171875000000 8.847991943359 93 93 93
37.328125000000 5.109375000000 8.768997192383 39 39 39
37.281250000000 5.812500000000 8.720993041992 29 29 29
36.109375000000 6.781250000000 8.125000000000 12 12 12
36.875000000000 6.312500000000 8.024002075195 30 30 30
36.812500000000 6.343750000000 7.902999877930 14 14 14
36.109375000000 7.093750000000 8.282989501953 166 166 166
36.640625000000 6.796875000000 8.541992187500 94 94 94
36.265625000000 6.984375000000 8.235992431641 76 76 76
36.875000000000 6.625000000000 8.082992553711 24 24 24
36.812500000000 6.640625000000 7.861999511719 13 13 13
36.109375000000 7.046875000000 7.585998535156 135 135 135
36.218750000000 7.296875000000 7.580001831055 25 25 25
38.546875000000 5.921875000000 8.009994506836 47 47 47
37.015625000000 6.890625000000 9.047988891602 35 35 35
36.828125000000 7.000000000000 8.880996704102 14 14 14
36.953125000000 6.937500000000 8.809997558594 41 41 41
36.734375000000 7.046875000000 8.640991210938 24 24 24
36.343750000000 7.234375000000 8.116989135742 112 112 112
36.250000000000 7.281250000000 7.893997192383 51 51 51
38.296875000000 6.078125000000 8.065002441406 63 63 63
37.046875000000 7.218750000000 9.102996826172 14 14 14
36.468750000000 7.515625000000 8.297988891602 159 159 159
36.625000000000 7.375000000000 7.619003295898 75 75 75
36.375000000000 7.515625000000 7.463989257813 141 141 141
36.406250000000 7.484375000000 7.369003295898 118 118 118
36.500000000000 7.421875000000 7.291992187500 156 156 156
36.468750000000 7.421875000000 7.179992675781 137 137 137
39.468750000000 5.437500000000 3.957000732422 54 54 54
36.406250000000 7.546875000000 8.487991333008 11 11 11
36.468750000000 7.515625000000 8.401000976563 45 45 45
36.562500000000 7.453125000000 8.222000122070 127 127 127
36.437500000000 7.500000000000 8.087997436523 164 164 164
36.718750000000 7.343750000000 8.061996459961 65 65 65
36.843750000000 7.250000000000 7.882995605469 51 51 51
36.593750000000 7.390625000000 7.718994140625 95 95 95
36.859375000000 7.156250000000 6.744995117188 9 9 9
36.437500000000 7.453125000000 7.076995849609 76 76 76
39.000000000000 6.421875000000 9.039993286133 50 50 50
36.750000000000 7.671875000000 7.989990234375 105 105 105
39.109375000000 6.296875000000 8.466995239258 95 95 95
39.140625000000 6.296875000000 8.351989746094 93 93 93
39.171875000000 6.265625000000 8.235992431641 107 107 107
36.359375000000 7.875000000000 7.487991333008 152 152 152
36.484375000000 7.796875000000 7.416992187500 134 134 134
36.484375000000 7.765625000000 7.315002441406 107 107 107
36.453125000000 7.796875000000 7.207992553711 22 22 22
36.687500000000 7.656250000000 7.151000976563 178 178 178
38.500000000000 6.578125000000 7.167999267578 137 137 137
37.000000000000 7.437500000000 6.802993774414 79 79 79
37.000000000000 7.437500000000 6.694000244141 104 104 104
36.968750000000 7.453125000000 6.586990356445 107 107 107
36.937500000000 7.468750000000 6.481994628906 132 132 132
36.937500000000 7.468750000000 6.375991821289 99 99 99
39.265625000000 6.078125000000 6.591995239258 187 187 187
39.296875000000 6.078125000000 6.473999023438 179 179 179
39.296875000000 6.062500000000 6.356994628906 201 201 201
39.265625000000 6.078125000000 6.235000610352 153 153 153
39.296875000000 6.031250000000 6.121994018555 172 172 172
39.328125000000 6.015625000000 6.003997802734 198 198 198
39.328125000000 6.015625000000 5.888000488281 191 191 191
39.359375000000 5.984375000000 5.772003173828 186 186 186
39.468750000000 5.890625000000 5.302993774414 176 176 176
39.468750000000 5.890625000000 5.184997558594 178 178 178
39.500000000000 5.859375000000 5.067001342773 197 197 197
39.500000000000 5.859375000000 4.947998046875 149 149 149
39.468750000000 5.843750000000 4.828994750977 169 169 169
39.531250000000 5.843750000000 4.710998535156 147 147 147
39.531250000000 5.812500000000 4.591995239258 147 147 147
39.531250000000 5.812500000000 4.472000122070 112 112 112
39.562500000000 5.796875000000 4.352996826172 83 83 83
39.593750000000 5.750000000000 4.233001708984 62 62 62
39.593750000000 5.750000000000 4.112991333008 42 42 42
39.625000000000 5.718750000000 3.992996215820 30 30 30
37.062500000000 7.546875000000 8.927001953125 26 26 26
39.062500000000 6.390625000000 8.934997558594 110 110 110
36.718750000000 7.703125000000 8.084991455078 93 93 93
39.078125000000 6.343750000000 8.576995849609 112 112 112
39.171875000000 6.250000000000 8.000000000000 29 29 29
39.203125000000 6.203125000000 7.888000488281 41 41 41
39.359375000000 6.109375000000 7.798995971680 81 81 81
39.265625000000 6.171875000000 7.656997680664 34 34 34
36.593750000000 7.703125000000 7.033996582031 184 184 184
38.921875000000 6.328125000000 7.125000000000 90 90 90
39.265625000000 6.109375000000 7.067993164063 107 107 107
39.296875000000 6.093750000000 6.949996948242 129 129 129
39.296875000000 6.078125000000 6.830993652344 55 55 55
39.265625000000 6.109375000000 6.705993652344 93 93 93
39.359375000000 5.968750000000 5.652999877930 139 139 139
39.421875000000 5.921875000000 5.419998168945 128 128 128
39.109375000000 6.343750000000 8.699996948242 21 21 21
37.500000000000 7.640625000000 9.102996826172 189 189 189
37.625000000000 7.562500000000 9.026992797852 28 28 28
36.671875000000 8.109375000000 8.418991088867 19 19 19
36.671875000000 8.062500000000 8.006988525391 14 14 14
37.500000000000 7.578125000000 8.108001708984 108 108 108
37.656250000000 7.500000000000 8.035995483398 47 47 47
36.734375000000 8.000000000000 7.611999511719 177 177 177
36.640625000000 8.046875000000 7.486999511719 83 83 83
36.734375000000 7.984375000000 7.406997680664 30 30 30
36.609375000000 8.062500000000 7.276992797852 125 125 125
36.578125000000 8.078125000000 7.166992187500 154 154 154
36.640625000000 8.031250000000 7.078994750977 123 123 123
36.796875000000 7.937500000000 7.002990722656 9 9 9
36.703125000000 7.968750000000 6.884002685547 106 106 106
36.671875000000 8.000000000000 6.780990600586 50 50 50
39.187500000000 6.515625000000 7.095001220703 93 93 93
39.640625000000 6.250000000000 7.048995971680 28 28 28
39.453125000000 6.328125000000 6.655990600586 26 26 26
38.937500000000 6.593750000000 6.239990234375 41 41 41
39.359375000000 6.312500000000 5.220001220703 7 7 7
36.515625000000 8.171875000000 8.277999877930 72 72 72
36.312500000000 8.296875000000 8.017990112305 19 19 19
39.734375000000 6.265625000000 8.164993286133 35 35 35
39.703125000000 6.281250000000 8.035995483398 9 9 9
39.484375000000 6.359375000000 7.626998901367 19 19 19
36.750000000000 8.390625000000 8.927993774414 189 189 189
36.843750000000 8.328125000000 8.850997924805 208 208 208
36.968750000000 8.234375000000 8.675003051758 143 143 143
36.812500000000 8.312500000000 8.418991088867 158 158 158
36.656250000000 8.406250000000 8.268997192383 127 127 127
37.453125000000 7.921875000000 8.381988525391 29 29 29
37.015625000000 8.156250000000 8.047988891602 178 178 178
37.484375000000 7.906250000000 8.052993774414 118 118 118
37.421875000000 7.921875000000 7.935989379883 139 139 139
36.937500000000 8.203125000000 7.710998535156 149 149 149
36.906250000000 8.218750000000 7.600997924805 22 22 22
36.687500000000 8.343750000000 7.447998046875 149 149 149
36.687500000000 8.328125000000 7.349990844727 86 86 86
39.656250000000 6.609375000000 7.845993041992 45 45 45
39.046875000000 6.921875000000 7.251998901367 119 119 119
39.781250000000 6.468750000000 7.138992309570 23 23 23
38.765625000000 7.000000000000 6.166000366211 34 34 34
39.656250000000 6.468750000000 5.664001464844 30 30 30
39.281250000000 6.640625000000 5.044998168945 14 14 14
36.875000000000 8.625000000000 9.138000488281 172 172 172
36.843750000000 8.625000000000 9.029998779297 196 196 196
36.937500000000 8.593750000000 8.945999145508 209 209 209
36.843750000000 8.625000000000 8.813003540039 192 192 192
36.968750000000 8.531250000000 8.748001098633 230 230 230
37.343750000000 8.328125000000 8.748992919922 209 209 209
36.703125000000 8.687500000000 8.460998535156 139 139 139
36.703125000000 8.671875000000 8.358001708984 162 162 162
36.781250000000 8.640625000000 8.263992309570 156 156 156
36.750000000000 8.656250000000 8.154998779297 181 181 181
36.875000000000 8.578125000000 8.078994750977 97 97 97
36.812500000000 8.593750000000 7.964996337891 180 180 180
36.750000000000 8.640625000000 7.838989257813 159 159 159
36.750000000000 8.625000000000 7.737991333008 190 190 190
36.781250000000 8.593750000000 7.639999389648 115 115 115
36.906250000000 8.500000000000 7.569992065430 166 166 166
36.843750000000 8.531250000000 7.447998046875 188 188 188
36.968750000000 8.453125000000 7.373001098633 233 233 233
37.000000000000 8.421875000000 7.276992797852 8 8 8
38.921875000000 7.296875000000 7.304992675781 97 97 97
39.140625000000 7.015625000000 5.114990234375 34 34 34
39.750000000000 6.843750000000 7.947998046875 14 14 14
38.343750000000 7.656250000000 7.541992187500 73 73 73
36.984375000000 8.875000000000 9.131988525391 150 150 150
36.984375000000 8.843750000000 9.024993896484 170 170 170
37.468750000000 8.578125000000 9.067993164063 178 178 178
37.015625000000 8.828125000000 8.822998046875 189 189 189
36.984375000000 8.828125000000 8.705993652344 206 206 206
37.171875000000 8.718750000000 8.651992797852 251 251 251
37.203125000000 8.703125000000 8.555999755859 105 105 105
37.109375000000 8.750000000000 8.420989990234 157 157 157
37.250000000000 8.656250000000 8.345993041992 174 174 174
37.312500000000 8.609375000000 8.145996093750 66 66 66
37.109375000000 8.734375000000 7.988998413086 201 201 201
36.859375000000 8.859375000000 7.821990966797 160 160 160
36.796875000000 8.906250000000 7.697998046875 115 115 115
37.843750000000 8.265625000000 7.839996337891 38 38 38
37.984375000000 8.187500000000 7.753997802734 58 58 58
37.921875000000 8.218750000000 7.629989624023 10 10 10
37.187500000000 8.640625000000 7.259994506836 49 49 49
38.843750000000 7.671875000000 7.470001220703 119 119 119
38.843750000000 7.656250000000 7.589996337891 42 42 42
37.640625000000 8.812500000000 9.056991577148 56 56 56
37.484375000000 8.859375000000 8.897994995117 181 181 181
37.234375000000 9.015625000000 8.713989257813 143 143 143
37.484375000000 8.859375000000 8.668991088867 158 158 158
37.578125000000 8.812500000000 8.584991455078 165 165 165
38.250000000000 8.421875000000 8.660995483398 50 50 50
39.265625000000 7.828125000000 8.810989379883 207 207 207
37.296875000000 8.953125000000 8.074996948242 66 66 66
37.171875000000 9.015625000000 7.938003540039 205 205 205
37.390625000000 8.859375000000 7.881988525391 187 187 187
37.203125000000 8.968750000000 7.735992431641 85 85 85
37.875000000000 8.562500000000 7.330001831055 137 137 137
37.843750000000 8.562500000000 7.214996337891 108 108 108
38.890625000000 8.000000000000 8.474990844727 150 150 150
37.796875000000 9.031250000000 8.572998046875 245 245 245
37.703125000000 9.078125000000 8.438003540039 186 186 186
37.734375000000 9.046875000000 8.334991455078 34 34 34
37.828125000000 8.984375000000 8.253997802734 246 246 246
39.078125000000 8.265625000000 8.444992065430 131 131 131
37.859375000000 8.937500000000 8.032989501953 139 139 139
37.703125000000 9.031250000000 7.889999389648 62 62 62
37.734375000000 9.000000000000 7.787994384766 44 44 44
37.796875000000 8.953125000000 7.690002441406 20 20 20
37.953125000000 8.859375000000 7.498001098633 76 76 76
37.921875000000 8.859375000000 7.384002685547 128 128 128
37.953125000000 8.843750000000 7.276992797852 153 153 153
38.078125000000 8.765625000000 7.190994262695 152 152 152
37.828125000000 8.906250000000 7.033996582031 51 51 51
39.234375000000 8.171875000000 8.724990844727 130 130 130
38.234375000000 9.078125000000 8.638000488281 88 88 88
38.328125000000 9.015625000000 8.545989990234 136 136 136
39.406250000000 8.359375000000 8.591003417969 132 132 132
39.609375000000 8.250000000000 8.516998291016 109 109 109
37.906250000000 9.218750000000 7.989990234375 41 41 41
38.640625000000 8.781250000000 7.697998046875 128 128 128
38.171875000000 9.046875000000 7.485000610352 157 157 157
38.359375000000 8.921875000000 7.412002563477 143 143 143
38.296875000000 8.953125000000 7.287994384766 38 38 38
38.296875000000 8.937500000000 7.177001953125 88 88 88
38.359375000000 8.984375000000 8.438003540039 221 221 221
39.609375000000 8.250000000000 8.389999389648 16 16 16
39.437500000000 8.687500000000 8.789993286133 72 72 72
39.812500000000 8.437500000000 8.509002685547 62 62 62
38.546875000000 9.140625000000 7.511001586914 164 164 164
38.453125000000 9.187500000000 7.376998901367 165 165 165
38.515625000000 9.125000000000 7.279998779297 158 158 158
38.421875000000 9.171875000000 7.142990112305 102 102 102
38.453125000000 9.156250000000 7.037002563477 12 12 12
39.468750000000 8.656250000000 8.670989990234 121 121 121
39.375000000000 8.687500000000 8.526992797852 139 139 139
39.750000000000 8.453125000000 8.244995117188 33 33 33
39.718750000000 8.468750000000 8.364990234375 42 42 42
39.171875000000 9.046875000000 7.468002319336 129 129 129
38.984375000000 9.171875000000 7.310989379883 138 138 138
39.421875000000 8.968750000000 8.616989135742 61 61 61
39.421875000000 8.968750000000 8.369995117188 21 21 21
39.500000000000 5.484375000000 3.908996582031 171 171 171
39.531250000000 5.500000000000 4.027999877930 178 178 178
39.593750000000 5.531250000000 4.145996093750 154 154 154
39.625000000000 5.531250000000 4.265991210938 114 114 114
39.656250000000 5.562500000000 4.384994506836 47 47 47
39.531250000000 5.812500000000 4.557998657227 26 26 26
39.500000000000 5.765625000000 4.675994873047 81 81 81
39.500000000000 5.765625000000 4.795989990234 131 131 131
39.500000000000 5.796875000000 4.914993286133 167 167 167
39.500000000000 5.796875000000 5.033996582031 195 195 195
39.500000000000 5.765625000000 5.152999877930 186 186 186
39.531250000000 5.781250000000 5.272994995117 202 202 202
39.500000000000 5.765625000000 5.391998291016 178 178 178
39.531250000000 5.781250000000 5.511001586914 147 147 147
39.562500000000 5.796875000000 5.631988525391 86 86 86
39.500000000000 5.734375000000 5.985992431641 5 5 5
39.531250000000 5.765625000000 6.227996826172 47 47 47
39.562500000000 5.781250000000 6.352996826172 28 28 28
39.625000000000 5.828125000000 6.481994628906 64 64 64
39.781250000000 5.890625000000 6.616989135742 26 26 26
39.093750000000 5.484375000000 7.362991333008 24 24 24
39.625000000000 5.781250000000 8.808990478516 68 68 68
37.359375000000 4.390625000000 8.354995727539 126 126 126
37.390625000000 4.406250000000 8.468994140625 135 135 135
37.406250000000 4.437500000000 8.589996337891 84 84 84
39.687500000000 5.812500000000 8.948989868164 18 18 18
39.515625000000 6.109375000000 5.091995239258 24 24 24
39.671875000000 6.187500000000 5.578002929688 42 42 42
39.359375000000 5.984375000000 5.914993286133 122 122 122
39.359375000000 5.984375000000 6.031997680664 141 141 141
39.359375000000 5.984375000000 6.151000976563 156 156 156
39.359375000000 5.984375000000 6.270996093750 182 182 182
39.359375000000 5.984375000000 6.389999389648 182 182 182
39.359375000000 5.968750000000 6.507995605469 162 162 162
39.359375000000 5.968750000000 6.626998901367 157 157 157
39.359375000000 5.968750000000 6.748001098633 134 134 134
39.359375000000 5.968750000000 6.866989135742 158 158 158
39.390625000000 5.968750000000 6.987991333008 131 131 131
39.390625000000 5.984375000000 7.112991333008 90 90 90
39.453125000000 5.984375000000 7.237991333008 33 33 33
39.421875000000 5.984375000000 7.720001220703 19 19 19
39.421875000000 5.984375000000 7.841003417969 125 125 125
39.453125000000 6.000000000000 7.966995239258 134 134 134
39.796875000000 6.187500000000 8.153991699219 107 107 107
37.187500000000 4.640625000000 8.583999633789 152 152 152
37.312500000000 4.687500000000 8.722000122070 166 166 166
37.312500000000 4.687500000000 8.835998535156 11 11 11
39.750000000000 6.531250000000 5.766998291016 33 33 33
39.234375000000 6.203125000000 6.317001342773 38 38 38
39.500000000000 6.406250000000 6.707992553711 16 16 16
39.296875000000 6.250000000000 6.918991088867 58 58 58
39.296875000000 6.250000000000 7.037994384766 28 28 28
39.546875000000 6.375000000000 7.677993774414 16 16 16
39.109375000000 6.125000000000 7.720993041992 103 103 103
39.109375000000 6.125000000000 7.839996337891 185 185 185
39.234375000000 6.187500000000 7.983001708984 191 191 191
39.234375000000 6.171875000000 8.103988647461 134 134 134
39.265625000000 6.203125000000 8.229995727539 62 62 62
38.406250000000 5.671875000000 8.154998779297 165 165 165
38.156250000000 5.562500000000 8.220001220703 13 13 13
37.890625000000 5.343750000000 8.371002197266 20 20 20
37.765625000000 5.296875000000 8.457992553711 36 36 36
37.078125000000 4.875000000000 8.606002807617 126 126 126
37.234375000000 4.984375000000 8.757995605469 109 109 109
37.078125000000 4.875000000000 8.825988769531 109 109 109
37.078125000000 4.875000000000 8.930999755859 90 90 90
39.234375000000 6.171875000000 8.466003417969 16 16 16
39.250000000000 6.609375000000 5.080993652344 84 84 84
39.000000000000 6.421875000000 6.231002807617 53 53 53
38.921875000000 6.343750000000 7.151992797852 97 97 97
38.484375000000 6.046875000000 8.113998413086 171 171 171
39.406250000000 6.609375000000 8.445999145508 24 24 24
39.015625000000 6.359375000000 8.953002929688 45 45 45
38.953125000000 6.312500000000 9.052993774414 58 58 58
37.406250000000 5.390625000000 8.750991821289 26 26 26
37.171875000000 5.265625000000 8.796997070313 100 100 100
38.906250000000 6.718750000000 5.000991821289 47 47 47
39.203125000000 6.906250000000 5.127990722656 12 12 12
38.968750000000 6.718750000000 6.158996582031 24 24 24
38.625000000000 6.531250000000 7.154998779297 112 112 112
38.687500000000 6.546875000000 7.277999877930 39 39 39
38.015625000000 6.093750000000 8.281997680664 21 21 21
37.218750000000 5.640625000000 8.852996826172 100 100 100
37.281250000000 5.656250000000 8.976989746094 111 111 111
38.609375000000 6.906250000000 5.033996582031 27 27 27
38.734375000000 6.937500000000 6.180999755859 17 17 17
38.500000000000 6.765625000000 7.177993774414 160 160 160
38.406250000000 6.703125000000 7.276000976563 93 93 93
38.406250000000 6.703125000000 7.388000488281 47 47 47
37.843750000000 6.359375000000 8.287994384766 153 153 153
37.765625000000 6.312500000000 8.380996704102 87 87 87
38.359375000000 7.062500000000 5.080001831055 21 21 21
38.875000000000 7.312500000000 7.300003051758 15 15 15
38.734375000000 7.250000000000 7.388000488281 98 98 98
38.078125000000 6.859375000000 7.386001586914 43 43 43
38.046875000000 6.828125000000 7.944992065430 66 66 66
36.921875000000 6.125000000000 7.802001953125 27 27 27
36.984375000000 6.156250000000 7.916000366211 208 208 208
36.921875000000 6.156250000000 8.013992309570 162 162 162
36.984375000000 6.156250000000 8.130996704102 190 190 190
37.015625000000 6.187500000000 8.248001098633 207 207 207
38.171875000000 6.906250000000 8.082992553711 40 40 40
38.140625000000 7.234375000000 5.136993408203 16 16 16
38.843750000000 7.625000000000 7.360992431641 52 52 52
38.781250000000 7.593750000000 7.466995239258 150 150 150
37.859375000000 7.046875000000 7.414993286133 157 157 157
37.671875000000 6.906250000000 7.813995361328 15 15 15
37.671875000000 6.906250000000 7.925003051758 130 130 130
36.968750000000 6.484375000000 7.875991821289 120 120 120
36.937500000000 6.468750000000 7.968002319336 21 21 21
36.875000000000 6.437500000000 8.065994262695 133 133 133
36.937500000000 6.453125000000 8.184997558594 135 135 135
37.343750000000 6.687500000000 8.391998291016 101 101 101
37.312500000000 6.656250000000 8.489990234375 145 145 145
36.875000000000 6.406250000000 8.485000610352 84 84 84
39.796875000000 8.156250000000 8.518997192383 34 34 34
39.640625000000 8.062500000000 8.608993530273 119 119 119
39.296875000000 7.875000000000 8.656997680664 16 16 16
39.578125000000 8.031250000000 8.838989257813 35 35 35
37.125000000000 6.578125000000 8.660995483398 70 70 70
37.125000000000 6.578125000000 8.774002075195 16 16 16
37.031250000000 6.500000000000 8.849990844727 10 10 10
37.812500000000 7.359375000000 5.188003540039 5 5 5
38.828125000000 7.921875000000 7.313995361328 20 20 20
38.765625000000 7.875000000000 7.418991088867 52 52 52
37.578125000000 7.171875000000 7.313003540039 32 32 32
38.343750000000 7.609375000000 7.565002441406 48 48 48
37.453125000000 7.078125000000 7.612991333008 72 72 72
36.625000000000 6.578125000000 7.750000000000 50 50 50
39.046875000000 8.015625000000 8.418991088867 137 137 137
36.875000000000 6.718750000000 8.016998291016 129 129 129
36.906250000000 6.750000000000 8.126998901367 136 136 136
36.953125000000 6.781250000000 8.250000000000 95 95 95
36.843750000000 6.718750000000 8.324996948242 145 145 145
38.828125000000 7.875000000000 8.961990356445 38 38 38
36.468750000000 6.500000000000 8.438995361328 173 173 173
39.781250000000 8.437500000000 8.461990356445 16 16 16
39.203125000000 8.109375000000 8.698989868164 35 35 35
39.328125000000 8.187500000000 8.852996826172 75 75 75
39.234375000000 8.109375000000 8.953002929688 19 19 19
36.656250000000 6.609375000000 8.593002319336 137 137 137
36.875000000000 6.718750000000 8.864990234375 27 27 27
37.046875000000 7.187500000000 6.746994018555 11 11 11
37.109375000000 7.234375000000 6.860000610352 49 49 49
37.109375000000 7.218750000000 6.960998535156 33 33 33
37.078125000000 7.203125000000 7.061996459961 41 41 41
37.171875000000 7.250000000000 7.184997558594 10 10 10
37.140625000000 7.234375000000 7.285995483398 143 143 143
39.312500000000 8.515625000000 7.811996459961 59 59 59
38.140625000000 7.828125000000 7.811996459961 79 79 79
37.531250000000 7.453125000000 7.791992187500 89 89 89
36.734375000000 6.953125000000 8.659988403320 237 237 237
37.781250000000 7.593750000000 9.075988769531 184 184 184
39.218750000000 8.468750000000 7.317001342773 19 19 19
38.890625000000 8.250000000000 7.494995117188 86 86 86
39.250000000000 8.484375000000 7.681991577148 46 46 46
37.406250000000 7.390625000000 7.876998901367 190 190 190
37.406250000000 7.359375000000 7.979995727539 18 18 18
36.343750000000 6.734375000000 8.141998291016 71 71 71
36.484375000000 6.828125000000 8.289001464844 36 36 36
36.546875000000 6.843750000000 8.399993896484 23 23 23
36.703125000000 6.937500000000 8.550994873047 186 186 186
37.093750000000 7.562500000000 6.582992553711 96 96 96
37.125000000000 7.578125000000 6.692001342773 100 100 100
37.031250000000 7.531250000000 6.781997680664 77 77 77
39.296875000000 8.843750000000 7.252990722656 58 58 58
39.093750000000 8.734375000000 7.459991455078 115 115 115
39.093750000000 8.734375000000 7.578994750977 111 111 111
36.593750000000 7.265625000000 7.222991943359 76 76 76
36.625000000000 7.281250000000 7.328002929688 76 76 76
38.015625000000 8.078125000000 7.714996337891 33 33 33
37.312500000000 7.671875000000 7.782989501953 155 155 155
37.312500000000 7.625000000000 9.091003417969 168 168 168
37.156250000000 7.593750000000 6.382995605469 71 71 71
37.125000000000 7.593750000000 6.483993530273 123 123 123
39.265625000000 8.828125000000 7.369003295898 46 46 46
38.937500000000 8.640625000000 7.664001464844 17 17 17
37.859375000000 7.984375000000 7.791000366211 41 41 41
36.171875000000 6.984375000000 7.636993408203 177 177 177
36.453125000000 7.156250000000 7.800994873047 176 176 176
36.484375000000 7.156250000000 8.013000488281 98 98 98
36.203125000000 6.984375000000 8.044998168945 79 79 79
36.109375000000 6.937500000000 8.123001098633 97 97 97
36.015625000000 6.875000000000 8.194000244141 112 112 112
36.078125000000 6.906250000000 8.315994262695 75 75 75
37.093750000000 7.515625000000 9.131988525391 188 188 188
37.390625000000 8.015625000000 9.039993286133 177 177 177
37.203125000000 7.921875000000 9.101989746094 134 134 134
38.984375000000 9.015625000000 7.244003295898 80 80 80
38.984375000000 9.031250000000 7.365997314453 95 95 95
36.656250000000 7.625000000000 7.058990478516 33 33 33
36.593750000000 7.578125000000 7.149002075195 73 73 73
37.906250000000 8.359375000000 7.621002197266 79 79 79
37.718750000000 8.234375000000 9.030990600586 23 23 23
38.500000000000 8.718750000000 7.389999389648 69 69 69
38.796875000000 8.906250000000 7.563995361328 25 25 25
36.218750000000 7.359375000000 7.780990600586 75 75 75
36.406250000000 7.453125000000 8.131988525391 34 34 34
36.437500000000 7.468750000000 8.341003417969 14 14 14
37.187500000000 8.562500000000 8.638992309570 21 21 21
37.125000000000 8.562500000000 7.235000610352 21 21 21
36.718750000000 8.593750000000 8.458999633789 54 54 54
36.718750000000 8.625000000000 7.726989746094 27 27 27
36.890625000000 8.718750000000 7.662002563477 101 101 101
39.265625000000 9.203125000000 7.468994140625 139 139 139
39.156250000000 9.265625000000 7.332992553711 118 118 118
39.265625000000 9.203125000000 7.229995727539 81 81 81
39.687500000000 8.750000000000 8.834991455078 40 40 40
39.359375000000 8.921875000000 8.630996704102 144 144 144
39.328125000000 8.921875000000 8.503997802734 68 68 68
39.875000000000 8.609375000000 8.382995605469 34 34 34
38.656250000000 9.250000000000 7.291000366211 176 176 176
39.906250000000 8.593750000000 8.518997192383 21 21 21
38.640625000000 9.031250000000 8.530990600586 217 217 217
39.781250000000 8.343750000000 8.444000244141 53 53 53
38.578125000000 9.031250000000 7.813995361328 47 47 47
38.859375000000 8.843750000000 7.640991210938 146 146 146
38.515625000000 9.031250000000 7.457000732422 159 159 159
38.390625000000 9.093750000000 7.317993164063 107 107 107
38.484375000000 9.062500000000 7.220001220703 142 142 142
38.421875000000 9.062500000000 7.097991943359 38 38 38
38.546875000000 9.093750000000 8.616989135742 123 123 123
39.250000000000 8.671875000000 8.563003540039 147 147 147
38.078125000000 9.078125000000 8.800003051758 131 131 131
37.859375000000 9.171875000000 8.518997192383 141 141 141
39.312500000000 8.328125000000 8.783996582031 151 151 151
38.234375000000 8.953125000000 8.390991210938 208 208 208
38.078125000000 9.015625000000 8.239990234375 167 167 167
37.859375000000 9.156250000000 8.069000244141 169 169 169
37.781250000000 9.187500000000 7.944992065430 108 108 108
37.781250000000 9.187500000000 7.828994750977 122 122 122
37.828125000000 9.156250000000 7.727996826172 33 33 33
38.046875000000 9.015625000000 7.557998657227 100 100 100
38.015625000000 9.015625000000 7.435989379883 153 153 153
37.953125000000 9.046875000000 7.313995361328 159 159 159
38.109375000000 8.937500000000 7.235992431641 160 160 160
37.921875000000 9.062500000000 7.089996337891 131 131 131
37.984375000000 9.140625000000 8.893997192383 55 55 55
37.703125000000 8.984375000000 8.643997192383 121 121 121
37.578125000000 9.046875000000 8.500000000000 124 124 124
38.078125000000 8.765625000000 8.524002075195 44 44 44
39.015625000000 8.203125000000 8.647994995117 194 194 194
39.015625000000 8.203125000000 8.531997680664 211 211 211
37.484375000000 9.078125000000 7.927001953125 203 203 203
37.421875000000 9.109375000000 7.802993774414 101 101 101
37.828125000000 8.828125000000 7.459991455078 132 132 132
37.921875000000 8.750000000000 7.369995117188 188 188 188
37.859375000000 8.796875000000 7.244003295898 10 10 10
37.796875000000 8.812500000000 7.125991821289 88 88 88
37.796875000000 8.812500000000 7.018997192383 26 26 26
37.578125000000 9.062500000000 8.723999023438 132 132 132
37.484375000000 8.859375000000 9.063003540039 146 146 146
37.359375000000 8.953125000000 8.904998779297 171 171 171
37.234375000000 8.984375000000 8.764999389648 169 169 169
37.515625000000 8.843750000000 8.736999511719 182 182 182
37.968750000000 8.562500000000 8.632995605469 92 92 92
38.671875000000 8.140625000000 8.710998535156 36 36 36
38.546875000000 8.218750000000 8.557998657227 197 197 197
37.265625000000 8.921875000000 8.123992919922 217 217 217
37.140625000000 9.000000000000 7.981002807617 183 183 183
38.453125000000 8.234375000000 8.186996459961 90 90 90
38.406250000000 8.250000000000 8.065994262695 35 35 35
38.000000000000 8.484375000000 7.744003295898 30 30 30
37.812500000000 8.562500000000 7.598999023438 13 13 13
38.984375000000 7.890625000000 7.608993530273 22 22 22
37.906250000000 8.500000000000 7.282989501953 181 181 181
38.796875000000 7.968750000000 7.341003417969 39 39 39
36.953125000000 8.890625000000 9.037994384766 168 168 168
37.437500000000 8.609375000000 9.082992553711 151 151 151
36.984375000000 8.843750000000 8.837997436523 185 185 185
37.265625000000 8.687500000000 8.811996459961 176 176 176
37.312500000000 8.671875000000 8.595001220703 98 98 98
37.140625000000 8.765625000000 8.445999145508 160 160 160
37.171875000000 8.718750000000 8.348999023438 144 144 144
37.781250000000 8.359375000000 8.399002075195 129 129 129
37.171875000000 8.703125000000 8.136001586914 85 85 85
37.140625000000 8.703125000000 8.024993896484 193 193 193
36.828125000000 8.906250000000 7.837997436523 143 143 143
36.890625000000 8.843750000000 7.649002075195 175 175 175
38.015625000000 8.203125000000 7.789993286133 13 13 13
37.109375000000 8.703125000000 7.376998901367 27 27 27
37.109375000000 8.703125000000 7.272994995117 38 38 38
38.781250000000 7.718750000000 7.490997314453 132 132 132
38.812500000000 7.687500000000 7.376998901367 51 51 51
38.812500000000 7.703125000000 7.610000610352 46 46 46
36.875000000000 8.656250000000 9.067001342773 170 170 170
36.875000000000 8.656250000000 8.856994628906 191 191 191
37.375000000000 8.343750000000 8.789993286133 236 236 236
36.671875000000 8.750000000000 8.481994628906 151 151 151
36.734375000000 8.687500000000 8.399993896484 151 151 151
36.812500000000 8.625000000000 8.317001342773 153 153 153
37.031250000000 8.515625000000 8.263992309570 157 157 157
36.906250000000 8.562500000000 8.125000000000 134 134 134
36.875000000000 8.593750000000 8.013992309570 186 186 186
37.468750000000 8.234375000000 8.054000854492 98 98 98
36.812500000000 8.593750000000 7.791992187500 209 209 209
36.906250000000 8.546875000000 7.705993652344 129 129 129
36.875000000000 8.562500000000 7.599990844727 151 151 151
36.843750000000 8.562500000000 7.485000610352 132 132 132
36.812500000000 8.562500000000 7.379989624023 91 91 91
38.343750000000 7.703125000000 7.582000732422 83 83 83
38.468750000000 7.609375000000 7.498001098633 85 85 85
38.687500000000 7.468750000000 7.423995971680 51 51 51
38.875000000000 7.343750000000 7.345993041992 92 92 92
39.750000000000 6.718750000000 5.800994873047 28 28 28
39.515625000000 7.062500000000 8.554992675781 94 94 94
36.718750000000 8.406250000000 8.895996093750 164 164 164
37.000000000000 8.218750000000 8.879989624023 208 208 208
38.375000000000 7.453125000000 9.054000854492 5 5 5
37.265625000000 8.078125000000 8.627990722656 51 51 51
36.593750000000 8.468750000000 8.332000732422 163 163 163
36.500000000000 8.484375000000 8.203994750977 103 103 103
37.515625000000 7.890625000000 8.367996215820 113 113 113
37.078125000000 8.140625000000 8.149002075195 132 132 132
36.937500000000 8.218750000000 8.011993408203 165 165 165
37.140625000000 8.109375000000 7.949996948242 169 169 169
36.875000000000 8.218750000000 7.787994384766 137 137 137
36.937500000000 8.203125000000 7.694000244141 106 106 106
36.687500000000 8.343750000000 7.531997680664 116 116 116
36.750000000000 8.312500000000 7.444000244141 66 66 66
39.625000000000 6.625000000000 7.813995361328 47 47 47
39.140625000000 6.859375000000 7.246002197266 98 98 98
38.640625000000 7.109375000000 6.128997802734 89 89 89
38.328125000000 7.265625000000 5.983993530273 28 28 28
39.656250000000 6.468750000000 5.642990112305 52 52 52
38.234375000000 7.265625000000 5.088989257813 44 44 44
38.890625000000 6.875000000000 5.007995605469 106 106 106
39.187500000000 6.718750000000 5.139999389648 19 19 19
36.703125000000 8.125000000000 8.524002075195 11 11 11
37.500000000000 7.593750000000 8.212997436523 28 28 28
37.468750000000 7.593750000000 8.097000122070 29 29 29
36.796875000000 8.000000000000 7.823989868164 159 159 159
36.734375000000 8.031250000000 7.701995849609 194 194 194
36.703125000000 8.046875000000 7.593994140625 164 164 164
36.671875000000 8.031250000000 7.488998413086 67 67 67
36.609375000000 8.078125000000 7.373001098633 126 126 126
36.578125000000 8.078125000000 7.261001586914 149 149 149
36.609375000000 8.062500000000 7.170989990234 129 129 129
36.671875000000 8.031250000000 7.076995849609 95 95 95
36.640625000000 8.031250000000 6.974990844727 109 109 109
36.640625000000 8.031250000000 6.869995117188 69 69 69
39.250000000000 6.484375000000 7.095993041992 98 98 98
39.406250000000 6.390625000000 7.003997802734 116 116 116
39.796875000000 6.156250000000 6.940994262695 40 40 40
39.031250000000 6.578125000000 6.241989135742 36 36 36
39.484375000000 6.234375000000 5.103988647461 9 9 9
39.281250000000 6.546875000000 8.177993774414 28 28 28
39.703125000000 6.281250000000 8.149002075195 14 14 14
39.468750000000 6.390625000000 7.615997314453 29 29 29
39.515625000000 6.312500000000 6.658996582031 43 43 43
36.875000000000 7.656250000000 7.990997314453 128 128 128
39.062500000000 6.390625000000 8.418991088867 43 43 43
36.421875000000 7.890625000000 7.677001953125 186 186 186
36.390625000000 7.921875000000 7.569000244141 133 133 133
36.515625000000 7.828125000000 7.494003295898 124 124 124
36.484375000000 7.859375000000 7.382995605469 149 149 149
39.296875000000 6.234375000000 7.864990234375 40 40 40
36.640625000000 7.750000000000 7.214996337891 182 182 182
38.656250000000 6.562500000000 7.160995483398 97 97 97
36.906250000000 7.562500000000 6.752990722656 75 75 75
36.843750000000 7.593750000000 6.638000488281 116 116 116
39.328125000000 6.140625000000 6.556991577148 163 163 163
39.359375000000 6.109375000000 6.442993164063 153 153 153
39.328125000000 6.109375000000 6.322998046875 146 146 146
39.328125000000 6.109375000000 6.203994750977 129 129 129
39.328125000000 6.078125000000 6.087997436523 177 177 177
39.328125000000 6.078125000000 5.970001220703 203 203 203
39.359375000000 6.046875000000 5.853988647461 194 194 194
39.390625000000 6.031250000000 5.736999511719 182 182 182
39.484375000000 5.953125000000 5.388000488281 183 183 183
39.453125000000 5.937500000000 5.269989013672 181 181 181
39.484375000000 5.921875000000 5.151000976563 197 197 197
39.484375000000 5.921875000000 5.032989501953 183 183 183
39.484375000000 5.921875000000 4.914001464844 179 179 179
39.500000000000 5.890625000000 4.794998168945 178 178 178
39.500000000000 5.890625000000 4.675994873047 161 161 161
39.531250000000 5.890625000000 4.557998657227 166 166 166
39.531250000000 5.875000000000 4.438995361328 150 150 150
39.562500000000 5.843750000000 4.319000244141 138 138 138
39.593750000000 5.828125000000 4.199996948242 118 118 118
39.625000000000 5.812500000000 4.080001831055 97 97 97
39.625000000000 5.781250000000 3.959991455078 71 71 71
39.031250000000 6.484375000000 9.000000000000 81 81 81
39.062500000000 6.453125000000 8.893997192383 38 38 38
39.062500000000 6.421875000000 8.776992797852 24 24 24
36.734375000000 7.750000000000 8.057998657227 20 20 20
39.093750000000 6.390625000000 8.542999267578 62 62 62
39.140625000000 6.359375000000 8.188995361328 31 31 31
39.171875000000 6.328125000000 8.073989868164 12 12 12
39.203125000000 6.296875000000 7.963989257813 22 22 22
36.609375000000 7.750000000000 7.106994628906 182 182 182
39.296875000000 6.203125000000 7.384994506836 31 31 31
39.328125000000 6.171875000000 7.149993896484 103 103 103
39.296875000000 6.171875000000 7.028991699219 33 33 33
36.906250000000 7.546875000000 6.544998168945 64 64 64
39.296875000000 6.156250000000 6.789993286133 119 119 119
39.296875000000 6.140625000000 6.671997070313 141 141 141
39.421875000000 5.984375000000 5.501998901367 122 122 122
39.093750000000 6.406250000000 8.662994384766 72 72 72
39.234375000000 6.234375000000 7.614990234375 21 21 21
39.296875000000 6.156250000000 6.908996582031 86 86 86
37.000000000000 7.390625000000 9.121994018555 184 184 184
37.062500000000 7.359375000000 9.035995483398 16 16 16
36.562500000000 7.515625000000 7.539993286133 73 73 73
