5.437500000000 16.781250000000 9.225997924805 123 123 123
6.609375000000 16.734375000000 8.938995361328 167 167 167
6.984375000000 16.734375000000 8.910995483398 199 199 199
7.046875000000 16.734375000000 8.987991333008 177 177 177
6.828125000000 16.734375000000 9.151000976563 184 184 184
7.843750000000 16.718750000000 8.901992797852 194 194 194
8.156250000000 16.703125000000 8.877990722656 174 174 174
8.156250000000 16.703125000000 8.966003417969 184 184 184
8.281250000000 16.703125000000 9.009002685547 172 172 172
8.437500000000 16.687500000000 9.026992797852 223 223 223
6.796875000000 16.734375000000 9.744003295898 61 61 61
5.515625000000 16.796875000000 10.354995727539 44 44 44
8.937500000000 16.671875000000 9.093994140625 127 127 127
8.781250000000 16.703125000000 9.251998901367 156 156 156
9.250000000000 16.687500000000 9.144989013672 185 185 185
9.375000000000 16.671875000000 9.179000854492 183 183 183
9.468750000000 16.671875000000 9.214996337891 211 211 211
9.593750000000 16.656250000000 9.246002197266 186 186 186
9.250000000000 16.671875000000 9.472991943359 9 9 9
8.250000000000 16.703125000000 10.009002685547 178 178 178
8.437500000000 16.703125000000 10.026000976563 169 169 169
8.500000000000 16.703125000000 10.080993652344 234 234 234
6.265625000000 16.781250000000 11.208999633789 74 74 74
8.312500000000 16.718750000000 10.354995727539 30 30 30
8.437500000000 16.718750000000 10.386993408203 48 48 48
8.531250000000 16.703125000000 10.434997558594 218 218 218
8.781250000000 16.703125000000 10.412002563477 247 247 247
8.093750000000 16.734375000000 10.848999023438 29 29 29
8.656250000000 16.718750000000 10.657989501953 21 21 21
6.296875000000 16.796875000000 11.977996826172 130 130 130
6.359375000000 16.796875000000 12.052993774414 132 132 132
7.515625000000 16.750000000000 11.558990478516 177 177 177
7.515625000000 16.750000000000 11.647994995117 174 174 174
6.953125000000 16.796875000000 12.073989868164 128 128 128
7.828125000000 16.765625000000 11.698989868164 228 228 228
8.000000000000 16.734375000000 11.707000732422 222 222 222
8.156250000000 16.734375000000 11.725997924805 191 191 191
7.828125000000 16.765625000000 12.006988525391 223 223 223
7.859375000000 16.750000000000 12.100997924805 16 16 16
7.421875000000 16.781250000000 12.462997436523 167 167 167
8.000000000000 16.734375000000 12.237991333008 158 158 158
8.078125000000 16.750000000000 12.283996582031 154 154 154
8.140625000000 16.750000000000 12.354995727539 196 196 196
8.140625000000 16.750000000000 12.460998535156 212 212 212
8.140625000000 16.750000000000 12.576995849609 241 241 241
7.546875000000 16.781250000000 13.070999145508 143 143 143
7.640625000000 16.781250000000 13.116989135742 148 148 148
7.734375000000 16.765625000000 13.172988891602 155 155 155
7.859375000000 16.781250000000 13.218002319336 199 199 199
6.828125000000 16.812500000000 14.024002075195 168 168 168
6.546875000000 16.812500000000 14.341003417969 147 147 147
6.671875000000 16.812500000000 14.391998291016 136 136 136
6.703125000000 16.812500000000 14.498001098633 72 72 72
5.796875000000 16.875000000000 15.681991577148 15 15 15
5.859375000000 16.859375000000 15.774002075195 114 114 114
6.671875000000 16.812500000000 15.310989379883 155 155 155
6.734375000000 16.828125000000 15.405990600586 140 140 140
6.890625000000 16.828125000000 15.399993896484 146 146 146
6.578125000000 16.843750000000 15.804992675781 15 15 15
6.046875000000 16.875000000000 16.351989746094 74 74 74
7.859375000000 16.796875000000 15.042999267578 181 181 181
8.078125000000 16.796875000000 14.994995117188 197 197 197
7.140625000000 16.828125000000 15.906997680664 85 85 85
7.703125000000 16.812500000000 15.716995239258 61 61 61
7.828125000000 16.812500000000 15.752990722656 148 148 148
6.671875000000 16.843750000000 16.902999877930 87 87 87
7.921875000000 16.812500000000 15.947998046875 160 160 160
8.015625000000 16.812500000000 16.001998901367 29 29 29
6.984375000000 16.859375000000 17.052001953125 119 119 119
7.078125000000 16.859375000000 17.119995117188 75 75 75
7.140625000000 16.828125000000 17.223999023438 115 115 115
5.906250000000 16.671875000000 3.453002929688 7 7 7
4.906250000000 16.687500000000 3.511001586914 23 23 23
3.656250000000 16.734375000000 4.093994140625 8 8 8
3.593750000000 16.750000000000 4.198989868164 60 60 60
6.375000000000 16.671875000000 4.265991210938 55 55 55
2.531250000000 16.765625000000 4.429000854492 16 16 16
4.031250000000 16.734375000000 4.500991821289 24 24 24
3.125000000000 16.765625000000 4.630996704102 21 21 21
3.937500000000 16.718750000000 4.709991455078 124 124 124
6.906250000000 16.671875000000 4.685989379883 87 87 87
3.343750000000 16.765625000000 4.944000244141 109 109 109
6.906250000000 16.671875000000 4.856002807617 83 83 83
3.843750000000 16.750000000000 5.125000000000 57 57 57
3.875000000000 16.750000000000 5.226989746094 115 115 115
3.937500000000 16.750000000000 5.325988769531 112 112 112
5.734375000000 16.687500000000 5.289001464844 48 48 48
5.640625000000 16.687500000000 5.388992309570 54 54 54
4.062500000000 16.750000000000 5.930999755859 36 36 36
4.250000000000 16.750000000000 6.116989135742 114 114 114
7.406250000000 16.687500000000 6.326995849609 181 181 181
7.187500000000 16.687500000000 6.619995117188 9 9 9
4.281250000000 16.765625000000 7.449996948242 91 91 91
5.546875000000 16.734375000000 7.298995971680 172 172 172
4.343750000000 16.765625000000 7.754989624023 109 109 109
4.343750000000 16.765625000000 7.856994628906 82 82 82
3.593750000000 16.812500000000 8.463989257813 84 84 84
3.687500000000 16.812500000000 8.554000854492 123 123 123
3.687500000000 16.812500000000 8.664001464844 76 76 76
3.187500000000 16.828125000000 8.902999877930 30 30 30
3.343750000000 16.828125000000 9.095001220703 33 33 33
5.156250000000 16.765625000000 8.794998168945 147 147 147
4.000000000000 16.843750000000 10.843002319336 16 16 16
5.671875000000 16.781250000000 10.399993896484 36 36 36
5.609375000000 16.781250000000 10.537002563477 17 17 17
6.359375000000 16.781250000000 11.287002563477 115 115 115
6.453125000000 16.781250000000 11.345001220703 104 104 104
6.515625000000 16.781250000000 11.642990112305 127 127 127
3.593750000000 16.750000000000 4.302993774414 29 29 29
3.906250000000 16.734375000000 4.813003540039 91 91 91
3.593750000000 16.750000000000 5.035995483398 57 57 57
3.906250000000 16.750000000000 5.430999755859 99 99 99
2.843750000000 16.781250000000 5.623001098633 59 59 59
5.406250000000 16.750000000000 6.935989379883 45 45 45
3.625000000000 16.843750000000 11.222000122070 13 13 13
3.718750000000 16.781250000000 7.239990234375 88 88 88
8.734375000000 16.953125000000 2.703002929688 147 147 147
9.421875000000 16.921875000000 3.060989379883 195 195 195
9.140625000000 16.921875000000 3.108001708984 203 203 203
8.859375000000 16.953125000000 3.162002563477 195 195 195
5.406250000000 17.031250000000 3.009994506836 36 36 36
7.390625000000 17.000000000000 3.222000122070 10 10 10
5.375000000000 17.046875000000 3.194992065430 152 152 152
5.312500000000 17.046875000000 3.287002563477 115 115 115
5.343750000000 17.031250000000 3.382995605469 48 48 48
5.546875000000 17.046875000000 3.671997070313 15 15 15
8.765625000000 16.968750000000 3.824996948242 141 141 141
9.015625000000 16.953125000000 3.975997924805 96 96 96
8.890625000000 16.953125000000 4.047988891602 44 44 44
9.265625000000 16.937500000000 4.119995117188 84 84 84
4.593750000000 17.093750000000 4.240997314453 137 137 137
7.640625000000 17.000000000000 4.289993286133 8 8 8
6.828125000000 17.031250000000 4.388992309570 10 10 10
8.296875000000 16.984375000000 4.432998657227 25 25 25
8.609375000000 16.968750000000 4.500000000000 57 57 57
9.296875000000 16.953125000000 4.548995971680 91 91 91
9.734375000000 16.953125000000 4.598999023438 88 88 88
9.640625000000 16.937500000000 4.672988891602 106 106 106
9.078125000000 16.953125000000 4.774993896484 103 103 103
9.140625000000 16.953125000000 4.843002319336 59 59 59
9.296875000000 16.953125000000 4.905990600586 170 170 170
10.203125000000 16.937500000000 4.909988403320 128 128 128
8.109375000000 16.984375000000 5.143997192383 138 138 138
8.171875000000 16.984375000000 5.216995239258 160 160 160
8.390625000000 17.000000000000 5.274002075195 158 158 158
8.015625000000 17.000000000000 5.389999389648 151 151 151
5.062500000000 17.109375000000 5.875991821289 78 78 78
7.328125000000 17.031250000000 5.707000732422 132 132 132
8.890625000000 16.984375000000 5.600997924805 40 40 40
8.984375000000 16.984375000000 5.664993286133 11 11 11
9.171875000000 16.953125000000 5.710998535156 37 37 37
6.734375000000 17.031250000000 6.127990722656 204 204 204
7.015625000000 17.046875000000 6.172988891602 122 122 122
9.953125000000 16.953125000000 5.815002441406 234 234 234
10.109375000000 16.953125000000 5.861999511719 96 96 96
10.109375000000 16.937500000000 5.929000854492 101 101 101
10.109375000000 16.953125000000 5.996994018555 54 54 54
5.921875000000 17.078125000000 6.796997070313 58 58 58
7.671875000000 17.031250000000 6.574996948242 131 131 131
5.796875000000 17.093750000000 7.013000488281 242 242 242
8.015625000000 17.015625000000 6.675994873047 209 209 209
8.203125000000 17.015625000000 6.797988891602 243 243 243
8.046875000000 17.015625000000 6.917999267578 120 120 120
5.031250000000 17.125000000000 7.664001464844 145 145 145
9.171875000000 16.984375000000 6.828994750977 24 24 24
9.015625000000 17.000000000000 6.938995361328 146 146 146
8.296875000000 17.031250000000 7.186996459961 159 159 159
9.453125000000 16.984375000000 6.985992431641 8 8 8
9.421875000000 17.000000000000 7.069000244141 120 120 120
9.546875000000 16.984375000000 7.119003295898 165 165 165
9.234375000000 17.000000000000 7.266998291016 99 99 99
9.421875000000 17.000000000000 7.295989990234 86 86 86
9.984375000000 16.984375000000 7.220001220703 141 141 141
9.984375000000 16.984375000000 7.289001464844 100 100 100
6.109375000000 17.109375000000 8.474990844727 138 138 138
7.234375000000 17.062500000000 8.246994018555 222 222 222
6.203125000000 17.109375000000 8.640991210938 175 175 175
6.109375000000 17.109375000000 8.769989013672 161 161 161
7.296875000000 17.078125000000 8.489990234375 245 245 245
6.171875000000 17.109375000000 8.944000244141 134 134 134
7.109375000000 17.078125000000 8.735000610352 210 210 210
7.296875000000 17.078125000000 8.763000488281 245 245 245
6.359375000000 17.109375000000 9.177993774414 172 172 172
6.515625000000 17.093750000000 9.222000122070 152 152 152
6.515625000000 17.125000000000 9.313995361328 164 164 164
6.703125000000 17.093750000000 9.339996337891 160 160 160
6.890625000000 17.109375000000 9.388000488281 171 171 171
6.859375000000 17.109375000000 9.491989135742 222 222 222
8.265625000000 17.062500000000 9.055999755859 10 10 10
8.390625000000 17.062500000000 9.099990844727 14 14 14
8.453125000000 17.046875000000 9.157989501953 208 208 208
8.671875000000 17.046875000000 9.164001464844 233 233 233
8.640625000000 17.031250000000 9.263000488281 217 217 217
8.796875000000 17.046875000000 9.281997680664 227 227 227
8.765625000000 17.046875000000 9.381988525391 19 19 19
6.859375000000 17.125000000000 10.279998779297 116 116 116
8.109375000000 17.078125000000 9.843994140625 215 215 215
9.265625000000 17.031250000000 9.421997070313 209 209 209
9.359375000000 17.031250000000 9.466995239258 158 158 158
9.515625000000 17.031250000000 9.485992431641 164 164 164
9.453125000000 17.031250000000 9.602996826172 0 0 0
8.203125000000 17.062500000000 10.257995605469 218 218 218
8.703125000000 17.078125000000 10.115997314453 223 223 223
8.359375000000 17.078125000000 10.376998901367 190 190 190
8.578125000000 17.062500000000 10.367996215820 195 195 195
8.703125000000 17.078125000000 10.399993896484 227 227 227
8.921875000000 17.078125000000 10.393997192383 165 165 165
8.734375000000 17.078125000000 10.569992065430 198 198 198
8.953125000000 17.078125000000 10.557998657227 227 227 227
9.140625000000 17.046875000000 10.552993774414 149 149 149
9.109375000000 17.046875000000 10.655990600586 226 226 226
9.078125000000 17.078125000000 10.759994506836 132 132 132
9.015625000000 17.062500000000 10.893997192383 28 28 28
6.859375000000 17.140625000000 12.185989379883 147 147 147
6.828125000000 17.156250000000 12.302993774414 166 166 166
7.171875000000 17.140625000000 12.240997314453 181 181 181
7.453125000000 17.125000000000 12.182998657227 163 163 163
7.671875000000 17.125000000000 12.164993286133 186 186 186
7.828125000000 17.125000000000 12.181991577148 185 185 185
7.015625000000 17.171875000000 12.776992797852 142 142 142
7.078125000000 17.140625000000 12.845993041992 199 199 199
7.359375000000 17.140625000000 12.795989990234 153 153 153
7.484375000000 17.140625000000 12.833999633789 155 155 155
7.453125000000 17.156250000000 12.963989257813 148 148 148
7.484375000000 17.125000000000 13.058990478516 159 159 159
6.734375000000 17.156250000000 13.647003173828 132 132 132
6.734375000000 17.156250000000 13.794998168945 147 147 147
6.765625000000 17.156250000000 13.886001586914 156 156 156
6.625000000000 17.187500000000 14.106002807617 172 172 172
6.687500000000 17.187500000000 14.167999267578 151 151 151
6.734375000000 17.171875000000 14.277999877930 139 139 139
6.734375000000 17.171875000000 14.410995483398 129 129 129
6.500000000000 17.187500000000 14.828994750977 58 58 58
7.359375000000 17.171875000000 14.347991943359 163 163 163
7.484375000000 17.156250000000 14.394989013672 150 150 150
7.453125000000 17.156250000000 14.526992797852 176 176 176
7.796875000000 17.156250000000 14.392990112305 199 199 199
7.671875000000 17.156250000000 14.626998901367 149 149 149
7.796875000000 17.171875000000 14.652999877930 147 147 147
7.828125000000 17.156250000000 14.759002685547 147 147 147
7.921875000000 17.171875000000 14.830001831055 152 152 152
7.984375000000 17.156250000000 14.907989501953 155 155 155
8.171875000000 17.140625000000 14.875991821289 158 158 158
8.109375000000 17.156250000000 15.046997070313 179 179 179
7.703125000000 17.171875000000 15.527999877930 145 145 145
7.765625000000 17.187500000000 15.608993530273 134 134 134
6.562500000000 17.218750000000 16.759994506836 86 86 86
6.718750000000 17.203125000000 16.774002075195 127 127 127
6.781250000000 17.203125000000 16.858001708984 37 37 37
7.765625000000 17.203125000000 16.171997070313 134 134 134
7.859375000000 17.187500000000 16.220001220703 148 148 148
7.890625000000 17.187500000000 16.337997436523 198 198 198
7.984375000000 17.171875000000 16.402999877930 172 172 172
7.671875000000 17.187500000000 16.828002929688 57 57 57
7.093750000000 17.218750000000 17.662002563477 81 81 81
7.187500000000 17.203125000000 17.739990234375 127 127 127
5.406250000000 17.046875000000 3.102996826172 129 129 129
3.390625000000 17.093750000000 3.619003295898 45 45 45
6.515625000000 17.015625000000 3.957992553711 75 75 75
3.734375000000 17.093750000000 4.041992187500 103 103 103
3.937500000000 17.062500000000 4.144989013672 61 61 61
4.468750000000 17.078125000000 4.341003417969 108 108 108
4.437500000000 17.078125000000 4.440994262695 130 130 130
6.734375000000 17.000000000000 4.476989746094 226 226 226
5.765625000000 17.046875000000 4.595993041992 160 160 160
5.484375000000 17.062500000000 4.698989868164 114 114 114
5.484375000000 17.062500000000 4.792999267578 97 97 97
5.437500000000 17.062500000000 4.888992309570 90 90 90
5.484375000000 17.062500000000 4.978988647461 30 30 30
5.031250000000 17.078125000000 5.102996826172 94 94 94
5.062500000000 17.078125000000 5.196990966797 8 8 8
8.015625000000 16.984375000000 5.071990966797 77 77 77
4.968750000000 17.093750000000 5.983993530273 60 60 60
7.328125000000 17.031250000000 5.792999267578 82 82 82
7.578125000000 17.015625000000 5.845001220703 108 108 108
4.875000000000 17.093750000000 6.289993286133 84 84 84
5.796875000000 17.078125000000 6.442993164063 52 52 52
5.890625000000 17.078125000000 6.524002075195 34 34 34
6.015625000000 17.078125000000 6.595993041992 7 7 7
6.015625000000 17.078125000000 6.692001342773 50 50 50
4.109375000000 17.140625000000 7.117996215820 128 128 128
4.203125000000 17.125000000000 7.205001831055 98 98 98
4.265625000000 17.140625000000 7.404998779297 20 20 20
3.734375000000 17.156250000000 7.828994750977 72 72 72
7.421875000000 17.046875000000 7.220993041992 68 68 68
4.921875000000 17.140625000000 7.880996704102 57 57 57
4.859375000000 17.125000000000 7.996994018555 110 110 110
7.078125000000 17.078125000000 7.558990478516 24 24 24
3.640625000000 17.171875000000 8.502990722656 57 57 57
3.671875000000 17.171875000000 8.610992431641 42 42 42
6.046875000000 17.109375000000 8.388000488281 121 121 121
3.234375000000 17.171875000000 9.291992187500 20 20 20
5.109375000000 17.140625000000 10.246002197266 99 99 99
6.421875000000 17.125000000000 9.845993041992 32 32 32
6.765625000000 17.125000000000 12.006988525391 83 83 83
6.921875000000 17.140625000000 12.039001464844 142 142 142
3.671875000000 17.109375000000 3.938003540039 44 44 44
2.328125000000 17.140625000000 4.376998901367 18 18 18
4.750000000000 17.093750000000 6.106994628906 94 94 94
4.937500000000 17.109375000000 6.185989379883 81 81 81
3.609375000000 17.156250000000 6.989990234375 48 48 48
3.765625000000 17.156250000000 7.070999145508 94 94 94
5.031250000000 17.125000000000 7.755996704102 108 108 108
3.609375000000 17.156250000000 8.401000976563 37 37 37
7.312500000000 17.343750000000 3.253997802734 221 221 221
7.312500000000 17.343750000000 3.336990356445 184 184 184
5.140625000000 17.390625000000 3.322998046875 114 114 114
5.171875000000 17.406250000000 3.419998168945 86 86 86
5.171875000000 17.421875000000 3.515991210938 70 70 70
7.968750000000 17.328125000000 3.767990112305 26 26 26
8.031250000000 17.328125000000 3.847000122070 55 55 55
7.781250000000 17.359375000000 3.922988891602 35 35 35
7.875000000000 17.343750000000 4.162994384766 125 125 125
7.875000000000 17.359375000000 4.241989135742 111 111 111
7.656250000000 17.343750000000 4.406997680664 106 106 106
4.578125000000 17.437500000000 4.680999755859 66 66 66
6.843750000000 17.390625000000 4.854995727539 221 221 221
6.812500000000 17.390625000000 4.942993164063 185 185 185
9.156250000000 17.312500000000 4.947998046875 242 242 242
9.343750000000 17.312500000000 5.005996704102 9 9 9
6.750000000000 17.390625000000 5.291992187500 154 154 154
6.781250000000 17.406250000000 5.376998901367 112 112 112
8.187500000000 17.343750000000 5.328994750977 18 18 18
8.375000000000 17.343750000000 5.389999389648 28 28 28
8.562500000000 17.343750000000 5.446990966797 27 27 27
8.687500000000 17.359375000000 5.506988525391 179 179 179
8.781250000000 17.343750000000 5.574996948242 172 172 172
7.531250000000 17.375000000000 5.804992675781 3 3 3
7.781250000000 17.390625000000 5.854995727539 154 154 154
9.125000000000 17.328125000000 5.752990722656 219 219 219
5.296875000000 17.437500000000 6.375000000000 80 80 80
9.968750000000 17.312500000000 5.776000976563 115 115 115
10.125000000000 17.312500000000 5.819992065430 98 98 98
5.531250000000 17.437500000000 7.005996704102 152 152 152
4.734375000000 17.468750000000 7.256988525391 133 133 133
7.531250000000 17.406250000000 6.810989379883 72 72 72
8.062500000000 17.375000000000 6.787002563477 80 80 80
7.312500000000 17.406250000000 7.022994995117 11 11 11
7.218750000000 17.390625000000 7.136001586914 48 48 48
6.000000000000 17.453125000000 7.490997314453 192 192 192
9.062500000000 17.359375000000 6.884002685547 140 140 140
9.218750000000 17.375000000000 6.929000854492 141 141 141
9.406250000000 17.343750000000 6.958999633789 151 151 151
9.593750000000 17.343750000000 6.990997314453 151 151 151
9.656250000000 17.343750000000 7.041000366211 159 159 159
9.750000000000 17.343750000000 7.093002319336 145 145 145
9.687500000000 17.359375000000 7.186996459961 154 154 154
9.875000000000 17.328125000000 7.203994750977 151 151 151
10.000000000000 17.328125000000 7.246002197266 155 155 155
10.187500000000 17.343750000000 7.267990112305 153 153 153
10.031250000000 17.328125000000 7.381988525391 139 139 139
5.968750000000 17.468750000000 8.651992797852 163 163 163
5.937500000000 17.468750000000 8.763992309570 160 160 160
5.937500000000 17.484375000000 8.863998413086 140 140 140
5.781250000000 17.468750000000 9.007995605469 146 146 146
7.250000000000 17.421875000000 8.641998291016 219 219 219
7.468750000000 17.437500000000 8.653991699219 203 203 203
7.375000000000 17.437500000000 8.784988403320 201 201 201
7.406250000000 17.437500000000 8.862991333008 204 204 204
7.312500000000 17.437500000000 8.992996215820 191 191 191
7.375000000000 17.437500000000 9.061996459961 207 207 207
8.312500000000 17.406250000000 8.820999145508 233 233 233
7.750000000000 17.437500000000 9.104995727539 239 239 239
6.406250000000 17.468750000000 9.700988769531 155 155 155
8.468750000000 17.406250000000 9.013000488281 35 35 35
6.875000000000 17.453125000000 9.716995239258 176 176 176
6.500000000000 17.468750000000 9.966003417969 137 137 137
6.656250000000 17.468750000000 10.004989624023 90 90 90
8.937500000000 17.390625000000 9.177001953125 91 91 91
9.093750000000 17.390625000000 9.198989868164 211 211 211
8.968750000000 17.390625000000 9.332992553711 154 154 154
8.937500000000 17.421875000000 9.432998657227 140 140 140
9.031250000000 17.390625000000 9.474990844727 125 125 125
9.156250000000 17.390625000000 9.509994506836 92 92 92
9.187500000000 17.406250000000 9.583999633789 99 99 99
9.218750000000 17.406250000000 9.647003173828 239 239 239
9.375000000000 17.390625000000 9.677993774414 230 230 230
9.468750000000 17.390625000000 9.712997436523 16 16 16
7.937500000000 17.453125000000 10.629989624023 150 150 150
7.968750000000 17.453125000000 10.712997436523 147 147 147
8.375000000000 17.437500000000 10.598999023438 179 179 179
8.625000000000 17.421875000000 10.571990966797 175 175 175
8.593750000000 17.437500000000 10.695999145508 66 66 66
8.625000000000 17.421875000000 10.768997192383 225 225 225
8.875000000000 17.421875000000 10.716995239258 153 153 153
8.937500000000 17.421875000000 10.787002563477 187 187 187
8.875000000000 17.421875000000 10.921997070313 165 165 165
8.906250000000 17.421875000000 10.992996215820 159 159 159
8.875000000000 17.437500000000 11.106002807617 118 118 118
9.000000000000 17.421875000000 11.127990722656 11 11 11
7.312500000000 17.500000000000 12.198989868164 153 153 153
7.562500000000 17.468750000000 12.169998168945 143 143 143
7.312500000000 17.500000000000 12.421997070313 152 152 152
6.781250000000 17.500000000000 12.863998413086 140 140 140
7.000000000000 17.500000000000 12.834991455078 130 130 130
8.343750000000 17.453125000000 12.121002197266 223 223 223
8.687500000000 17.453125000000 12.026000976563 13 13 13
8.687500000000 17.453125000000 12.127990722656 0 0 0
8.812500000000 17.453125000000 12.140991210938 149 149 149
8.843750000000 17.453125000000 12.237991333008 147 147 147
9.031250000000 17.421875000000 12.207992553711 53 53 53
9.062500000000 17.453125000000 12.304000854492 79 79 79
5.468750000000 17.578125000000 14.805999755859 98 98 98
5.593750000000 17.562500000000 14.867996215820 66 66 66
6.781250000000 17.531250000000 14.195999145508 111 111 111
6.750000000000 17.531250000000 14.341003417969 132 132 132
7.281250000000 17.531250000000 14.070999145508 194 194 194
7.375000000000 17.515625000000 14.139999389648 173 173 173
7.500000000000 17.500000000000 14.166992187500 151 151 151
7.656250000000 17.500000000000 14.180999755859 140 140 140
7.593750000000 17.500000000000 14.363998413086 148 148 148
7.343750000000 17.531250000000 14.664001464844 153 153 153
7.656250000000 17.500000000000 14.561996459961 153 153 153
7.500000000000 17.515625000000 14.820999145508 174 174 174
7.500000000000 17.531250000000 14.950988769531 172 172 172
7.656250000000 17.515625000000 14.957000732422 153 153 153
7.531250000000 17.531250000000 15.190994262695 168 168 168
7.500000000000 17.531250000000 15.348999023438 139 139 139
7.531250000000 17.531250000000 15.440002441406 148 148 148
7.468750000000 17.531250000000 15.628997802734 154 154 154
7.593750000000 17.515625000000 15.659988403320 168 168 168
7.468750000000 17.531250000000 15.927993774414 144 144 144
7.531250000000 17.531250000000 16.011993408203 136 136 136
7.562500000000 17.531250000000 16.123001098633 150 150 150
7.468750000000 17.531250000000 16.324996948242 143 143 143
7.312500000000 17.562500000000 16.634994506836 142 142 142
6.656250000000 17.578125000000 17.360000610352 117 117 117
6.843750000000 17.578125000000 17.358993530273 134 134 134
6.937500000000 17.578125000000 17.433990478516 145 145 145
7.250000000000 17.546875000000 17.304000854492 140 140 140
7.375000000000 17.562500000000 17.311996459961 150 150 150
7.406250000000 17.562500000000 17.453994750977 147 147 147
7.500000000000 17.562500000000 17.503997802734 154 154 154
7.562500000000 17.562500000000 17.621994018555 159 159 159
7.062500000000 17.578125000000 18.256988525391 122 122 122
7.187500000000 17.578125000000 18.296997070313 21 21 21
7.031250000000 17.593750000000 18.787994384766 28 28 28
5.265625000000 17.390625000000 3.612991333008 66 66 66
5.265625000000 17.406250000000 3.707992553711 139 139 139
3.796875000000 17.437500000000 3.779998779297 81 81 81
3.796875000000 17.437500000000 3.882995605469 92 92 92
7.593750000000 17.359375000000 4.489990234375 151 151 151
4.734375000000 17.437500000000 4.774002075195 126 126 126
5.625000000000 17.406250000000 4.828994750977 197 197 197
6.843750000000 17.390625000000 5.027999877930 128 128 128
6.812500000000 17.390625000000 5.200988769531 124 124 124
6.750000000000 17.390625000000 5.464996337891 160 160 160
4.984375000000 17.453125000000 5.929000854492 29 29 29
5.296875000000 17.437500000000 5.989990234375 29 29 29
5.265625000000 17.453125000000 6.282989501953 21 21 21
5.390625000000 17.468750000000 6.455001831055 27 27 27
5.421875000000 17.453125000000 6.546997070313 86 86 86
5.421875000000 17.453125000000 6.641998291016 48 48 48
5.437500000000 17.468750000000 6.733993530273 57 57 57
8.250000000000 17.375000000000 6.349990844727 6 6 6
5.500000000000 17.468750000000 6.917999267578 63 63 63
5.437500000000 17.468750000000 7.222991943359 159 159 159
5.812500000000 17.437500000000 7.336990356445 162 162 162
6.093750000000 17.453125000000 7.561996459961 10 10 10
5.328125000000 17.468750000000 7.833999633789 24 24 24
5.421875000000 17.468750000000 7.909988403320 32 32 32
6.937500000000 17.453125000000 9.602996826172 173 173 173
6.656250000000 17.484375000000 10.110992431641 126 126 126
5.937500000000 17.500000000000 10.606994628906 11 11 11
5.906250000000 17.500000000000 10.735992431641 36 36 36
6.375000000000 17.500000000000 10.737991333008 73 73 73
6.343750000000 17.500000000000 10.850997924805 58 58 58
7.218750000000 17.453125000000 10.774002075195 143 143 143
6.843750000000 17.515625000000 11.585998535156 138 138 138
6.343750000000 17.531250000000 12.511001586914 130 130 130
7.125000000000 17.484375000000 12.194992065430 173 173 173
7.156250000000 17.500000000000 12.968994140625 137 137 137
6.656250000000 17.531250000000 13.513992309570 55 55 55
6.718750000000 17.515625000000 13.614990234375 52 52 52
6.937500000000 17.515625000000 13.589996337891 113 113 113
6.906250000000 17.515625000000 13.741989135742 123 123 123
3.796875000000 17.500000000000 7.114990234375 30 30 30
5.203125000000 17.484375000000 7.767990112305 29 29 29
5.890625000000 17.781250000000 5.134002685547 167 167 167
6.015625000000 17.765625000000 5.216003417969 155 155 155
6.015625000000 17.765625000000 5.307998657227 162 162 162
7.046875000000 17.750000000000 5.309997558594 241 241 241
7.015625000000 17.734375000000 5.397003173828 247 247 247
5.218750000000 17.796875000000 5.660995483398 105 105 105
7.390625000000 17.750000000000 5.528991699219 159 159 159
5.250000000000 17.796875000000 6.042999267578 67 67 67
5.250000000000 17.796875000000 6.136993408203 36 36 36
8.109375000000 17.734375000000 6.494003295898 10 10 10
8.296875000000 17.750000000000 6.696990966797 175 175 175
8.328125000000 17.750000000000 6.769989013672 158 158 158
8.328125000000 17.750000000000 6.853988647461 134 134 134
8.328125000000 17.750000000000 6.936996459961 135 135 135
8.484375000000 17.734375000000 7.138000488281 132 132 132
7.453125000000 17.781250000000 8.435989379883 2 2 2
7.640625000000 17.781250000000 8.466995239258 241 241 241
7.296875000000 17.812500000000 8.670989990234 189 189 189
7.296875000000 17.812500000000 8.763000488281 181 181 181
8.296875000000 17.781250000000 8.520996093750 171 171 171
8.265625000000 17.781250000000 8.614990234375 153 153 153
8.234375000000 17.781250000000 8.711990356445 152 152 152
8.421875000000 17.781250000000 8.723999023438 161 161 161
8.421875000000 17.781250000000 8.808990478516 151 151 151
8.421875000000 17.781250000000 8.899993896484 151 151 151
8.390625000000 17.781250000000 8.998992919922 157 157 157
8.328125000000 17.781250000000 9.111999511719 153 153 153
8.359375000000 17.781250000000 9.194992065430 180 180 180
6.859375000000 17.828125000000 9.873992919922 122 122 122
6.828125000000 17.843750000000 9.981994628906 153 153 153
6.828125000000 17.843750000000 10.088989257813 143 143 143
8.734375000000 17.765625000000 9.391998291016 32 32 32
6.046875000000 17.859375000000 10.619003295898 91 91 91
8.765625000000 17.781250000000 9.552001953125 129 129 129
8.890625000000 17.765625000000 9.583999633789 136 136 136
9.015625000000 17.765625000000 9.610992431641 15 15 15
6.671875000000 17.843750000000 10.763992309570 143 143 143
6.671875000000 17.843750000000 10.875991821289 145 145 145
8.015625000000 17.796875000000 10.345001220703 160 160 160
8.109375000000 17.812500000000 10.406997680664 156 156 156
8.078125000000 17.796875000000 10.505996704102 160 160 160
8.015625000000 17.796875000000 10.651000976563 144 144 144
7.984375000000 17.828125000000 10.750000000000 147 147 147
8.078125000000 17.796875000000 10.800003051758 159 159 159
8.359375000000 17.812500000000 10.754989624023 180 180 180
8.546875000000 17.796875000000 10.752990722656 160 160 160
8.609375000000 17.781250000000 10.815002441406 141 141 141
8.703125000000 17.796875000000 10.862991333008 158 158 158
8.828125000000 17.796875000000 10.899002075195 163 163 163
8.921875000000 17.781250000000 10.945999145508 156 156 156
9.046875000000 17.765625000000 10.968994140625 154 154 154
9.078125000000 17.796875000000 11.041000366211 163 163 163
9.171875000000 17.796875000000 11.095001220703 191 191 191
8.078125000000 17.828125000000 11.804992675781 149 149 149
8.328125000000 17.843750000000 11.779998779297 155 155 155
8.296875000000 17.828125000000 11.888992309570 144 144 144
8.484375000000 17.828125000000 11.881988525391 144 144 144
8.484375000000 17.828125000000 11.985000610352 153 153 153
8.640625000000 17.812500000000 12.009994506836 151 151 151
8.515625000000 17.812500000000 12.185989379883 240 240 240
8.703125000000 17.828125000000 12.157989501953 7 7 7
8.765625000000 17.828125000000 12.228988647461 9 9 9
7.578125000000 17.875000000000 13.104995727539 134 134 134
7.671875000000 17.859375000000 13.162002563477 155 155 155
7.859375000000 17.859375000000 13.149993896484 145 145 145
7.921875000000 17.859375000000 13.216995239258 144 144 144
7.921875000000 17.859375000000 13.341995239258 143 143 143
8.015625000000 17.859375000000 13.401992797852 156 156 156
7.765625000000 17.859375000000 13.692993164063 175 175 175
8.578125000000 17.843750000000 13.224990844727 237 237 237
8.640625000000 17.843750000000 13.287994384766 211 211 211
8.140625000000 17.859375000000 13.793991088867 158 158 158
8.203125000000 17.859375000000 13.847000122070 158 158 158
8.328125000000 17.843750000000 13.888000488281 147 147 147
8.390625000000 17.859375000000 13.959991455078 150 150 150
8.453125000000 17.859375000000 14.034988403320 147 147 147
8.484375000000 17.843750000000 14.108001708984 149 149 149
8.515625000000 17.859375000000 14.211990356445 193 193 193
8.546875000000 17.843750000000 14.317993164063 227 227 227
8.671875000000 17.859375000000 14.320999145508 173 173 173
8.671875000000 17.859375000000 14.455001831055 208 208 208
8.828125000000 17.859375000000 14.455993652344 191 191 191
7.890625000000 17.890625000000 15.366989135742 117 117 117
7.984375000000 17.890625000000 15.409988403320 144 144 144
7.984375000000 17.890625000000 15.550003051758 195 195 195
8.046875000000 17.890625000000 15.630996704102 203 203 203
8.171875000000 17.875000000000 15.660995483398 204 204 204
7.296875000000 17.921875000000 16.575988769531 130 130 130
7.328125000000 17.937500000000 16.675003051758 138 138 138
7.421875000000 17.906250000000 16.736999511719 143 143 143
7.578125000000 17.906250000000 16.761001586914 149 149 149
7.578125000000 17.906250000000 16.912994384766 163 163 163
7.609375000000 17.906250000000 17.030990600586 189 189 189
7.828125000000 17.921875000000 16.968994140625 152 152 152
7.828125000000 17.921875000000 17.140991210938 184 184 184
7.484375000000 17.937500000000 17.621994018555 127 127 127
7.578125000000 17.906250000000 17.685989379883 151 151 151
7.578125000000 17.937500000000 17.834991455078 138 138 138
7.265625000000 17.953125000000 18.315002441406 68 68 68
7.109375000000 17.953125000000 18.645996093750 24 24 24
7.140625000000 17.953125000000 18.780990600586 14 14 14
4.812500000000 17.781250000000 4.233993530273 18 18 18
4.968750000000 17.796875000000 4.328994750977 52 52 52
5.062500000000 17.796875000000 5.000000000000 58 58 58
5.671875000000 17.781250000000 5.056991577148 149 149 149
5.250000000000 17.796875000000 5.944000244141 77 77 77
5.375000000000 17.812500000000 6.218002319336 44 44 44
5.671875000000 17.812500000000 6.269989013672 33 33 33
6.046875000000 17.796875000000 6.586990356445 65 65 65
5.890625000000 17.796875000000 6.705993652344 55 55 55
6.046875000000 17.796875000000 6.774993896484 22 22 22
5.828125000000 17.796875000000 6.901992797852 134 134 134
5.375000000000 17.843750000000 7.088989257813 15 15 15
5.421875000000 17.843750000000 7.561996459961 27 27 27
8.421875000000 17.750000000000 6.988998413086 107 107 107
6.046875000000 17.828125000000 8.486999511719 9 9 9
6.078125000000 17.828125000000 8.571990966797 112 112 112
6.640625000000 17.812500000000 8.500000000000 146 146 146
6.796875000000 17.812500000000 8.554992675781 114 114 114
6.140625000000 17.843750000000 10.681991577148 35 35 35
6.515625000000 17.843750000000 10.629989624023 67 67 67
6.640625000000 17.828125000000 10.679992675781 146 146 146
7.421875000000 17.875000000000 13.089996337891 141 141 141
4.750000000000 17.781250000000 4.429992675781 20 20 20
5.640625000000 17.812500000000 7.612991333008 60 60 60
5.078125000000 18.218750000000 8.108993530273 68 68 68
6.312500000000 18.187500000000 8.470001220703 213 213 213
6.406250000000 18.203125000000 8.539001464844 208 208 208
6.312500000000 18.218750000000 8.660995483398 215 215 215
6.375000000000 18.218750000000 8.733001708984 184 184 184
6.468750000000 18.187500000000 8.807998657227 169 169 169
6.218750000000 18.203125000000 8.981002807617 163 163 163
7.625000000000 18.156250000000 8.798995971680 225 225 225
7.843750000000 18.171875000000 8.817001342773 174 174 174
8.203125000000 18.140625000000 8.772003173828 166 166 166
8.359375000000 18.156250000000 8.810989379883 151 151 151
8.421875000000 18.156250000000 8.875000000000 154 154 154
8.359375000000 18.156250000000 8.983993530273 152 152 152
8.640625000000 18.140625000000 8.960998535156 156 156 156
8.859375000000 18.140625000000 8.972000122070 155 155 155
8.796875000000 18.140625000000 9.080993652344 11 11 11
6.406250000000 18.218750000000 10.111999511719 154 154 154
6.937500000000 18.203125000000 10.000991821289 185 185 185
6.656250000000 18.218750000000 10.207992553711 156 156 156
6.718750000000 18.218750000000 10.295989990234 150 150 150
6.562500000000 18.218750000000 10.464996337891 158 158 158
6.500000000000 18.218750000000 10.591003417969 151 151 151
7.156250000000 18.203125000000 10.402999877930 164 164 164
7.875000000000 18.203125000000 10.181991577148 194 194 194
7.187500000000 18.203125000000 10.593002319336 184 184 184
7.218750000000 18.203125000000 10.684997558594 181 181 181
7.312500000000 18.218750000000 10.741989135742 166 166 166
7.500000000000 18.203125000000 10.752990722656 164 164 164
7.500000000000 18.203125000000 10.851989746094 165 165 165
7.406250000000 18.218750000000 10.992996215820 203 203 203
6.593750000000 18.250000000000 11.496002197266 160 160 160
7.500000000000 18.218750000000 11.164001464844 194 194 194
8.156250000000 18.171875000000 10.916992187500 210 210 210
8.156250000000 18.187500000000 11.019989013672 167 167 167
7.812500000000 18.218750000000 11.300994873047 193 193 193
8.156250000000 18.203125000000 11.216995239258 179 179 179
8.281250000000 18.187500000000 11.259002685547 177 177 177
8.250000000000 18.203125000000 11.365997314453 224 224 224
7.437500000000 18.234375000000 11.920989990234 177 177 177
6.625000000000 18.250000000000 12.489990234375 147 147 147
7.125000000000 18.234375000000 12.311996459961 160 160 160
7.250000000000 18.250000000000 12.362991333008 169 169 169
7.312500000000 18.250000000000 12.432998657227 150 150 150
7.343750000000 18.250000000000 12.534988403320 144 144 144
7.437500000000 18.250000000000 12.595001220703 153 153 153
7.968750000000 18.218750000000 12.380996704102 160 160 160
8.187500000000 18.203125000000 12.349990844727 159 159 159
8.125000000000 18.203125000000 12.488998413086 147 147 147
7.906250000000 18.234375000000 12.724990844727 144 144 144
8.156250000000 18.218750000000 12.694992065430 155 155 155
8.250000000000 18.218750000000 12.740997314453 158 158 158
8.375000000000 18.218750000000 12.759994506836 156 156 156
8.406250000000 18.218750000000 12.863998413086 149 149 149
8.531250000000 18.203125000000 12.890991210938 150 150 150
8.625000000000 18.218750000000 12.921997070313 151 151 151
8.656250000000 18.203125000000 13.013000488281 146 146 146
8.625000000000 18.218750000000 13.152999877930 169 169 169
8.718750000000 18.218750000000 13.188003540039 203 203 203
8.000000000000 18.234375000000 13.828994750977 153 153 153
7.281250000000 18.281250000000 14.477996826172 139 139 139
7.312500000000 18.281250000000 14.588989257813 136 136 136
7.437500000000 18.281250000000 14.621994018555 165 165 165
7.406250000000 18.281250000000 14.779998779297 175 175 175
7.500000000000 18.281250000000 14.832000732422 188 188 188
8.593750000000 18.218750000000 14.095993041992 5 5 5
7.218750000000 18.281250000000 15.307998657227 141 141 141
7.406250000000 18.281250000000 15.300994873047 139 139 139
7.500000000000 18.281250000000 15.348999023438 166 166 166
7.031250000000 18.312500000000 15.886993408203 83 83 83
7.156250000000 18.281250000000 15.903991699219 120 120 120
7.281250000000 18.312500000000 15.940002441406 140 140 140
7.437500000000 18.296875000000 15.970993041992 144 144 144
7.875000000000 18.265625000000 15.746002197266 177 177 177
7.562500000000 18.281250000000 16.121002197266 144 144 144
7.500000000000 18.281250000000 16.324996948242 161 161 161
7.750000000000 18.296875000000 16.244995117188 161 161 161
7.812500000000 18.296875000000 16.334991455078 165 165 165
7.906250000000 18.296875000000 16.421997070313 153 153 153
7.937500000000 18.296875000000 16.516998291016 197 197 197
7.187500000000 18.328125000000 17.376998901367 124 124 124
7.125000000000 18.328125000000 17.563995361328 103 103 103
7.375000000000 18.312500000000 17.491989135742 132 132 132
7.437500000000 18.312500000000 17.586990356445 32 32 32
5.437500000000 18.187500000000 6.845001220703 21 21 21
6.062500000000 18.171875000000 6.821990966797 111 111 111
6.093750000000 18.171875000000 6.912002563477 118 118 118
7.093750000000 18.265625000000 15.261993408203 122 122 122
5.234375000000 18.171875000000 6.195999145508 111 111 111
6.078125000000 18.609375000000 8.795989990234 36 36 36
5.953125000000 18.609375000000 9.638992309570 149 149 149
7.156250000000 18.562500000000 9.305999755859 1 1 1
7.312500000000 18.562500000000 9.628997802734 145 145 145
7.281250000000 18.593750000000 9.735992431641 142 142 142
7.218750000000 18.578125000000 9.858001708984 156 156 156
7.062500000000 18.578125000000 10.017990112305 173 173 173
6.937500000000 18.578125000000 10.167999267578 192 192 192
7.000000000000 18.578125000000 10.240997314453 149 149 149
7.375000000000 18.562500000000 10.177993774414 144 144 144
7.375000000000 18.593750000000 10.278991699219 151 151 151
7.187500000000 18.578125000000 10.457992553711 173 173 173
6.265625000000 18.609375000000 10.975997924805 141 141 141
7.968750000000 18.578125000000 10.309997558594 236 236 236
7.968750000000 18.578125000000 10.397003173828 161 161 161
8.062500000000 18.562500000000 10.450988769531 141 141 141
8.343750000000 18.562500000000 10.700988769531 217 217 217
8.250000000000 18.562500000000 10.836990356445 17 17 17
6.734375000000 18.625000000000 11.722000122070 153 153 153
6.796875000000 18.640625000000 11.902999877930 159 159 159
6.796875000000 18.640625000000 12.013992309570 136 136 136
6.578125000000 18.625000000000 12.254989624023 139 139 139
6.578125000000 18.625000000000 12.369003295898 144 144 144
7.218750000000 18.609375000000 12.125000000000 155 155 155
7.250000000000 18.625000000000 12.218994140625 171 171 171
7.656250000000 18.593750000000 12.098999023438 163 163 163
7.625000000000 18.593750000000 12.213989257813 149 149 149
7.281250000000 18.625000000000 12.537002563477 140 140 140
6.921875000000 18.640625000000 12.858001708984 164 164 164
6.984375000000 18.640625000000 12.934997558594 153 153 153
5.953125000000 18.703125000000 13.694000244141 113 113 113
6.609375000000 18.656250000000 13.392990112305 153 153 153
7.250000000000 18.625000000000 13.114990234375 199 199 199
7.203125000000 18.625000000000 13.259002685547 159 159 159
7.234375000000 18.656250000000 13.369995117188 145 145 145
7.203125000000 18.640625000000 13.505996704102 154 154 154
7.015625000000 18.640625000000 13.748001098633 149 149 149
7.078125000000 18.640625000000 13.817001342773 149 149 149
7.421875000000 18.640625000000 13.718994140625 163 163 163
7.484375000000 18.640625000000 13.782989501953 139 139 139
7.656250000000 18.625000000000 13.797988891602 146 146 146
7.625000000000 18.625000000000 13.927993774414 150 150 150
7.515625000000 18.640625000000 14.138992309570 196 196 196
7.265625000000 18.656250000000 14.453994750977 166 166 166
7.421875000000 18.656250000000 14.455993652344 152 152 152
7.515625000000 18.656250000000 14.517990112305 151 151 151
7.578125000000 18.656250000000 14.593002319336 143 143 143
7.703125000000 18.656250000000 14.629989624023 144 144 144
7.609375000000 18.656250000000 14.826995849609 148 148 148
7.703125000000 18.671875000000 14.871002197266 146 146 146
7.703125000000 18.671875000000 15.020996093750 145 145 145
7.765625000000 18.671875000000 15.093002319336 134 134 134
7.796875000000 18.671875000000 15.201995849609 156 156 156
7.453125000000 18.687500000000 15.626998901367 146 146 146
7.453125000000 18.687500000000 15.750000000000 111 111 111
7.640625000000 18.671875000000 15.741989135742 120 120 120
7.640625000000 18.671875000000 15.882995605469 29 29 29
7.828125000000 18.671875000000 16.422988891602 16 16 16
7.859375000000 18.671875000000 16.517990112305 62 62 62
4.750000000000 18.593750000000 6.927993774414 145 145 145
3.593750000000 18.656250000000 7.996002197266 18 18 18
6.218750000000 18.578125000000 8.654998779297 24 24 24
6.515625000000 18.625000000000 11.725997924805 18 18 18
6.812500000000 18.609375000000 11.796997070313 153 153 153
7.265625000000 19.000000000000 12.382995605469 158 158 158
7.453125000000 18.968750000000 12.380996704102 160 160 160
7.734375000000 18.984375000000 12.311996459961 168 168 168
6.921875000000 19.015625000000 12.918991088867 152 152 152
7.140625000000 19.015625000000 12.906997680664 151 151 151
7.234375000000 19.015625000000 12.970001220703 148 148 148
7.203125000000 18.984375000000 13.104995727539 165 165 165
6.515625000000 19.031250000000 13.666992187500 138 138 138
6.546875000000 19.046875000000 13.753997802734 97 97 97
6.703125000000 19.031250000000 13.787994384766 108 108 108
7.734375000000 18.984375000000 13.216995239258 142 142 142
7.703125000000 19.000000000000 13.353988647461 148 148 148
7.765625000000 19.015625000000 13.442993164063 193 193 193
7.359375000000 19.015625000000 13.945999145508 59 59 59
7.640625000000 19.000000000000 13.876998901367 147 147 147
7.703125000000 19.015625000000 13.964996337891 170 170 170
7.828125000000 19.015625000000 14.000991821289 227 227 227
7.921875000000 19.015625000000 14.046997070313 158 158 158
7.984375000000 19.000000000000 14.116989135742 140 140 140
8.078125000000 19.000000000000 14.158996582031 137 137 137
8.109375000000 18.984375000000 14.265991210938 148 148 148
6.250000000000 19.078125000000 15.802993774414 55 55 55
7.703125000000 19.015625000000 14.839996337891 156 156 156
8.296875000000 19.000000000000 14.511993408203 123 123 123
7.890625000000 19.015625000000 14.953002929688 129 129 129
7.890625000000 19.031250000000 15.338989257813 164 164 164
8.171875000000 19.015625000000 15.246002197266 132 132 132
8.171875000000 19.015625000000 15.364990234375 126 126 126
8.265625000000 19.015625000000 15.418991088867 143 143 143
8.359375000000 19.031250000000 15.494003295898 154 154 154
4.812500000000 19.000000000000 10.228988647461 24 24 24
5.859375000000 19.015625000000 11.116989135742 40 40 40
6.843750000000 19.390625000000 14.125000000000 135 135 135
6.875000000000 19.390625000000 14.220001220703 135 135 135
7.656250000000 19.343750000000 13.929992675781 56 56 56
6.000000000000 19.421875000000 15.513000488281 140 140 140
6.000000000000 19.453125000000 15.657989501953 135 135 135
5.968750000000 19.453125000000 15.811996459961 59 59 59
7.968750000000 19.359375000000 14.422988891602 67 67 67
8.062500000000 19.359375000000 14.483001708984 144 144 144
8.281250000000 19.343750000000 14.565002441406 62 62 62
8.437500000000 19.343750000000 14.694992065430 82 82 82
6.406250000000 19.437500000000 15.905990600586 18 18 18
8.937500000000 12.531250000000 4.669998168945 113 113 113
8.046875000000 12.031250000000 4.787002563477 95 95 95
8.234375000000 12.125000000000 4.867996215820 161 161 161
9.640625000000 13.296875000000 3.179000854492 149 149 149
9.734375000000 13.328125000000 3.266998291016 167 167 167
9.609375000000 13.265625000000 3.333999633789 62 62 62
8.562500000000 12.671875000000 4.542999267578 37 37 37
9.203125000000 13.015625000000 4.610992431641 163 163 163
9.234375000000 13.031250000000 4.692993164063 191 191 191
8.312500000000 12.531250000000 4.810989379883 218 218 218
8.343750000000 12.546875000000 4.897003173828 174 174 174
8.843750000000 12.765625000000 6.063995361328 194 194 194
9.156250000000 12.968750000000 6.102996826172 155 155 155
9.453125000000 13.125000000000 6.138992309570 165 165 165
9.484375000000 13.125000000000 6.216995239258 194 194 194
9.546875000000 13.140625000000 6.373992919922 141 141 141
9.921875000000 13.359375000000 6.619995117188 136 136 136
9.984375000000 13.406250000000 6.690002441406 106 106 106
9.984375000000 13.375000000000 6.770996093750 23 23 23
9.593750000000 13.640625000000 3.136993408203 129 129 129
8.437500000000 12.953125000000 4.503997802734 58 58 58
8.671875000000 13.078125000000 4.583999633789 93 93 93
8.984375000000 13.265625000000 4.659988403320 146 146 146
9.109375000000 13.312500000000 4.738998413086 178 178 178
8.421875000000 12.984375000000 4.850997924805 163 163 163
8.031250000000 12.750000000000 4.957992553711 147 147 147
7.453125000000 12.453125000000 5.080993652344 139 139 139
8.640625000000 13.046875000000 5.615997314453 36 36 36
8.734375000000 13.109375000000 5.690994262695 152 152 152
8.125000000000 12.781250000000 5.848999023438 124 124 124
8.250000000000 12.828125000000 5.923995971680 147 147 147
9.968750000000 13.750000000000 5.866989135742 189 189 189
9.968750000000 13.750000000000 5.944992065430 208 208 208
9.687500000000 13.578125000000 6.550994873047 133 133 133
9.718750000000 13.593750000000 6.626998901367 97 97 97
