6.812500000000 19.835937500000 3.325000762939 183 183 183
6.562500000000 19.835937500000 3.269001007080 235 235 235
6.437500000000 19.835937500000 3.204998016357 124 124 124
6.468750000000 19.679687500000 6.023998260498 76 76 76
6.531250000000 19.679687500000 5.936000823975 124 124 124
6.468750000000 19.679687500000 5.884998321533 166 166 166
6.437500000000 19.679687500000 5.819995880127 146 146 146
7.031250000000 19.671875000000 5.607997894287 156 156 156
7.406250000000 19.664062500000 5.444995880127 174 174 174
7.125000000000 19.664062500000 5.444995880127 154 154 154
8.000000000000 19.648437500000 5.180995941162 188 188 188
8.000000000000 19.648437500000 5.120998382568 185 185 185
8.062500000000 19.648437500000 5.050998687744 168 168 168
7.937500000000 19.648437500000 5.013996124268 171 171 171
7.843750000000 19.648437500000 4.976001739502 171 171 171
7.531250000000 19.656250000000 4.979999542236 162 162 162
7.531250000000 19.648437500000 4.913997650146 161 161 161
7.656250000000 19.648437500000 4.830997467041 165 165 165
7.875000000000 19.648437500000 4.732997894287 163 163 163
7.906250000000 19.648437500000 4.664997100830 169 169 169
7.843750000000 19.648437500000 4.614002227783 165 165 165
7.656250000000 19.648437500000 4.583995819092 162 162 162
7.562500000000 19.648437500000 4.536998748779 171 171 171
7.500000000000 19.648437500000 4.489002227783 155 155 155
7.218750000000 19.648437500000 4.465000152588 149 149 149
7.187500000000 19.648437500000 4.407001495361 101 101 101
7.218750000000 19.648437500000 4.341999053955 134 134 134
7.187500000000 19.648437500000 4.281002044678 149 149 149
7.062500000000 19.648437500000 4.230998992920 184 184 184
7.093750000000 19.648437500000 4.165996551514 116 116 116
6.593750000000 19.648437500000 4.157001495361 154 154 154
6.843750000000 19.648437500000 4.065998077393 166 166 166
6.937500000000 19.648437500000 3.991001129150 165 165 165
6.906250000000 19.648437500000 3.928997039795 145 145 145
6.843750000000 19.648437500000 3.871997833252 163 163 163
6.843750000000 19.648437500000 3.805995941162 118 118 118
7.031250000000 19.648437500000 3.666996002197 94 94 94
7.000000000000 19.648437500000 3.604000091553 196 196 196
5.562500000000 19.656250000000 3.618999481201 150 150 150
6.781250000000 19.648437500000 3.489002227783 208 208 208
6.843750000000 19.648437500000 3.421001434326 155 155 155
6.906250000000 19.632812500000 3.354999542236 160 160 160
6.750000000000 19.648437500000 3.296001434326 175 175 175
6.656250000000 19.632812500000 3.233997344971 164 164 164
6.531250000000 19.632812500000 3.171001434326 164 164 164
6.625000000000 19.632812500000 2.909000396729 151 151 151
6.343750000000 19.648437500000 3.105998992920 94 94 94
6.531250000000 19.632812500000 2.972000122070 135 135 135
6.687500000000 19.640625000000 2.841999053955 64 64 64
6.843750000000 19.476562500000 5.686000823975 133 133 133
6.937500000000 19.468750000000 5.590999603271 156 156 156
7.250000000000 19.468750000000 5.455997467041 152 152 152
7.500000000000 19.460937500000 5.331996917725 173 173 173
7.531250000000 19.460937500000 5.257999420166 168 168 168
7.312500000000 19.468750000000 5.243999481201 163 163 163
7.312500000000 19.460937500000 5.179996490479 146 146 146
7.781250000000 19.445312500000 5.018001556396 167 167 167
7.812500000000 19.460937500000 4.955997467041 160 160 160
7.750000000000 19.453125000000 4.906002044678 157 157 157
7.750000000000 19.445312500000 4.842998504639 40 40 40
6.562500000000 19.460937500000 4.325000762939 72 72 72
6.562500000000 19.460937500000 4.259998321533 13 13 13
6.562500000000 19.460937500000 4.192996978760 10 10 10
5.562500000000 19.460937500000 3.512996673584 49 49 49
6.718750000000 19.445312500000 3.265995025635 142 142 142
6.718750000000 19.445312500000 3.201000213623 153 153 153
6.625000000000 19.437500000000 3.137996673584 152 152 152
6.718750000000 19.445312500000 3.071998596191 151 151 151
7.218750000000 19.445312500000 3.004997253418 162 162 162
7.500000000000 19.429687500000 2.882999420166 137 137 137
7.531250000000 19.429687500000 2.941997528076 154 154 154
6.750000000000 19.437500000000 2.489997863770 17 17 17
7.000000000000 19.242187500000 3.670001983643 137 137 137
6.968750000000 19.242187500000 3.608997344971 148 148 148
6.968750000000 19.250000000000 3.545001983643 162 162 162
7.031250000000 19.242187500000 3.479000091553 168 168 168
7.000000000000 19.250000000000 3.416996002197 116 116 116
6.937500000000 19.242187500000 3.355998992920 27 27 27
7.031250000000 19.242187500000 3.289997100830 143 143 143
7.125000000000 19.242187500000 3.223995208740 154 154 154
7.250000000000 19.242187500000 3.159999847412 161 161 161
7.250000000000 19.242187500000 3.097995758057 148 148 148
7.250000000000 19.242187500000 3.036998748779 155 155 155
7.312500000000 19.242187500000 2.974998474121 149 149 149
7.218750000000 19.242187500000 2.912998199463 136 136 136
7.093750000000 19.242187500000 2.849998474121 138 138 138
7.375000000000 19.226562500000 2.791999816895 140 140 140
7.375000000000 19.242187500000 2.731998443604 135 135 135
7.187500000000 19.054687500000 3.193996429443 49 49 49
7.218750000000 19.046875000000 3.131999969482 119 119 119
7.125000000000 19.046875000000 3.070999145508 163 163 163
7.062500000000 19.039062500000 3.008998870850 95 95 95
7.000000000000 19.046875000000 2.945999145508 152 152 152
7.312500000000 19.046875000000 2.883998870850 99 99 99
7.343750000000 19.039062500000 2.822998046875 74 74 74
7.468750000000 19.039062500000 2.763999938965 19 19 19
8.031250000000 22.523437500000 5.033000946045 167 167 167
7.968750000000 22.554687500000 4.975002288818 134 134 134
7.843750000000 22.625000000000 4.925998687744 144 144 144
7.812500000000 22.648437500000 4.865001678467 31 31 31
7.906250000000 22.585937500000 4.778995513916 145 145 145
7.906250000000 22.593750000000 4.714000701904 114 114 114
7.843750000000 22.617187500000 4.514995574951 120 120 120
7.843750000000 22.625000000000 4.448001861572 131 131 131
7.812500000000 22.648437500000 4.383998870850 100 100 100
7.812500000000 22.648437500000 4.316997528076 79 79 79
8.062500000000 22.312500000000 5.131000518799 110 110 110
8.031250000000 22.328125000000 5.067996978760 163 163 163
8.062500000000 22.304687500000 4.993000030518 174 174 174
8.218750000000 22.203125000000 4.896999359131 172 172 172
8.281250000000 22.187500000000 4.825000762939 170 170 170
8.218750000000 22.226562500000 4.770000457764 172 172 172
8.156250000000 22.234375000000 4.708995819092 172 172 172
8.156250000000 22.234375000000 4.643001556396 173 173 173
7.937500000000 22.375000000000 4.608997344971 168 168 168
7.812500000000 22.445312500000 4.557994842529 154 154 154
8.062500000000 22.304687500000 4.456996917725 174 174 174
8.062500000000 22.304687500000 4.392002105713 174 174 174
8.093750000000 22.289062500000 4.323001861572 176 176 176
8.093750000000 22.296875000000 4.257999420166 173 173 173
7.750000000000 22.476562500000 4.222995758057 158 158 158
8.031250000000 22.320312500000 4.128002166748 111 111 111
8.000000000000 22.335937500000 4.063999176025 175 175 175
7.937500000000 22.367187500000 4.001995086670 169 169 169
7.937500000000 22.375000000000 3.936000823975 133 133 133
7.781250000000 22.289062500000 5.651996612549 21 21 21
7.781250000000 22.289062500000 5.582996368408 117 117 117
8.593750000000 21.812500000000 5.324001312256 85 85 85
7.656250000000 22.351562500000 5.463001251221 109 109 109
7.656250000000 22.351562500000 5.390995025635 75 75 75
8.000000000000 22.148437500000 5.248996734619 122 122 122
8.437500000000 21.898437500000 5.094997406006 186 186 186
8.437500000000 21.914062500000 5.032001495361 180 180 180
8.437500000000 21.898437500000 4.965999603271 176 176 176
8.375000000000 21.921875000000 4.908000946045 176 176 176
8.406250000000 21.906250000000 4.838001251221 171 171 171
8.375000000000 21.929687500000 4.779994964600 170 170 170
8.375000000000 21.921875000000 4.714000701904 168 168 168
8.250000000000 21.976562500000 4.664997100830 174 174 174
8.187500000000 22.031250000000 4.610996246338 173 173 173
8.218750000000 22.023437500000 4.542995452881 169 169 169
8.187500000000 22.023437500000 4.479000091553 169 169 169
8.125000000000 22.078125000000 4.423999786377 181 181 181
7.968750000000 22.164062500000 4.374996185303 167 167 167
7.968750000000 22.164062500000 4.305995941162 164 164 164
8.031250000000 22.117187500000 4.232997894287 168 168 168
7.968750000000 22.164062500000 4.173000335693 167 167 167
7.812500000000 22.250000000000 4.118999481201 178 178 178
8.062500000000 22.085937500000 4.028995513916 185 185 185
8.187500000000 22.039062500000 3.955997467041 170 170 170
8.093750000000 22.085937500000 3.896999359131 172 172 172
8.031250000000 22.117187500000 3.833995819092 182 182 182
7.625000000000 22.367187500000 3.790996551514 164 164 164
7.406250000000 22.476562500000 3.731998443604 149 149 149
7.437500000000 22.453125000000 3.659999847412 167 167 167
7.468750000000 22.429687500000 3.589000701904 88 88 88
7.562500000000 22.382812500000 3.031997680664 83 83 83
7.468750000000 22.429687500000 2.960998535156 76 76 76
7.781250000000 22.085937500000 5.689998626709 8 8 8
7.750000000000 22.093750000000 5.620998382568 93 93 93
8.343750000000 21.757812500000 5.413997650146 163 163 163
8.312500000000 21.765625000000 5.354999542236 139 139 139
8.343750000000 21.757812500000 5.283000946045 174 174 174
8.312500000000 21.757812500000 5.219997406006 160 160 160
8.406250000000 21.703125000000 5.133998870850 143 143 143
8.406250000000 21.726562500000 5.074001312256 176 176 176
8.375000000000 21.734375000000 5.012996673584 171 171 171
8.343750000000 21.742187500000 4.951999664307 169 169 169
8.406250000000 21.726562500000 4.878002166748 172 172 172
8.343750000000 21.742187500000 4.818996429443 161 161 161
8.281250000000 21.781250000000 4.765995025635 166 166 166
8.281250000000 21.781250000000 4.701999664307 173 173 173
8.312500000000 21.750000000000 4.628002166748 198 198 198
8.437500000000 21.695312500000 4.548999786377 196 196 196
8.468750000000 21.671875000000 4.479000091553 174 174 174
8.500000000000 21.656250000000 4.411998748779 171 171 171
8.468750000000 21.664062500000 4.348995208740 173 173 173
8.437500000000 21.679687500000 4.288997650146 180 180 180
8.281250000000 21.789062500000 4.244998931885 206 206 206
8.312500000000 21.750000000000 4.173999786377 196 196 196
7.843750000000 22.039062500000 4.154994964600 169 169 169
7.843750000000 22.046875000000 4.089000701904 175 175 175
7.750000000000 22.085937500000 4.025997161865 169 169 169
7.937500000000 21.976562500000 3.942996978760 171 171 171
8.000000000000 21.929687500000 3.872997283936 174 174 174
7.750000000000 22.101562500000 3.821994781494 169 169 169
7.718750000000 22.093750000000 3.755001068115 154 154 154
7.656250000000 22.132812500000 3.688999176025 132 132 132
7.468750000000 22.257812500000 3.629001617432 146 146 146
7.437500000000 22.265625000000 3.560001373291 167 167 167
7.406250000000 22.289062500000 3.490001678467 154 154 154
7.406250000000 22.117187500000 5.823001861572 73 73 73
7.375000000000 22.132812500000 5.754001617432 128 128 128
8.000000000000 21.757812500000 5.532001495361 183 183 183
8.125000000000 21.687500000000 5.434001922607 177 177 177
8.000000000000 21.757812500000 5.393001556396 182 182 182
8.062500000000 21.718750000000 5.312999725342 177 177 177
8.125000000000 21.695312500000 5.235996246338 174 174 174
8.187500000000 21.664062500000 5.153995513916 178 178 178
8.187500000000 21.648437500000 5.083995819092 169 169 169
8.125000000000 21.695312500000 5.033000946045 170 170 170
8.062500000000 21.718750000000 4.973995208740 171 171 171
8.187500000000 21.640625000000 4.882999420166 181 181 181
7.906250000000 21.804687500000 4.866001129150 168 168 168
8.062500000000 21.710937500000 4.770000457764 181 181 181
8.468750000000 21.484375000000 4.644001007080 193 193 193
8.468750000000 21.476562500000 4.576999664307 188 188 188
8.437500000000 21.484375000000 4.518001556396 179 179 179
8.437500000000 21.484375000000 4.452999114990 179 179 179
8.406250000000 21.515625000000 4.395000457764 172 172 172
8.375000000000 21.539062500000 4.334995269775 173 173 173
8.312500000000 21.570312500000 4.274997711182 181 181 181
8.375000000000 21.523437500000 4.203998565674 172 172 172
8.250000000000 21.601562500000 4.151996612549 168 168 168
8.218750000000 21.617187500000 4.090000152588 175 175 175
8.375000000000 21.539062500000 4.012996673584 187 187 187
8.406250000000 21.523437500000 3.945995330811 200 200 200
7.937500000000 21.781250000000 3.913997650146 176 176 176
7.875000000000 21.820312500000 3.852001190186 184 184 184
7.500000000000 22.023437500000 3.804996490479 164 164 164
7.562500000000 22.007812500000 3.731998443604 163 163 163
7.531250000000 22.023437500000 3.663997650146 164 164 164
7.437500000000 22.054687500000 3.596996307373 150 150 150
7.312500000000 22.148437500000 3.531002044678 163 163 163
7.187500000000 22.203125000000 3.462001800537 163 163 163
7.218750000000 22.179687500000 3.389995574951 165 165 165
7.312500000000 22.140625000000 3.317996978760 161 161 161
6.968750000000 22.335937500000 3.247997283936 149 149 149
7.687500000000 21.914062500000 2.903999328613 134 134 134
7.781250000000 21.867187500000 2.974998474121 127 127 127
7.562500000000 21.835937500000 5.676998138428 65 65 65
8.000000000000 21.570312500000 5.506000518799 169 169 169
8.000000000000 21.570312500000 5.435001373291 175 175 175
8.125000000000 21.500000000000 5.338001251221 173 173 173
8.218750000000 21.429687500000 5.248996734619 178 178 178
8.156250000000 21.476562500000 5.194995880127 184 184 184
8.031250000000 21.523437500000 5.146999359131 169 169 169
8.062500000000 21.515625000000 5.076999664307 167 167 167
8.093750000000 21.507812500000 5.005001068115 176 176 176
8.218750000000 21.437500000000 4.916996002197 171 171 171
8.250000000000 21.414062500000 4.844997406006 172 172 172
8.187500000000 21.445312500000 4.786998748779 173 173 173
8.218750000000 21.437500000000 4.717998504639 169 169 169
8.250000000000 21.414062500000 4.645000457764 169 169 169
8.250000000000 21.414062500000 4.580997467041 174 174 174
8.062500000000 21.507812500000 4.537998199463 206 206 206
8.218750000000 21.429687500000 4.453998565674 178 178 178
8.218750000000 21.429687500000 4.387996673584 174 174 174
8.218750000000 21.421875000000 4.320995330811 175 175 175
8.218750000000 21.421875000000 4.256000518799 170 170 170
8.437500000000 21.304687500000 4.170001983643 184 184 184
8.468750000000 21.273437500000 4.102001190186 184 184 184
8.468750000000 21.265625000000 4.036998748779 172 172 172
8.468750000000 21.273437500000 3.973995208740 167 167 167
8.375000000000 21.335937500000 3.918994903564 172 172 172
8.156250000000 21.460937500000 3.868000030518 183 183 183
8.125000000000 21.484375000000 3.805995941162 167 167 167
7.750000000000 21.695312500000 3.758998870850 187 187 187
7.281250000000 21.960937500000 3.712001800537 144 144 144
7.906250000000 21.601562500000 3.616001129150 180 180 180
7.750000000000 21.695312500000 3.554996490479 173 173 173
7.750000000000 21.695312500000 3.486995697021 148 148 148
7.812500000000 21.648437500000 3.416996002197 171 171 171
7.750000000000 21.695312500000 3.351001739502 186 186 186
7.093750000000 22.070312500000 3.285999298096 163 163 163
7.218750000000 21.984375000000 3.214000701904 155 155 155
8.062500000000 21.351562500000 5.875995635986 159 159 159
8.031250000000 21.367187500000 5.812000274658 133 133 133
8.000000000000 21.367187500000 5.744998931885 178 178 178
7.968750000000 21.398437500000 5.685001373291 187 187 187
8.000000000000 21.382812500000 5.612995147705 198 198 198
7.812500000000 21.476562500000 5.581996917725 166 166 166
7.812500000000 21.476562500000 5.513996124268 173 173 173
7.687500000000 21.539062500000 5.464000701904 188 188 188
7.656250000000 21.585937500000 5.409999847412 170 170 170
7.718750000000 21.539062500000 5.321994781494 180 180 180
7.812500000000 21.476562500000 5.231998443604 175 175 175
8.156250000000 21.281250000000 5.097995758057 197 197 197
8.156250000000 21.273437500000 5.026996612549 175 175 175
8.156250000000 21.257812500000 4.957996368408 171 171 171
8.156250000000 21.273437500000 4.894001007080 169 169 169
8.125000000000 21.289062500000 4.831996917725 167 167 167
8.093750000000 21.312500000000 4.771999359131 170 170 170
8.062500000000 21.335937500000 4.712001800537 170 170 170
8.187500000000 21.250000000000 4.624996185303 175 175 175
8.437500000000 21.101562500000 4.523998260498 181 181 181
8.406250000000 21.117187500000 4.462001800537 192 192 192
8.406250000000 21.125000000000 4.399997711182 178 178 178
7.937500000000 21.390625000000 4.387996673584 170 170 170
7.937500000000 21.398437500000 4.321994781494 176 176 176
8.718750000000 20.953125000000 4.173999786377 210 210 210
8.625000000000 20.992187500000 4.119998931885 227 227 227
7.750000000000 21.507812500000 4.137996673584 172 172 172
8.625000000000 20.976562500000 3.993999481201 207 207 207
8.656250000000 20.968750000000 3.930995941162 201 201 201
8.218750000000 21.234375000000 3.898998260498 175 175 175
8.343750000000 21.164062500000 3.826999664307 168 168 168
8.562500000000 21.007812500000 3.747997283936 182 182 182
8.562500000000 21.023437500000 3.686000823975 177 177 177
8.375000000000 21.148437500000 3.631999969482 177 177 177
8.375000000000 21.148437500000 3.567996978760 178 178 178
8.187500000000 21.242187500000 3.509998321533 178 178 178
7.500000000000 21.632812500000 3.459995269775 156 156 156
8.000000000000 21.359375000000 3.382999420166 186 186 186
7.875000000000 21.414062500000 3.316997528076 184 184 184
7.656250000000 21.554687500000 3.250995635986 131 131 131
7.375000000000 21.554687500000 6.022998809814 69 69 69
7.468750000000 21.492187500000 5.924999237061 146 146 146
7.343750000000 21.554687500000 5.876995086670 157 157 157
7.906250000000 21.242187500000 5.670001983643 155 155 155
7.843750000000 21.250000000000 5.606998443604 161 161 161
7.906250000000 21.242187500000 5.528995513916 175 175 175
7.906250000000 21.242187500000 5.457996368408 168 168 168
8.250000000000 21.015625000000 5.312000274658 198 198 198
8.312500000000 20.984375000000 5.229999542236 179 179 179
8.250000000000 21.015625000000 5.176998138428 176 176 176
8.187500000000 21.078125000000 5.128002166748 174 174 174
8.156250000000 21.078125000000 5.062999725342 175 175 175
8.156250000000 21.085937500000 4.999996185303 175 175 175
8.531250000000 20.859375000000 4.864002227783 188 188 188
8.562500000000 20.843750000000 4.795001983643 176 176 176
8.500000000000 20.867187500000 4.739002227783 179 179 179
8.437500000000 20.921875000000 4.688999176025 183 183 183
8.531250000000 20.859375000000 4.607997894287 181 181 181
8.500000000000 20.882812500000 4.549999237061 179 179 179
8.468750000000 20.906250000000 4.490001678467 174 174 174
8.500000000000 20.882812500000 4.422000885010 169 169 169
8.375000000000 20.945312500000 4.370998382568 176 176 176
8.562500000000 20.835937500000 4.286998748779 168 168 168
8.531250000000 20.867187500000 4.227001190186 174 174 174
8.625000000000 20.789062500000 4.151996612549 189 189 189
8.625000000000 20.820312500000 4.092998504639 192 192 192
8.625000000000 20.804687500000 4.027996063232 175 175 175
8.562500000000 20.828125000000 3.969997406006 168 168 168
8.562500000000 20.828125000000 3.907001495361 173 173 173
8.500000000000 20.867187500000 3.848995208740 186 186 186
8.531250000000 20.859375000000 3.784000396729 178 178 178
8.375000000000 20.937500000000 3.729000091553 181 181 181
8.500000000000 20.875000000000 3.659999847412 177 177 177
8.500000000000 20.867187500000 3.595996856689 171 171 171
8.375000000000 20.945312500000 3.537998199463 168 168 168
8.281250000000 21.000000000000 3.476001739502 172 172 172
7.562500000000 21.242187500000 6.006000518799 138 138 138
7.781250000000 21.117187500000 5.881999969482 135 135 135
7.781250000000 21.132812500000 5.811000823975 165 165 165
7.750000000000 21.140625000000 5.747997283936 81 81 81
7.781250000000 21.117187500000 5.666996002197 159 159 159
7.812500000000 21.101562500000 5.587001800537 168 168 168
7.562500000000 21.242187500000 5.571994781494 174 174 174
8.000000000000 20.984375000000 5.404994964600 190 190 190
8.187500000000 20.882812500000 5.298000335693 186 186 186
8.218750000000 20.859375000000 5.225002288818 166 166 166
8.156250000000 20.882812500000 5.164997100830 171 171 171
8.156250000000 20.898437500000 5.103000640869 178 178 178
8.156250000000 20.898437500000 5.034999847412 174 174 174
8.187500000000 20.882812500000 4.963001251221 165 165 165
8.593750000000 20.632812500000 4.825000762939 190 190 190
8.593750000000 20.648437500000 4.762996673584 181 181 181
8.531250000000 20.656250000000 4.702999114990 186 186 186
8.687500000000 20.562500000000 4.614002227783 176 176 176
8.718750000000 20.546875000000 4.548000335693 175 175 175
8.750000000000 20.539062500000 4.484996795654 174 174 174
8.625000000000 20.617187500000 4.438999176025 172 172 172
8.656250000000 20.593750000000 4.369998931885 166 166 166
8.531250000000 20.679687500000 4.325000762939 167 167 167
8.500000000000 20.679687500000 4.261997222900 167 167 167
8.406250000000 20.734375000000 4.208995819092 167 167 167
8.343750000000 20.757812500000 4.148998260498 168 168 168
8.437500000000 20.710937500000 4.076999664307 168 168 168
8.593750000000 20.632812500000 4.001995086670 172 172 172
8.500000000000 20.671875000000 3.944995880127 177 177 177
8.531250000000 20.648437500000 3.879001617432 169 169 169
8.531250000000 20.664062500000 3.816997528076 168 168 168
8.500000000000 20.679687500000 3.756000518799 170 170 170
8.343750000000 20.765625000000 3.700000762939 166 166 166
8.562500000000 20.640625000000 3.626995086670 172 172 172
8.593750000000 20.617187500000 3.562999725342 170 170 170
8.406250000000 20.734375000000 3.506000518799 166 166 166
8.187500000000 20.851562500000 3.446994781494 164 164 164
8.093750000000 20.906250000000 3.382999420166 180 180 180
8.031250000000 20.929687500000 3.317996978760 205 205 205
7.375000000000 21.156250000000 6.100002288818 77 77 77
7.718750000000 20.960937500000 5.936000823975 13 13 13
7.687500000000 20.976562500000 5.868999481201 141 141 141
7.656250000000 20.984375000000 5.801998138428 161 161 161
7.593750000000 21.039062500000 5.753002166748 157 157 157
7.593750000000 21.023437500000 5.675998687744 161 161 161
7.468750000000 21.085937500000 5.630001068115 154 154 154
8.187500000000 20.664062500000 5.395999908447 201 201 201
8.062500000000 20.750000000000 5.355998992920 203 203 203
8.343750000000 20.585937500000 5.230998992920 184 184 184
8.312500000000 20.617187500000 5.176998138428 199 199 199
8.312500000000 20.609375000000 5.105998992920 187 187 187
8.343750000000 20.585937500000 5.032001495361 183 183 183
8.250000000000 20.648437500000 4.987995147705 191 191 191
8.250000000000 20.648437500000 4.921001434326 184 184 184
8.156250000000 20.679687500000 4.867000579834 193 193 193
8.125000000000 20.718750000000 4.809001922607 175 175 175
8.000000000000 20.773437500000 4.758998870850 182 182 182
8.406250000000 20.539062500000 4.631000518799 192 192 192
8.437500000000 20.523437500000 4.559001922607 173 173 173
8.468750000000 20.507812500000 4.493999481201 169 169 169
8.468750000000 20.507812500000 4.429996490479 165 165 165
8.468750000000 20.507812500000 4.366001129150 169 169 169
8.500000000000 20.492187500000 4.298999786377 180 180 180
8.500000000000 20.492187500000 4.233997344971 166 166 166
8.343750000000 20.570312500000 4.185001373291 175 175 175
8.312500000000 20.601562500000 4.124996185303 169 169 169
8.312500000000 20.601562500000 4.060001373291 167 167 167
8.125000000000 20.695312500000 4.008998870850 173 173 173
8.250000000000 20.648437500000 3.936000823975 163 163 163
8.031250000000 20.757812500000 3.883998870850 189 189 189
8.250000000000 20.632812500000 3.804996490479 189 189 189
8.343750000000 20.570312500000 3.734996795654 197 197 197
8.312500000000 20.585937500000 3.672000885010 188 188 188
8.312500000000 20.601562500000 3.607997894287 172 172 172
8.156250000000 20.679687500000 3.548000335693 188 188 188
8.125000000000 20.695312500000 3.483997344971 169 169 169
8.062500000000 20.742187500000 3.420001983643 178 178 178
7.937500000000 20.804687500000 3.354999542236 190 190 190
7.500000000000 21.070312500000 3.290996551514 183 183 183
7.562500000000 21.023437500000 3.220996856689 172 172 172
7.906250000000 20.812500000000 3.154994964600 163 163 163
7.375000000000 20.968750000000 6.140995025635 95 95 95
7.343750000000 20.984375000000 6.074001312256 171 171 171
7.500000000000 20.882812500000 5.955997467041 171 171 171
7.531250000000 20.882812500000 5.879001617432 163 163 163
7.500000000000 20.898437500000 5.812999725342 162 162 162
7.500000000000 20.882812500000 5.739002227783 170 170 170
7.500000000000 20.898437500000 5.668994903564 163 163 163
7.437500000000 20.921875000000 5.605998992920 167 167 167
7.312500000000 20.992187500000 5.562000274658 160 160 160
8.406250000000 20.351562500000 5.249996185303 243 243 243
8.281250000000 20.429687500000 5.214000701904 220 220 220
8.156250000000 20.492187500000 5.172000885010 190 190 190
8.406250000000 20.359375000000 5.060001373291 176 176 176
8.218750000000 20.460937500000 5.022998809814 186 186 186
8.562500000000 20.257812500000 4.833995819092 185 185 185
8.500000000000 20.296875000000 4.779994964600 189 189 189
8.468750000000 20.320312500000 4.719997406006 182 182 182
8.250000000000 20.445312500000 4.688999176025 173 173 173
8.437500000000 20.328125000000 4.594997406006 176 176 176
8.375000000000 20.367187500000 4.540996551514 181 181 181
8.531250000000 20.273437500000 4.454998016357 193 193 193
8.562500000000 20.257812500000 4.387996673584 170 170 170
8.437500000000 20.335937500000 4.340000152588 167 167 167
8.468750000000 20.320312500000 4.271999359131 165 165 165
8.406250000000 20.351562500000 4.214000701904 165 165 165
8.343750000000 20.398437500000 4.158000946045 167 167 167
8.218750000000 20.445312500000 4.102001190186 164 164 164
8.187500000000 20.476562500000 4.039997100830 164 164 164
8.312500000000 20.398437500000 3.964000701904 168 168 168
8.343750000000 20.382812500000 3.897998809814 171 171 171
8.343750000000 20.382812500000 3.833995819092 170 170 170
8.312500000000 20.398437500000 3.770999908447 177 177 177
8.218750000000 20.445312500000 3.710994720459 164 164 164
8.187500000000 20.468750000000 3.646999359131 160 160 160
8.062500000000 20.539062500000 3.587001800537 170 170 170
8.062500000000 20.546875000000 3.520999908447 166 166 166
8.093750000000 20.523437500000 3.453998565674 175 175 175
8.093750000000 20.523437500000 3.387996673584 163 163 163
8.000000000000 20.578125000000 3.323001861572 190 190 190
7.750000000000 20.710937500000 3.256999969482 176 176 176
7.781250000000 20.687500000000 3.188999176025 179 179 179
7.750000000000 20.710937500000 3.120998382568 184 184 184
7.750000000000 20.710937500000 3.052997589111 176 176 176
7.687500000000 20.750000000000 2.983997344971 125 125 125
7.718750000000 20.742187500000 2.916000366211 162 162 162
7.781250000000 20.539062500000 6.064998626709 134 134 134
7.750000000000 20.546875000000 5.999996185303 105 105 105
7.718750000000 20.562500000000 5.937999725342 122 122 122
7.750000000000 20.539062500000 5.855998992920 154 154 154
7.968750000000 20.429687500000 5.735996246338 168 168 168
7.937500000000 20.445312500000 5.673000335693 175 175 175
8.218750000000 20.281250000000 5.533000946045 210 210 210
7.968750000000 20.414062500000 5.520999908447 187 187 187
8.031250000000 20.398437500000 5.442996978760 182 182 182
8.031250000000 20.382812500000 5.371997833252 175 175 175
8.062500000000 20.351562500000 5.293994903564 190 190 190
8.250000000000 20.250000000000 5.187000274658 189 189 189
8.156250000000 20.304687500000 5.142002105713 159 159 159
8.312500000000 20.210937500000 5.042995452881 168 168 168
8.281250000000 20.226562500000 4.983997344971 168 168 168
8.187500000000 20.289062500000 4.931995391846 179 179 179
8.156250000000 20.296875000000 4.870998382568 166 166 166
8.125000000000 20.320312500000 4.810001373291 165 165 165
8.343750000000 20.195312500000 4.710994720459 181 181 181
8.375000000000 20.171875000000 4.639995574951 168 168 168
8.312500000000 20.203125000000 4.582996368408 175 175 175
8.312500000000 20.210937500000 4.519001007080 170 170 170
8.312500000000 20.203125000000 4.451999664307 170 170 170
8.375000000000 20.171875000000 4.381000518799 166 166 166
8.187500000000 20.273437500000 4.335994720459 178 178 178
8.156250000000 20.289062500000 4.273998260498 180 180 180
8.125000000000 20.312500000000 4.210994720459 177 177 177
8.187500000000 20.289062500000 4.140995025635 169 169 169
8.093750000000 20.335937500000 4.082996368408 180 180 180
8.062500000000 20.343750000000 4.018001556396 193 193 193
8.031250000000 20.375000000000 3.954998016357 190 190 190
8.000000000000 20.382812500000 3.889995574951 208 208 208
7.875000000000 20.445312500000 3.830997467041 197 197 197
7.500000000000 20.679687500000 3.784000396729 179 179 179
7.531250000000 20.656250000000 3.713001251221 179 179 179
8.093750000000 20.320312500000 3.619998931885 204 204 204
8.125000000000 20.304687500000 3.552997589111 190 190 190
8.125000000000 20.296875000000 3.486995697021 166 166 166
8.031250000000 20.375000000000 3.423999786377 162 162 162
8.000000000000 20.398437500000 3.357997894287 173 173 173
7.875000000000 20.445312500000 3.291996002197 179 179 179
7.687500000000 20.554687500000 3.225002288818 155 155 155
7.843750000000 20.460937500000 3.158000946045 154 154 154
7.750000000000 20.507812500000 3.088996887207 169 169 169
7.437500000000 20.703125000000 2.802997589111 62 62 62
7.687500000000 20.414062500000 6.282001495361 21 21 21
7.687500000000 20.382812500000 6.198001861572 53 53 53
7.750000000000 20.351562500000 6.111995697021 105 105 105
7.687500000000 20.406250000000 6.059001922607 110 110 110
8.281250000000 20.054687500000 5.826000213623 174 174 174
8.218750000000 20.070312500000 5.765995025635 183 183 183
8.218750000000 20.085937500000 5.703998565674 201 201 201
8.218750000000 20.070312500000 5.630001068115 177 177 177
8.218750000000 20.085937500000 5.569995880127 177 177 177
8.156250000000 20.117187500000 5.511997222900 176 176 176
8.281250000000 20.054687500000 5.420001983643 170 170 170
8.312500000000 20.023437500000 5.344997406006 172 172 172
8.281250000000 20.054687500000 5.285999298096 182 182 182
8.218750000000 20.078125000000 5.228000640869 167 167 167
8.250000000000 20.054687500000 5.153995513916 179 179 179
8.125000000000 20.117187500000 5.111995697021 173 173 173
8.093750000000 20.148437500000 5.052997589111 165 165 165
8.093750000000 20.164062500000 4.986995697021 171 171 171
8.093750000000 20.140625000000 4.915996551514 166 166 166
8.093750000000 20.140625000000 4.848995208740 168 168 168
8.031250000000 20.179687500000 4.793994903564 169 169 169
8.125000000000 20.125000000000 4.710994720459 174 174 174
8.062500000000 20.179687500000 4.656002044678 164 164 164
8.125000000000 20.117187500000 4.576000213623 171 171 171
8.125000000000 20.117187500000 4.509998321533 179 179 179
8.062500000000 20.164062500000 4.452999114990 179 179 179
8.125000000000 20.132812500000 4.380001068115 171 171 171
8.031250000000 20.171875000000 4.320995330811 166 166 166
7.843750000000 20.273437500000 4.272998809814 179 179 179
7.656250000000 20.382812500000 4.223995208740 171 171 171
7.687500000000 20.382812500000 4.154994964600 179 179 179
7.593750000000 20.429687500000 4.091999053955 169 169 169
7.687500000000 20.382812500000 4.017002105713 176 176 176
7.812500000000 20.304687500000 3.937999725342 177 177 177
7.718750000000 20.335937500000 3.873996734619 198 198 198
7.718750000000 20.335937500000 3.804996490479 181 181 181
7.718750000000 20.343750000000 3.737995147705 196 196 196
7.531250000000 20.453125000000 3.677997589111 213 213 213
7.531250000000 20.445312500000 3.607997894287 173 173 173
7.656250000000 20.398437500000 3.535999298096 171 171 171
7.843750000000 20.289062500000 3.462001800537 177 177 177
7.875000000000 20.257812500000 3.394001007080 163 163 163
7.843750000000 20.273437500000 3.326999664307 167 167 167
7.750000000000 20.320312500000 3.259998321533 178 178 178
7.781250000000 20.320312500000 3.190998077393 160 160 160
7.750000000000 20.320312500000 3.123996734619 138 138 138
7.656250000000 20.382812500000 3.053997039795 46 46 46
7.656250000000 20.367187500000 2.986000061035 76 76 76
7.843750000000 20.265625000000 2.448997497559 105 105 105
7.687500000000 20.210937500000 6.394001007080 28 28 28
7.625000000000 20.242187500000 6.333995819092 72 72 72
7.562500000000 20.273437500000 6.278995513916 141 141 141
7.531250000000 20.289062500000 6.209995269775 124 124 124
7.468750000000 20.335937500000 6.159999847412 125 125 125
7.437500000000 20.351562500000 6.090000152588 145 145 145
7.406250000000 20.367187500000 6.022998809814 161 161 161
7.437500000000 20.351562500000 5.942996978760 168 168 168
7.375000000000 20.382812500000 5.883998870850 161 161 161
7.406250000000 20.351562500000 5.799999237061 158 158 158
7.437500000000 20.351562500000 5.721996307373 170 170 170
7.531250000000 20.273437500000 5.623996734619 172 172 172
7.875000000000 20.085937500000 5.478000640869 183 183 183
7.812500000000 20.117187500000 5.420001983643 192 192 192
7.875000000000 20.070312500000 5.333995819092 171 171 171
7.875000000000 20.085937500000 5.268001556396 169 169 169
7.875000000000 20.085937500000 5.198001861572 173 173 173
8.000000000000 20.000000000000 5.104000091553 163 163 163
7.968750000000 20.039062500000 5.045001983643 167 167 167
7.968750000000 20.023437500000 4.973995208740 193 193 193
7.937500000000 20.039062500000 4.909999847412 183 183 183
8.031250000000 19.992187500000 4.828998565674 169 169 169
8.000000000000 20.007812500000 4.767002105713 170 170 170
8.000000000000 20.007812500000 4.700000762939 159 159 159
7.906250000000 20.054687500000 4.644001007080 162 162 162
7.781250000000 20.132812500000 4.592998504639 159 159 159
7.875000000000 20.085937500000 4.513996124268 173 173 173
7.906250000000 20.054687500000 4.439998626709 169 169 169
7.812500000000 20.117187500000 4.381999969482 177 177 177
7.781250000000 20.117187500000 4.315998077393 184 184 184
7.843750000000 20.085937500000 4.242000579834 178 178 178
7.812500000000 20.101562500000 4.175998687744 175 175 175
7.812500000000 20.101562500000 4.107997894287 172 172 172
7.906250000000 20.054687500000 4.034000396729 166 166 166
7.937500000000 20.039062500000 3.965000152588 172 172 172
7.875000000000 20.054687500000 3.899997711182 170 170 170
7.812500000000 20.101562500000 3.837001800537 166 166 166
7.750000000000 20.148437500000 3.773998260498 168 168 168
7.656250000000 20.195312500000 3.708995819092 183 183 183
7.562500000000 20.242187500000 3.643001556396 172 172 172
7.500000000000 20.273437500000 3.576000213623 169 169 169
7.718750000000 20.156250000000 3.500995635986 173 173 173
7.718750000000 20.156250000000 3.432994842529 175 175 175
7.750000000000 20.148437500000 3.364002227783 165 165 165
7.687500000000 20.179687500000 3.296001434326 172 172 172
7.562500000000 20.257812500000 3.227001190186 178 178 178
7.593750000000 20.226562500000 3.158000946045 162 162 162
7.562500000000 20.242187500000 3.088996887207 165 165 165
7.625000000000 20.195312500000 2.881999969482 157 157 157
7.437500000000 20.320312500000 3.015998840332 119 119 119
7.781250000000 20.101562500000 2.955997467041 147 147 147
7.625000000000 20.210937500000 2.812000274658 102 102 102
7.406250000000 20.335937500000 2.732997894287 112 112 112
7.312500000000 20.242187500000 6.171001434326 107 107 107
7.250000000000 20.257812500000 6.103000640869 75 75 75
7.250000000000 20.273437500000 6.034999847412 135 135 135
7.187500000000 20.304687500000 5.971996307373 154 154 154
7.187500000000 20.312500000000 5.899997711182 161 161 161
7.125000000000 20.328125000000 5.834995269775 165 165 165
7.156250000000 20.320312500000 5.755001068115 172 172 172
7.187500000000 20.289062500000 5.666996002197 159 159 159
7.125000000000 20.320312500000 5.605998992920 157 157 157
7.656250000000 20.007812500000 5.418994903564 201 201 201
8.093750000000 19.757812500000 5.256999969482 230 230 230
8.093750000000 19.757812500000 5.188999176025 194 194 194
8.125000000000 19.742187500000 5.118000030518 168 168 168
8.062500000000 19.773437500000 5.061000823975 168 168 168
8.062500000000 19.789062500000 4.994998931885 164 164 164
8.031250000000 19.796875000000 4.929996490479 166 166 166
7.906250000000 19.851562500000 4.881000518799 164 164 164
7.937500000000 19.851562500000 4.810001373291 166 166 166
8.093750000000 19.765625000000 4.720996856689 169 169 169
8.000000000000 19.820312500000 4.664997100830 175 175 175
8.000000000000 19.812500000000 4.598995208740 167 167 167
7.937500000000 19.851562500000 4.538997650146 175 175 175
7.843750000000 19.914062500000 4.484996795654 171 171 171
7.812500000000 19.929687500000 4.418994903564 172 172 172
7.593750000000 20.054687500000 4.373996734619 185 185 185
7.531250000000 20.085937500000 4.310001373291 175 175 175
7.406250000000 20.171875000000 4.255001068115 194 194 194
7.281250000000 20.226562500000 4.193996429443 177 177 177
7.468750000000 20.109375000000 4.104000091553 175 175 175
7.531250000000 20.085937500000 4.031002044678 172 172 172
7.593750000000 20.046875000000 3.955997467041 170 170 170
7.625000000000 20.023437500000 3.883998870850 166 166 166
7.718750000000 19.960937500000 3.810001373291 172 172 172
7.687500000000 19.984375000000 3.743000030518 172 172 172
7.687500000000 19.976562500000 3.673000335693 162 162 162
7.625000000000 20.023437500000 3.606998443604 173 173 173
7.531250000000 20.085937500000 3.540996551514 166 166 166
7.531250000000 20.085937500000 3.471996307373 172 172 172
7.531250000000 20.085937500000 3.401996612549 173 173 173
7.468750000000 20.101562500000 3.332996368408 168 168 168
7.406250000000 20.132812500000 3.262996673584 171 171 171
7.375000000000 20.164062500000 3.191997528076 168 168 168
7.375000000000 20.164062500000 3.120998382568 166 166 166
7.375000000000 20.164062500000 2.909000396729 173 173 173
7.406250000000 20.164062500000 3.050998687744 83 83 83
7.375000000000 20.179687500000 2.979999542236 107 107 107
7.500000000000 20.085937500000 2.843997955322 129 129 129
7.375000000000 20.164062500000 2.767997741699 137 137 137
7.562500000000 20.062500000000 2.705997467041 12 12 12
7.875000000000 19.859375000000 2.655998229980 36 36 36
7.843750000000 19.898437500000 2.584999084473 14 14 14
7.218750000000 20.109375000000 6.233997344971 32 32 32
7.218750000000 20.093750000000 6.077999114990 140 140 140
7.187500000000 20.117187500000 6.011997222900 169 169 169
7.062500000000 20.179687500000 5.964000701904 174 174 174
7.093750000000 20.148437500000 5.876995086670 175 175 175
7.000000000000 20.226562500000 5.829998016357 184 184 184
7.031250000000 20.210937500000 5.748996734619 163 163 163
7.031250000000 20.203125000000 5.672000885010 166 166 166
6.968750000000 20.250000000000 5.611995697021 173 173 173
6.968750000000 20.250000000000 5.535999298096 176 176 176
6.781250000000 20.351562500000 5.492000579834 171 171 171
7.875000000000 19.710937500000 5.203998565674 241 241 241
7.937500000000 19.664062500000 5.117000579834 208 208 208
7.937500000000 19.648437500000 5.046001434326 168 168 168
7.906250000000 19.679687500000 4.986995697021 172 172 172
7.843750000000 19.718750000000 4.927997589111 160 160 160
7.687500000000 19.789062500000 4.882999420166 161 161 161
7.562500000000 19.875000000000 4.834995269775 161 161 161
7.781250000000 19.742187500000 4.730998992920 172 172 172
7.906250000000 19.671875000000 4.644001007080 175 175 175
7.750000000000 19.765625000000 4.596996307373 180 180 180
7.718750000000 19.781250000000 4.532001495361 175 175 175
7.687500000000 19.804687500000 4.465999603271 167 167 167
7.625000000000 19.820312500000 4.402996063232 173 173 173
7.531250000000 19.898437500000 4.344997406006 172 172 172
7.156250000000 20.109375000000 4.312000274658 176 176 176
7.468750000000 19.929687500000 4.209995269775 169 169 169
7.531250000000 19.882812500000 4.132999420166 176 176 176
7.531250000000 19.898437500000 4.063999176025 171 171 171
7.500000000000 19.898437500000 3.994998931885 174 174 174
7.468750000000 19.914062500000 3.927997589111 165 165 165
7.437500000000 19.945312500000 3.859996795654 165 165 165
7.250000000000 20.039062500000 3.798999786377 171 171 171
7.468750000000 19.921875000000 3.717998504639 175 175 175
7.250000000000 20.054687500000 3.657001495361 171 171 171
7.343750000000 20.007812500000 3.581996917725 169 169 169
7.250000000000 20.039062500000 3.512996673584 164 164 164
7.187500000000 20.070312500000 3.441997528076 165 165 165
7.187500000000 20.070312500000 3.369998931885 158 158 158
7.187500000000 20.085937500000 3.081996917725 41 41 41
7.187500000000 20.085937500000 3.298000335693 169 169 169
7.187500000000 20.070312500000 3.226001739502 145 145 145
7.187500000000 20.085937500000 3.153995513916 31 31 31
7.062500000000 20.132812500000 3.007999420166 39 39 39
7.062500000000 20.164062500000 2.933998107910 53 53 53
6.875000000000 20.242187500000 2.855998992920 101 101 101
6.875000000000 20.257812500000 2.780998229980 24 24 24
6.750000000000 20.179687500000 6.243000030518 67 67 67
6.750000000000 20.179687500000 6.160999298096 137 137 137
7.000000000000 20.039062500000 6.024997711182 172 172 172
6.937500000000 20.070312500000 5.958995819092 159 159 159
6.937500000000 20.070312500000 5.885997772217 156 156 156
6.812500000000 20.132812500000 5.832996368408 159 159 159
6.750000000000 20.164062500000 5.770999908447 161 161 161
6.937500000000 20.054687500000 5.648998260498 164 164 164
7.562500000000 19.710937500000 5.441997528076 189 189 189
7.437500000000 19.757812500000 5.394001007080 184 184 184
7.656250000000 19.648437500000 5.282001495361 170 170 170
7.781250000000 19.570312500000 5.186000823975 168 168 168
7.687500000000 19.625000000000 5.132999420166 168 168 168
7.718750000000 19.601562500000 5.057994842529 167 167 167
7.593750000000 19.664062500000 5.004001617432 170 170 170
7.687500000000 19.609375000000 4.917995452881 164 164 164
7.718750000000 19.601562500000 4.846996307373 166 166 166
7.718750000000 19.601562500000 4.776996612549 166 166 166
7.687500000000 19.609375000000 4.708995819092 161 161 161
7.687500000000 19.601562500000 4.638996124268 171 171 171
7.593750000000 19.679687500000 4.583995819092 172 172 172
7.593750000000 19.671875000000 4.513996124268 171 171 171
7.531250000000 19.710937500000 4.452999114990 170 170 170
7.406250000000 19.781250000000 4.395000457764 169 169 169
7.437500000000 19.757812500000 4.318996429443 170 170 170
7.437500000000 19.765625000000 4.249996185303 165 165 165
7.375000000000 19.789062500000 4.182994842529 167 167 167
7.343750000000 19.804687500000 4.114002227783 164 164 164
7.250000000000 19.851562500000 4.049999237061 166 166 166
7.218750000000 19.882812500000 3.980998992920 162 162 162
6.875000000000 20.070312500000 3.929996490479 182 182 182
7.093750000000 19.953125000000 3.843997955322 172 172 172
7.156250000000 19.914062500000 3.767002105713 165 165 165
7.156250000000 19.914062500000 3.694995880127 172 172 172
7.250000000000 19.851562500000 3.618999481201 175 175 175
7.250000000000 19.851562500000 3.547000885010 167 167 167
7.218750000000 19.882812500000 3.477001190186 167 167 167
7.156250000000 19.898437500000 3.406002044678 162 162 162
7.093750000000 19.945312500000 3.188999176025 163 163 163
6.968750000000 20.023437500000 3.115001678467 168 168 168
6.781250000000 20.117187500000 2.963996887207 181 181 181
6.906250000000 20.054687500000 2.819000244141 147 147 147
7.125000000000 19.929687500000 3.333995819092 115 115 115
7.093750000000 19.945312500000 3.261997222900 144 144 144
6.843750000000 20.085937500000 3.039997100830 147 147 147
6.843750000000 20.085937500000 2.890998840332 164 164 164
6.968750000000 20.023437500000 2.746997833252 87 87 87
6.781250000000 19.953125000000 6.269001007080 82 82 82
6.750000000000 19.984375000000 6.201999664307 79 79 79
6.687500000000 20.015625000000 6.139995574951 126 126 126
6.687500000000 20.007812500000 6.059001922607 83 83 83
6.625000000000 20.054687500000 5.995998382568 133 133 133
6.593750000000 20.062500000000 5.923999786377 130 130 130
6.562500000000 20.085937500000 5.853000640869 148 148 148
7.156250000000 19.757812500000 5.646999359131 185 185 185
7.062500000000 19.789062500000 5.585994720459 151 151 151
7.093750000000 19.781250000000 5.506000518799 167 167 167
7.156250000000 19.734375000000 5.413997650146 159 159 159
7.593750000000 19.492187500000 5.257999420166 190 190 190
7.500000000000 19.539062500000 5.202999114990 172 172 172
7.500000000000 19.531250000000 5.129001617432 173 173 173
7.625000000000 19.445312500000 5.034999847412 170 170 170
7.625000000000 19.445312500000 4.965000152588 176 176 176
7.593750000000 19.492187500000 4.901996612549 163 163 163
7.500000000000 19.531250000000 4.842998504639 193 193 193
7.343750000000 19.617187500000 4.795001983643 174 174 174
7.312500000000 19.648437500000 4.728000640869 167 167 167
7.312500000000 19.632812500000 4.653995513916 166 166 166
7.250000000000 19.656250000000 4.589000701904 166 166 166
7.187500000000 19.703125000000 4.525997161865 164 164 164
7.187500000000 19.710937500000 4.453998565674 176 176 176
7.125000000000 19.757812500000 4.388996124268 182 182 182
7.187500000000 19.695312500000 4.306995391846 165 165 165
7.156250000000 19.726562500000 4.239002227783 168 168 168
7.187500000000 19.718750000000 4.164997100830 164 164 164
7.125000000000 19.742187500000 4.095996856689 164 164 164
7.062500000000 19.773437500000 4.027996063232 183 183 183
6.406250000000 20.164062500000 3.998996734619 174 174 174
6.750000000000 19.960937500000 3.899997711182 199 199 199
6.937500000000 19.851562500000 3.815998077393 175 175 175
6.875000000000 19.882812500000 3.743999481201 170 170 170
6.875000000000 19.890625000000 3.671001434326 166 166 166
6.875000000000 19.875000000000 3.595996856689 157 157 157
7.000000000000 19.812500000000 3.518001556396 173 173 173
6.968750000000 19.835937500000 3.445995330811 164 164 164
6.906250000000 19.867187500000 3.372997283936 165 165 165
6.812500000000 19.898437500000 3.299999237061 163 163 163
6.781250000000 19.929687500000 3.225002288818 157 157 157
6.687500000000 19.992187500000 3.149997711182 164 164 164
6.625000000000 20.023437500000 3.072998046875 67 67 67
6.750000000000 19.960937500000 3.000000000000 84 84 84
7.531250000000 19.500000000000 2.945999145508 116 116 116
6.531250000000 19.726562500000 5.951000213623 129 129 129
6.500000000000 19.734375000000 5.872997283936 135 135 135
6.781250000000 19.585937500000 5.733997344971 153 153 153
6.906250000000 19.492187500000 5.624996185303 165 165 165
6.843750000000 19.539062500000 5.566997528076 167 167 167
6.875000000000 19.507812500000 5.480998992920 172 172 172
6.656250000000 19.640625000000 5.448001861572 164 164 164
6.781250000000 19.570312500000 5.347995758057 167 167 167
6.562500000000 19.695312500000 5.310001373291 167 167 167
6.562500000000 19.695312500000 5.229999542236 168 168 168
6.343750000000 19.820312500000 5.188999176025 164 164 164
6.250000000000 19.875000000000 5.126995086670 163 163 163
6.125000000000 19.960937500000 5.066997528076 154 154 154
6.187500000000 19.914062500000 4.977001190186 153 153 153
6.218750000000 19.898437500000 4.893001556396 150 150 150
6.031250000000 20.000000000000 4.354000091553 132 132 132
6.468750000000 19.750000000000 4.234996795654 168 168 168
6.625000000000 19.632812500000 4.142002105713 169 169 169
6.656250000000 19.632812500000 4.064998626709 164 164 164
6.625000000000 19.632812500000 3.990001678467 163 163 163
6.500000000000 19.718750000000 3.922000885010 161 161 161
6.468750000000 19.742187500000 3.847995758057 163 163 163
6.343750000000 19.820312500000 3.776996612549 164 164 164
6.343750000000 19.804687500000 3.698001861572 170 170 170
6.125000000000 19.945312500000 4.824001312256 112 112 112
