32.187500000000 8.000000000000 64.689002990723 172 172 172
32.625000000000 7.750000000000 64.606002807617 134 134 134
34.375000000000 6.750000000000 64.724998474121 137 137 137
32.937500000000 7.500000000000 64.319999694824 180 180 180
32.750000000000 7.625000000000 64.123001098633 221 221 221
34.187500000000 6.875000000000 64.134002685547 115 115 115
33.625000000000 7.250000000000 63.704998016357 232 232 232
33.375000000000 7.375000000000 63.506999969482 171 171 171
33.437500000000 7.250000000000 63.338001251221 180 180 180
33.125000000000 7.500000000000 63.143001556396 177 177 177
32.875000000000 7.625000000000 62.963001251221 132 132 132
32.625000000000 7.625000000000 62.790000915527 169 169 169
34.312500000000 6.750000000000 62.463001251221 67 67 67
34.312500000000 6.750000000000 66.464996337891 40 40 40
34.375000000000 6.875000000000 67.274002075195 37 37 37
33.437500000000 7.375000000000 66.391998291016 227 227 227
33.437500000000 7.375000000000 66.208999633789 198 198 198
32.437500000000 8.000000000000 65.744003295898 199 199 199
32.562500000000 7.875000000000 65.606002807617 144 144 144
33.000000000000 7.625000000000 65.552001953125 255 255 255
33.187500000000 7.500000000000 65.415000915527 155 155 155
32.500000000000 7.875000000000 65.090995788574 220 220 220
32.687500000000 7.875000000000 64.948997497559 231 231 231
32.375000000000 8.000000000000 64.721000671387 217 217 217
32.875000000000 7.750000000000 64.642997741699 196 196 196
34.562500000000 6.750000000000 64.756004333496 91 91 91
33.062500000000 7.625000000000 64.335998535156 206 206 206
32.750000000000 7.750000000000 64.124000549316 159 159 159
32.937500000000 7.625000000000 63.982997894287 190 190 190
32.937500000000 7.625000000000 63.810001373291 56 56 56
33.750000000000 7.125000000000 63.722000122070 201 201 201
33.625000000000 7.250000000000 63.530002593994 240 240 240
32.812500000000 7.750000000000 63.293003082275 117 117 117
33.125000000000 7.500000000000 63.144001007080 110 110 110
33.000000000000 7.625000000000 62.968997955322 70 70 70
32.875000000000 7.750000000000 62.795001983643 146 146 146
34.125000000000 7.000000000000 62.647003173828 104 104 104
34.375000000000 6.875000000000 62.463001251221 116 116 116
34.437500000000 6.875000000000 67.721000671387 26 26 26
34.375000000000 6.875000000000 67.488998413086 17 17 17
34.500000000000 6.875000000000 67.318000793457 85 85 85
34.500000000000 6.875000000000 66.718002319336 158 158 158
34.812500000000 6.750000000000 66.597999572754 167 167 167
32.500000000000 8.000000000000 65.758003234863 180 180 180
32.750000000000 7.875000000000 65.659004211426 177 177 177
32.750000000000 7.875000000000 65.487998962402 191 191 191
33.062500000000 7.750000000000 65.385002136230 167 167 167
32.500000000000 8.000000000000 65.089996337891 223 223 223
32.375000000000 8.125000000000 64.901000976563 255 255 255
32.500000000000 8.000000000000 64.752998352051 196 196 196
32.750000000000 7.875000000000 64.634002685547 187 187 187
34.812500000000 6.625000000000 64.798004150391 46 46 46
33.000000000000 7.750000000000 64.330001831055 240 240 240
33.125000000000 7.625000000000 64.181999206543 206 206 206
33.125000000000 7.625000000000 64.000000000000 254 254 254
32.937500000000 7.750000000000 63.811000823975 117 117 117
33.750000000000 7.250000000000 63.720001220703 220 220 220
33.625000000000 7.375000000000 63.527999877930 206 206 206
32.750000000000 7.875000000000 63.294002532959 208 208 208
33.125000000000 7.625000000000 63.145999908447 150 150 150
32.812500000000 7.875000000000 62.963001251221 127 127 127
34.312500000000 7.000000000000 62.836997985840 27 27 27
34.125000000000 7.000000000000 62.649002075195 97 97 97
34.375000000000 6.875000000000 62.465000152588 14 14 14
33.000000000000 7.750000000000 62.294002532959 76 76 76
34.500000000000 7.000000000000 67.749000549316 102 102 102
33.500000000000 7.625000000000 67.172004699707 157 157 157
32.750000000000 8.000000000000 66.725997924805 252 252 252
32.937500000000 7.875000000000 66.609001159668 135 135 135
34.250000000000 7.125000000000 66.847999572754 108 108 108
32.500000000000 8.125000000000 66.116004943848 43 43 43
34.500000000000 6.875000000000 66.526000976563 152 152 152
32.625000000000 8.125000000000 65.623001098633 186 186 186
32.875000000000 8.000000000000 65.517997741699 246 246 246
33.062500000000 7.750000000000 65.398002624512 188 188 188
32.500000000000 8.125000000000 65.083000183105 218 218 218
32.437500000000 8.125000000000 64.912002563477 255 255 255
32.625000000000 8.125000000000 64.777000427246 186 186 186
32.750000000000 8.000000000000 64.637001037598 185 185 185
33.687500000000 7.375000000000 64.625000000000 210 210 210
33.000000000000 7.875000000000 64.329002380371 177 177 177
33.312500000000 7.625000000000 64.208000183105 208 208 208
32.937500000000 7.875000000000 63.988998413086 166 166 166
33.125000000000 7.750000000000 63.838001251221 177 177 177
33.375000000000 7.625000000000 63.513000488281 255 255 255
32.875000000000 7.875000000000 63.307003021240 201 201 201
33.125000000000 7.750000000000 63.151000976563 132 132 132
34.312500000000 7.125000000000 63.027999877930 16 16 16
34.250000000000 7.125000000000 62.840000152588 118 118 118
32.437500000000 8.125000000000 62.304000854492 102 102 102
34.375000000000 7.000000000000 66.684997558594 52 52 52
33.250000000000 7.875000000000 67.457000732422 93 93 93
34.625000000000 7.000000000000 67.806999206543 65 65 65
33.437500000000 7.625000000000 67.169998168945 166 166 166
34.500000000000 7.125000000000 67.333000183105 88 88 88
33.000000000000 8.000000000000 66.638000488281 28 28 28
33.000000000000 8.000000000000 66.458999633789 200 200 200
32.625000000000 8.250000000000 66.147003173828 227 227 227
34.500000000000 7.125000000000 66.520004272461 98 98 98
33.250000000000 7.875000000000 65.976997375488 89 89 89
32.687500000000 8.250000000000 65.638000488281 192 192 192
32.937500000000 8.000000000000 65.542999267578 214 214 214
33.250000000000 7.875000000000 65.427001953125 186 186 186
33.375000000000 7.625000000000 65.114997863770 255 255 255
32.625000000000 8.125000000000 64.788002014160 209 209 209
33.000000000000 8.000000000000 64.680999755859 162 162 162
32.625000000000 8.250000000000 64.440002441406 255 255 255
33.250000000000 7.875000000000 64.374000549316 208 208 208
33.562500000000 7.625000000000 64.242004394531 242 242 242
33.125000000000 7.875000000000 64.006004333496 179 179 179
34.187500000000 7.250000000000 63.952999114990 67 67 67
33.312500000000 7.750000000000 63.508003234863 146 146 146
33.000000000000 8.000000000000 63.313999176025 151 151 151
33.500000000000 7.625000000000 63.171001434326 103 103 103
34.437500000000 7.125000000000 63.036003112793 110 110 110
34.125000000000 7.250000000000 62.836997985840 128 128 128
32.875000000000 8.000000000000 62.635002136230 47 47 47
33.062500000000 7.875000000000 62.467998504639 101 101 101
32.562500000000 8.250000000000 62.304000854492 20 20 20
34.562500000000 7.000000000000 67.158004760742 65 65 65
33.250000000000 7.875000000000 67.464996337891 100 100 100
33.375000000000 7.875000000000 67.340995788574 154 154 154
33.500000000000 7.750000000000 67.189002990723 138 138 138
33.125000000000 8.125000000000 66.839996337891 226 226 226
33.125000000000 8.000000000000 66.683998107910 209 209 209
33.062500000000 8.125000000000 66.465995788574 200 200 200
33.062500000000 8.000000000000 66.292999267578 197 197 197
32.875000000000 8.125000000000 66.047004699707 183 183 183
33.312500000000 7.875000000000 65.999000549316 245 245 245
32.687500000000 8.250000000000 65.645004272461 149 149 149
32.625000000000 8.250000000000 65.463996887207 180 180 180
32.750000000000 8.250000000000 65.316001892090 30 30 30
33.250000000000 7.875000000000 65.260002136230 131 131 131
32.687500000000 8.250000000000 64.959999084473 255 255 255
33.687500000000 7.750000000000 64.985000610352 200 200 200
33.000000000000 8.000000000000 64.683998107910 241 241 241
32.500000000000 8.375000000000 64.423004150391 146 146 146
33.687500000000 7.750000000000 64.440002441406 222 222 222
33.937500000000 7.500000000000 64.292999267578 130 130 130
33.437500000000 7.875000000000 64.048004150391 154 154 154
33.875000000000 7.500000000000 63.918003082275 156 156 156
33.937500000000 7.500000000000 63.746997833252 219 219 219
33.187500000000 8.000000000000 63.327999114990 191 191 191
33.375000000000 7.875000000000 63.165000915527 139 139 139
34.437500000000 7.125000000000 63.038002014160 59 59 59
34.000000000000 7.500000000000 62.835998535156 130 130 130
32.937500000000 8.125000000000 62.637001037598 70 70 70
33.187500000000 8.000000000000 62.470001220703 70 70 70
32.375000000000 8.375000000000 62.308002471924 33 33 33
32.812500000000 8.250000000000 61.971000671387 42 42 42
34.500000000000 7.250000000000 65.720001220703 108 108 108
33.562500000000 7.875000000000 67.401000976563 212 212 212
33.750000000000 7.750000000000 67.259002685547 150 150 150
33.187500000000 8.125000000000 66.882003784180 218 218 218
33.187500000000 8.125000000000 66.695999145508 170 170 170
34.625000000000 7.250000000000 66.975997924805 88 88 88
33.062500000000 8.125000000000 66.286003112793 158 158 158
33.000000000000 8.125000000000 66.093002319336 252 252 252
33.062500000000 8.125000000000 65.926002502441 237 237 237
32.937500000000 8.250000000000 65.715995788574 144 144 144
32.375000000000 8.500000000000 65.405998229980 212 212 212
33.062500000000 8.125000000000 65.394004821777 203 203 203
32.625000000000 8.375000000000 65.121002197266 180 180 180
32.625000000000 8.375000000000 64.958000183105 188 188 188
33.000000000000 8.250000000000 64.853996276855 215 215 215
32.875000000000 8.250000000000 64.659004211426 121 121 121
32.562500000000 8.375000000000 64.436004638672 158 158 158
33.375000000000 7.875000000000 64.400001525879 199 199 199
33.875000000000 7.750000000000 64.279998779297 147 147 147
33.250000000000 8.125000000000 64.022003173828 203 203 203
33.187500000000 8.125000000000 63.841999053955 6 6 6
34.062500000000 7.625000000000 63.753997802734 181 181 181
32.750000000000 8.375000000000 63.463001251221 172 172 172
33.875000000000 7.750000000000 63.373001098633 219 219 219
33.250000000000 8.125000000000 63.159999847412 194 194 194
34.375000000000 7.375000000000 63.033000946045 135 135 135
34.125000000000 7.500000000000 62.840999603271 92 92 92
33.000000000000 8.250000000000 62.638000488281 36 36 36
32.375000000000 8.500000000000 62.467998504639 132 132 132
32.437500000000 8.500000000000 62.307003021240 105 105 105
32.625000000000 8.375000000000 62.141002655029 13 13 13
32.687500000000 8.375000000000 61.973999023438 110 110 110
34.250000000000 7.500000000000 63.958999633789 39 39 39
34.000000000000 7.750000000000 67.766998291016 23 23 23
34.000000000000 7.750000000000 67.569999694824 97 97 97
34.125000000000 7.625000000000 67.392997741699 175 175 175
32.500000000000 8.500000000000 66.640998840332 255 255 255
33.062500000000 8.125000000000 66.663002014160 221 221 221
33.812500000000 7.750000000000 66.705001831055 160 160 160
32.375000000000 8.625000000000 66.086997985840 161 161 161
33.250000000000 8.000000000000 66.174003601074 215 215 215
32.937500000000 8.250000000000 65.891998291016 180 180 180
33.000000000000 8.125000000000 65.741004943848 192 192 192
33.437500000000 8.000000000000 65.667999267578 211 211 211
33.000000000000 8.250000000000 65.384002685547 170 170 170
32.625000000000 8.500000000000 65.127998352051 94 94 94
32.375000000000 8.625000000000 64.909004211426 239 239 239
32.250000000000 8.750000000000 64.704002380371 235 235 235
33.375000000000 8.000000000000 64.747001647949 154 154 154
32.625000000000 8.500000000000 64.450996398926 155 155 155
33.500000000000 8.000000000000 64.415000915527 190 190 190
33.750000000000 7.875000000000 64.264999389648 154 154 154
33.125000000000 8.125000000000 64.012001037598 151 151 151
33.312500000000 8.000000000000 63.860000610352 241 241 241
33.000000000000 8.250000000000 63.657001495361 20 20 20
32.625000000000 8.500000000000 63.451000213623 150 150 150
33.812500000000 7.750000000000 63.371002197266 129 129 129
34.250000000000 7.625000000000 63.213001251221 133 133 133
34.437500000000 7.500000000000 63.034999847412 146 146 146
33.000000000000 8.125000000000 62.808002471924 138 138 138
33.125000000000 8.125000000000 62.640003204346 16 16 16
32.875000000000 8.375000000000 62.468997955322 115 115 115
32.812500000000 8.375000000000 62.302001953125 107 107 107
32.750000000000 8.375000000000 62.137001037598 95 95 95
32.812500000000 8.375000000000 61.967998504639 79 79 79
34.250000000000 7.625000000000 63.770000457764 145 145 145
33.250000000000 8.250000000000 68.052001953125 88 88 88
33.500000000000 8.000000000000 67.773002624512 85 85 85
33.500000000000 8.000000000000 67.385002136230 124 124 124
34.187500000000 7.750000000000 67.416999816895 142 142 142
32.500000000000 8.625000000000 66.633003234863 255 255 255
32.750000000000 8.500000000000 66.558998107910 255 255 255
32.687500000000 8.500000000000 66.350997924805 196 196 196
32.625000000000 8.625000000000 66.155998229980 224 224 224
32.937500000000 8.375000000000 65.897003173828 170 170 170
33.375000000000 8.125000000000 65.652000427246 184 184 184
32.750000000000 8.500000000000 65.327003479004 167 167 167
32.750000000000 8.500000000000 65.149002075195 202 202 202
32.312500000000 8.750000000000 64.884002685547 165 165 165
32.250000000000 8.750000000000 64.713996887207 233 233 233
33.187500000000 8.250000000000 64.709999084473 196 196 196
32.750000000000 8.500000000000 64.464996337891 152 152 152
33.562500000000 8.000000000000 64.422004699707 148 148 148
34.437500000000 7.500000000000 64.363998413086 140 140 140
33.250000000000 8.250000000000 64.026000976563 242 242 242
33.250000000000 8.250000000000 63.673999786377 209 209 209
32.875000000000 8.375000000000 63.473999023438 162 162 162
33.687500000000 7.875000000000 63.361000061035 233 233 233
32.812500000000 8.375000000000 63.133003234863 222 222 222
32.875000000000 8.375000000000 62.966999053955 228 228 228
33.062500000000 8.375000000000 62.805000305176 140 140 140
33.125000000000 8.250000000000 62.636001586914 103 103 103
32.937500000000 8.375000000000 62.465999603271 142 142 142
32.812500000000 8.375000000000 62.298999786377 69 69 69
32.812500000000 8.375000000000 62.131999969482 65 65 65
33.000000000000 8.375000000000 61.958999633789 63 63 63
33.312500000000 8.250000000000 68.078002929688 109 109 109
33.312500000000 8.250000000000 67.889999389648 77 77 77
33.500000000000 8.125000000000 67.764999389648 129 129 129
33.375000000000 8.250000000000 67.530998229980 97 97 97
33.562500000000 8.125000000000 67.388000488281 55 55 55
34.375000000000 7.625000000000 67.502998352051 158 158 158
33.562500000000 8.125000000000 67.012001037598 220 220 220
32.500000000000 8.750000000000 66.462997436523 234 234 234
32.812500000000 8.625000000000 66.384002685547 212 212 212
33.000000000000 8.500000000000 66.256004333496 204 204 204
32.562500000000 8.750000000000 65.955001831055 135 135 135
32.875000000000 8.625000000000 65.858001708984 178 178 178
32.937500000000 8.500000000000 65.708999633789 255 255 255
32.500000000000 8.750000000000 65.422004699707 255 255 255
32.500000000000 8.750000000000 65.263000488281 170 170 170
32.812500000000 8.625000000000 65.155998229980 210 210 210
32.312500000000 8.875000000000 64.718002319336 184 184 184
33.250000000000 8.250000000000 64.722999572754 245 245 245
33.250000000000 8.375000000000 64.542999267578 231 231 231
33.375000000000 8.250000000000 64.388000488281 174 174 174
33.562500000000 8.125000000000 64.236000061035 255 255 255
33.562500000000 8.125000000000 64.058998107910 226 226 226
34.125000000000 7.750000000000 63.940002441406 201 201 201
32.500000000000 8.750000000000 63.598999023438 255 255 255
32.562500000000 8.750000000000 63.441001892090 201 201 201
32.750000000000 8.625000000000 63.290000915527 127 127 127
32.625000000000 8.750000000000 63.117000579834 187 187 187
32.875000000000 8.625000000000 62.961997985840 187 187 187
32.812500000000 8.500000000000 62.796001434326 162 162 162
33.000000000000 8.500000000000 62.631000518799 93 93 93
32.875000000000 8.500000000000 62.461997985840 7 7 7
32.875000000000 8.500000000000 62.295001983643 24 24 24
33.500000000000 8.250000000000 68.144004821777 72 72 72
33.687500000000 8.125000000000 68.030998229980 69 69 69
32.937500000000 8.625000000000 67.531997680664 156 156 156
33.437500000000 8.250000000000 67.540000915527 131 131 131
34.687500000000 7.625000000000 67.819999694824 58 58 58
33.750000000000 8.125000000000 67.267997741699 218 218 218
34.125000000000 7.875000000000 67.204002380371 181 181 181
32.500000000000 8.875000000000 66.446998596191 211 211 211
33.250000000000 8.500000000000 66.514999389648 252 252 252
32.687500000000 8.750000000000 66.160003662109 210 210 210
32.625000000000 8.750000000000 65.974998474121 202 202 202
32.937500000000 8.625000000000 65.883003234863 204 204 204
32.937500000000 8.625000000000 65.703002929688 253 253 253
32.437500000000 8.875000000000 65.405998229980 110 110 110
32.750000000000 8.750000000000 65.309997558594 140 140 140
33.000000000000 8.625000000000 65.188003540039 255 255 255
32.750000000000 8.625000000000 64.974998474121 249 249 249
32.375000000000 9.000000000000 64.717002868652 178 178 178
33.437500000000 8.250000000000 64.571998596191 255 255 255
33.437500000000 8.250000000000 64.397003173828 226 226 226
34.625000000000 7.625000000000 64.380004882813 210 210 210
33.500000000000 8.250000000000 64.043998718262 156 156 156
33.062500000000 8.500000000000 63.823001861572 169 169 169
32.500000000000 8.875000000000 63.597999572754 188 188 188
32.625000000000 8.750000000000 63.442001342773 226 226 226
32.562500000000 8.750000000000 63.275001525879 181 181 181
32.625000000000 8.750000000000 63.113002777100 173 173 173
32.875000000000 8.625000000000 62.959999084473 166 166 166
32.562500000000 8.750000000000 62.784999847412 143 143 143
33.250000000000 8.375000000000 62.631999969482 7 7 7
33.000000000000 8.625000000000 62.290000915527 80 80 80
32.937500000000 8.625000000000 62.123001098633 98 98 98
33.000000000000 8.625000000000 61.951999664307 50 50 50
33.562500000000 8.375000000000 68.575996398926 9 9 9
33.812500000000 8.125000000000 68.291000366211 44 44 44
33.687500000000 8.250000000000 68.031997680664 116 116 116
33.000000000000 8.625000000000 67.539001464844 179 179 179
33.187500000000 8.500000000000 67.444000244141 159 159 159
33.625000000000 8.375000000000 67.411003112793 168 168 168
33.625000000000 8.250000000000 67.225997924805 241 241 241
33.875000000000 8.125000000000 66.912002563477 174 174 174
32.875000000000 8.750000000000 66.394004821777 255 255 255
32.625000000000 8.875000000000 66.132003784180 231 231 231
32.750000000000 8.875000000000 66.003997802734 208 208 208
32.875000000000 8.750000000000 65.864997863770 201 201 201
32.937500000000 8.625000000000 65.705001831055 181 181 181
32.562500000000 9.000000000000 65.429000854492 255 255 255
32.875000000000 8.750000000000 65.328002929688 116 116 116
33.250000000000 8.500000000000 65.242004394531 217 217 217
32.750000000000 8.875000000000 64.959999084473 216 216 216
32.500000000000 9.000000000000 64.746002197266 226 226 226
32.312500000000 9.000000000000 64.550003051758 204 204 204
33.562500000000 8.375000000000 64.588996887207 255 255 255
33.750000000000 8.250000000000 64.437004089355 179 179 179
33.562500000000 8.375000000000 64.230003356934 10 10 10
33.125000000000 8.625000000000 63.826000213623 176 176 176
32.687500000000 8.875000000000 63.611000061035 214 214 214
33.437500000000 8.500000000000 63.508003234863 216 216 216
32.562500000000 9.000000000000 63.273002624512 255 255 255
32.500000000000 9.000000000000 63.106998443604 185 185 185
33.062500000000 8.625000000000 62.965999603271 227 227 227
32.687500000000 8.875000000000 62.784999847412 219 219 219
33.062500000000 8.625000000000 62.287002563477 100 100 100
33.000000000000 8.625000000000 62.119003295898 98 98 98
33.000000000000 8.625000000000 61.949001312256 108 108 108
34.562500000000 7.750000000000 64.371002197266 161 161 161
33.625000000000 8.375000000000 68.616004943848 38 38 38
33.625000000000 8.500000000000 68.392997741699 103 103 103
33.500000000000 8.500000000000 68.144004821777 159 159 159
33.125000000000 8.750000000000 67.614997863770 165 165 165
33.250000000000 8.625000000000 67.455001831055 139 139 139
34.500000000000 7.875000000000 67.748001098633 77 77 77
33.500000000000 8.500000000000 67.177001953125 196 196 196
33.812500000000 8.375000000000 67.082000732422 218 218 218
32.500000000000 9.125000000000 66.447998046875 57 57 57
32.750000000000 8.875000000000 66.180999755859 221 221 221
32.875000000000 8.875000000000 66.038002014160 190 190 190
33.000000000000 8.750000000000 65.903999328613 243 243 243
32.937500000000 8.875000000000 65.711997985840 255 255 255
32.687500000000 9.000000000000 65.465995788574 255 255 255
32.625000000000 9.000000000000 65.280998229980 255 255 255
32.875000000000 8.875000000000 65.172004699707 199 199 199
32.500000000000 9.000000000000 64.751998901367 165 165 165
32.375000000000 9.250000000000 64.553001403809 166 166 166
33.187500000000 8.625000000000 64.529998779297 7 7 7
34.187500000000 8.125000000000 64.502998352051 48 48 48
33.750000000000 8.375000000000 64.250999450684 223 223 223
33.250000000000 8.625000000000 64.008003234863 255 255 255
33.125000000000 8.750000000000 63.821998596191 168 168 168
33.125000000000 8.625000000000 63.657001495361 255 255 255
33.000000000000 8.750000000000 63.470001220703 198 198 198
32.250000000000 9.250000000000 63.250000000000 101 101 101
33.125000000000 8.625000000000 62.968997955322 198 198 198
32.562500000000 9.000000000000 62.782001495361 123 123 123
33.062500000000 8.750000000000 62.626003265381 129 129 129
33.062500000000 8.750000000000 62.286003112793 7 7 7
33.000000000000 8.750000000000 62.117000579834 103 103 103
34.625000000000 7.875000000000 67.166000366211 110 110 110
34.625000000000 7.750000000000 62.840000152588 74 74 74
33.625000000000 8.500000000000 68.421005249023 62 62 62
33.562500000000 8.625000000000 68.172004699707 161 161 161
34.250000000000 8.250000000000 68.269004821777 34 34 34
34.062500000000 8.250000000000 67.996002197266 81 81 81
33.687500000000 8.500000000000 67.638999938965 143 143 143
33.375000000000 8.625000000000 67.333000183105 137 137 137
34.625000000000 7.875000000000 67.581001281738 188 188 188
33.250000000000 8.750000000000 66.900001525879 255 255 255
32.625000000000 9.125000000000 66.489997863770 255 255 255
32.562500000000 9.125000000000 66.301002502441 185 185 185
33.062500000000 8.875000000000 66.281997680664 203 203 203
32.875000000000 8.875000000000 66.047004699707 147 147 147
32.812500000000 9.000000000000 65.842002868652 255 255 255
32.875000000000 9.000000000000 65.678001403809 196 196 196
34.125000000000 8.250000000000 65.825996398926 146 146 146
32.625000000000 9.000000000000 65.288002014160 145 145 145
32.500000000000 9.125000000000 65.081001281738 241 241 241
34.062500000000 8.250000000000 65.241004943848 174 174 174
32.625000000000 9.125000000000 64.763000488281 172 172 172
33.062500000000 8.875000000000 64.682998657227 237 237 237
34.250000000000 8.250000000000 64.695999145508 123 123 123
34.250000000000 8.250000000000 64.511001586914 178 178 178
34.312500000000 8.125000000000 64.331001281738 173 173 173
33.125000000000 8.750000000000 63.999000549316 157 157 157
33.000000000000 8.875000000000 63.816001892090 196 196 196
34.687500000000 7.875000000000 63.802001953125 194 194 194
34.750000000000 7.875000000000 63.617000579834 93 93 93
32.312500000000 9.250000000000 63.255001068115 129 129 129
33.000000000000 8.875000000000 62.965000152588 196 196 196
32.625000000000 9.125000000000 62.784000396729 195 195 195
33.125000000000 8.875000000000 62.626003265381 100 100 100
34.250000000000 8.250000000000 68.702003479004 105 105 105
33.625000000000 8.625000000000 68.218002319336 155 155 155
33.250000000000 8.875000000000 67.856002807617 178 178 178
34.000000000000 8.375000000000 67.968002319336 111 111 111
33.500000000000 8.625000000000 67.574996948242 169 169 169
33.562500000000 8.625000000000 67.399002075195 172 172 172
33.812500000000 8.500000000000 67.283004760742 248 248 248
33.250000000000 8.875000000000 66.901000976563 240 240 240
33.500000000000 8.625000000000 66.802001953125 227 227 227
33.750000000000 8.500000000000 66.494003295898 158 158 158
33.250000000000 8.875000000000 66.147003173828 175 175 175
32.875000000000 9.000000000000 65.862998962402 118 118 118
32.875000000000 9.000000000000 65.695999145508 236 236 236
32.875000000000 9.000000000000 65.517997741699 215 215 215
32.750000000000 9.125000000000 65.315002441406 182 182 182
33.125000000000 8.875000000000 65.220001220703 231 231 231
33.375000000000 8.750000000000 65.095001220703 205 205 205
33.125000000000 8.875000000000 64.875000000000 245 245 245
33.000000000000 9.000000000000 64.671005249023 229 229 229
33.312500000000 8.750000000000 64.557998657227 196 196 196
33.437500000000 8.750000000000 64.392997741699 224 224 224
33.625000000000 8.625000000000 64.239997863770 222 222 222
33.062500000000 8.875000000000 63.993000030518 183 183 183
32.750000000000 9.125000000000 63.784000396729 179 179 179
32.500000000000 9.250000000000 63.598999023438 52 52 52
32.500000000000 9.250000000000 63.436000823975 91 91 91
32.437500000000 9.250000000000 63.269001007080 180 180 180
33.500000000000 8.625000000000 63.163002014160 199 199 199
32.875000000000 9.000000000000 62.794002532959 182 182 182
34.437500000000 8.125000000000 62.650001525879 92 92 92
34.750000000000 8.000000000000 63.619003295898 37 37 37
34.250000000000 8.375000000000 68.708999633789 20 20 20
33.812500000000 8.625000000000 68.292999267578 103 103 103
33.375000000000 8.875000000000 67.888999938965 193 193 193
33.562500000000 8.750000000000 67.778999328613 156 156 156
33.625000000000 8.750000000000 67.597000122070 180 180 180
34.000000000000 8.500000000000 67.571998596191 160 160 160
33.500000000000 8.750000000000 67.179000854492 220 220 220
33.937500000000 8.500000000000 67.141998291016 163 163 163
34.000000000000 8.500000000000 66.970001220703 178 178 178
34.000000000000 8.500000000000 66.769004821777 169 169 169
33.500000000000 8.750000000000 66.416999816895 188 188 188
32.937500000000 9.125000000000 66.066001892090 202 202 202
33.437500000000 8.875000000000 66.017997741699 147 147 147
32.937500000000 9.125000000000 65.695999145508 178 178 178
33.000000000000 9.000000000000 65.374000549316 233 233 233
33.312500000000 8.875000000000 65.265998840332 230 230 230
32.687500000000 9.250000000000 64.949996948242 129 129 129
32.750000000000 9.250000000000 64.792999267578 206 206 206
32.687500000000 9.250000000000 64.614997863770 255 255 255
34.375000000000 8.250000000000 64.726997375488 201 201 201
33.000000000000 9.000000000000 64.324996948242 179 179 179
33.625000000000 8.625000000000 64.242996215820 209 209 209
32.750000000000 9.250000000000 63.956001281738 225 225 225
32.687500000000 9.250000000000 63.780002593994 168 168 168
32.500000000000 9.375000000000 63.597000122070 171 171 171
32.625000000000 9.250000000000 63.444000244141 169 169 169
33.625000000000 8.625000000000 63.347999572754 228 228 228
33.500000000000 8.750000000000 63.164001464844 180 180 180
32.625000000000 9.250000000000 62.949001312256 229 229 229
32.250000000000 9.500000000000 62.776000976563 255 255 255
32.500000000000 9.375000000000 62.620002746582 22 22 22
34.625000000000 8.125000000000 62.461997985840 209 209 209
34.625000000000 8.125000000000 62.270999908447 38 38 38
34.500000000000 8.125000000000 62.651000976563 152 152 152
34.500000000000 8.250000000000 68.819999694824 53 53 53
34.562500000000 8.250000000000 68.621002197266 110 110 110
33.875000000000 8.750000000000 68.097999572754 155 155 155
33.500000000000 8.875000000000 67.758003234863 166 166 166
33.687500000000 8.750000000000 67.625000000000 167 167 167
34.062500000000 8.625000000000 67.571998596191 138 138 138
32.875000000000 9.250000000000 66.945999145508 244 244 244
32.875000000000 9.250000000000 66.749000549316 234 234 234
32.875000000000 9.250000000000 66.573997497559 255 255 255
32.812500000000 9.250000000000 66.377998352051 131 131 131
32.937500000000 9.250000000000 66.241004943848 218 218 218
32.937500000000 9.250000000000 66.056999206543 184 184 184
33.250000000000 9.125000000000 65.968002319336 195 195 195
33.062500000000 9.125000000000 65.734001159668 198 198 198
33.125000000000 9.125000000000 65.571998596191 255 255 255
33.250000000000 9.000000000000 65.432998657227 255 255 255
33.500000000000 8.875000000000 65.300003051758 253 253 253
32.500000000000 9.500000000000 64.748001098633 132 132 132
32.375000000000 9.625000000000 64.556999206543 165 165 165
33.375000000000 9.000000000000 64.563003540039 189 189 189
32.875000000000 9.250000000000 64.314002990723 131 131 131
33.687500000000 8.750000000000 64.252998352051 189 189 189
32.625000000000 9.375000000000 63.936000823975 139 139 139
32.500000000000 9.500000000000 63.755001068115 214 214 214
32.687500000000 9.375000000000 63.613002777100 199 199 199
32.562500000000 9.375000000000 63.441001892090 174 174 174
32.812500000000 9.250000000000 63.291000366211 226 226 226
32.562500000000 9.375000000000 63.113002777100 239 239 239
32.187500000000 9.625000000000 62.932003021240 218 218 218
32.125000000000 9.750000000000 62.772003173828 88 88 88
32.562500000000 9.375000000000 62.621997833252 255 255 255
34.562500000000 8.250000000000 62.463001251221 139 139 139
34.625000000000 8.250000000000 62.272003173828 142 142 142
34.625000000000 8.125000000000 62.079998016357 115 115 115
34.687500000000 8.125000000000 61.887001037598 93 93 93
34.812500000000 8.125000000000 61.690002441406 11 11 11
34.625000000000 8.250000000000 62.843997955322 113 113 113
34.375000000000 8.500000000000 68.736000061035 42 42 42
34.625000000000 8.375000000000 68.636001586914 22 22 22
34.125000000000 8.625000000000 68.209999084473 133 133 133
33.625000000000 9.000000000000 67.790000915527 172 172 172
33.750000000000 8.875000000000 67.641998291016 164 164 164
33.875000000000 8.750000000000 67.513999938965 147 147 147
33.812500000000 8.750000000000 67.290000915527 168 168 168
33.875000000000 8.750000000000 67.109001159668 150 150 150
32.812500000000 9.375000000000 66.562004089355 141 141 141
33.062500000000 9.250000000000 66.468002319336 17 17 17
34.125000000000 8.625000000000 66.598999023438 136 136 136
33.000000000000 9.250000000000 66.088996887207 179 179 179
32.750000000000 9.500000000000 65.825996398926 14 14 14
32.875000000000 9.375000000000 65.694000244141 214 214 214
33.000000000000 9.250000000000 65.540000915527 237 237 237
33.375000000000 9.125000000000 65.446998596191 186 186 186
33.875000000000 8.750000000000 65.388000488281 255 255 255
33.437500000000 9.125000000000 64.568000793457 174 174 174
32.937500000000 9.250000000000 64.319000244141 255 255 255
33.500000000000 9.000000000000 64.225997924805 210 210 210
32.500000000000 9.625000000000 63.756000518799 174 174 174
33.062500000000 9.250000000000 63.650001525879 147 147 147
32.625000000000 9.500000000000 63.444000244141 156 156 156
32.812500000000 9.375000000000 63.291000366211 17 17 17
32.750000000000 9.500000000000 63.120002746582 244 244 244
32.187500000000 9.750000000000 62.932003021240 180 180 180
32.812500000000 9.375000000000 62.791000366211 255 255 255
34.500000000000 8.375000000000 62.651000976563 102 102 102
34.625000000000 8.375000000000 62.461997985840 59 59 59
34.687500000000 8.250000000000 62.270999908447 109 109 109
34.687500000000 8.250000000000 62.078998565674 147 147 147
34.750000000000 8.250000000000 61.885002136230 157 157 157
34.812500000000 8.250000000000 61.688999176025 154 154 154
34.187500000000 8.625000000000 66.813003540039 217 217 217
33.937500000000 8.750000000000 66.156997680664 136 136 136
34.687500000000 8.250000000000 63.423000335693 71 71 71
34.250000000000 8.625000000000 68.700996398926 62 62 62
33.750000000000 9.000000000000 68.278999328613 83 83 83
34.062500000000 8.750000000000 68.196998596191 156 156 156
33.937500000000 8.875000000000 67.934997558594 152 152 152
34.000000000000 8.875000000000 67.761001586914 172 172 172
33.875000000000 8.875000000000 67.520004272461 154 154 154
33.625000000000 9.000000000000 67.222999572754 164 164 164
33.875000000000 8.875000000000 67.107002258301 146 146 146
34.125000000000 8.750000000000 66.986999511719 118 118 118
33.187500000000 9.375000000000 66.495002746582 12 12 12
32.687500000000 9.625000000000 66.166000366211 246 246 246
33.187500000000 9.375000000000 66.130004882813 217 217 217
32.625000000000 9.625000000000 65.813003540039 231 231 231
32.937500000000 9.500000000000 65.702003479004 231 231 231
33.875000000000 8.875000000000 65.765998840332 179 179 179
34.250000000000 8.625000000000 65.655998229980 160 160 160
33.875000000000 8.875000000000 65.387001037598 255 255 255
33.750000000000 9.000000000000 65.178001403809 164 164 164
34.750000000000 8.375000000000 65.188003540039 12 12 12
34.437500000000 8.625000000000 64.929000854492 231 231 231
33.562500000000 9.125000000000 64.593002319336 167 167 167
32.687500000000 9.625000000000 64.281997680664 157 157 157
32.750000000000 9.500000000000 64.120002746582 255 255 255
32.562500000000 9.625000000000 63.768001556396 173 173 173
34.812500000000 8.375000000000 63.815002441406 70 70 70
33.125000000000 9.375000000000 63.484001159668 255 255 255
32.812500000000 9.500000000000 63.290000915527 120 120 120
32.625000000000 9.625000000000 63.114997863770 24 24 24
32.312500000000 9.875000000000 62.935001373291 176 176 176
32.812500000000 9.500000000000 62.790000915527 115 115 115
32.375000000000 9.750000000000 62.456001281738 120 120 120
34.812500000000 8.375000000000 62.074001312256 78 78 78
34.812500000000 8.375000000000 61.881000518799 117 117 117
34.812500000000 8.250000000000 61.686000823975 148 148 148
34.187500000000 8.875000000000 68.454002380371 119 119 119
33.937500000000 9.000000000000 68.148002624512 114 114 114
33.875000000000 9.000000000000 67.922004699707 90 90 90
33.625000000000 9.250000000000 67.609001159668 10 10 10
33.687500000000 9.125000000000 67.249000549316 127 127 127
33.875000000000 9.000000000000 67.103996276855 153 153 153
34.062500000000 8.875000000000 66.980003356934 150 150 150
34.312500000000 8.750000000000 66.861999511719 163 163 163
32.625000000000 9.750000000000 66.146003723145 46 46 46
33.375000000000 9.250000000000 66.190002441406 188 188 188
33.062500000000 9.500000000000 65.731002807617 255 255 255
34.375000000000 8.625000000000 65.697998046875 200 200 200
34.250000000000 8.875000000000 65.463996887207 184 184 184
33.812500000000 9.000000000000 65.188003540039 148 148 148
34.375000000000 8.625000000000 65.112998962402 80 80 80
33.625000000000 9.125000000000 64.785003662109 255 255 255
33.750000000000 9.000000000000 64.621002197266 161 161 161
32.937500000000 9.500000000000 64.319000244141 206 206 206
34.437500000000 8.625000000000 64.349998474121 95 95 95
34.750000000000 8.500000000000 64.195999145508 146 146 146
32.625000000000 9.750000000000 63.763999938965 169 169 169
33.500000000000 9.250000000000 63.687000274658 169 169 169
34.687500000000 8.500000000000 63.607997894287 15 15 15
32.437500000000 9.875000000000 63.098999023438 158 158 158
32.125000000000 10.000000000000 62.923000335693 159 159 159
32.125000000000 10.000000000000 62.765003204346 79 79 79
32.687500000000 9.750000000000 62.617000579834 25 25 25
32.500000000000 9.875000000000 62.451000213623 76 76 76
34.625000000000 8.500000000000 68.009002685547 106 106 106
34.562500000000 8.625000000000 66.738998413086 135 135 135
34.312500000000 8.875000000000 68.944000244141 31 31 31
34.250000000000 8.875000000000 68.494003295898 85 85 85
34.375000000000 8.875000000000 68.323997497559 95 95 95
34.437500000000 8.750000000000 67.712997436523 107 107 107
34.500000000000 8.750000000000 67.530998229980 79 79 79
34.312500000000 8.875000000000 67.253997802734 127 127 127
34.250000000000 8.875000000000 67.024002075195 210 210 210
34.250000000000 8.875000000000 66.845001220703 162 162 162
34.500000000000 8.750000000000 66.720001220703 172 172 172
33.500000000000 9.375000000000 66.208999633789 213 213 213
33.000000000000 9.625000000000 65.881004333496 223 223 223
33.750000000000 9.250000000000 65.908004760742 64 64 64
34.000000000000 9.000000000000 65.789001464844 219 219 219
34.187500000000 8.875000000000 65.635002136230 39 39 39
34.625000000000 8.625000000000 65.554000854492 255 255 255
33.937500000000 9.000000000000 65.209999084473 220 220 220
33.562500000000 9.250000000000 64.946998596191 166 166 166
33.687500000000 9.250000000000 64.780998229980 206 206 206
33.250000000000 9.375000000000 64.541000366211 200 200 200
32.750000000000 9.750000000000 64.277000427246 187 187 187
34.500000000000 8.750000000000 64.348999023438 83 83 83
34.500000000000 8.750000000000 64.161003112793 145 145 145
32.750000000000 9.750000000000 63.776000976563 208 208 208
33.812500000000 9.125000000000 63.713001251221 188 188 188
32.125000000000 10.125000000000 63.392002105713 151 151 151
32.375000000000 10.000000000000 63.250000000000 159 159 159
32.500000000000 9.875000000000 63.097999572754 113 113 113
32.125000000000 10.125000000000 62.920001983643 101 101 101
32.250000000000 10.000000000000 62.766002655029 159 159 159
32.812500000000 9.625000000000 62.614997863770 28 28 28
34.500000000000 8.750000000000 63.590999603271 18 18 18
34.812500000000 8.500000000000 62.645999908447 12 12 12
34.375000000000 8.875000000000 68.956001281738 94 94 94
34.500000000000 8.875000000000 68.571998596191 66 66 66
34.500000000000 8.875000000000 68.361000061035 20 20 20
34.500000000000 8.875000000000 68.142997741699 96 96 96
34.750000000000 8.750000000000 67.824996948242 28 28 28
34.562500000000 8.875000000000 67.541999816895 90 90 90
34.687500000000 8.750000000000 67.381004333496 146 146 146
34.812500000000 8.750000000000 67.211997985840 178 178 178
34.500000000000 8.875000000000 66.919998168945 169 169 169
33.750000000000 9.250000000000 66.464996337891 255 255 255
33.250000000000 9.500000000000 66.134002685547 248 248 248
33.062500000000 9.625000000000 65.898002624512 255 255 255
34.750000000000 8.750000000000 66.175003051758 176 176 176
34.750000000000 8.750000000000 65.962997436523 208 208 208
34.500000000000 8.875000000000 65.713996887207 101 101 101
34.500000000000 8.875000000000 65.519004821777 171 171 171
33.500000000000 9.375000000000 65.117996215820 255 255 255
33.562500000000 9.250000000000 64.942001342773 133 133 133
33.562500000000 9.250000000000 64.764999389648 22 22 22
33.312500000000 9.500000000000 64.537002563477 217 217 217
32.625000000000 9.875000000000 64.259002685547 206 206 206
33.062500000000 9.625000000000 64.152999877930 242 242 242
34.750000000000 8.750000000000 64.183998107910 123 123 123
34.812500000000 8.750000000000 63.996002197266 111 111 111
33.875000000000 9.125000000000 63.715999603271 211 211 211
32.125000000000 10.125000000000 63.388999938965 170 170 170
32.375000000000 10.000000000000 63.249000549316 172 172 172
32.437500000000 10.000000000000 63.090000152588 10 10 10
32.250000000000 10.125000000000 62.921001434326 74 74 74
34.750000000000 8.750000000000 62.831001281738 52 52 52
32.875000000000 9.750000000000 62.611000061035 18 18 18
34.812500000000 8.750000000000 62.446998596191 145 145 145
34.812500000000 8.625000000000 62.253002166748 153 153 153
34.812500000000 8.625000000000 62.059001922607 113 113 113
34.687500000000 8.750000000000 63.213001251221 135 135 135
34.750000000000 8.750000000000 63.023002624512 78 78 78
34.750000000000 8.750000000000 62.638999938965 102 102 102
34.375000000000 9.000000000000 68.964996337891 84 84 84
34.437500000000 9.000000000000 68.759002685547 9 9 9
34.625000000000 8.875000000000 68.402000427246 120 120 120
34.625000000000 8.875000000000 68.180000305176 103 103 103
34.625000000000 8.875000000000 67.547004699707 164 164 164
34.625000000000 8.750000000000 67.364997863770 140 140 140
33.750000000000 9.375000000000 66.470001220703 122 122 122
33.125000000000 9.625000000000 66.109001159668 173 173 173
33.375000000000 9.625000000000 65.986000061035 193 193 193
33.562500000000 9.500000000000 65.853996276855 174 174 174
34.687500000000 8.750000000000 65.949996948242 138 138 138
34.000000000000 9.125000000000 65.588996887207 194 194 194
33.625000000000 9.375000000000 65.313003540039 200 200 200
33.562500000000 9.500000000000 65.117996215820 185 185 185
33.750000000000 9.375000000000 64.967002868652 178 178 178
34.750000000000 8.750000000000 64.969001770020 170 170 170
33.562500000000 9.500000000000 64.571998596191 213 213 213
32.375000000000 10.125000000000 64.214996337891 156 156 156
33.375000000000 9.500000000000 64.194999694824 35 35 35
32.687500000000 10.000000000000 63.930999755859 255 255 255
34.812500000000 8.750000000000 63.996997833252 161 161 161
32.250000000000 10.250000000000 63.395000457764 189 189 189
32.625000000000 10.000000000000 63.262001037598 141 141 141
32.625000000000 10.000000000000 63.097999572754 101 101 101
32.500000000000 10.000000000000 62.765003204346 164 164 164
33.125000000000 9.625000000000 62.612003326416 7 7 7
34.812500000000 8.750000000000 63.216999053955 9 9 9
34.437500000000 9.000000000000 68.757003784180 11 11 11
34.500000000000 9.000000000000 68.578002929688 91 91 91
34.625000000000 9.000000000000 68.426002502441 118 118 118
34.500000000000 9.000000000000 68.151000976563 138 138 138
34.500000000000 9.000000000000 67.940002441406 151 151 151
34.687500000000 8.875000000000 67.789001464844 164 164 164
34.625000000000 9.000000000000 67.562004089355 183 183 183
34.750000000000 8.875000000000 67.381004333496 163 163 163
34.750000000000 8.875000000000 67.188003540039 174 174 174
33.812500000000 9.500000000000 66.671005249023 247 247 247
34.750000000000 8.875000000000 66.778999328613 136 136 136
33.250000000000 9.750000000000 66.141998291016 197 197 197
33.437500000000 9.625000000000 66.003997802734 210 210 210
33.625000000000 9.500000000000 65.859001159668 189 189 189
32.750000000000 10.000000000000 65.474998474121 234 234 234
33.750000000000 9.500000000000 65.527000427246 176 176 176
33.687500000000 9.500000000000 65.320999145508 248 248 248
32.500000000000 10.250000000000 64.730003356934 106 106 106
33.375000000000 9.750000000000 64.541999816895 155 155 155
32.500000000000 10.250000000000 64.235000610352 169 169 169
33.687500000000 9.500000000000 64.233001708984 21 21 21
32.812500000000 10.000000000000 63.946998596191 255 255 255
33.125000000000 9.875000000000 63.808002471924 69 69 69
33.125000000000 9.875000000000 63.635002136230 3 3 3
32.312500000000 10.250000000000 63.401000976563 139 139 139
32.750000000000 10.000000000000 63.105003356934 78 78 78
32.125000000000 10.375000000000 62.753002166748 180 180 180
33.187500000000 9.750000000000 62.611000061035 115 115 115
34.750000000000 8.875000000000 63.791000366211 88 88 88
34.687500000000 9.000000000000 68.656997680664 44 44 44
34.750000000000 9.000000000000 68.455001831055 19 19 19
34.562500000000 9.000000000000 68.178001403809 125 125 125
34.500000000000 9.125000000000 67.925003051758 161 161 161
34.625000000000 9.000000000000 67.766998291016 110 110 110
34.625000000000 9.000000000000 67.347999572754 183 183 183
32.937500000000 10.125000000000 66.579002380371 38 38 38
32.812500000000 10.125000000000 66.361999511719 255 255 255
33.937500000000 9.375000000000 66.540000915527 221 221 221
33.437500000000 9.750000000000 66.189002990723 174 174 174
33.187500000000 9.875000000000 65.936004638672 138 138 138
33.500000000000 9.750000000000 65.836997985840 215 215 215
32.750000000000 10.125000000000 65.474998474121 212 212 212
33.000000000000 10.000000000000 65.348999023438 239 239 239
33.687500000000 9.625000000000 65.320999145508 25 25 25
32.562500000000 10.250000000000 64.738998413086 128 128 128
33.000000000000 10.000000000000 64.486000061035 199 199 199
32.500000000000 10.250000000000 64.235000610352 132 132 132
33.750000000000 9.500000000000 64.241004943848 197 197 197
33.625000000000 9.625000000000 64.042999267578 86 86 86
32.437500000000 10.375000000000 63.732997894287 206 206 206
33.125000000000 9.875000000000 63.640003204346 141 141 141
32.562500000000 10.250000000000 63.416000366211 45 45 45
32.937500000000 10.125000000000 63.110000610352 17 17 17
32.687500000000 10.250000000000 62.930999755859 61 61 61
32.250000000000 10.375000000000 62.753997802734 183 183 183
34.750000000000 9.000000000000 65.153999328613 106 106 106
34.375000000000 9.250000000000 68.756004333496 42 42 42
34.687500000000 9.125000000000 68.662002563477 83 83 83
34.562500000000 9.250000000000 68.377998352051 78 78 78
34.500000000000 9.250000000000 68.160003662109 128 128 128
34.500000000000 9.250000000000 67.944999694824 137 137 137
34.625000000000 9.125000000000 67.766998291016 180 180 180
34.812500000000 9.125000000000 67.622001647949 163 163 163
33.937500000000 9.625000000000 67.107002258301 255 255 255
33.062500000000 10.125000000000 66.624000549316 255 255 255
32.875000000000 10.125000000000 66.387001037598 238 238 238
34.000000000000 9.500000000000 66.544998168945 167 167 167
33.500000000000 9.750000000000 66.210998535156 186 186 186
33.312500000000 10.000000000000 65.968002319336 234 234 234
33.750000000000 9.625000000000 65.900001525879 202 202 202
33.500000000000 9.750000000000 65.649002075195 163 163 163
33.000000000000 10.125000000000 65.351997375488 207 207 207
33.750000000000 9.750000000000 65.331001281738 37 37 37
32.625000000000 10.375000000000 64.919998168945 8 8 8
33.687500000000 9.750000000000 64.959999084473 246 246 246
33.000000000000 10.125000000000 64.483001708984 204 204 204
32.625000000000 10.375000000000 64.246002197266 224 224 224
33.750000000000 9.625000000000 64.236000061035 194 194 194
33.437500000000 9.875000000000 64.017997741699 67 67 67
32.562500000000 10.375000000000 63.746002197266 211 211 211
32.375000000000 10.500000000000 63.559001922607 182 182 182
34.125000000000 9.375000000000 63.546001434326 188 188 188
33.062500000000 10.125000000000 63.114997863770 16 16 16
32.187500000000 10.625000000000 62.909000396729 75 75 75
32.375000000000 10.500000000000 62.756999969482 117 117 117
34.625000000000 9.375000000000 68.606002807617 97 97 97
34.500000000000 9.375000000000 68.363998413086 134 134 134
34.375000000000 9.500000000000 67.890998840332 114 114 114
33.125000000000 10.250000000000 67.188003540039 255 255 255
33.812500000000 9.750000000000 67.064002990723 57 57 57
33.875000000000 9.625000000000 66.911003112793 232 232 232
33.062500000000 10.125000000000 66.445999145508 225 225 225
33.000000000000 10.250000000000 66.232002258301 217 217 217
33.625000000000 9.875000000000 66.246002197266 144 144 144
33.750000000000 9.875000000000 66.086997985840 172 172 172
34.000000000000 9.625000000000 65.958999633789 255 255 255
34.750000000000 9.125000000000 65.965995788574 202 202 202
33.062500000000 10.125000000000 65.364997863770 164 164 164
33.375000000000 10.000000000000 65.261001586914 19 19 19
32.687500000000 10.375000000000 64.934997558594 20 20 20
32.875000000000 10.375000000000 64.798004150391 255 255 255
34.125000000000 9.500000000000 64.855003356934 230 230 230
33.125000000000 10.125000000000 64.502998352051 255 255 255
34.187500000000 9.500000000000 64.296005249023 202 202 202
34.625000000000 9.250000000000 64.161003112793 209 209 209
33.500000000000 10.000000000000 63.846000671387 137 137 137
32.437500000000 10.500000000000 63.568000793457 201 201 201
34.125000000000 9.625000000000 63.544002532959 173 173 173
33.000000000000 10.125000000000 63.284000396729 13 13 13
32.750000000000 10.375000000000 63.097000122070 205 205 205
32.437500000000 10.500000000000 62.920001983643 152 152 152
33.000000000000 10.125000000000 62.775001525879 47 47 47
34.250000000000 9.500000000000 62.437000274658 10 10 10
33.687500000000 9.750000000000 62.258003234863 130 130 130
34.562500000000 9.375000000000 68.385002136230 19 19 19
