18.640625000000 7.750000000000 8.517002105713 251 251 251
18.625000000000 7.750000000000 8.520999908447 58 58 58
18.671875000000 7.750000000000 10.329998016357 20 20 20
18.640625000000 7.750000000000 10.320995330811 87 87 87
22.421875000000 7.953125000000 9.347995758057 144 144 144
22.406250000000 7.953125000000 9.368999481201 125 125 125
21.781250000000 7.984375000000 11.763996124268 106 106 106
21.734375000000 7.984375000000 11.771999359131 37 37 37
20.781250000000 8.000000000000 11.743999481201 91 91 91
20.734375000000 8.000000000000 11.746997833252 121 121 121
19.484375000000 8.015625000000 8.525997161865 74 74 74
19.468750000000 8.031250000000 8.522998809814 100 100 100
19.421875000000 8.031250000000 10.080997467041 39 39 39
18.671875000000 8.046875000000 8.515995025635 98 98 98
18.656250000000 8.046875000000 8.529994964600 252 252 252
18.640625000000 8.046875000000 8.517002105713 68 68 68
18.656250000000 8.046875000000 10.350002288818 52 52 52
22.421875000000 8.250000000000 9.357997894287 115 115 115
22.375000000000 8.250000000000 9.369998931885 130 130 130
21.765625000000 8.281250000000 11.774997711182 84 84 84
21.718750000000 8.281250000000 11.788997650146 65 65 65
20.781250000000 8.312500000000 11.761997222900 54 54 54
20.734375000000 8.296875000000 11.770999908447 147 147 147
19.437500000000 8.312500000000 8.524997711182 46 46 46
19.421875000000 8.312500000000 10.087001800537 66 66 66
19.390625000000 8.312500000000 10.090000152588 58 58 58
18.656250000000 8.328125000000 8.524997711182 232 232 232
18.640625000000 8.328125000000 8.534000396729 90 90 90
18.671875000000 8.343750000000 10.353000640869 80 80 80
22.390625000000 8.546875000000 9.367000579834 84 84 84
22.359375000000 8.531250000000 9.381999969482 136 136 136
21.734375000000 8.562500000000 11.785999298096 79 79 79
21.703125000000 8.578125000000 11.796001434326 78 78 78
20.703125000000 8.593750000000 11.777996063232 154 154 154
19.437500000000 8.593750000000 8.532001495361 37 37 37
19.421875000000 8.609375000000 8.538997650146 100 100 100
19.390625000000 8.625000000000 10.117000579834 47 47 47
18.671875000000 8.625000000000 8.518001556396 220 220 220
18.640625000000 8.625000000000 8.524997711182 182 182 182
18.671875000000 8.625000000000 10.368999481201 34 34 34
18.640625000000 8.625000000000 10.350002288818 87 87 87
22.390625000000 8.843750000000 9.373996734619 69 69 69
22.343750000000 8.828125000000 9.381999969482 153 153 153
21.718750000000 8.859375000000 11.791996002197 78 78 78
21.671875000000 8.875000000000 11.802997589111 78 78 78
20.671875000000 8.890625000000 11.787998199463 152 152 152
19.421875000000 8.890625000000 8.534000396729 108 108 108
19.390625000000 8.890625000000 8.539997100830 113 113 113
19.390625000000 8.906250000000 8.888996124268 83 83 83
19.359375000000 8.890625000000 8.882999420166 55 55 55
19.359375000000 8.906250000000 10.087001800537 129 129 129
19.328125000000 8.906250000000 10.105998992920 63 63 63
18.687500000000 8.921875000000 8.517002105713 225 225 225
18.656250000000 8.906250000000 8.517002105713 232 232 232
18.671875000000 8.921875000000 10.371997833252 70 70 70
22.359375000000 9.125000000000 9.370998382568 18 18 18
22.328125000000 9.125000000000 9.394001007080 166 166 166
21.703125000000 9.156250000000 11.809001922607 46 46 46
21.656250000000 9.156250000000 11.817996978760 90 90 90
20.656250000000 9.187500000000 11.798999786377 135 135 135
19.375000000000 9.187500000000 8.537998199463 73 73 73
19.328125000000 9.203125000000 10.137996673584 71 71 71
18.843750000000 9.203125000000 8.744998931885 60 60 60
18.828125000000 9.203125000000 8.721996307373 59 59 59
18.687500000000 9.203125000000 8.533000946045 230 230 230
18.671875000000 9.187500000000 8.531002044678 240 240 240
18.656250000000 9.203125000000 8.531002044678 41 41 41
18.671875000000 9.203125000000 10.372997283936 69 69 69
22.328125000000 9.406250000000 9.376995086670 51 51 51
22.312500000000 9.406250000000 9.396999359131 159 159 159
21.671875000000 9.437500000000 11.816997528076 75 75 75
21.625000000000 9.437500000000 11.840999603271 73 73 73
20.640625000000 9.453125000000 11.812000274658 141 141 141
19.359375000000 9.468750000000 8.544002532959 114 114 114
19.343750000000 9.468750000000 8.550998687744 130 130 130
19.296875000000 9.484375000000 10.156002044678 67 67 67
18.703125000000 9.484375000000 8.534999847412 184 184 184
18.671875000000 9.484375000000 8.535999298096 249 249 249
18.656250000000 9.500000000000 8.520999908447 71 71 71
18.703125000000 9.500000000000 10.376995086670 80 80 80
18.671875000000 9.500000000000 10.371997833252 63 63 63
22.296875000000 9.703125000000 9.415996551514 170 170 170
21.656250000000 9.734375000000 11.823001861572 19 19 19
21.609375000000 9.718750000000 11.839000701904 95 95 95
20.625000000000 9.750000000000 11.826000213623 98 98 98
19.328125000000 9.765625000000 8.550998687744 93 93 93
19.281250000000 9.765625000000 10.167995452881 79 79 79
18.718750000000 9.781250000000 8.534999847412 54 54 54
18.687500000000 9.781250000000 8.525997161865 241 241 241
18.671875000000 9.781250000000 8.551998138428 110 110 110
18.687500000000 9.781250000000 10.420001983643 89 89 89
22.265625000000 10.000000000000 9.408000946045 167 167 167
21.640625000000 10.031250000000 11.848995208740 15 15 15
21.578125000000 10.031250000000 11.853000640869 95 95 95
20.609375000000 10.046875000000 11.832996368408 96 96 96
19.312500000000 10.062500000000 8.542995452881 41 41 41
19.296875000000 10.062500000000 8.548999786377 85 85 85
19.281250000000 10.078125000000 10.171001434326 21 21 21
19.250000000000 10.078125000000 10.179996490479 94 94 94
22.234375000000 10.281250000000 9.403995513916 172 172 172
21.609375000000 10.312500000000 11.857997894287 62 62 62
21.562500000000 10.312500000000 11.853000640869 95 95 95
20.578125000000 10.343750000000 11.843997955322 98 98 98
19.265625000000 10.640625000000 8.576999664307 97 97 97
19.218750000000 10.656250000000 10.203998565674 58 58 58
20.562500000000 10.890625000000 11.839000701904 107 107 107
20.531250000000 10.906250000000 11.841999053955 135 135 135
19.234375000000 10.906250000000 8.564998626709 87 87 87
19.218750000000 10.921875000000 8.555995941162 88 88 88
19.203125000000 10.937500000000 10.205997467041 21 21 21
19.171875000000 10.937500000000 10.234996795654 70 70 70
21.578125000000 11.171875000000 11.840999603271 74 74 74
21.515625000000 11.171875000000 11.853000640869 67 67 67
20.546875000000 11.187500000000 11.839000701904 98 98 98
19.171875000000 11.218750000000 10.247997283936 75 75 75
22.187500000000 11.437500000000 9.390995025635 174 174 174
21.531250000000 11.468750000000 11.832996368408 98 98 98
20.578125000000 11.484375000000 11.805995941162 118 118 118
20.515625000000 11.468750000000 11.837001800537 52 52 52
22.203125000000 11.734375000000 9.364002227783 168 168 168
21.546875000000 11.750000000000 11.804996490479 105 105 105
20.531250000000 11.781250000000 11.812999725342 147 147 147
19.218750000000 11.781250000000 8.588001251221 81 81 81
18.703125000000 11.812500000000 8.532001495361 183 183 183
18.671875000000 11.812500000000 8.534000396729 255 255 255
18.640625000000 11.812500000000 8.541996002197 138 138 138
18.671875000000 11.812500000000 10.325000762939 82 82 82
18.640625000000 11.812500000000 10.316997528076 72 72 72
22.203125000000 12.015625000000 9.347995758057 168 168 168
22.187500000000 12.015625000000 9.379001617432 78 78 78
21.562500000000 12.031250000000 11.806995391846 31 31 31
21.531250000000 12.046875000000 11.808002471924 93 93 93
20.546875000000 12.062500000000 11.778995513916 106 106 106
19.234375000000 12.078125000000 8.576999664307 73 73 73
19.187500000000 12.093750000000 10.195995330811 38 38 38
19.156250000000 12.093750000000 10.202999114990 92 92 92
18.671875000000 12.093750000000 8.524997711182 255 255 255
18.656250000000 12.093750000000 8.541996002197 255 255 255
18.640625000000 12.093750000000 8.528995513916 68 68 68
18.671875000000 12.093750000000 10.314998626709 43 43 43
22.203125000000 12.312500000000 9.336002349854 138 138 138
22.187500000000 12.296875000000 9.348995208740 108 108 108
21.531250000000 12.312500000000 11.798000335693 103 103 103
20.546875000000 12.343750000000 11.759998321533 82 82 82
20.515625000000 12.343750000000 11.774997711182 144 144 144
19.218750000000 12.375000000000 8.587001800537 69 69 69
19.187500000000 12.375000000000 10.171001434326 57 57 57
19.171875000000 12.359375000000 10.169002532959 85 85 85
18.687500000000 12.375000000000 8.542995452881 85 85 85
18.671875000000 12.375000000000 8.536998748779 255 255 255
18.656250000000 12.375000000000 8.549999237061 174 174 174
18.687500000000 12.375000000000 10.298000335693 68 68 68
18.656250000000 12.375000000000 10.289997100830 82 82 82
22.203125000000 12.593750000000 9.317996978760 88 88 88
22.171875000000 12.593750000000 9.332996368408 126 126 126
21.546875000000 12.609375000000 11.778995513916 117 117 117
20.531250000000 12.625000000000 11.744998931885 107 107 107
19.234375000000 12.656250000000 8.590000152588 79 79 79
19.203125000000 12.656250000000 10.150997161865 78 78 78
19.171875000000 12.656250000000 10.154994964600 77 77 77
18.687500000000 12.671875000000 8.545001983643 246 246 246
18.671875000000 12.671875000000 8.545001983643 255 255 255
18.656250000000 12.671875000000 8.544002532959 113 113 113
18.671875000000 12.671875000000 10.279994964600 32 32 32
22.171875000000 12.875000000000 9.312999725342 179 179 179
21.515625000000 12.906250000000 11.760997772217 108 108 108
20.546875000000 12.937500000000 11.729000091553 105 105 105
20.500000000000 12.937500000000 11.748996734619 128 128 128
19.250000000000 12.937500000000 8.586002349854 77 77 77
19.218750000000 12.953125000000 10.132999420166 29 29 29
19.187500000000 12.953125000000 10.121997833252 89 89 89
18.671875000000 12.968750000000 8.525997161865 255 255 255
18.640625000000 12.968750000000 8.534000396729 255 255 255
18.640625000000 12.953125000000 8.542995452881 38 38 38
18.640625000000 12.968750000000 10.283000946045 81 81 81
22.187500000000 13.187500000000 9.285999298096 165 165 165
22.171875000000 13.187500000000 9.320995330811 26 26 26
21.546875000000 13.218750000000 11.750995635986 112 112 112
20.515625000000 13.218750000000 11.723995208740 104 104 104
19.265625000000 13.250000000000 8.596996307373 77 77 77
19.203125000000 13.250000000000 10.103000640869 98 98 98
18.671875000000 13.250000000000 8.542995452881 55 55 55
18.656250000000 13.265625000000 8.542995452881 255 255 255
18.640625000000 13.265625000000 8.546001434326 171 171 171
18.656250000000 13.265625000000 10.270000457764 82 82 82
18.625000000000 13.265625000000 10.267002105713 37 37 37
22.187500000000 13.468750000000 9.268001556396 187 187 187
22.171875000000 13.468750000000 9.300998687744 110 110 110
21.531250000000 13.500000000000 11.715000152588 20 20 20
21.500000000000 13.484375000000 11.746997833252 99 99 99
20.531250000000 13.500000000000 11.709995269775 109 109 109
20.500000000000 13.500000000000 11.714000701904 93 93 93
19.265625000000 13.531250000000 8.583995819092 85 85 85
19.250000000000 13.531250000000 10.088001251221 32 32 32
19.203125000000 13.531250000000 10.084995269775 100 100 100
18.671875000000 13.546875000000 8.547000885010 227 227 227
18.656250000000 13.546875000000 8.544002532959 255 255 255
18.625000000000 13.531250000000 8.542995452881 140 140 140
18.640625000000 13.546875000000 10.243999481201 66 66 66
22.187500000000 13.750000000000 9.253002166748 80 80 80
22.156250000000 13.750000000000 9.270000457764 142 142 142
21.515625000000 13.781250000000 11.721996307373 103 103 103
20.515625000000 13.796875000000 11.708995819092 134 134 134
19.281250000000 13.812500000000 8.583995819092 93 93 93
19.250000000000 13.812500000000 10.055995941162 22 22 22
19.218750000000 13.828125000000 10.062000274658 103 103 103
18.656250000000 13.828125000000 8.540996551514 255 255 255
18.640625000000 13.828125000000 8.540996551514 255 255 255
18.625000000000 13.843750000000 8.534999847412 37 37 37
18.656250000000 13.828125000000 10.219997406006 77 77 77
18.640625000000 13.828125000000 10.242000579834 56 56 56
22.171875000000 14.046875000000 9.251995086670 167 167 167
21.546875000000 14.062500000000 11.708995819092 81 81 81
21.500000000000 14.062500000000 11.715999603271 59 59 59
20.531250000000 14.078125000000 11.689998626709 117 117 117
20.500000000000 14.078125000000 11.704998016357 44 44 44
19.296875000000 14.093750000000 8.580997467041 87 87 87
19.265625000000 14.109375000000 10.048000335693 21 21 21
19.234375000000 14.109375000000 10.035999298096 103 103 103
18.671875000000 14.125000000000 8.559001922607 57 57 57
18.656250000000 14.125000000000 8.551998138428 255 255 255
18.640625000000 14.125000000000 8.550998687744 150 150 150
18.656250000000 14.125000000000 10.239002227783 38 38 38
22.156250000000 14.343750000000 9.229000091553 179 179 179
21.500000000000 14.359375000000 11.699001312256 106 106 106
20.484375000000 14.390625000000 11.677997589111 151 151 151
19.296875000000 14.406250000000 8.589000701904 72 72 72
19.281250000000 14.406250000000 8.596996307373 31 31 31
19.281250000000 14.406250000000 10.012996673584 39 39 39
19.250000000000 14.406250000000 10.019001007080 104 104 104
18.656250000000 14.421875000000 8.549999237061 224 224 224
18.640625000000 14.406250000000 8.550998687744 255 255 255
18.609375000000 14.421875000000 8.552997589111 109 109 109
18.656250000000 14.421875000000 10.211002349854 68 68 68
18.609375000000 14.406250000000 10.215000152588 82 82 82
22.171875000000 14.625000000000 9.209995269775 148 148 148
22.140625000000 14.625000000000 9.223995208740 117 117 117
21.515625000000 14.656250000000 11.684001922607 110 110 110
21.484375000000 14.656250000000 11.689998626709 17 17 17
20.515625000000 14.671875000000 11.663997650146 118 118 118
19.296875000000 14.687500000000 8.587001800537 78 78 78
19.281250000000 14.687500000000 8.596996307373 68 68 68
19.250000000000 14.703125000000 9.996997833252 98 98 98
18.640625000000 14.703125000000 8.534000396729 255 255 255
18.625000000000 14.718750000000 8.548000335693 255 255 255
18.609375000000 14.718750000000 8.548000335693 34 34 34
18.640625000000 14.718750000000 10.191997528076 53 53 53
22.187500000000 14.921875000000 9.206996917725 29 29 29
22.156250000000 14.921875000000 9.212001800537 175 175 175
21.500000000000 14.937500000000 11.686000823975 106 106 106
20.500000000000 14.968750000000 11.652996063232 139 139 139
19.312500000000 14.984375000000 8.593997955322 86 86 86
19.296875000000 14.984375000000 8.596996307373 95 95 95
19.265625000000 14.984375000000 9.991001129150 97 97 97
18.656250000000 15.000000000000 8.548999786377 33 33 33
18.640625000000 15.000000000000 8.542995452881 255 255 255
18.625000000000 15.000000000000 8.559001922607 148 148 148
18.625000000000 15.000000000000 10.176998138428 79 79 79
22.156250000000 15.203125000000 9.185001373291 176 176 176
21.515625000000 15.218750000000 11.663997650146 111 111 111
20.515625000000 15.250000000000 11.620998382568 113 113 113
19.343750000000 15.265625000000 8.598995208740 95 95 95
19.312500000000 15.265625000000 8.590000152588 96 96 96
19.281250000000 15.265625000000 9.954998016357 107 107 107
18.656250000000 15.281250000000 8.556995391846 205 205 205
18.640625000000 15.281250000000 8.547000885010 255 255 255
18.609375000000 15.281250000000 8.546001434326 101 101 101
18.640625000000 15.281250000000 10.170001983643 79 79 79
18.609375000000 15.281250000000 10.166996002197 29 29 29
22.171875000000 15.500000000000 9.173999786377 165 165 165
22.125000000000 15.500000000000 9.193996429443 82 82 82
21.484375000000 15.515625000000 11.657001495361 104 104 104
20.515625000000 15.531250000000 11.618000030518 16 16 16
20.484375000000 15.546875000000 11.633998870850 153 153 153
19.343750000000 15.562500000000 8.603000640869 89 89 89
19.328125000000 15.562500000000 8.603000640869 106 106 106
19.296875000000 15.562500000000 9.923999786377 97 97 97
18.640625000000 15.562500000000 8.545001983643 255 255 255
18.609375000000 15.562500000000 8.554996490479 255 255 255
18.625000000000 15.578125000000 10.163997650146 36 36 36
22.156250000000 15.781250000000 9.146999359131 92 92 92
22.140625000000 15.796875000000 9.180995941162 131 131 131
21.500000000000 15.812500000000 11.621997833252 109 109 109
20.484375000000 15.843750000000 11.595996856689 107 107 107
19.359375000000 15.843750000000 8.604000091553 65 65 65
19.343750000000 15.843750000000 8.610996246338 106 106 106
19.281250000000 15.859375000000 9.913997650146 106 106 106
18.640625000000 15.875000000000 8.547000885010 229 229 229
18.593750000000 15.875000000000 8.555995941162 123 123 123
18.640625000000 15.875000000000 10.144001007080 55 55 55
18.593750000000 15.875000000000 10.151996612549 89 89 89
22.156250000000 16.093750000000 9.154994964600 161 161 161
21.515625000000 16.109375000000 11.643001556396 22 22 22
21.468750000000 16.109375000000 11.630001068115 104 104 104
20.515625000000 16.125000000000 11.596996307373 28 28 28
20.468750000000 16.125000000000 11.590999603271 145 145 145
19.375000000000 16.140625000000 8.596996307373 34 34 34
19.343750000000 16.140625000000 8.610996246338 90 90 90
19.296875000000 16.156250000000 9.892002105713 102 102 102
18.640625000000 16.171875000000 8.559001922607 140 140 140
18.609375000000 16.156250000000 8.552997589111 255 255 255
18.593750000000 16.156250000000 8.551998138428 80 80 80
18.625000000000 16.171875000000 10.132999420166 51 51 51
22.140625000000 16.375000000000 9.126995086670 169 169 169
22.109375000000 16.375000000000 9.159999847412 20 20 20
21.500000000000 16.406250000000 11.617000579834 102 102 102
20.500000000000 16.421875000000 11.597995758057 105 105 105
19.390625000000 16.437500000000 8.592998504639 35 35 35
19.359375000000 16.437500000000 8.630001068115 100 100 100
19.328125000000 16.437500000000 9.871997833252 105 105 105
18.625000000000 16.453125000000 8.556995391846 255 255 255
18.609375000000 16.453125000000 8.545001983643 255 255 255
18.609375000000 16.453125000000 10.114002227783 79 79 79
22.156250000000 16.656250000000 9.110996246338 111 111 111
22.109375000000 16.656250000000 9.133998870850 126 126 126
21.515625000000 16.687500000000 11.600002288818 49 49 49
21.468750000000 16.687500000000 11.615001678467 83 83 83
20.500000000000 16.703125000000 11.576999664307 18 18 18
20.484375000000 16.703125000000 11.581996917725 152 152 152
19.359375000000 16.718750000000 8.626995086670 73 73 73
19.343750000000 16.718750000000 9.843997955322 106 106 106
18.609375000000 16.734375000000 8.549999237061 255 255 255
18.609375000000 16.750000000000 8.562000274658 136 136 136
18.609375000000 16.734375000000 10.121997833252 89 89 89
18.609375000000 16.750000000000 10.105998992920 46 46 46
22.125000000000 16.968750000000 9.110996246338 154 154 154
21.484375000000 16.968750000000 11.604000091553 104 104 104
20.484375000000 17.000000000000 11.573001861572 112 112 112
19.375000000000 17.015625000000 8.618000030518 60 60 60
19.343750000000 17.031250000000 9.825000762939 107 107 107
18.625000000000 17.031250000000 8.564998626709 139 139 139
18.609375000000 17.031250000000 8.552997589111 255 255 255
18.578125000000 17.031250000000 8.565998077393 78 78 78
18.609375000000 17.031250000000 10.108997344971 40 40 40
22.140625000000 17.250000000000 9.092998504639 167 167 167
22.109375000000 17.250000000000 9.114002227783 22 22 22
21.484375000000 17.281250000000 11.574001312256 76 76 76
21.453125000000 17.281250000000 11.582996368408 72 72 72
20.500000000000 17.296875000000 11.550998687744 37 37 37
20.453125000000 17.296875000000 11.559001922607 149 149 149
19.406250000000 17.312500000000 8.631999969482 57 57 57
19.359375000000 17.312500000000 9.801998138428 107 107 107
18.609375000000 17.328125000000 8.550998687744 255 255 255
18.593750000000 17.328125000000 8.554996490479 255 255 255
18.609375000000 17.328125000000 10.080997467041 55 55 55
18.578125000000 17.328125000000 10.091999053955 83 83 83
22.125000000000 17.531250000000 9.072002410889 154 154 154
22.078125000000 17.531250000000 9.082996368408 121 121 121
21.453125000000 17.562500000000 11.570995330811 107 107 107
20.484375000000 17.593750000000 11.533000946045 105 105 105
19.421875000000 17.593750000000 8.636997222900 52 52 52
19.390625000000 17.609375000000 9.788997650146 42 42 42
19.359375000000 17.609375000000 9.789997100830 94 94 94
18.625000000000 17.609375000000 8.551998138428 49 49 49
18.609375000000 17.625000000000 8.562000274658 255 255 255
18.593750000000 17.609375000000 8.554996490479 129 129 129
18.609375000000 17.625000000000 10.074001312256 45 45 45
22.140625000000 17.828125000000 9.052997589111 30 30 30
22.109375000000 17.828125000000 9.072002410889 160 160 160
21.484375000000 17.859375000000 11.549999237061 95 95 95
21.437500000000 17.843750000000 11.577999114990 58 58 58
20.500000000000 17.875000000000 11.528995513916 32 32 32
20.453125000000 17.875000000000 11.534999847412 148 148 148
19.421875000000 17.890625000000 8.622997283936 79 79 79
19.359375000000 17.890625000000 9.761997222900 90 90 90
18.625000000000 17.906250000000 8.558002471924 163 163 163
18.609375000000 17.906250000000 8.563999176025 255 255 255
18.578125000000 17.906250000000 8.551998138428 99 99 99
18.593750000000 17.906250000000 10.069995880127 78 78 78
22.109375000000 18.125000000000 9.048000335693 177 177 177
22.093750000000 18.125000000000 9.068996429443 53 53 53
21.468750000000 18.140625000000 11.548000335693 106 106 106
20.453125000000 18.156250000000 11.521999359131 114 114 114
20.421875000000 18.156250000000 11.537998199463 56 56 56
19.437500000000 18.187500000000 8.626995086670 94 94 94
19.406250000000 18.187500000000 8.629001617432 114 114 114
19.375000000000 18.187500000000 9.747997283936 99 99 99
18.609375000000 18.187500000000 8.567996978760 255 255 255
18.593750000000 18.187500000000 8.569995880127 255 255 255
18.546875000000 18.187500000000 8.566997528076 107 107 107
18.609375000000 18.203125000000 10.058002471924 74 74 74
18.578125000000 18.203125000000 10.048000335693 78 78 78
22.140625000000 18.421875000000 9.035999298096 88 88 88
22.093750000000 18.421875000000 9.040996551514 139 139 139
21.484375000000 18.453125000000 11.536998748779 49 49 49
21.437500000000 18.453125000000 11.542995452881 90 90 90
20.453125000000 18.468750000000 11.510997772217 129 129 129
19.453125000000 18.468750000000 8.645999908447 64 64 64
19.421875000000 18.468750000000 8.635997772217 111 111 111
19.390625000000 18.468750000000 9.733997344971 96 96 96
18.593750000000 18.500000000000 8.562999725342 255 255 255
18.578125000000 18.500000000000 8.566997528076 231 231 231
18.578125000000 18.500000000000 10.034999847412 62 62 62
22.109375000000 18.718750000000 9.029994964600 168 168 168
21.453125000000 18.750000000000 11.523998260498 104 104 104
20.468750000000 18.750000000000 11.495998382568 115 115 115
19.468750000000 18.765625000000 8.634998321533 48 48 48
19.453125000000 18.781250000000 8.649997711182 96 96 96
19.437500000000 18.765625000000 9.705997467041 53 53 53
19.421875000000 18.765625000000 9.703998565674 89 89 89
18.609375000000 18.781250000000 8.552997589111 105 105 105
18.593750000000 18.781250000000 8.575000762939 255 255 255
18.562500000000 18.781250000000 8.565998077393 89 89 89
18.578125000000 18.796875000000 10.020999908447 92 92 92
22.093750000000 19.000000000000 9.009998321533 173 173 173
22.078125000000 19.000000000000 9.033000946045 27 27 27
21.484375000000 19.031250000000 11.513996124268 104 104 104
21.421875000000 19.031250000000 11.527996063232 28 28 28
20.484375000000 19.046875000000 11.477001190186 16 16 16
20.453125000000 19.046875000000 11.492000579834 157 157 157
19.453125000000 19.062500000000 8.642002105713 98 98 98
19.437500000000 19.062500000000 9.681995391846 75 75 75
19.406250000000 19.062500000000 9.687000274658 93 93 93
18.609375000000 19.062500000000 8.562999725342 255 255 255
18.578125000000 19.062500000000 8.562999725342 255 255 255
18.562500000000 19.062500000000 8.559001922607 40 40 40
18.593750000000 19.078125000000 10.026996612549 78 78 78
22.109375000000 19.281250000000 8.993999481201 157 157 157
22.078125000000 19.281250000000 9.012996673584 123 123 123
21.437500000000 19.312500000000 11.514995574951 104 104 104
20.453125000000 19.328125000000 11.473995208740 115 115 115
19.468750000000 19.343750000000 8.652996063232 79 79 79
19.453125000000 19.343750000000 9.662998199463 90 90 90
19.421875000000 19.343750000000 9.666996002197 100 100 100
18.578125000000 19.359375000000 8.561000823975 255 255 255
18.546875000000 19.359375000000 8.574001312256 207 207 207
18.546875000000 19.359375000000 10.013996124268 59 59 59
22.125000000000 19.578125000000 8.977001190186 52 52 52
22.093750000000 19.578125000000 8.993000030518 160 160 160
21.453125000000 19.593750000000 11.493000030518 103 103 103
20.421875000000 19.625000000000 11.466999053955 153 153 153
19.484375000000 19.625000000000 8.652996063232 66 66 66
19.453125000000 19.640625000000 9.639995574951 97 97 97
19.421875000000 19.640625000000 9.643001556396 93 93 93
18.578125000000 19.640625000000 8.563999176025 89 89 89
18.562500000000 19.656250000000 8.560001373291 255 255 255
18.546875000000 19.656250000000 8.560001373291 111 111 111
18.578125000000 19.656250000000 10.017002105713 83 83 83
18.546875000000 19.656250000000 10.011997222900 76 76 76
22.109375000000 19.875000000000 8.976001739502 176 176 176
22.078125000000 19.875000000000 8.993999481201 62 62 62
21.421875000000 19.906250000000 11.487995147705 100 100 100
20.453125000000 19.921875000000 11.444995880127 114 114 114
20.421875000000 19.921875000000 11.462001800537 99 99 99
19.484375000000 19.921875000000 8.654994964600 69 69 69
19.468750000000 19.937500000000 9.629001617432 72 72 72
19.453125000000 19.937500000000 9.626995086670 94 94 94
18.578125000000 19.953125000000 8.580997467041 165 165 165
18.562500000000 19.937500000000 8.565998077393 255 255 255
18.546875000000 19.953125000000 8.570995330811 82 82 82
18.562500000000 19.953125000000 9.996997833252 69 69 69
22.109375000000 20.171875000000 8.954998016357 172 172 172
22.062500000000 20.156250000000 8.975002288818 172 172 172
21.437500000000 20.203125000000 11.465000152588 112 112 112
21.406250000000 20.203125000000 11.487995147705 29 29 29
20.421875000000 20.218750000000 11.455997467041 129 129 129
19.500000000000 20.218750000000 8.659000396729 75 75 75
19.468750000000 20.218750000000 9.595996856689 94 94 94
19.453125000000 20.218750000000 9.606998443604 99 99 99
18.578125000000 20.234375000000 8.560001373291 243 243 243
18.562500000000 20.250000000000 8.582996368408 239 239 239
18.562500000000 20.250000000000 9.991001129150 79 79 79
22.109375000000 20.468750000000 8.947002410889 81 81 81
22.062500000000 20.453125000000 8.954998016357 151 151 151
21.453125000000 20.484375000000 11.444995880127 14 14 14
21.421875000000 20.484375000000 11.473995208740 98 98 98
20.453125000000 20.500000000000 11.442996978760 108 108 108
19.500000000000 20.500000000000 8.654994964600 64 64 64
19.484375000000 20.515625000000 9.581996917725 93 93 93
19.468750000000 20.515625000000 9.595996856689 58 58 58
18.578125000000 20.531250000000 8.562000274658 133 133 133
18.562500000000 20.531250000000 8.560001373291 255 255 255
18.546875000000 20.531250000000 8.554996490479 87 87 87
18.562500000000 20.531250000000 9.968997955322 75 75 75
22.078125000000 20.734375000000 8.942996978760 158 158 158
21.437500000000 20.781250000000 11.442996978760 102 102 102
20.453125000000 20.781250000000 11.423000335693 88 88 88
19.531250000000 20.796875000000 8.660999298096 66 66 66
19.500000000000 20.796875000000 9.574001312256 89 89 89
18.578125000000 20.812500000000 8.562999725342 255 255 255
18.546875000000 20.812500000000 8.565998077393 255 255 255
18.531250000000 20.812500000000 9.970996856689 85 85 85
20.406250000000 20.781250000000 11.444995880127 135 135 135
22.078125000000 21.031250000000 8.922000885010 164 164 164
22.062500000000 21.031250000000 8.945995330811 93 93 93
21.453125000000 21.062500000000 11.452999114990 28 28 28
21.406250000000 21.062500000000 11.454998016357 96 96 96
19.515625000000 21.078125000000 8.649997711182 85 85 85
19.515625000000 21.078125000000 8.670001983643 64 64 64
19.515625000000 21.093750000000 9.551998138428 92 92 92
19.484375000000 21.093750000000 9.551998138428 72 72 72
18.546875000000 21.109375000000 8.570995330811 227 227 227
18.531250000000 21.109375000000 8.575000762939 143 143 143
18.562500000000 21.125000000000 9.955997467041 69 69 69
18.531250000000 21.109375000000 9.951999664307 83 83 83
22.093750000000 21.328125000000 8.914997100830 78 78 78
22.062500000000 21.328125000000 8.924999237061 164 164 164
21.421875000000 21.359375000000 11.434001922607 111 111 111
19.546875000000 21.375000000000 8.670001983643 87 87 87
19.531250000000 21.375000000000 8.662998199463 118 118 118
19.515625000000 21.390625000000 9.532001495361 96 96 96
19.468750000000 21.390625000000 9.529994964600 87 87 87
18.578125000000 21.406250000000 8.581996917725 76 76 76
18.546875000000 21.406250000000 8.576999664307 243 243 243
18.531250000000 21.406250000000 8.574001312256 76 76 76
18.546875000000 21.406250000000 9.943996429443 67 67 67
20.437500000000 21.375000000000 11.449001312256 91 91 91
22.062500000000 21.625000000000 8.907001495361 170 170 170
21.437500000000 21.656250000000 11.420001983643 32 32 32
21.406250000000 21.656250000000 11.426998138428 101 101 101
19.578125000000 21.656250000000 8.678997039795 78 78 78
19.546875000000 21.671875000000 8.673000335693 116 116 116
19.515625000000 21.671875000000 9.517002105713 98 98 98
19.500000000000 21.671875000000 9.532001495361 61 61 61
18.562500000000 21.687500000000 8.569995880127 255 255 255
18.546875000000 21.687500000000 8.573001861572 255 255 255
18.546875000000 21.687500000000 9.949001312256 79 79 79
20.453125000000 21.671875000000 11.433002471924 111 111 111
22.062500000000 21.906250000000 8.892002105713 166 166 166
22.031250000000 21.906250000000 8.906002044678 76 76 76
21.421875000000 21.937500000000 11.427997589111 106 106 106
19.578125000000 21.953125000000 8.670001983643 73 73 73
19.562500000000 21.953125000000 8.683002471924 126 126 126
20.390625000000 21.953125000000 11.393001556396 146 146 146
19.531250000000 21.968750000000 9.500995635986 94 94 94
19.515625000000 21.968750000000 9.514995574951 60 60 60
18.546875000000 21.968750000000 8.556995391846 216 216 216
18.531250000000 21.968750000000 8.578998565674 149 149 149
18.546875000000 21.984375000000 9.931995391846 81 81 81
18.500000000000 21.984375000000 9.920001983643 24 24 24
20.421875000000 21.953125000000 11.384998321533 24 24 24
22.062500000000 22.187500000000 8.870998382568 156 156 156
22.046875000000 22.187500000000 8.886997222900 152 152 152
21.421875000000 22.218750000000 11.411998748779 88 88 88
21.406250000000 22.218750000000 11.424999237061 60 60 60
19.578125000000 22.234375000000 8.674999237061 71 71 71
19.546875000000 22.250000000000 8.666996002197 120 120 120
20.406250000000 22.234375000000 11.380001068115 110 110 110
19.531250000000 22.250000000000 9.485996246338 91 91 91
18.562500000000 22.250000000000 8.573001861572 132 132 132
18.546875000000 22.265625000000 8.573001861572 255 255 255
18.500000000000 22.265625000000 8.568996429443 66 66 66
18.515625000000 22.265625000000 9.916996002197 39 39 39
22.078125000000 22.468750000000 8.861995697021 86 86 86
22.046875000000 22.468750000000 8.874996185303 164 164 164
21.390625000000 22.515625000000 11.400997161865 106 106 106
19.578125000000 22.531250000000 8.677997589111 75 75 75
19.562500000000 22.531250000000 8.678997039795 117 117 117
20.421875000000 22.531250000000 11.370998382568 87 87 87
20.390625000000 22.531250000000 11.383998870850 133 133 133
19.546875000000 22.531250000000 9.467998504639 79 79 79
18.546875000000 22.562500000000 8.568996429443 255 255 255
18.515625000000 22.562500000000 8.569995880127 255 255 255
18.546875000000 22.562500000000 9.926998138428 77 77 77
18.515625000000 22.562500000000 9.903995513916 58 58 58
22.046875000000 22.765625000000 8.862995147705 163 163 163
21.421875000000 22.796875000000 11.389995574951 106 106 106
21.390625000000 22.796875000000 11.428997039795 26 26 26
19.593750000000 22.812500000000 8.665996551514 45 45 45
19.578125000000 22.812500000000 8.683002471924 120 120 120
20.406250000000 22.812500000000 11.358997344971 107 107 107
19.562500000000 22.828125000000 9.458995819092 72 72 72
18.546875000000 22.843750000000 8.577999114990 224 224 224
18.515625000000 22.843750000000 8.568996429443 120 120 120
18.531250000000 22.843750000000 9.913997650146 53 53 53
22.046875000000 23.062500000000 8.841999053955 154 154 154
22.015625000000 23.062500000000 8.862995147705 117 117 117
21.390625000000 23.093750000000 11.388996124268 102 102 102
19.593750000000 23.109375000000 8.690998077393 117 117 117
20.390625000000 23.109375000000 11.352001190186 146 146 146
19.578125000000 23.109375000000 9.449001312256 76 76 76
18.546875000000 23.140625000000 8.579998016357 107 107 107
18.515625000000 23.140625000000 8.574001312256 255 255 255
18.515625000000 23.140625000000 8.590000152588 75 75 75
18.515625000000 23.140625000000 9.885997772217 66 66 66
22.078125000000 23.343750000000 8.832996368408 83 83 83
22.031250000000 23.343750000000 8.847995758057 162 162 162
21.406250000000 23.375000000000 11.368000030518 92 92 92
21.375000000000 23.375000000000 11.390995025635 49 49 49
19.593750000000 23.390625000000 8.681995391846 101 101 101
20.390625000000 23.390625000000 11.340000152588 113 113 113
20.359375000000 23.390625000000 11.369998931885 19 19 19
19.578125000000 23.406250000000 9.436000823975 68 68 68
18.531250000000 23.406250000000 8.577999114990 255 255 255
18.515625000000 23.421875000000 8.573001861572 255 255 255
18.531250000000 23.421875000000 9.890995025635 73 73 73
18.484375000000 23.421875000000 9.892002105713 68 68 68
22.031250000000 23.640625000000 8.826999664307 163 163 163
21.375000000000 23.656250000000 11.381000518799 101 101 101
19.609375000000 23.671875000000 8.681995391846 111 111 111
20.421875000000 23.671875000000 11.336002349854 82 82 82
20.375000000000 23.687500000000 11.343997955322 151 151 151
19.593750000000 23.687500000000 9.417995452881 60 60 60
18.515625000000 23.718750000000 8.580997467041 238 238 238
18.500000000000 23.718750000000 8.588001251221 153 153 153
18.500000000000 23.718750000000 9.888996124268 48 48 48
22.031250000000 23.921875000000 8.816997528076 170 170 170
21.390625000000 23.937500000000 11.357997894287 109 109 109
19.625000000000 23.968750000000 8.680995941162 102 102 102
20.390625000000 23.968750000000 11.327999114990 100 100 100
19.609375000000 23.984375000000 9.410999298096 80 80 80
18.531250000000 24.000000000000 8.589000701904 167 167 167
18.515625000000 24.000000000000 8.579998016357 255 255 255
18.484375000000 24.000000000000 8.578998565674 65 65 65
18.515625000000 24.000000000000 9.887996673584 60 60 60
18.500000000000 24.000000000000 9.874996185303 76 76 76
22.031250000000 24.218750000000 8.799999237061 159 159 159
22.015625000000 24.218750000000 8.825000762939 97 97 97
21.421875000000 24.234375000000 11.366001129150 44 44 44
21.359375000000 24.234375000000 11.358997344971 87 87 87
19.640625000000 24.250000000000 8.688999176025 98 98 98
20.406250000000 24.250000000000 11.320995330811 97 97 97
20.375000000000 24.265625000000 11.315998077393 142 142 142
19.609375000000 24.265625000000 9.387996673584 96 96 96
18.531250000000 24.281250000000 8.579998016357 255 255 255
18.500000000000 24.281250000000 8.574001312256 255 255 255
18.515625000000 24.281250000000 9.865001678467 64 64 64
22.046875000000 24.500000000000 8.783000946045 94 94 94
22.015625000000 24.500000000000 8.806995391846 155 155 155
21.390625000000 24.531250000000 11.348995208740 113 113 113
19.640625000000 24.546875000000 8.681995391846 96 96 96
20.375000000000 24.546875000000 11.323001861572 101 101 101
19.593750000000 24.562500000000 9.374996185303 104 104 104
18.500000000000 24.578125000000 8.586002349854 244 244 244
18.484375000000 24.578125000000 8.579998016357 174 174 174
18.484375000000 24.578125000000 9.859996795654 61 61 61
22.015625000000 24.781250000000 8.787998199463 162 162 162
21.406250000000 24.812500000000 11.339000701904 19 19 19
21.359375000000 24.812500000000 11.360996246338 105 105 105
19.671875000000 24.828125000000 8.686000823975 95 95 95
20.406250000000 24.828125000000 11.310001373291 59 59 59
20.359375000000 24.828125000000 11.313999176025 146 146 146
19.640625000000 24.828125000000 9.354999542236 38 38 38
19.625000000000 24.843750000000 9.370998382568 118 118 118
18.531250000000 24.859375000000 8.587001800537 130 130 130
18.500000000000 24.859375000000 8.588001251221 255 255 255
18.484375000000 24.859375000000 8.579998016357 105 105 105
18.515625000000 24.859375000000 9.838001251221 70 70 70
18.484375000000 24.859375000000 9.850002288818 79 79 79
22.015625000000 25.078125000000 8.767002105713 148 148 148
22.015625000000 25.078125000000 8.789997100830 162 162 162
21.375000000000 25.093750000000 11.331996917725 106 106 106
19.671875000000 25.125000000000 8.690998077393 86 86 86
19.656250000000 25.125000000000 8.697002410889 102 102 102
20.390625000000 25.125000000000 11.298000335693 116 116 116
20.343750000000 25.109375000000 11.311000823975 92 92 92
19.640625000000 25.125000000000 9.355998992920 97 97 97
18.515625000000 25.156250000000 8.591999053955 218 218 218
18.484375000000 25.156250000000 8.583995819092 255 255 255
18.468750000000 25.156250000000 8.578998565674 54 54 54
18.484375000000 25.156250000000 9.844997406006 81 81 81
22.031250000000 25.359375000000 8.759998321533 96 96 96
22.000000000000 25.359375000000 8.774997711182 151 151 151
21.390625000000 25.375000000000 11.331996917725 28 28 28
21.359375000000 25.390625000000 11.338001251221 104 104 104
19.671875000000 25.406250000000 8.690998077393 84 84 84
19.671875000000 25.406250000000 8.701000213623 95 95 95
20.359375000000 25.406250000000 11.304996490479 144 144 144
19.671875000000 25.406250000000 9.338001251221 68 68 68
19.640625000000 25.421875000000 9.326999664307 128 128 128
18.500000000000 25.437500000000 8.589000701904 255 255 255
18.484375000000 25.437500000000 8.590000152588 201 201 201
18.484375000000 25.437500000000 9.840999603271 75 75 75
22.015625000000 25.656250000000 8.761997222900 156 156 156
21.375000000000 25.687500000000 11.320995330811 106 106 106
19.687500000000 25.703125000000 8.706996917725 75 75 75
19.671875000000 25.703125000000 8.702999114990 107 107 107
20.359375000000 25.703125000000 11.284000396729 106 106 106
19.656250000000 25.703125000000 9.301998138428 91 91 91
19.640625000000 25.718750000000 9.317996978760 98 98 98
18.500000000000 25.734375000000 8.594997406006 143 143 143
18.484375000000 25.734375000000 8.594997406006 255 255 255
18.468750000000 25.734375000000 8.590000152588 103 103 103
18.484375000000 25.734375000000 9.824001312256 88 88 88
22.015625000000 25.937500000000 8.743999481201 164 164 164
22.000000000000 25.937500000000 8.772998809814 36 36 36
18.593750000000 19.687500000000 9.851001739502 33 33 33
18.593750000000 19.453125000000 9.871997833252 46 46 46
18.609375000000 19.250000000000 9.875995635986 83 83 83
18.625000000000 19.015625000000 9.883998870850 63 63 63
18.609375000000 18.781250000000 9.906002044678 38 38 38
18.640625000000 18.796875000000 9.881000518799 55 55 55
18.625000000000 18.562500000000 9.899997711182 77 77 77
18.625000000000 18.343750000000 9.903995513916 82 82 82
18.625000000000 18.125000000000 9.924999237061 76 76 76
18.625000000000 17.890625000000 9.919002532959 67 67 67
18.640625000000 17.671875000000 9.937999725342 69 69 69
18.640625000000 17.437500000000 9.952999114990 82 82 82
18.640625000000 17.218750000000 9.953998565674 82 82 82
18.640625000000 16.984375000000 9.970996856689 85 85 85
18.640625000000 16.750000000000 9.975002288818 79 79 79
18.625000000000 16.718750000000 8.425998687744 78 78 78
18.656250000000 16.531250000000 9.983997344971 80 80 80
18.640625000000 16.500000000000 8.422000885010 107 107 107
18.656250000000 16.500000000000 8.429996490479 177 177 177
18.656250000000 16.296875000000 9.998996734619 70 70 70
18.640625000000 16.281250000000 8.438999176025 36 36 36
18.656250000000 16.281250000000 8.428997039795 176 176 176
18.640625000000 16.078125000000 9.994998931885 59 59 59
18.671875000000 16.093750000000 10.006999969482 41 41 41
18.656250000000 16.062500000000 8.423999786377 174 174 174
18.640625000000 15.843750000000 10.017002105713 68 68 68
18.640625000000 15.812500000000 8.422000885010 102 102 102
18.656250000000 15.828125000000 8.427997589111 185 185 185
18.640625000000 15.609375000000 10.034000396729 84 84 84
18.656250000000 15.593750000000 8.426998138428 173 173 173
18.656250000000 15.593750000000 8.419002532959 66 66 66
18.640625000000 15.390625000000 10.042995452881 90 90 90
18.656250000000 15.359375000000 8.425998687744 181 181 181
18.656250000000 15.156250000000 10.059001922607 85 85 85
18.656250000000 15.140625000000 8.440998077393 41 41 41
18.671875000000 15.140625000000 8.422000885010 189 189 189
18.656250000000 14.937500000000 10.062999725342 88 88 88
18.671875000000 14.921875000000 8.425998687744 189 189 189
18.640625000000 14.703125000000 10.082996368408 58 58 58
18.671875000000 14.718750000000 10.064998626709 55 55 55
18.656250000000 14.671875000000 8.447002410889 42 42 42
18.671875000000 14.687500000000 8.423000335693 190 190 190
18.640625000000 14.484375000000 10.094997406006 74 74 74
18.671875000000 14.500000000000 10.090999603271 21 21 21
18.656250000000 14.453125000000 8.423999786377 165 165 165
18.671875000000 14.468750000000 8.422000885010 182 182 182
18.671875000000 14.250000000000 10.084995269775 84 84 84
18.671875000000 14.234375000000 8.424999237061 191 191 191
18.687500000000 14.031250000000 10.112995147705 88 88 88
18.671875000000 14.000000000000 8.420001983643 134 134 134
18.687500000000 14.000000000000 8.421001434326 199 199 199
18.687500000000 13.796875000000 10.123996734619 87 87 87
18.671875000000 13.765625000000 8.425998687744 156 156 156
18.687500000000 13.781250000000 8.414997100830 195 195 195
18.671875000000 13.562500000000 10.118000030518 81 81 81
18.671875000000 13.546875000000 8.430995941162 154 154 154
18.687500000000 13.546875000000 8.408000946045 205 205 205
18.671875000000 13.343750000000 10.148998260498 69 69 69
18.671875000000 13.312500000000 8.410999298096 180 180 180
18.687500000000 13.328125000000 8.409999847412 198 198 198
18.671875000000 13.125000000000 10.145000457764 86 86 86
18.671875000000 13.109375000000 8.411998748779 205 205 205
18.687500000000 13.109375000000 8.422000885010 127 127 127
18.671875000000 12.859375000000 8.425998687744 169 169 169
18.671875000000 12.875000000000 8.410999298096 210 210 210
18.703125000000 12.640625000000 8.416996002197 210 210 210
18.718750000000 12.640625000000 8.412998199463 188 188 188
18.703125000000 12.406250000000 8.410999298096 211 211 211
18.718750000000 12.421875000000 8.408000946045 139 139 139
18.703125000000 12.187500000000 8.419002532959 207 207 207
18.718750000000 12.203125000000 8.411998748779 181 181 181
18.703125000000 11.968750000000 8.416996002197 219 219 219
18.718750000000 11.968750000000 8.457996368408 173 173 173
18.687500000000 11.734375000000 8.424999237061 166 166 166
18.703125000000 11.734375000000 8.416996002197 251 251 251
18.703125000000 11.781250000000 10.215000152588 53 53 53
18.703125000000 9.937500000000 10.295001983643 90 90 90
18.687500000000 9.656250000000 8.425998687744 92 92 92
18.703125000000 9.671875000000 8.425998687744 181 181 181
18.703125000000 9.703125000000 10.289997100830 97 97 97
18.687500000000 9.437500000000 8.427997589111 164 164 164
18.687500000000 9.468750000000 10.278995513916 103 103 103
18.671875000000 9.187500000000 8.423999786377 56 56 56
18.671875000000 9.203125000000 8.429996490479 171 171 171
18.671875000000 9.203125000000 9.954998016357 31 31 31
18.703125000000 9.218750000000 9.871997833252 80 80 80
18.781250000000 9.250000000000 8.568996429443 78 78 78
18.796875000000 9.281250000000 8.560001373291 52 52 52
18.671875000000 8.953125000000 8.422000885010 106 106 106
18.687500000000 8.968750000000 8.420001983643 165 165 165
18.671875000000 8.984375000000 10.270000457764 67 67 67
18.718750000000 9.015625000000 10.036998748779 72 72 72
18.890625000000 9.109375000000 8.866001129150 47 47 47
18.921875000000 9.125000000000 8.857997894287 75 75 75
19.000000000000 9.187500000000 9.551998138428 24 24 24
19.015625000000 9.203125000000 9.540996551514 103 103 103
18.671875000000 8.718750000000 8.427997589111 143 143 143
18.687500000000 8.734375000000 8.419002532959 149 149 149
18.656250000000 8.734375000000 10.267002105713 23 23 23
18.687500000000 8.750000000000 10.246997833252 88 88 88
18.671875000000 8.484375000000 8.422000885010 121 121 121
18.687500000000 8.500000000000 8.420001983643 119 119 119
18.656250000000 8.515625000000 10.251995086670 71 71 71
18.656250000000 8.250000000000 8.424999237061 105 105 105
18.671875000000 8.265625000000 8.416996002197 107 107 107
18.671875000000 8.281250000000 10.231998443604 79 79 79
18.656250000000 8.015625000000 8.425998687744 78 78 78
18.656250000000 8.031250000000 8.420001983643 119 119 119
18.656250000000 8.046875000000 10.221996307373 39 39 39
18.671875000000 8.062500000000 10.236995697021 77 77 77
18.640625000000 7.781250000000 8.430995941162 100 100 100
18.656250000000 7.781250000000 8.419002532959 101 101 101
18.656250000000 7.812500000000 10.229999542236 81 81 81
18.656250000000 7.531250000000 8.417995452881 122 122 122
18.640625000000 7.562500000000 10.227001190186 77 77 77
18.640625000000 7.312500000000 8.427997589111 120 120 120
18.640625000000 7.328125000000 10.222995758057 68 68 68
18.656250000000 7.343750000000 10.226001739502 62 62 62
18.609375000000 7.062500000000 8.430995941162 38 38 38
18.625000000000 7.062500000000 8.421001434326 116 116 116
18.640625000000 7.093750000000 10.215999603271 89 89 89
18.625000000000 6.828125000000 8.423000335693 116 116 116
18.625000000000 6.859375000000 10.202999114990 49 49 49
18.640625000000 6.875000000000 10.207996368408 56 56 56
18.609375000000 6.593750000000 8.434001922607 114 114 114
18.625000000000 6.625000000000 10.192996978760 94 94 94
18.609375000000 6.359375000000 8.430995941162 57 57 57
18.625000000000 6.375000000000 8.417995452881 107 107 107
18.609375000000 6.375000000000 10.171001434326 74 74 74
18.593750000000 6.109375000000 8.421001434326 104 104 104
18.609375000000 6.125000000000 8.430995941162 54 54 54
18.609375000000 6.140625000000 10.180995941162 70 70 70
18.593750000000 5.875000000000 8.423999786377 107 107 107
18.593750000000 5.890625000000 10.184001922607 25 25 25
18.609375000000 5.906250000000 10.174999237061 69 69 69
18.609375000000 5.640625000000 8.430995941162 100 100 100
18.609375000000 5.656250000000 8.427997589111 59 59 59
18.609375000000 5.656250000000 10.171001434326 88 88 88
18.578125000000 5.406250000000 8.424999237061 81 81 81
18.593750000000 5.421875000000 8.429996490479 86 86 86
18.609375000000 5.437500000000 10.161998748779 81 81 81
18.578125000000 5.171875000000 8.414997100830 88 88 88
18.593750000000 5.187500000000 8.423999786377 85 85 85
18.578125000000 5.187500000000 10.160999298096 60 60 60
18.609375000000 5.218750000000 10.159000396729 42 42 42
18.578125000000 4.937500000000 8.412998199463 104 104 104
18.578125000000 4.937500000000 10.151996612549 64 64 64
18.578125000000 4.968750000000 10.149997711182 52 52 52
18.546875000000 4.687500000000 8.411998748779 62 62 62
18.562500000000 4.687500000000 8.419002532959 107 107 107
18.562500000000 4.703125000000 10.144001007080 44 44 44
18.593750000000 4.718750000000 10.143001556396 56 56 56
18.562500000000 4.437500000000 8.423000335693 78 78 78
18.578125000000 4.468750000000 8.413997650146 93 93 93
18.578125000000 4.484375000000 10.131000518799 80 80 80
18.546875000000 4.218750000000 8.429996490479 43 43 43
18.578125000000 4.218750000000 8.422000885010 105 105 105
