22.515625000000 16.984375000000 6.731002807617 174 174 174
22.531250000000 17.000000000000 6.771003723145 175 175 175
22.515625000000 16.984375000000 6.807998657227 152 152 152
22.687500000000 17.093750000000 7.153999328613 136 136 136
22.468750000000 16.953125000000 7.143997192383 129 129 129
22.500000000000 16.984375000000 7.192001342773 67 67 67
22.656250000000 16.796875000000 5.608001708984 39 39 39
22.656250000000 16.781250000000 5.646999359131 84 84 84
22.656250000000 16.796875000000 5.685001373291 93 93 93
22.687500000000 16.796875000000 5.723999023438 82 82 82
22.656250000000 16.781250000000 5.763000488281 84 84 84
22.687500000000 16.796875000000 5.801002502441 83 83 83
22.687500000000 16.796875000000 5.840003967285 102 102 102
22.687500000000 16.796875000000 5.878997802734 52 52 52
22.531250000000 16.703125000000 6.257003784180 174 174 174
22.531250000000 16.703125000000 6.293998718262 173 173 173
22.531250000000 16.703125000000 6.332000732422 173 173 173
22.531250000000 16.703125000000 6.370002746582 184 184 184
22.531250000000 16.703125000000 6.407997131348 216 216 216
22.531250000000 16.703125000000 6.446998596191 181 181 181
22.531250000000 16.703125000000 6.485000610352 85 85 85
22.531250000000 16.703125000000 6.750999450684 90 90 90
22.500000000000 16.687500000000 6.788002014160 177 177 177
22.531250000000 16.703125000000 6.828002929688 174 174 174
22.531250000000 16.703125000000 6.866996765137 178 178 178
22.531250000000 16.703125000000 6.904998779297 175 175 175
22.531250000000 16.703125000000 6.944000244141 175 175 175
22.531250000000 16.703125000000 6.982002258301 169 169 169
22.687500000000 10.343750000000 6.236000061035 149 149 149
22.656250000000 10.328125000000 6.273002624512 194 194 194
22.656250000000 10.328125000000 6.311996459961 203 203 203
22.656250000000 10.328125000000 6.349998474121 198 198 198
22.656250000000 10.328125000000 6.388999938965 218 218 218
22.656250000000 10.328125000000 6.428001403809 198 198 198
22.656250000000 10.328125000000 6.465003967285 188 188 188
22.687500000000 10.343750000000 6.859001159668 171 171 171
22.687500000000 10.343750000000 6.899002075195 189 189 189
22.687500000000 10.343750000000 6.939002990723 182 182 182
22.718750000000 10.359375000000 6.980003356934 184 184 184
22.718750000000 10.359375000000 7.019996643066 181 181 181
22.718750000000 10.359375000000 7.060997009277 168 168 168
22.750000000000 10.093750000000 5.527000427246 43 43 43
22.750000000000 10.093750000000 5.564998626709 62 62 62
22.750000000000 10.093750000000 5.604999542236 61 61 61
22.750000000000 10.093750000000 5.643001556396 64 64 64
22.812500000000 10.109375000000 5.680999755859 117 117 117
22.812500000000 10.109375000000 5.720001220703 104 104 104
22.781250000000 10.109375000000 5.760002136230 134 134 134
22.781250000000 10.109375000000 5.799003601074 124 124 124
22.812500000000 10.125000000000 5.837997436523 114 114 114
22.812500000000 10.109375000000 5.876998901367 97 97 97
22.812500000000 10.109375000000 5.916000366211 101 101 101
22.812500000000 10.125000000000 5.955001831055 105 105 105
22.718750000000 10.046875000000 6.417999267578 188 188 188
22.718750000000 10.046875000000 6.457000732422 200 200 200
22.718750000000 10.046875000000 6.496002197266 200 200 200
22.718750000000 10.046875000000 6.533996582031 200 200 200
22.718750000000 10.046875000000 6.573997497559 201 201 201
22.687500000000 10.046875000000 6.611999511719 196 196 196
22.687500000000 10.046875000000 6.650001525879 110 110 110
22.687500000000 10.046875000000 6.690002441406 176 176 176
22.718750000000 10.046875000000 6.731002807617 184 184 184
22.718750000000 10.046875000000 6.768997192383 181 181 181
22.718750000000 10.046875000000 6.808998107910 183 183 183
22.718750000000 10.046875000000 6.848999023438 180 180 180
22.718750000000 10.062500000000 6.889999389648 179 179 179
22.718750000000 10.046875000000 6.929000854492 80 80 80
22.812500000000 9.843750000000 3.923999786377 227 227 227
22.843750000000 9.859375000000 3.953998565674 9 9 9
22.750000000000 9.812500000000 4.025001525879 127 127 127
22.750000000000 9.812500000000 4.068000793457 126 126 126
22.750000000000 9.812500000000 4.108001708984 129 129 129
22.843750000000 9.859375000000 4.124000549316 14 14 14
22.750000000000 9.812500000000 4.191001892090 127 127 127
22.750000000000 9.812500000000 4.234001159668 119 119 119
22.750000000000 9.796875000000 4.276000976563 121 121 121
22.750000000000 9.812500000000 4.314998626709 119 119 119
22.750000000000 9.796875000000 4.359001159668 122 122 122
22.781250000000 9.828125000000 4.389999389648 201 201 201
22.781250000000 9.828125000000 4.429000854492 211 211 211
22.781250000000 9.828125000000 4.472000122070 202 202 202
22.750000000000 9.812500000000 4.518001556396 137 137 137
22.750000000000 9.796875000000 4.562999725342 120 120 120
22.750000000000 9.796875000000 4.601001739502 122 122 122
22.750000000000 9.796875000000 4.642002105713 118 118 118
22.750000000000 9.796875000000 4.680999755859 124 124 124
22.750000000000 9.796875000000 4.722999572754 120 120 120
22.750000000000 9.796875000000 4.762001037598 127 127 127
22.750000000000 9.796875000000 4.800998687744 131 131 131
22.750000000000 9.796875000000 4.840000152588 127 127 127
22.750000000000 9.796875000000 4.880001068115 127 127 127
22.750000000000 9.796875000000 4.921001434326 129 129 129
22.750000000000 9.796875000000 4.960998535156 133 133 133
22.750000000000 9.796875000000 5.000000000000 130 130 130
22.750000000000 9.796875000000 5.039001464844 128 128 128
22.750000000000 9.796875000000 5.078998565674 133 133 133
22.718750000000 9.796875000000 5.119998931885 133 133 133
22.750000000000 9.796875000000 5.157001495361 133 133 133
22.750000000000 9.796875000000 5.195999145508 131 131 131
22.750000000000 9.796875000000 5.235000610352 139 139 139
22.718750000000 9.796875000000 5.276000976563 132 132 132
22.750000000000 9.796875000000 5.313999176025 139 139 139
22.750000000000 9.796875000000 5.353000640869 142 142 142
22.750000000000 9.796875000000 5.390998840332 148 148 148
22.750000000000 9.796875000000 5.430000305176 142 142 142
22.750000000000 9.796875000000 5.470001220703 146 146 146
22.750000000000 9.796875000000 5.508998870850 145 145 145
22.750000000000 9.796875000000 5.547000885010 150 150 150
22.750000000000 9.796875000000 5.585998535156 172 172 172
22.750000000000 9.796875000000 5.625999450684 172 172 172
22.750000000000 9.796875000000 5.664001464844 163 163 163
22.750000000000 9.796875000000 5.703002929688 141 141 141
22.750000000000 9.796875000000 5.741996765137 154 154 154
22.718750000000 9.781250000000 5.780998229980 184 184 184
22.750000000000 9.796875000000 5.819000244141 151 151 151
22.750000000000 9.796875000000 5.858001708984 146 146 146
22.750000000000 9.796875000000 5.897003173828 143 143 143
22.750000000000 9.796875000000 5.935997009277 146 146 146
22.750000000000 9.796875000000 5.974998474121 163 163 163
22.750000000000 9.796875000000 6.013999938965 140 140 140
22.718750000000 9.781250000000 6.052001953125 142 142 142
22.750000000000 9.796875000000 6.091003417969 143 143 143
22.718750000000 9.781250000000 6.129997253418 145 145 145
22.718750000000 9.781250000000 6.167999267578 141 141 141
22.718750000000 9.781250000000 6.207000732422 141 141 141
22.718750000000 9.781250000000 6.246002197266 147 147 147
22.718750000000 9.781250000000 6.285003662109 146 146 146
22.718750000000 9.781250000000 6.322998046875 146 146 146
22.718750000000 9.781250000000 6.362998962402 149 149 149
22.718750000000 9.781250000000 6.402000427246 144 144 144
22.718750000000 9.781250000000 6.440002441406 146 146 146
22.750000000000 9.796875000000 6.480003356934 154 154 154
22.718750000000 9.781250000000 6.518997192383 162 162 162
22.718750000000 9.781250000000 6.557998657227 168 168 168
22.718750000000 9.781250000000 6.597000122070 166 166 166
22.718750000000 9.781250000000 6.635002136230 171 171 171
22.718750000000 9.781250000000 6.675003051758 171 171 171
22.718750000000 9.781250000000 6.713996887207 161 161 161
22.734375000000 9.765625000000 6.752998352051 168 168 168
22.718750000000 9.781250000000 6.792999267578 164 164 164
22.734375000000 9.765625000000 6.832000732422 151 151 151
22.718750000000 9.765625000000 6.871002197266 165 165 165
22.734375000000 9.765625000000 6.911003112793 163 163 163
22.734375000000 9.765625000000 6.949996948242 163 163 163
22.718750000000 9.765625000000 6.988998413086 152 152 152
22.968750000000 9.625000000000 5.548000335693 55 55 55
22.968750000000 9.625000000000 5.588001251221 92 92 92
22.937500000000 9.609375000000 5.629001617432 89 89 89
22.937500000000 9.609375000000 5.668998718262 94 94 94
22.968750000000 9.625000000000 5.708999633789 96 96 96
22.968750000000 9.625000000000 5.749000549316 106 106 106
22.937500000000 9.609375000000 5.790000915527 122 122 122
22.968750000000 9.640625000000 5.830001831055 98 98 98
22.968750000000 9.625000000000 5.870002746582 93 93 93
22.968750000000 9.640625000000 5.910003662109 87 87 87
22.968750000000 9.640625000000 5.951004028320 86 86 86
22.812500000000 9.515625000000 6.380996704102 196 196 196
22.812500000000 9.515625000000 6.418998718262 210 210 210
22.812500000000 9.515625000000 6.458999633789 208 208 208
22.812500000000 9.515625000000 6.499000549316 210 210 210
22.812500000000 9.515625000000 6.538002014160 210 210 210
22.812500000000 9.515625000000 6.578002929688 204 204 204
22.812500000000 9.515625000000 6.616996765137 97 97 97
22.812500000000 9.515625000000 6.736000061035 203 203 203
22.812500000000 9.515625000000 6.776000976563 216 216 216
22.812500000000 9.515625000000 6.816001892090 212 212 212
22.812500000000 9.515625000000 6.857002258301 209 209 209
22.812500000000 9.515625000000 6.896003723145 212 212 212
22.812500000000 9.515625000000 6.935997009277 209 209 209
22.812500000000 9.515625000000 6.977996826172 30 30 30
22.875000000000 9.265625000000 6.279998779297 157 157 157
22.843750000000 9.265625000000 6.319000244141 198 198 198
22.875000000000 9.265625000000 6.359001159668 215 215 215
22.875000000000 9.265625000000 6.399002075195 204 204 204
22.875000000000 9.265625000000 6.438003540039 195 195 195
22.875000000000 9.265625000000 6.880996704102 186 186 186
22.875000000000 9.265625000000 6.920997619629 215 215 215
22.875000000000 9.265625000000 6.959999084473 214 214 214
22.875000000000 9.265625000000 7.000999450684 201 201 201
22.875000000000 9.265625000000 7.041000366211 147 147 147
22.531250000000 17.765625000000 6.315002441406 200 200 200
22.531250000000 17.765625000000 6.347999572754 141 141 141
22.593750000000 17.765625000000 6.829002380371 194 194 194
22.593750000000 17.765625000000 6.861999511719 203 203 203
22.562500000000 17.765625000000 6.896003723145 83 83 83
22.687500000000 17.468750000000 5.638000488281 103 103 103
22.687500000000 17.484375000000 5.672000885010 115 115 115
22.687500000000 17.484375000000 5.706001281738 124 124 124
22.687500000000 17.484375000000 5.739997863770 125 125 125
22.687500000000 17.484375000000 5.774002075195 125 125 125
22.687500000000 17.484375000000 5.807998657227 105 105 105
22.687500000000 17.484375000000 5.841003417969 59 59 59
22.562500000000 17.468750000000 6.268997192383 147 147 147
22.562500000000 17.484375000000 6.303001403809 9 9 9
22.562500000000 17.484375000000 6.334999084473 8 8 8
22.562500000000 17.484375000000 6.369003295898 4 4 4
22.562500000000 17.484375000000 6.401000976563 246 246 246
22.562500000000 17.468750000000 6.436996459961 248 248 248
22.562500000000 17.484375000000 6.470001220703 241 241 241
22.562500000000 17.468750000000 6.503997802734 233 233 233
22.593750000000 17.484375000000 6.643997192383 23 23 23
22.562500000000 17.484375000000 6.675003051758 223 223 223
22.562500000000 17.468750000000 6.708000183105 229 229 229
22.562500000000 17.468750000000 6.741996765137 220 220 220
22.562500000000 17.468750000000 6.777000427246 226 226 226
22.562500000000 17.484375000000 6.811996459961 227 227 227
22.562500000000 17.468750000000 6.845001220703 228 228 228
22.562500000000 17.484375000000 6.880996704102 221 221 221
22.562500000000 17.468750000000 6.919998168945 32 32 32
22.500000000000 17.187500000000 4.599998474121 20 20 20
22.500000000000 17.171875000000 4.636001586914 40 40 40
22.500000000000 17.171875000000 4.666999816895 59 59 59
22.500000000000 17.171875000000 4.701000213623 73 73 73
22.500000000000 17.171875000000 4.735000610352 87 87 87
22.500000000000 17.171875000000 4.770000457764 92 92 92
22.500000000000 17.187500000000 4.803001403809 92 92 92
22.500000000000 17.171875000000 4.835998535156 98 98 98
22.500000000000 17.171875000000 4.868999481201 100 100 100
22.500000000000 17.187500000000 4.903999328613 105 105 105
22.500000000000 17.171875000000 4.935001373291 103 103 103
22.500000000000 17.171875000000 4.970001220703 105 105 105
22.500000000000 17.171875000000 5.001998901367 107 107 107
22.500000000000 17.171875000000 5.035999298096 111 111 111
22.500000000000 17.171875000000 5.069999694824 114 114 114
22.500000000000 17.187500000000 5.103000640869 117 117 117
22.500000000000 17.171875000000 5.135002136230 120 120 120
22.500000000000 17.171875000000 5.168998718262 118 118 118
22.500000000000 17.171875000000 5.200000762939 125 125 125
22.500000000000 17.171875000000 5.234001159668 130 130 130
22.531250000000 17.187500000000 5.265998840332 141 141 141
22.546875000000 17.203125000000 5.298000335693 150 150 150
22.531250000000 17.171875000000 5.331001281738 143 143 143
22.531250000000 17.187500000000 5.365001678467 144 144 144
22.562500000000 17.187500000000 5.395999908447 171 171 171
22.531250000000 17.187500000000 5.430000305176 148 148 148
22.500000000000 17.171875000000 5.464000701904 149 149 149
22.531250000000 17.187500000000 5.495998382568 143 143 143
22.531250000000 17.187500000000 5.528999328613 152 152 152
22.500000000000 17.171875000000 5.562000274658 185 185 185
22.500000000000 17.171875000000 5.595001220703 159 159 159
22.500000000000 17.171875000000 5.627998352051 156 156 156
22.500000000000 17.171875000000 5.660999298096 159 159 159
22.500000000000 17.171875000000 5.694000244141 162 162 162
22.500000000000 17.171875000000 5.725997924805 184 184 184
22.531250000000 17.171875000000 5.759002685547 164 164 164
22.500000000000 17.171875000000 5.791999816895 162 162 162
22.500000000000 17.171875000000 5.824996948242 165 165 165
22.531250000000 17.171875000000 5.858001708984 163 163 163
22.500000000000 17.171875000000 5.889999389648 164 164 164
22.500000000000 17.171875000000 5.924003601074 165 165 165
22.500000000000 17.171875000000 5.956001281738 164 164 164
22.500000000000 17.171875000000 5.988998413086 161 161 161
22.500000000000 17.171875000000 6.022003173828 163 163 163
22.531250000000 17.171875000000 6.055000305176 167 167 167
22.531250000000 17.171875000000 6.087997436523 163 163 163
22.500000000000 17.171875000000 6.121002197266 163 163 163
22.500000000000 17.171875000000 6.153999328613 163 163 163
22.531250000000 17.171875000000 6.188003540039 162 162 162
22.500000000000 17.171875000000 6.220001220703 164 164 164
22.515625000000 17.171875000000 6.253997802734 160 160 160
22.500000000000 17.171875000000 6.286003112793 159 159 159
22.531250000000 17.171875000000 6.320999145508 156 156 156
22.515625000000 17.171875000000 6.352996826172 156 156 156
22.515625000000 17.171875000000 6.387001037598 153 153 153
22.515625000000 17.171875000000 6.420997619629 157 157 157
22.531250000000 17.171875000000 6.454002380371 153 153 153
22.500000000000 17.171875000000 6.486000061035 160 160 160
22.468750000000 17.171875000000 6.512001037598 185 185 185
22.515625000000 17.171875000000 6.554000854492 169 169 169
22.515625000000 17.171875000000 6.587997436523 161 161 161
22.515625000000 17.171875000000 6.621002197266 158 158 158
22.515625000000 17.171875000000 6.654998779297 157 157 157
22.437500000000 17.171875000000 6.675003051758 199 199 199
22.468750000000 17.171875000000 6.709999084473 188 188 188
22.500000000000 17.171875000000 6.755996704102 150 150 150
22.500000000000 17.171875000000 6.789001464844 153 153 153
22.500000000000 17.171875000000 6.822998046875 152 152 152
22.500000000000 17.171875000000 6.857002258301 144 144 144
22.500000000000 17.171875000000 6.888000488281 130 130 130
22.500000000000 17.171875000000 6.922996520996 137 137 137
22.515625000000 17.171875000000 6.963996887207 152 152 152
22.437500000000 17.171875000000 6.977996826172 130 130 130
22.375000000000 17.171875000000 6.997001647949 165 165 165
22.375000000000 17.171875000000 7.029998779297 161 161 161
22.375000000000 17.171875000000 7.063003540039 137 137 137
22.406250000000 17.171875000000 7.107002258301 152 152 152
22.406250000000 17.171875000000 7.141998291016 164 164 164
22.312500000000 17.171875000000 7.148002624512 130 130 130
22.375000000000 17.171875000000 7.194000244141 120 120 120
22.406250000000 17.171875000000 7.244003295898 90 90 90
22.687500000000 16.890625000000 5.443000793457 58 58 58
22.687500000000 16.890625000000 5.477001190186 94 94 94
22.687500000000 16.890625000000 5.511001586914 96 96 96
22.687500000000 16.890625000000 5.545001983643 95 95 95
22.687500000000 16.890625000000 5.577999114990 101 101 101
22.687500000000 16.890625000000 5.611999511719 116 116 116
22.687500000000 16.890625000000 5.645000457764 119 119 119
22.656250000000 16.890625000000 5.679000854492 172 172 172
22.656250000000 16.890625000000 5.712997436523 108 108 108
22.656250000000 16.890625000000 5.746002197266 106 106 106
22.687500000000 16.890625000000 5.780998229980 104 104 104
22.687500000000 16.890625000000 5.814002990723 97 97 97
22.687500000000 16.890625000000 5.847999572754 96 96 96
22.687500000000 16.890625000000 5.882003784180 98 98 98
22.687500000000 16.890625000000 5.916000366211 83 83 83
22.562500000000 16.890625000000 6.341003417969 225 225 225
22.562500000000 16.890625000000 6.374000549316 228 228 228
22.562500000000 16.890625000000 6.407997131348 200 200 200
22.562500000000 16.890625000000 6.442001342773 237 237 237
22.562500000000 16.890625000000 6.475997924805 221 221 221
22.562500000000 16.890625000000 6.509002685547 206 206 206
22.562500000000 16.890625000000 6.543998718262 242 242 242
22.562500000000 16.890625000000 6.577003479004 136 136 136
22.531250000000 16.890625000000 6.640998840332 219 219 219
22.531250000000 16.890625000000 6.676002502441 222 222 222
22.531250000000 16.890625000000 6.708999633789 214 214 214
22.531250000000 16.890625000000 6.744003295898 225 225 225
22.562500000000 16.890625000000 6.779998779297 231 231 231
22.531250000000 16.890625000000 6.811996459961 225 225 225
22.531250000000 16.890625000000 6.846000671387 224 224 224
22.562500000000 16.890625000000 6.883003234863 121 121 121
22.531250000000 16.609375000000 6.185997009277 187 187 187
22.531250000000 16.609375000000 6.221000671387 242 242 242
22.531250000000 16.609375000000 6.252998352051 241 241 241
22.546875000000 16.593750000000 6.288002014160 248 248 248
22.531250000000 16.609375000000 6.319000244141 215 215 215
22.531250000000 16.593750000000 6.352996826172 217 217 217
22.531250000000 16.609375000000 6.387001037598 243 243 243
22.531250000000 16.609375000000 6.418998718262 122 122 122
22.546875000000 16.593750000000 6.793998718262 66 66 66
22.531250000000 16.593750000000 6.826004028320 223 223 223
22.531250000000 16.593750000000 6.859001159668 226 226 226
22.531250000000 16.593750000000 6.893997192383 225 225 225
22.531250000000 16.593750000000 6.927001953125 220 220 220
22.531250000000 16.593750000000 6.961997985840 224 224 224
22.531250000000 16.593750000000 6.997001647949 188 188 188
22.531250000000 16.593750000000 7.032997131348 23 23 23
22.796875000000 10.187500000000 5.650001525879 100 100 100
22.796875000000 10.187500000000 5.684001922607 122 122 122
22.796875000000 10.187500000000 5.718002319336 118 118 118
22.796875000000 10.187500000000 5.751998901367 99 99 99
22.796875000000 10.187500000000 5.786003112793 95 95 95
22.812500000000 10.187500000000 5.820999145508 98 98 98
22.812500000000 10.171875000000 5.855003356934 100 100 100
22.812500000000 10.171875000000 5.888999938965 100 100 100
22.812500000000 10.187500000000 5.924003601074 66 66 66
22.687500000000 10.171875000000 6.326004028320 212 212 212
22.687500000000 10.187500000000 6.358001708984 226 226 226
22.687500000000 10.171875000000 6.392997741699 228 228 228
22.687500000000 10.171875000000 6.427001953125 223 223 223
22.687500000000 10.171875000000 6.460998535156 225 225 225
22.687500000000 10.171875000000 6.495002746582 224 224 224
22.687500000000 10.171875000000 6.529998779297 223 223 223
22.718750000000 10.171875000000 6.568000793457 73 73 73
22.687500000000 10.171875000000 6.737998962402 190 190 190
22.703125000000 10.171875000000 6.774002075195 212 212 212
22.703125000000 10.171875000000 6.808998107910 213 213 213
22.718750000000 10.171875000000 6.845001220703 211 211 211
22.703125000000 10.171875000000 6.879997253418 214 214 214
22.718750000000 10.171875000000 6.918998718262 209 209 209
22.718750000000 10.171875000000 6.953002929688 199 199 199
22.750000000000 9.921875000000 3.923000335693 171 171 171
22.750000000000 9.921875000000 3.957000732422 172 172 172
22.750000000000 9.921875000000 3.995998382568 163 163 163
22.734375000000 9.921875000000 4.035999298096 162 162 162
22.750000000000 9.921875000000 4.071998596191 167 167 167
22.750000000000 9.921875000000 4.105998992920 160 160 160
22.750000000000 9.921875000000 4.142002105713 160 160 160
22.750000000000 9.921875000000 4.180000305176 154 154 154
22.750000000000 9.906250000000 4.212001800537 151 151 151
22.750000000000 9.921875000000 4.250999450684 155 155 155
22.750000000000 9.906250000000 4.288002014160 155 155 155
22.750000000000 9.921875000000 4.323001861572 159 159 159
22.750000000000 9.921875000000 4.356998443604 161 161 161
22.750000000000 9.906250000000 4.395000457764 155 155 155
22.750000000000 9.921875000000 4.429000854492 155 155 155
22.750000000000 9.921875000000 4.463001251221 152 152 152
22.750000000000 9.921875000000 4.499000549316 157 157 157
22.750000000000 9.906250000000 4.535999298096 151 151 151
22.750000000000 9.921875000000 4.569999694824 155 155 155
22.750000000000 9.921875000000 4.604000091553 152 152 152
22.750000000000 9.906250000000 4.639999389648 153 153 153
22.750000000000 9.906250000000 4.675998687744 149 149 149
22.750000000000 9.906250000000 4.708999633789 146 146 146
22.750000000000 9.921875000000 4.743999481201 150 150 150
22.750000000000 9.906250000000 4.777999877930 151 151 151
22.750000000000 9.921875000000 4.812999725342 145 145 145
22.750000000000 9.906250000000 4.847999572754 150 150 150
22.750000000000 9.906250000000 4.882999420166 143 143 143
22.750000000000 9.906250000000 4.916999816895 147 147 147
22.750000000000 9.906250000000 4.951000213623 148 148 148
22.750000000000 9.906250000000 4.986000061035 149 149 149
22.750000000000 9.906250000000 5.020000457764 151 151 151
22.750000000000 9.906250000000 5.054000854492 151 151 151
22.750000000000 9.906250000000 5.089000701904 145 145 145
22.750000000000 9.890625000000 5.122001647949 144 144 144
22.750000000000 9.906250000000 5.157001495361 139 139 139
22.750000000000 9.906250000000 5.189998626709 141 141 141
22.750000000000 9.906250000000 5.224998474121 141 141 141
22.750000000000 9.890625000000 5.257999420166 141 141 141
22.750000000000 9.906250000000 5.291999816895 149 149 149
22.750000000000 9.890625000000 5.326000213623 153 153 153
22.750000000000 9.890625000000 5.360000610352 149 149 149
22.750000000000 9.906250000000 5.393001556396 150 150 150
22.750000000000 9.906250000000 5.427001953125 147 147 147
22.750000000000 9.906250000000 5.460998535156 144 144 144
22.750000000000 9.906250000000 5.494998931885 149 149 149
22.750000000000 9.906250000000 5.528999328613 149 149 149
22.750000000000 9.890625000000 5.562000274658 147 147 147
22.718750000000 9.906250000000 5.597000122070 182 182 182
22.718750000000 9.890625000000 5.630001068115 183 183 183
22.750000000000 9.890625000000 5.664001464844 153 153 153
22.750000000000 9.906250000000 5.697998046875 149 149 149
22.750000000000 9.890625000000 5.732002258301 163 163 163
22.718750000000 9.906250000000 5.764999389648 184 184 184
22.750000000000 9.890625000000 5.800003051758 166 166 166
22.750000000000 9.890625000000 5.833000183105 152 152 152
22.750000000000 9.890625000000 5.866996765137 149 149 149
22.750000000000 9.890625000000 5.901000976563 156 156 156
22.781250000000 9.890625000000 5.936996459961 173 173 173
22.750000000000 9.890625000000 5.968002319336 144 144 144
22.750000000000 9.890625000000 6.001998901367 130 130 130
22.718750000000 9.890625000000 6.036003112793 129 129 129
22.750000000000 9.890625000000 6.069999694824 132 132 132
22.718750000000 9.890625000000 6.102996826172 127 127 127
22.750000000000 9.890625000000 6.138000488281 128 128 128
22.718750000000 9.890625000000 6.170997619629 121 121 121
22.718750000000 9.890625000000 6.205001831055 123 123 123
22.718750000000 9.890625000000 6.238998413086 115 115 115
22.750000000000 9.890625000000 6.275001525879 116 116 116
22.703125000000 9.890625000000 6.305000305176 112 112 112
22.718750000000 9.890625000000 6.342002868652 119 119 119
22.718750000000 9.890625000000 6.375000000000 113 113 113
22.718750000000 9.890625000000 6.408996582031 107 107 107
22.718750000000 9.890625000000 6.444999694824 106 106 106
22.750000000000 9.890625000000 6.480003356934 170 170 170
22.750000000000 9.890625000000 6.515998840332 213 213 213
22.750000000000 9.890625000000 6.551002502441 216 216 216
22.750000000000 9.890625000000 6.583999633789 212 212 212
22.750000000000 9.890625000000 6.619003295898 211 211 211
22.750000000000 9.890625000000 6.652000427246 217 217 217
22.750000000000 9.890625000000 6.688003540039 208 208 208
22.718750000000 9.890625000000 6.721000671387 215 215 215
22.750000000000 9.890625000000 6.759002685547 210 210 210
22.750000000000 9.890625000000 6.792999267578 191 191 191
22.718750000000 9.890625000000 6.826004028320 40 40 40
22.718750000000 9.890625000000 6.860000610352 18 18 18
22.968750000000 9.609375000000 5.536998748779 22 22 22
22.968750000000 9.609375000000 5.570999145508 79 79 79
22.968750000000 9.609375000000 5.606998443604 88 88 88
22.968750000000 9.609375000000 5.642002105713 92 92 92
22.984375000000 9.609375000000 5.677001953125 96 96 96
22.984375000000 9.609375000000 5.711997985840 87 87 87
22.968750000000 9.609375000000 5.747001647949 99 99 99
22.984375000000 9.609375000000 5.782997131348 94 94 94
22.984375000000 9.609375000000 5.818000793457 93 93 93
22.984375000000 9.609375000000 5.852996826172 92 92 92
22.984375000000 9.609375000000 5.888000488281 98 98 98
22.984375000000 9.609375000000 5.924003601074 90 90 90
22.984375000000 9.609375000000 5.958999633789 51 51 51
22.812500000000 9.609375000000 6.398002624512 170 170 170
22.781250000000 9.609375000000 6.430999755859 215 215 215
22.781250000000 9.593750000000 6.466003417969 220 220 220
22.812500000000 9.609375000000 6.500999450684 215 215 215
22.812500000000 9.609375000000 6.536003112793 219 219 219
22.812500000000 9.609375000000 6.571998596191 220 220 220
22.781250000000 9.593750000000 6.605003356934 213 213 213
22.812500000000 9.609375000000 6.640998840332 154 154 154
22.812500000000 9.609375000000 6.677001953125 208 208 208
22.812500000000 9.593750000000 6.712997436523 220 220 220
22.812500000000 9.593750000000 6.749000549316 218 218 218
22.812500000000 9.609375000000 6.781997680664 211 211 211
22.812500000000 9.609375000000 6.818000793457 216 216 216
22.812500000000 9.609375000000 6.854003906250 211 211 211
22.812500000000 9.609375000000 6.888999938965 194 194 194
22.875000000000 9.328125000000 6.211997985840 58 58 58
22.875000000000 9.312500000000 6.244003295898 199 199 199
22.875000000000 9.328125000000 6.279998779297 224 224 224
22.875000000000 9.328125000000 6.315002441406 225 225 225
22.875000000000 9.312500000000 6.348999023438 218 218 218
22.875000000000 9.312500000000 6.384002685547 222 222 222
22.875000000000 9.312500000000 6.418998718262 218 218 218
22.875000000000 9.312500000000 6.454002380371 193 193 193
22.875000000000 9.328125000000 6.845001220703 208 208 208
22.875000000000 9.312500000000 6.882003784180 218 218 218
22.875000000000 9.312500000000 6.916999816895 216 216 216
22.875000000000 9.312500000000 6.953002929688 210 210 210
22.875000000000 9.312500000000 6.989997863770 221 221 221
22.875000000000 9.312500000000 7.023002624512 205 205 205
22.875000000000 9.312500000000 7.058998107910 175 175 175
22.843750000000 9.390625000000 6.979003906250 153 153 153
22.843750000000 9.375000000000 6.940002441406 159 159 159
22.843750000000 9.375000000000 6.899002075195 154 154 154
22.843750000000 9.375000000000 6.858001708984 153 153 153
22.875000000000 9.390625000000 6.819000244141 155 155 155
22.843750000000 9.375000000000 6.777000427246 141 141 141
22.843750000000 9.390625000000 6.491996765137 150 150 150
22.843750000000 9.390625000000 6.452003479004 157 157 157
22.843750000000 9.390625000000 6.411003112793 159 159 159
22.843750000000 9.390625000000 6.371002197266 153 153 153
22.843750000000 9.390625000000 6.331001281738 163 163 163
22.843750000000 9.390625000000 6.291000366211 148 148 148
22.890625000000 9.375000000000 6.252998352051 20 20 20
22.671875000000 9.796875000000 6.970001220703 115 115 115
22.656250000000 9.796875000000 6.929000854492 143 143 143
22.687500000000 9.796875000000 6.890998840332 141 141 141
22.656250000000 9.796875000000 6.849998474121 144 144 144
22.656250000000 9.796875000000 6.809997558594 151 151 151
22.687500000000 9.796875000000 6.772003173828 144 144 144
22.656250000000 9.796875000000 6.730003356934 153 153 153
22.656250000000 9.796875000000 6.692001342773 150 150 150
22.656250000000 9.796875000000 6.652999877930 152 152 152
22.687500000000 9.796875000000 6.613998413086 160 160 160
22.656250000000 9.796875000000 6.573997497559 153 153 153
22.671875000000 9.796875000000 6.535003662109 159 159 159
22.671875000000 9.796875000000 6.496002197266 156 156 156
22.656250000000 9.796875000000 6.457000732422 156 156 156
22.687500000000 9.796875000000 6.417999267578 156 156 156
22.687500000000 9.796875000000 6.378997802734 160 160 160
22.656250000000 9.796875000000 6.340003967285 154 154 154
22.687500000000 9.796875000000 6.301002502441 155 155 155
22.656250000000 9.796875000000 6.262001037598 153 153 153
22.687500000000 9.812500000000 6.222999572754 152 152 152
22.687500000000 9.796875000000 6.183998107910 153 153 153
22.687500000000 9.812500000000 6.144996643066 153 153 153
22.687500000000 9.812500000000 6.106002807617 148 148 148
22.687500000000 9.812500000000 6.067001342773 147 147 147
22.687500000000 9.812500000000 6.028999328613 154 154 154
22.687500000000 9.812500000000 5.989997863770 154 154 154
22.687500000000 9.812500000000 5.951004028320 150 150 150
22.687500000000 9.796875000000 5.912002563477 154 154 154
22.687500000000 9.812500000000 5.873001098633 153 153 153
22.687500000000 9.796875000000 5.833999633789 154 154 154
22.687500000000 9.812500000000 5.795997619629 157 157 157
22.687500000000 9.812500000000 5.757003784180 159 159 159
22.687500000000 9.828125000000 5.718002319336 159 159 159
22.687500000000 9.828125000000 5.679000854492 161 161 161
22.687500000000 9.796875000000 5.639999389648 154 154 154
22.687500000000 9.828125000000 5.602001190186 161 161 161
22.687500000000 9.828125000000 5.562999725342 157 157 157
22.687500000000 9.812500000000 5.524002075195 158 158 158
22.687500000000 9.828125000000 5.485000610352 156 156 156
22.687500000000 9.812500000000 5.445999145508 154 154 154
22.687500000000 9.828125000000 5.407001495361 156 156 156
22.687500000000 9.812500000000 5.367000579834 154 154 154
22.687500000000 9.812500000000 5.327999114990 152 152 152
22.687500000000 9.812500000000 5.289001464844 153 153 153
22.687500000000 9.812500000000 5.250000000000 153 153 153
22.687500000000 9.812500000000 5.210998535156 153 153 153
22.687500000000 9.812500000000 5.172000885010 153 153 153
22.687500000000 9.828125000000 5.132999420166 155 155 155
22.687500000000 9.828125000000 5.091999053955 151 151 151
22.687500000000 9.828125000000 5.052001953125 152 152 152
22.687500000000 9.828125000000 5.014999389648 154 154 154
22.687500000000 9.828125000000 4.973999023438 151 151 151
22.687500000000 9.828125000000 4.934001922607 149 149 149
22.687500000000 9.828125000000 4.895999908447 154 154 154
22.687500000000 9.828125000000 4.856998443604 151 151 151
22.687500000000 9.828125000000 4.816001892090 151 151 151
22.687500000000 9.828125000000 4.777999877930 151 151 151
22.687500000000 9.828125000000 4.736999511719 153 153 153
22.687500000000 9.828125000000 4.696998596191 154 154 154
22.687500000000 9.828125000000 4.657001495361 150 150 150
22.687500000000 9.828125000000 4.616001129150 153 153 153
22.687500000000 9.828125000000 4.576999664307 155 155 155
22.687500000000 9.828125000000 4.536998748779 149 149 149
22.687500000000 9.828125000000 4.495998382568 150 150 150
22.687500000000 9.828125000000 4.452999114990 149 149 149
22.687500000000 9.828125000000 4.415000915527 147 147 147
22.687500000000 9.828125000000 4.375000000000 151 151 151
22.687500000000 9.828125000000 4.333999633789 149 149 149
22.687500000000 9.828125000000 4.291999816895 145 145 145
22.687500000000 9.828125000000 4.249000549316 147 147 147
22.687500000000 9.828125000000 4.209999084473 146 146 146
22.687500000000 9.828125000000 4.167999267578 144 144 144
22.687500000000 9.828125000000 4.124000549316 151 151 151
22.687500000000 9.828125000000 4.085998535156 151 151 151
22.687500000000 9.828125000000 4.041000366211 147 147 147
22.671875000000 9.828125000000 4.005001068115 148 148 148
22.687500000000 9.828125000000 3.959999084473 152 152 152
22.687500000000 9.828125000000 3.916999816895 151 151 151
22.750000000000 10.078125000000 6.884002685547 160 160 160
22.750000000000 10.078125000000 6.844001770020 168 168 168
22.750000000000 10.078125000000 6.803001403809 169 169 169
22.750000000000 10.078125000000 6.762001037598 170 170 170
22.718750000000 10.078125000000 6.720001220703 168 168 168
22.734375000000 10.078125000000 6.681999206543 158 158 158
22.734375000000 10.078125000000 6.563003540039 158 158 158
22.718750000000 10.078125000000 6.522003173828 162 162 162
22.718750000000 10.093750000000 6.483001708984 161 161 161
22.734375000000 10.078125000000 6.444000244141 159 159 159
22.718750000000 10.093750000000 6.403999328613 163 163 163
22.734375000000 10.078125000000 6.365997314453 150 150 150
22.843750000000 10.015625000000 5.974998474121 16 16 16
22.875000000000 10.015625000000 5.934997558594 91 91 91
22.843750000000 10.015625000000 5.894996643066 93 93 93
22.843750000000 10.015625000000 5.855003356934 100 100 100
22.812500000000 10.046875000000 5.815002441406 88 88 88
22.781250000000 10.046875000000 5.776000976563 93 93 93
22.781250000000 10.046875000000 5.736000061035 89 89 89
22.812500000000 10.046875000000 5.695999145508 98 98 98
22.843750000000 10.031250000000 5.654998779297 148 148 148
22.828125000000 10.046875000000 5.615001678467 39 39 39
22.781250000000 10.046875000000 5.538002014160 16 16 16
22.781250000000 10.046875000000 5.498001098633 18 18 18
22.781250000000 10.046875000000 5.458000183105 49 49 49
22.812500000000 10.046875000000 5.416000366211 56 56 56
22.843750000000 10.031250000000 5.375000000000 21 21 21
22.718750000000 10.375000000000 6.981002807617 117 117 117
22.718750000000 10.390625000000 6.939002990723 159 159 159
22.718750000000 10.390625000000 6.897003173828 171 171 171
22.718750000000 10.390625000000 6.858001708984 148 148 148
22.687500000000 10.421875000000 6.377998352051 116 116 116
22.687500000000 10.421875000000 6.338996887207 90 90 90
22.562500000000 16.703125000000 6.967002868652 107 107 107
22.546875000000 16.703125000000 6.926002502441 167 167 167
22.562500000000 16.703125000000 6.888999938965 172 172 172
22.546875000000 16.703125000000 6.848999023438 168 168 168
22.546875000000 16.703125000000 6.809997558594 171 171 171
22.546875000000 16.703125000000 6.769996643066 185 185 185
22.546875000000 16.703125000000 6.733001708984 160 160 160
22.546875000000 16.703125000000 6.460998535156 87 87 87
22.562500000000 16.703125000000 6.422996520996 182 182 182
22.562500000000 16.703125000000 6.385002136230 198 198 198
22.562500000000 16.703125000000 6.346000671387 183 183 183
22.562500000000 16.703125000000 6.307998657227 178 178 178
22.546875000000 16.703125000000 6.268997192383 176 176 176
22.546875000000 16.703125000000 6.230003356934 160 160 160
22.359375000000 17.109375000000 7.178001403809 116 116 116
22.312500000000 17.125000000000 7.129997253418 130 130 130
22.562500000000 16.984375000000 7.148002624512 134 134 134
22.468750000000 17.046875000000 7.083999633789 122 122 122
22.375000000000 17.093750000000 7.026000976563 147 147 147
22.390625000000 17.093750000000 6.990997314453 152 152 152
22.468750000000 17.046875000000 6.966003417969 79 79 79
22.531250000000 17.000000000000 6.788002014160 69 69 69
22.531250000000 17.000000000000 6.749000549316 166 166 166
22.562500000000 17.000000000000 6.710998535156 169 169 169
22.531250000000 17.000000000000 6.670997619629 169 169 169
22.562500000000 17.015625000000 6.633003234863 170 170 170
22.562500000000 16.984375000000 6.595001220703 173 173 173
22.562500000000 17.000000000000 6.555999755859 172 172 172
22.562500000000 17.000000000000 6.517997741699 188 188 188
22.562500000000 17.000000000000 6.477996826172 192 192 192
22.562500000000 16.984375000000 6.441001892090 187 187 187
22.562500000000 17.000000000000 6.402000427246 164 164 164
22.687500000000 16.921875000000 5.902999877930 77 77 77
22.687500000000 16.921875000000 5.862998962402 89 89 89
22.656250000000 16.921875000000 5.823997497559 81 81 81
22.656250000000 16.953125000000 5.785003662109 96 96 96
22.625000000000 16.968750000000 5.747001647949 73 73 73
22.500000000000 17.046875000000 5.710998535156 169 169 169
22.515625000000 17.031250000000 5.673000335693 163 163 163
22.500000000000 17.046875000000 5.635002136230 160 160 160
22.484375000000 17.046875000000 5.597999572754 155 155 155
22.468750000000 17.062500000000 5.561000823975 157 157 157
22.437500000000 17.078125000000 5.524002075195 156 156 156
22.437500000000 17.078125000000 5.486999511719 136 136 136
22.437500000000 17.078125000000 5.449001312256 141 141 141
22.437500000000 17.078125000000 5.410999298096 135 135 135
22.437500000000 17.078125000000 5.373001098633 133 133 133
22.437500000000 17.078125000000 5.334999084473 121 121 121
22.437500000000 17.078125000000 5.298999786377 114 114 114
22.437500000000 17.078125000000 5.260002136230 121 121 121
22.437500000000 17.078125000000 5.222999572754 113 113 113
22.437500000000 17.078125000000 5.184001922607 122 122 122
22.437500000000 17.078125000000 5.145999908447 121 121 121
22.437500000000 17.078125000000 5.108001708984 123 123 123
22.437500000000 17.078125000000 5.069999694824 121 121 121
22.437500000000 17.093750000000 5.033000946045 128 128 128
22.437500000000 17.078125000000 4.993000030518 125 125 125
22.437500000000 17.078125000000 4.955001831055 131 131 131
22.437500000000 17.078125000000 4.916999816895 138 138 138
22.437500000000 17.093750000000 4.881999969482 141 141 141
22.437500000000 17.093750000000 4.842998504639 145 145 145
22.437500000000 17.093750000000 4.805000305176 151 151 151
22.437500000000 17.093750000000 4.764999389648 153 153 153
22.437500000000 17.093750000000 4.726001739502 149 149 149
22.437500000000 17.109375000000 4.687999725342 147 147 147
22.437500000000 17.109375000000 4.649002075195 142 142 142
22.437500000000 17.093750000000 4.611000061035 136 136 136
22.437500000000 17.109375000000 4.570999145508 137 137 137
22.437500000000 17.093750000000 4.252998352051 128 128 128
22.437500000000 17.093750000000 4.212001800537 143 143 143
22.437500000000 17.109375000000 4.174999237061 128 128 128
22.437500000000 17.093750000000 4.133998870850 134 134 134
22.437500000000 17.093750000000 4.092998504639 131 131 131
22.437500000000 17.109375000000 4.054000854492 136 136 136
22.437500000000 17.093750000000 4.010002136230 129 129 129
22.468750000000 17.093750000000 3.967998504639 128 128 128
22.468750000000 17.359375000000 7.144996643066 71 71 71
22.687500000000 17.234375000000 7.152000427246 131 131 131
22.718750000000 17.203125000000 7.122001647949 100 100 100
22.562500000000 17.296875000000 6.772003173828 168 168 168
22.562500000000 17.296875000000 6.733001708984 177 177 177
22.546875000000 17.296875000000 6.693000793457 175 175 175
22.546875000000 17.296875000000 6.653999328613 174 174 174
22.562500000000 17.296875000000 6.614997863770 175 175 175
22.546875000000 17.296875000000 6.576004028320 169 169 169
22.546875000000 17.296875000000 6.537002563477 171 171 171
22.531250000000 17.328125000000 6.497001647949 168 168 168
22.546875000000 17.296875000000 6.458999633789 170 170 170
22.546875000000 17.296875000000 6.420997619629 174 174 174
22.562500000000 17.312500000000 6.382003784180 170 170 170
22.531250000000 17.312500000000 6.343002319336 91 91 91
22.718750000000 17.218750000000 5.921997070313 38 38 38
22.718750000000 17.218750000000 5.882003784180 93 93 93
22.718750000000 17.234375000000 5.843002319336 93 93 93
22.718750000000 17.218750000000 5.803001403809 104 104 104
22.656250000000 17.265625000000 5.764999389648 91 91 91
22.656250000000 17.265625000000 5.725997924805 88 88 88
22.656250000000 17.265625000000 5.687000274658 90 90 90
22.687500000000 17.265625000000 5.646999359131 145 145 145
22.687500000000 17.234375000000 5.606998443604 153 153 153
22.687500000000 17.265625000000 5.569000244141 172 172 172
22.687500000000 17.265625000000 5.529998779297 148 148 148
22.656250000000 17.265625000000 5.491001129150 112 112 112
22.625000000000 17.281250000000 5.453998565674 175 175 175
22.656250000000 17.265625000000 5.414001464844 100 100 100
22.656250000000 17.265625000000 5.375000000000 119 119 119
22.687500000000 17.265625000000 5.333000183105 92 92 92
22.687500000000 17.265625000000 5.292999267578 85 85 85
22.562500000000 17.593750000000 6.952003479004 163 163 163
22.562500000000 17.609375000000 6.912002563477 174 174 174
22.562500000000 17.609375000000 6.873001098633 175 175 175
22.562500000000 17.593750000000 6.833999633789 178 178 178
22.562500000000 17.593750000000 6.794998168945 194 194 194
22.562500000000 17.593750000000 6.754997253418 179 179 179
22.562500000000 17.609375000000 6.716003417969 53 53 53
22.562500000000 17.609375000000 6.403999328613 147 147 147
22.562500000000 17.609375000000 6.363998413086 179 179 179
22.562500000000 17.609375000000 6.326004028320 181 181 181
22.562500000000 17.609375000000 6.287002563477 177 177 177
22.562500000000 17.609375000000 6.248001098633 174 174 174
22.562500000000 17.609375000000 6.209999084473 171 171 171
22.562500000000 17.609375000000 6.171997070313 137 137 137
23.000000000000 9.546875000000 5.606998443604 42 42 42
23.000000000000 9.531250000000 5.647998809814 93 93 93
23.000000000000 9.531250000000 5.687999725342 88 88 88
23.000000000000 9.546875000000 5.729003906250 92 92 92
23.031250000000 9.546875000000 5.768997192383 95 95 95
23.000000000000 9.546875000000 5.809997558594 93 93 93
23.031250000000 9.546875000000 5.849998474121 88 88 88
23.000000000000 9.546875000000 5.889999389648 59 59 59
22.843750000000 9.453125000000 6.283996582031 89 89 89
22.843750000000 9.453125000000 6.322998046875 206 206 206
22.843750000000 9.453125000000 6.362998962402 214 214 214
22.828125000000 9.437500000000 6.402000427246 210 210 210
22.828125000000 9.437500000000 6.441001892090 216 216 216
22.828125000000 9.437500000000 6.481002807617 211 211 211
22.843750000000 9.453125000000 6.521003723145 200 200 200
22.843750000000 9.453125000000 6.721000671387 185 185 185
22.843750000000 9.453125000000 6.760002136230 218 218 218
22.828125000000 9.437500000000 6.800003051758 216 216 216
22.828125000000 9.437500000000 6.840003967285 215 215 215
22.828125000000 9.437500000000 6.879997253418 217 217 217
22.828125000000 9.437500000000 6.918998718262 209 209 209
22.828125000000 9.437500000000 6.958999633789 119 119 119
22.906250000000 9.796875000000 5.271999359131 71 71 71
22.906250000000 9.796875000000 5.312000274658 84 84 84
22.906250000000 9.796875000000 5.352001190186 87 87 87
22.906250000000 9.796875000000 5.393001556396 84 84 84
22.906250000000 9.796875000000 5.432998657227 85 85 85
22.906250000000 9.796875000000 5.472000122070 85 85 85
22.937500000000 9.796875000000 5.511001586914 88 88 88
22.812500000000 9.734375000000 5.556999206543 158 158 158
22.812500000000 9.734375000000 5.597000122070 166 166 166
22.812500000000 9.734375000000 5.636001586914 148 148 148
22.812500000000 9.734375000000 5.674999237061 148 148 148
22.812500000000 9.734375000000 5.713996887207 175 175 175
22.781250000000 9.734375000000 5.752998352051 153 153 153
22.937500000000 9.796875000000 5.791000366211 120 120 120
22.937500000000 9.796875000000 5.831001281738 87 87 87
22.937500000000 9.796875000000 5.871002197266 84 84 84
22.906250000000 9.796875000000 5.910003662109 118 118 118
22.937500000000 9.796875000000 5.951004028320 89 89 89
22.781250000000 9.734375000000 6.456001281738 150 150 150
22.781250000000 9.718750000000 6.495002746582 211 211 211
22.781250000000 9.718750000000 6.535003662109 212 212 212
22.781250000000 9.718750000000 6.572998046875 209 209 209
22.781250000000 9.718750000000 6.612998962402 219 219 219
22.781250000000 9.718750000000 6.651000976563 209 209 209
22.781250000000 9.718750000000 6.692001342773 211 211 211
22.781250000000 9.734375000000 6.733001708984 213 213 213
22.781250000000 9.718750000000 6.772003173828 205 205 205
22.812500000000 10.046875000000 5.420001983643 20 20 20
22.781250000000 10.031250000000 5.463001251221 132 132 132
22.781250000000 10.031250000000 5.501998901367 60 60 60
22.781250000000 10.046875000000 5.540000915527 62 62 62
22.781250000000 10.046875000000 5.580001831055 96 96 96
22.812500000000 10.046875000000 5.618000030518 113 113 113
22.843750000000 10.062500000000 5.656002044678 120 120 120
22.843750000000 10.062500000000 5.695999145508 118 118 118
22.781250000000 10.046875000000 5.736000061035 134 134 134
22.781250000000 10.046875000000 5.775001525879 125 125 125
22.812500000000 10.046875000000 5.814002990723 128 128 128
22.843750000000 10.078125000000 5.852996826172 97 97 97
22.843750000000 10.078125000000 5.891998291016 91 91 91
22.843750000000 10.078125000000 5.931999206543 98 98 98
22.750000000000 10.015625000000 6.397003173828 192 192 192
22.750000000000 10.015625000000 6.434997558594 204 204 204
22.718750000000 10.000000000000 6.472999572754 204 204 204
22.750000000000 10.015625000000 6.512001037598 199 199 199
22.750000000000 10.015625000000 6.552001953125 203 203 203
22.718750000000 10.000000000000 6.590003967285 198 198 198
22.718750000000 10.000000000000 6.628997802734 173 173 173
22.718750000000 9.984375000000 6.666999816895 186 186 186
22.718750000000 10.000000000000 6.708000183105 182 182 182
22.750000000000 10.015625000000 6.748001098633 183 183 183
22.750000000000 10.015625000000 6.788002014160 185 185 185
22.750000000000 10.015625000000 6.826004028320 181 181 181
22.750000000000 10.015625000000 6.869003295898 123 123 123
22.687500000000 10.296875000000 6.219001770020 176 176 176
22.687500000000 10.296875000000 6.257003784180 203 203 203
22.703125000000 10.296875000000 6.295997619629 205 205 205
22.687500000000 10.296875000000 6.333999633789 205 205 205
22.687500000000 10.296875000000 6.373001098633 210 210 210
22.687500000000 10.296875000000 6.411003112793 201 201 201
22.687500000000 10.296875000000 6.449996948242 161 161 161
22.718750000000 10.296875000000 6.805000305176 155 155 155
22.718750000000 10.296875000000 6.845001220703 186 186 186
22.718750000000 10.296875000000 6.884002685547 184 184 184
22.718750000000 10.296875000000 6.922996520996 186 186 186
22.750000000000 10.312500000000 6.965003967285 186 186 186
22.750000000000 10.312500000000 7.004997253418 182 182 182
22.750000000000 10.328125000000 7.045997619629 91 91 91
22.562500000000 16.484375000000 6.329002380371 61 61 61
