13.968750000000 4.859375000000 6.056999206543 146 146 146
13.968750000000 4.859375000000 6.039001464844 147 147 147
13.968750000000 4.859375000000 6.023002624512 150 150 150
13.968750000000 4.859375000000 6.004997253418 151 151 151
13.968750000000 4.859375000000 5.987998962402 153 153 153
13.968750000000 4.859375000000 5.972999572754 158 158 158
13.968750000000 4.859375000000 5.956001281738 158 158 158
13.968750000000 4.859375000000 5.939002990723 157 157 157
13.968750000000 4.859375000000 5.921997070313 162 162 162
13.968750000000 4.859375000000 5.905998229980 163 163 163
13.984375000000 4.859375000000 5.888999938965 159 159 159
13.984375000000 4.859375000000 5.872001647949 159 159 159
13.984375000000 4.859375000000 5.856002807617 156 156 156
13.984375000000 4.859375000000 5.840003967285 158 158 158
13.984375000000 4.859375000000 5.822998046875 163 163 163
13.984375000000 4.859375000000 5.805999755859 167 167 167
13.984375000000 4.859375000000 5.790000915527 161 161 161
14.000000000000 4.859375000000 5.773002624512 163 163 163
14.000000000000 4.859375000000 5.757003784180 166 166 166
14.000000000000 4.859375000000 5.740997314453 170 170 170
13.984375000000 4.859375000000 5.724998474121 172 172 172
13.984375000000 4.859375000000 5.708000183105 174 174 174
14.000000000000 4.859375000000 5.692001342773 176 176 176
14.000000000000 4.859375000000 5.674999237061 171 171 171
14.000000000000 4.859375000000 5.659000396729 179 179 179
14.000000000000 4.859375000000 5.643001556396 185 185 185
14.000000000000 4.859375000000 5.625999450684 185 185 185
14.000000000000 4.859375000000 5.610000610352 179 179 179
14.000000000000 4.859375000000 5.594001770020 177 177 177
14.000000000000 4.859375000000 5.577999114990 181 181 181
14.000000000000 4.859375000000 5.561000823975 191 191 191
14.000000000000 4.859375000000 5.545001983643 192 192 192
14.000000000000 4.859375000000 5.528999328613 192 192 192
14.000000000000 4.859375000000 5.512001037598 190 190 190
14.000000000000 4.859375000000 5.495998382568 195 195 195
14.000000000000 4.859375000000 5.479999542236 194 194 194
14.000000000000 4.859375000000 5.464000701904 192 192 192
14.000000000000 4.859375000000 5.446998596191 188 188 188
14.000000000000 4.859375000000 5.430999755859 184 184 184
14.000000000000 4.859375000000 5.415000915527 190 190 190
14.000000000000 4.843750000000 5.399002075195 178 178 178
14.000000000000 4.859375000000 5.381999969482 183 183 183
14.000000000000 4.859375000000 5.365001678467 186 186 186
14.000000000000 4.843750000000 5.349998474121 185 185 185
14.000000000000 4.843750000000 5.333000183105 183 183 183
14.000000000000 4.843750000000 5.317001342773 184 184 184
14.000000000000 4.843750000000 5.299999237061 189 189 189
14.000000000000 4.843750000000 5.284000396729 188 188 188
14.000000000000 4.843750000000 5.268001556396 187 187 187
14.000000000000 4.843750000000 5.250000000000 188 188 188
14.000000000000 4.843750000000 5.234001159668 193 193 193
14.000000000000 4.843750000000 5.217998504639 195 195 195
14.015625000000 4.828125000000 5.201999664307 196 196 196
14.000000000000 4.843750000000 5.184001922607 191 191 191
14.000000000000 4.843750000000 5.167999267578 193 193 193
14.015625000000 4.828125000000 5.152000427246 197 197 197
14.000000000000 4.843750000000 5.133998870850 198 198 198
14.015625000000 4.828125000000 5.118000030518 197 197 197
14.015625000000 4.828125000000 5.101001739502 196 196 196
14.031250000000 4.843750000000 5.085998535156 189 189 189
14.015625000000 4.828125000000 5.069000244141 195 195 195
14.015625000000 4.828125000000 5.050998687744 196 196 196
14.015625000000 4.828125000000 5.033000946045 187 187 187
14.015625000000 4.828125000000 5.017002105713 194 194 194
14.015625000000 4.828125000000 5.000000000000 191 191 191
14.031250000000 4.843750000000 4.984001159668 187 187 187
14.031250000000 4.843750000000 4.966999053955 189 189 189
14.031250000000 4.843750000000 4.950000762939 194 194 194
14.031250000000 4.828125000000 4.934001922607 190 190 190
14.031250000000 4.828125000000 4.916999816895 195 195 195
14.031250000000 4.828125000000 4.900001525879 193 193 193
14.031250000000 4.828125000000 4.883998870850 196 196 196
14.031250000000 4.828125000000 4.866001129150 194 194 194
14.031250000000 4.828125000000 4.847000122070 195 195 195
14.031250000000 4.828125000000 4.831001281738 194 194 194
14.031250000000 4.828125000000 4.813999176025 193 193 193
14.031250000000 4.828125000000 4.793998718262 197 197 197
14.031250000000 4.828125000000 4.777999877930 194 194 194
14.031250000000 4.828125000000 4.758998870850 197 197 197
14.031250000000 4.828125000000 4.743999481201 196 196 196
14.031250000000 4.828125000000 4.726001739502 196 196 196
14.031250000000 4.828125000000 4.707000732422 196 196 196
14.031250000000 4.828125000000 4.689998626709 197 197 197
14.031250000000 4.828125000000 4.671001434326 196 196 196
14.031250000000 4.828125000000 4.656002044678 194 194 194
14.031250000000 4.828125000000 4.635002136230 195 195 195
14.031250000000 4.828125000000 4.618999481201 197 197 197
14.031250000000 4.828125000000 4.599998474121 196 196 196
14.031250000000 4.828125000000 4.582000732422 200 200 200
14.031250000000 4.828125000000 4.563999176025 194 194 194
14.031250000000 4.828125000000 4.545001983643 200 200 200
14.062500000000 4.828125000000 4.529998779297 196 196 196
14.062500000000 4.828125000000 4.510002136230 195 195 195
14.031250000000 4.828125000000 4.490001678467 197 197 197
14.062500000000 4.828125000000 4.473999023438 198 198 198
14.062500000000 4.828125000000 4.455001831055 198 198 198
14.062500000000 4.828125000000 4.437000274658 195 195 195
14.062500000000 4.828125000000 4.416000366211 196 196 196
14.062500000000 4.828125000000 4.397998809814 197 197 197
14.062500000000 4.828125000000 4.381000518799 196 196 196
14.062500000000 4.828125000000 4.358001708984 197 197 197
14.062500000000 4.828125000000 4.341999053955 197 197 197
14.062500000000 4.828125000000 4.320999145508 194 194 194
14.062500000000 4.828125000000 4.302001953125 196 196 196
14.062500000000 4.828125000000 4.283000946045 197 197 197
14.062500000000 4.828125000000 4.262001037598 194 194 194
14.062500000000 4.828125000000 4.241001129150 195 195 195
14.062500000000 4.828125000000 4.222000122070 195 195 195
14.062500000000 4.828125000000 4.206001281738 192 192 192
14.062500000000 4.828125000000 4.181999206543 200 200 200
14.062500000000 4.828125000000 4.164001464844 199 199 199
14.062500000000 4.828125000000 4.143001556396 196 196 196
14.062500000000 4.828125000000 4.122001647949 196 196 196
14.062500000000 4.828125000000 4.099998474121 195 195 195
14.062500000000 4.828125000000 4.080001831055 194 194 194
14.062500000000 4.828125000000 4.062000274658 194 194 194
14.062500000000 4.828125000000 4.041000366211 193 193 193
14.062500000000 4.828125000000 4.018001556396 181 181 181
14.062500000000 4.828125000000 3.999000549316 182 182 182
14.062500000000 4.812500000000 3.976001739502 190 190 190
14.062500000000 4.828125000000 3.957000732422 187 187 187
14.062500000000 4.828125000000 3.935001373291 190 190 190
14.062500000000 4.828125000000 3.915000915527 190 190 190
14.062500000000 4.828125000000 3.889999389648 190 190 190
14.062500000000 4.828125000000 3.867000579834 193 193 193
14.062500000000 4.812500000000 3.849998474121 186 186 186
14.062500000000 4.812500000000 3.826999664307 178 178 178
14.062500000000 4.812500000000 3.805000305176 183 183 183
14.062500000000 4.812500000000 3.782001495361 189 189 189
14.062500000000 4.812500000000 3.756000518799 186 186 186
14.062500000000 4.812500000000 3.734001159668 189 189 189
14.062500000000 4.812500000000 3.710998535156 181 181 181
14.062500000000 4.812500000000 3.687999725342 169 169 169
14.062500000000 4.812500000000 3.661998748779 176 176 176
14.062500000000 4.812500000000 3.638000488281 179 179 179
13.937500000000 4.968750000000 7.429000854492 120 120 120
13.937500000000 4.953125000000 7.400001525879 177 177 177
13.968750000000 4.968750000000 7.374000549316 183 183 183
13.968750000000 4.968750000000 7.350997924805 185 185 185
13.937500000000 4.953125000000 7.331001281738 184 184 184
13.937500000000 4.953125000000 7.306999206543 186 186 186
13.968750000000 4.953125000000 7.281997680664 181 181 181
13.937500000000 4.953125000000 7.263000488281 175 175 175
13.937500000000 4.953125000000 7.239997863770 173 173 173
13.937500000000 4.953125000000 7.218002319336 171 171 171
13.937500000000 4.953125000000 7.199996948242 186 186 186
13.937500000000 4.953125000000 7.177001953125 181 181 181
13.937500000000 4.953125000000 7.153999328613 184 184 184
13.937500000000 4.953125000000 7.134002685547 183 183 183
13.906250000000 4.984375000000 7.120002746582 207 207 207
13.906250000000 4.984375000000 7.101997375488 200 200 200
13.906250000000 4.984375000000 7.076004028320 161 161 161
14.031250000000 4.859375000000 4.868999481201 48 48 48
14.031250000000 4.859375000000 4.848999023438 94 94 94
14.031250000000 4.859375000000 4.830001831055 112 112 112
14.031250000000 4.859375000000 4.810001373291 124 124 124
14.031250000000 4.859375000000 4.790000915527 140 140 140
14.000000000000 4.875000000000 4.754001617432 174 174 174
14.031250000000 4.859375000000 4.743000030518 162 162 162
14.031250000000 4.859375000000 4.726001739502 157 157 157
14.031250000000 4.859375000000 4.708000183105 152 152 152
14.031250000000 4.859375000000 4.685001373291 163 163 163
14.046875000000 4.859375000000 4.668998718262 162 162 162
14.046875000000 4.859375000000 4.645999908447 169 169 169
14.031250000000 4.859375000000 4.624000549316 171 171 171
14.031250000000 4.859375000000 4.601001739502 175 175 175
14.062500000000 4.843750000000 4.583999633789 175 175 175
14.046875000000 4.859375000000 4.560001373291 177 177 177
14.062500000000 4.843750000000 4.542999267578 182 182 182
14.046875000000 4.859375000000 4.518001556396 183 183 183
14.062500000000 4.843750000000 4.498001098633 185 185 185
14.062500000000 4.843750000000 4.476001739502 190 190 190
14.046875000000 4.859375000000 4.451999664307 191 191 191
14.062500000000 4.843750000000 4.430999755859 193 193 193
14.062500000000 4.843750000000 4.409000396729 192 192 192
14.062500000000 4.843750000000 4.388999938965 191 191 191
14.062500000000 4.843750000000 4.368000030518 193 193 193
14.062500000000 4.843750000000 4.342998504639 196 196 196
14.062500000000 4.843750000000 4.320999145508 199 199 199
14.062500000000 4.843750000000 4.297000885010 194 194 194
14.062500000000 4.828125000000 4.277999877930 195 195 195
14.062500000000 4.843750000000 4.251998901367 190 190 190
14.062500000000 4.828125000000 4.231998443604 194 194 194
14.062500000000 4.828125000000 4.209999084473 193 193 193
14.062500000000 4.828125000000 4.187000274658 195 195 195
14.062500000000 4.828125000000 4.161998748779 192 192 192
14.062500000000 4.828125000000 4.139999389648 188 188 188
14.062500000000 4.828125000000 4.118999481201 193 193 193
14.062500000000 4.828125000000 4.092998504639 190 190 190
14.062500000000 4.828125000000 4.068000793457 188 188 188
14.062500000000 4.828125000000 4.048000335693 191 191 191
14.062500000000 4.828125000000 4.022998809814 180 180 180
14.062500000000 4.828125000000 3.994998931885 172 172 172
14.062500000000 4.828125000000 3.976001739502 182 182 182
14.062500000000 4.812500000000 3.952999114990 184 184 184
14.062500000000 4.828125000000 3.930999755859 181 181 181
14.062500000000 4.828125000000 3.900001525879 180 180 180
14.062500000000 4.812500000000 3.875999450684 186 186 186
14.062500000000 4.812500000000 3.852001190186 185 185 185
14.062500000000 4.812500000000 3.832000732422 175 175 175
14.062500000000 4.812500000000 3.802001953125 175 175 175
14.062500000000 4.812500000000 3.776000976563 176 176 176
14.062500000000 4.812500000000 3.752998352051 175 175 175
14.062500000000 4.812500000000 3.724998474121 176 176 176
14.093750000000 4.796875000000 3.699001312256 172 172 172
14.093750000000 4.796875000000 3.673999786377 163 163 163
14.093750000000 4.796875000000 3.649002075195 169 169 169
13.843750000000 4.750000000000 8.319000244141 164 164 164
13.843750000000 4.750000000000 8.288002014160 157 157 157
13.843750000000 4.765625000000 8.263000488281 146 146 146
13.859375000000 4.734375000000 8.224998474121 164 164 164
13.843750000000 4.750000000000 8.199996948242 148 148 148
13.843750000000 4.750000000000 8.170997619629 161 161 161
13.843750000000 4.750000000000 8.142997741699 168 168 168
13.843750000000 4.750000000000 8.120002746582 168 168 168
13.843750000000 4.750000000000 8.084999084473 159 159 159
13.843750000000 4.750000000000 8.065002441406 159 159 159
13.843750000000 4.750000000000 8.035003662109 165 165 165
13.843750000000 4.750000000000 8.011001586914 149 149 149
13.843750000000 4.750000000000 7.981002807617 159 159 159
13.812500000000 4.765625000000 7.972000122070 160 160 160
13.812500000000 4.765625000000 7.947998046875 159 159 159
13.812500000000 4.765625000000 7.924003601074 159 159 159
13.812500000000 4.765625000000 7.893997192383 161 161 161
13.796875000000 4.765625000000 7.876998901367 165 165 165
13.781250000000 4.765625000000 7.855003356934 166 166 166
13.781250000000 4.781250000000 7.835998535156 178 178 178
13.781250000000 4.781250000000 7.810997009277 177 177 177
13.781250000000 4.781250000000 7.785003662109 176 176 176
13.781250000000 4.781250000000 7.760002136230 184 184 184
13.750000000000 4.796875000000 7.744003295898 185 185 185
13.734375000000 4.796875000000 7.726997375488 183 183 183
13.718750000000 4.796875000000 7.707000732422 183 183 183
13.718750000000 4.812500000000 7.686996459961 184 184 184
13.718750000000 4.812500000000 7.660003662109 187 187 187
13.703125000000 4.812500000000 7.640998840332 185 185 185
13.703125000000 4.812500000000 7.620002746582 186 186 186
13.687500000000 4.828125000000 7.600997924805 184 184 184
13.687500000000 4.828125000000 7.578002929688 186 186 186
13.687500000000 4.828125000000 7.554000854492 184 184 184
13.671875000000 4.828125000000 7.532997131348 186 186 186
13.687500000000 4.828125000000 7.504997253418 185 185 185
13.687500000000 4.828125000000 7.481002807617 184 184 184
13.671875000000 4.828125000000 7.457000732422 173 173 173
13.656250000000 4.843750000000 7.434997558594 181 181 181
13.687500000000 4.828125000000 7.405998229980 182 182 182
13.671875000000 4.828125000000 7.382003784180 182 182 182
13.671875000000 4.828125000000 7.358001708984 183 183 183
13.703125000000 4.812500000000 7.322998046875 184 184 184
13.843750000000 4.734375000000 7.233001708984 160 160 160
13.843750000000 4.734375000000 7.212997436523 163 163 163
13.718750000000 4.781250000000 7.230003356934 171 171 171
13.687500000000 4.828125000000 7.233001708984 146 146 146
13.687500000000 4.828125000000 7.213996887207 159 159 159
13.656250000000 4.828125000000 7.194999694824 178 178 178
13.656250000000 4.828125000000 7.169998168945 182 182 182
13.656250000000 4.828125000000 7.147003173828 185 185 185
13.656250000000 4.828125000000 7.123001098633 186 186 186
13.656250000000 4.828125000000 7.099998474121 184 184 184
13.656250000000 4.828125000000 7.076004028320 189 189 189
13.656250000000 4.843750000000 7.055999755859 189 189 189
13.656250000000 4.828125000000 7.031997680664 191 191 191
13.656250000000 4.828125000000 7.009002685547 191 191 191
13.656250000000 4.828125000000 6.982002258301 191 191 191
13.812500000000 4.734375000000 6.904998779297 174 174 174
13.843750000000 4.734375000000 6.872001647949 162 162 162
13.843750000000 4.734375000000 6.849998474121 157 157 157
13.843750000000 4.734375000000 6.832000732422 172 172 172
13.843750000000 4.734375000000 6.809997558594 155 155 155
13.843750000000 4.734375000000 6.788002014160 156 156 156
13.781250000000 4.750000000000 6.785003662109 161 161 161
13.750000000000 4.765625000000 6.771003723145 177 177 177
13.656250000000 4.828125000000 6.779998779297 196 196 196
13.656250000000 4.828125000000 6.757003784180 194 194 194
13.656250000000 4.828125000000 6.736000061035 196 196 196
13.656250000000 4.828125000000 6.712997436523 194 194 194
13.656250000000 4.828125000000 6.690002441406 193 193 193
13.656250000000 4.828125000000 6.668998718262 196 196 196
13.656250000000 4.828125000000 6.649002075195 202 202 202
13.656250000000 4.828125000000 6.625999450684 199 199 199
13.625000000000 4.828125000000 6.605003356934 203 203 203
13.656250000000 4.828125000000 6.582000732422 203 203 203
13.656250000000 4.828125000000 6.557998657227 203 203 203
13.656250000000 4.828125000000 6.536003112793 202 202 202
13.656250000000 4.828125000000 6.515998840332 204 204 204
13.656250000000 4.828125000000 6.494003295898 203 203 203
13.656250000000 4.828125000000 6.471000671387 203 203 203
13.656250000000 4.828125000000 6.449996948242 204 204 204
13.656250000000 4.828125000000 6.428001403809 202 202 202
13.656250000000 4.828125000000 6.406997680664 202 202 202
13.656250000000 4.828125000000 6.385002136230 204 204 204
13.656250000000 4.828125000000 6.362998962402 204 204 204
13.656250000000 4.828125000000 6.343002319336 202 202 202
13.656250000000 4.828125000000 6.320999145508 201 201 201
13.656250000000 4.828125000000 6.299003601074 204 204 204
13.656250000000 4.828125000000 6.277999877930 201 201 201
13.656250000000 4.828125000000 6.257003784180 202 202 202
13.656250000000 4.828125000000 6.235000610352 202 202 202
13.656250000000 4.828125000000 6.213996887207 201 201 201
13.656250000000 4.828125000000 6.193000793457 201 201 201
13.656250000000 4.828125000000 6.170997619629 205 205 205
13.656250000000 4.828125000000 6.150001525879 202 202 202
13.656250000000 4.828125000000 6.128997802734 203 203 203
13.656250000000 4.828125000000 6.108001708984 202 202 202
13.656250000000 4.812500000000 6.085998535156 200 200 200
13.656250000000 4.812500000000 6.065002441406 200 200 200
13.656250000000 4.812500000000 6.043998718262 199 199 199
13.656250000000 4.812500000000 6.023002624512 201 201 201
13.656250000000 4.828125000000 6.001998901367 202 202 202
13.656250000000 4.812500000000 5.981002807617 201 201 201
13.656250000000 4.796875000000 5.959999084473 199 199 199
13.656250000000 4.812500000000 5.939002990723 199 199 199
13.656250000000 4.812500000000 5.917999267578 198 198 198
13.656250000000 4.812500000000 5.896003723145 203 203 203
13.656250000000 4.812500000000 5.875000000000 199 199 199
13.656250000000 4.796875000000 5.854003906250 199 199 199
13.656250000000 4.796875000000 5.833000183105 200 200 200
13.656250000000 4.812500000000 5.811996459961 199 199 199
13.656250000000 4.796875000000 5.791000366211 197 197 197
13.656250000000 4.812500000000 5.769996643066 200 200 200
13.656250000000 4.796875000000 5.749000549316 200 200 200
13.656250000000 4.796875000000 5.727996826172 202 202 202
13.718750000000 4.765625000000 5.709999084473 173 173 173
13.750000000000 4.734375000000 5.692001342773 147 147 147
13.750000000000 4.734375000000 5.672000885010 166 166 166
13.750000000000 4.734375000000 5.651000976563 171 171 171
13.750000000000 4.734375000000 5.631000518799 172 172 172
13.750000000000 4.734375000000 5.610000610352 171 171 171
13.750000000000 4.750000000000 5.589000701904 170 170 170
13.750000000000 4.750000000000 5.568000793457 170 170 170
13.656250000000 4.796875000000 5.538002014160 192 192 192
13.687500000000 4.796875000000 5.517002105713 196 196 196
13.671875000000 4.796875000000 5.495998382568 200 200 200
13.671875000000 4.796875000000 5.473999023438 199 199 199
13.671875000000 4.796875000000 5.452999114990 202 202 202
13.687500000000 4.796875000000 5.431999206543 198 198 198
13.687500000000 4.796875000000 5.410999298096 198 198 198
13.671875000000 4.796875000000 5.388999938965 199 199 199
13.687500000000 4.796875000000 5.368000030518 192 192 192
13.687500000000 4.796875000000 5.346000671387 179 179 179
13.656250000000 4.796875000000 5.324001312256 198 198 198
13.687500000000 4.796875000000 5.303001403809 198 198 198
13.687500000000 4.796875000000 5.282001495361 189 189 189
13.687500000000 4.796875000000 5.261001586914 198 198 198
13.656250000000 4.796875000000 5.238998413086 194 194 194
13.656250000000 4.796875000000 5.215999603271 198 198 198
13.687500000000 4.796875000000 5.196998596191 195 195 195
13.687500000000 4.796875000000 5.174999237061 179 179 179
13.687500000000 4.781250000000 5.153999328613 169 169 169
13.687500000000 4.796875000000 5.131999969482 181 181 181
13.687500000000 4.796875000000 5.110000610352 176 176 176
13.687500000000 4.796875000000 5.087001800537 177 177 177
13.687500000000 4.781250000000 5.067001342773 176 176 176
13.718750000000 4.765625000000 5.055000305176 181 181 181
13.750000000000 4.734375000000 5.039001464844 196 196 196
13.750000000000 4.734375000000 5.018001556396 187 187 187
13.750000000000 4.734375000000 4.995998382568 195 195 195
13.750000000000 4.734375000000 4.973999023438 189 189 189
13.750000000000 4.750000000000 4.951000213623 197 197 197
13.750000000000 4.734375000000 4.930000305176 192 192 192
13.750000000000 4.750000000000 4.907001495361 180 180 180
13.750000000000 4.734375000000 4.885002136230 198 198 198
13.750000000000 4.734375000000 4.862998962402 197 197 197
13.718750000000 4.750000000000 4.835998535156 184 184 184
13.687500000000 4.765625000000 4.806999206543 163 163 163
13.687500000000 4.765625000000 4.781002044678 165 165 165
13.687500000000 4.765625000000 4.756999969482 166 166 166
13.687500000000 4.765625000000 4.736000061035 167 167 167
13.687500000000 4.765625000000 4.713001251221 166 166 166
13.687500000000 4.765625000000 4.688999176025 167 167 167
13.687500000000 4.765625000000 4.665000915527 162 162 162
13.687500000000 4.765625000000 4.644001007080 159 159 159
13.703125000000 4.750000000000 4.623001098633 158 158 158
13.687500000000 4.765625000000 4.597999572754 156 156 156
13.687500000000 4.765625000000 4.575000762939 162 162 162
13.718750000000 4.750000000000 4.555999755859 149 149 149
13.718750000000 4.765625000000 4.533000946045 144 144 144
13.718750000000 4.765625000000 4.510002136230 138 138 138
13.718750000000 4.750000000000 4.486000061035 139 139 139
13.718750000000 4.750000000000 4.460998535156 143 143 143
13.718750000000 4.750000000000 4.435001373291 141 141 141
13.718750000000 4.750000000000 4.411998748779 144 144 144
13.718750000000 4.750000000000 4.387001037598 145 145 145
13.718750000000 4.750000000000 4.363998413086 146 146 146
13.718750000000 4.750000000000 4.335998535156 151 151 151
13.718750000000 4.750000000000 4.312999725342 147 147 147
13.718750000000 4.750000000000 4.288002014160 149 149 149
13.718750000000 4.750000000000 4.261001586914 150 150 150
13.703125000000 4.750000000000 4.233001708984 153 153 153
13.718750000000 4.750000000000 4.210998535156 154 154 154
13.703125000000 4.750000000000 4.182998657227 154 154 154
13.718750000000 4.750000000000 4.159000396729 152 152 152
13.687500000000 4.750000000000 4.125000000000 152 152 152
13.687500000000 4.750000000000 4.097999572754 154 154 154
13.687500000000 4.765625000000 4.069999694824 163 163 163
13.687500000000 4.765625000000 4.041000366211 163 163 163
13.687500000000 4.765625000000 4.014999389648 174 174 174
13.687500000000 4.765625000000 3.986000061035 178 178 178
13.687500000000 4.765625000000 3.963001251221 179 179 179
13.671875000000 4.765625000000 3.931999206543 193 193 193
13.687500000000 4.765625000000 3.903999328613 202 202 202
13.687500000000 4.750000000000 3.882999420166 180 180 180
13.671875000000 4.765625000000 3.846000671387 199 199 199
13.671875000000 4.765625000000 3.818000793457 199 199 199
13.718750000000 4.734375000000 3.814998626709 110 110 110
13.718750000000 4.734375000000 3.792999267578 101 101 101
13.718750000000 4.750000000000 3.754001617432 99 99 99
13.656250000000 4.781250000000 3.688999176025 200 200 200
13.687500000000 4.750000000000 3.654998779297 102 102 102
14.093750000000 4.859375000000 3.645999908447 170 170 170
14.093750000000 4.859375000000 3.671001434326 177 177 177
14.093750000000 4.859375000000 3.698001861572 188 188 188
14.093750000000 4.859375000000 3.717998504639 182 182 182
14.093750000000 4.859375000000 3.744998931885 185 185 185
14.062500000000 4.859375000000 3.767002105713 181 181 181
14.093750000000 4.859375000000 3.798000335693 166 166 166
14.062500000000 4.859375000000 3.819999694824 187 187 187
14.093750000000 4.859375000000 3.847000122070 188 188 188
14.062500000000 4.859375000000 3.869998931885 189 189 189
14.062500000000 4.859375000000 3.894001007080 186 186 186
14.062500000000 4.859375000000 3.916000366211 186 186 186
14.062500000000 4.859375000000 3.941001892090 185 185 185
14.062500000000 4.859375000000 3.965000152588 176 176 176
14.062500000000 4.859375000000 3.992000579834 187 187 187
14.062500000000 4.859375000000 4.010002136230 192 192 192
14.062500000000 4.859375000000 4.033000946045 191 191 191
14.062500000000 4.859375000000 4.057998657227 190 190 190
14.062500000000 4.859375000000 4.084999084473 190 190 190
14.062500000000 4.859375000000 4.110000610352 193 193 193
14.062500000000 4.859375000000 4.126998901367 197 197 197
14.062500000000 4.859375000000 4.153999328613 194 194 194
14.062500000000 4.859375000000 4.172000885010 194 194 194
14.062500000000 4.859375000000 4.194999694824 196 196 196
14.062500000000 4.859375000000 4.220001220703 191 191 191
14.062500000000 4.859375000000 4.240001678467 196 196 196
14.062500000000 4.859375000000 4.263000488281 197 197 197
14.062500000000 4.859375000000 4.284999847412 196 196 196
14.062500000000 4.859375000000 4.305999755859 198 198 198
14.062500000000 4.843750000000 4.326999664307 195 195 195
14.062500000000 4.859375000000 4.349998474121 195 195 195
14.062500000000 4.859375000000 4.373001098633 194 194 194
14.062500000000 4.859375000000 4.394001007080 192 192 192
14.062500000000 4.859375000000 4.416000366211 193 193 193
14.062500000000 4.843750000000 4.434001922607 196 196 196
14.062500000000 4.843750000000 4.456001281738 197 197 197
14.062500000000 4.843750000000 4.479000091553 193 193 193
14.062500000000 4.859375000000 4.501998901367 199 199 199
14.062500000000 4.859375000000 4.522998809814 194 194 194
14.062500000000 4.843750000000 4.541000366211 195 195 195
14.062500000000 4.843750000000 4.561000823975 197 197 197
14.062500000000 4.843750000000 4.582000732422 194 194 194
14.062500000000 4.843750000000 4.603000640869 197 197 197
14.062500000000 4.843750000000 4.623001098633 198 198 198
14.062500000000 4.843750000000 4.644001007080 190 190 190
14.062500000000 4.843750000000 4.663002014160 192 192 192
14.031250000000 4.828125000000 4.682998657227 195 195 195
14.031250000000 4.828125000000 4.701999664307 191 191 191
14.031250000000 4.828125000000 4.722999572754 192 192 192
14.031250000000 4.828125000000 4.743000030518 192 192 192
14.062500000000 4.843750000000 4.765998840332 188 188 188
14.031250000000 4.828125000000 4.783000946045 190 190 190
14.031250000000 4.828125000000 4.804000854492 189 189 189
14.031250000000 4.828125000000 4.821998596191 185 185 185
14.031250000000 4.828125000000 4.839000701904 187 187 187
14.031250000000 4.828125000000 4.861999511719 187 187 187
14.031250000000 4.828125000000 4.881999969482 189 189 189
14.031250000000 4.828125000000 4.901000976563 191 191 191
14.031250000000 4.828125000000 4.920001983643 190 190 190
14.031250000000 4.828125000000 4.939998626709 185 185 185
14.031250000000 4.828125000000 4.958000183105 185 185 185
14.031250000000 4.828125000000 4.980998992920 184 184 184
14.031250000000 4.828125000000 4.998001098633 185 185 185
14.031250000000 4.828125000000 5.015998840332 187 187 187
14.031250000000 4.828125000000 5.035999298096 187 187 187
14.031250000000 4.828125000000 5.055000305176 191 191 191
14.031250000000 4.828125000000 5.074001312256 189 189 189
14.031250000000 4.828125000000 5.092998504639 184 184 184
14.031250000000 4.828125000000 5.111000061035 185 185 185
14.031250000000 4.828125000000 5.131000518799 183 183 183
14.031250000000 4.828125000000 5.151000976563 186 186 186
14.031250000000 4.828125000000 5.168998718262 182 182 182
14.031250000000 4.828125000000 5.187000274658 183 183 183
14.031250000000 4.828125000000 5.207000732422 182 182 182
14.000000000000 4.828125000000 5.224998474121 184 184 184
14.031250000000 4.828125000000 5.243999481201 175 175 175
14.000000000000 4.828125000000 5.262001037598 171 171 171
14.031250000000 4.828125000000 5.282001495361 178 178 178
14.000000000000 4.828125000000 5.299999237061 178 178 178
14.000000000000 4.828125000000 5.318000793457 174 174 174
14.015625000000 4.828125000000 5.338001251221 176 176 176
14.000000000000 4.828125000000 5.354999542236 165 165 165
14.000000000000 4.828125000000 5.374000549316 166 166 166
14.000000000000 4.828125000000 5.394001007080 172 172 172
14.000000000000 4.828125000000 5.410999298096 170 170 170
14.000000000000 4.828125000000 5.429000854492 172 172 172
14.000000000000 4.828125000000 5.448001861572 179 179 179
14.000000000000 4.828125000000 5.466999053955 179 179 179
14.000000000000 4.828125000000 5.486000061035 173 173 173
14.000000000000 4.828125000000 5.504001617432 179 179 179
13.984375000000 4.828125000000 5.521999359131 182 182 182
14.000000000000 4.828125000000 5.541000366211 193 193 193
14.000000000000 4.828125000000 5.559001922607 187 187 187
13.984375000000 4.828125000000 5.576999664307 191 191 191
14.000000000000 4.828125000000 5.596000671387 198 198 198
14.000000000000 4.828125000000 5.615001678467 197 197 197
14.000000000000 4.828125000000 5.632999420166 195 195 195
13.984375000000 4.828125000000 5.651000976563 194 194 194
13.984375000000 4.828125000000 5.668998718262 193 193 193
13.984375000000 4.828125000000 5.687999725342 194 194 194
13.984375000000 4.828125000000 5.706001281738 195 195 195
14.000000000000 4.828125000000 5.724998474121 194 194 194
13.984375000000 4.828125000000 5.743003845215 194 194 194
13.984375000000 4.828125000000 5.761001586914 191 191 191
13.984375000000 4.828125000000 5.778999328613 190 190 190
13.984375000000 4.828125000000 5.797996520996 189 189 189
13.984375000000 4.828125000000 5.816001892090 190 190 190
13.984375000000 4.828125000000 5.834999084473 192 192 192
13.984375000000 4.828125000000 5.852996826172 189 189 189
13.984375000000 4.828125000000 5.872001647949 192 192 192
13.968750000000 4.812500000000 5.889999389648 187 187 187
13.984375000000 4.828125000000 5.907997131348 185 185 185
13.968750000000 4.812500000000 5.927001953125 187 187 187
13.968750000000 4.812500000000 5.945999145508 186 186 186
13.968750000000 4.812500000000 5.963996887207 185 185 185
13.968750000000 4.812500000000 5.983001708984 182 182 182
13.968750000000 4.812500000000 6.000999450684 184 184 184
13.968750000000 4.812500000000 6.018997192383 184 184 184
13.968750000000 4.828125000000 6.038002014160 185 185 185
13.968750000000 4.828125000000 6.056999206543 180 180 180
13.968750000000 4.828125000000 6.074996948242 179 179 179
13.968750000000 4.828125000000 6.094001770020 178 178 178
13.968750000000 4.828125000000 6.112998962402 181 181 181
13.968750000000 4.828125000000 6.132003784180 181 181 181
13.968750000000 4.828125000000 6.150001525879 179 179 179
13.968750000000 4.828125000000 6.168998718262 179 179 179
13.968750000000 4.828125000000 6.188003540039 179 179 179
13.968750000000 4.828125000000 6.206001281738 180 180 180
13.968750000000 4.828125000000 6.224998474121 180 180 180
13.937500000000 4.812500000000 6.245002746582 185 185 185
13.968750000000 4.828125000000 6.263000488281 187 187 187
13.937500000000 4.812500000000 6.281997680664 183 183 183
13.937500000000 4.812500000000 6.301002502441 183 183 183
13.937500000000 4.812500000000 6.319999694824 183 183 183
13.937500000000 4.812500000000 6.341003417969 181 181 181
13.937500000000 4.812500000000 6.360000610352 179 179 179
13.937500000000 4.812500000000 6.377998352051 176 176 176
13.937500000000 4.812500000000 6.397003173828 174 174 174
13.937500000000 4.812500000000 6.416000366211 174 174 174
13.937500000000 4.812500000000 6.435997009277 180 180 180
13.937500000000 4.812500000000 6.456001281738 184 184 184
13.937500000000 4.812500000000 6.474998474121 181 181 181
13.937500000000 4.812500000000 6.494003295898 178 178 178
13.937500000000 4.812500000000 6.513000488281 179 179 179
13.937500000000 4.796875000000 6.535003662109 182 182 182
13.937500000000 4.812500000000 6.553001403809 180 180 180
13.937500000000 4.812500000000 6.571998596191 178 178 178
13.937500000000 4.812500000000 6.592002868652 173 173 173
13.937500000000 4.796875000000 6.612998962402 176 176 176
13.937500000000 4.796875000000 6.633003234863 180 180 180
13.937500000000 4.796875000000 6.653999328613 182 182 182
13.937500000000 4.796875000000 6.672996520996 177 177 177
13.937500000000 4.812500000000 6.692001342773 182 182 182
13.937500000000 4.812500000000 6.712997436523 179 179 179
13.937500000000 4.812500000000 6.732002258301 177 177 177
13.937500000000 4.812500000000 6.752998352051 178 178 178
13.937500000000 4.812500000000 6.774002075195 187 187 187
13.937500000000 4.812500000000 6.794998168945 190 190 190
13.937500000000 4.812500000000 6.815002441406 187 187 187
13.937500000000 4.812500000000 6.835998535156 186 186 186
13.937500000000 4.812500000000 6.858001708984 182 182 182
13.937500000000 4.812500000000 6.876998901367 185 185 185
13.937500000000 4.812500000000 6.897003173828 187 187 187
13.937500000000 4.812500000000 6.919998168945 183 183 183
13.937500000000 4.812500000000 6.941001892090 181 181 181
13.937500000000 4.796875000000 6.966003417969 187 187 187
13.937500000000 4.796875000000 6.985000610352 182 182 182
13.937500000000 4.796875000000 7.004997253418 184 184 184
13.937500000000 4.796875000000 7.027000427246 179 179 179
13.937500000000 4.796875000000 7.052001953125 176 176 176
13.937500000000 4.796875000000 7.072998046875 182 182 182
13.937500000000 4.796875000000 7.094001770020 180 180 180
13.937500000000 4.796875000000 7.115997314453 177 177 177
13.937500000000 4.796875000000 7.138999938965 175 175 175
13.906250000000 4.796875000000 7.162002563477 174 174 174
13.906250000000 4.796875000000 7.184997558594 163 163 163
13.906250000000 4.796875000000 7.206001281738 159 159 159
13.906250000000 4.796875000000 7.235000610352 164 164 164
13.906250000000 4.796875000000 7.258003234863 167 167 167
13.906250000000 4.796875000000 7.280998229980 171 171 171
13.906250000000 4.796875000000 7.294998168945 165 165 165
13.906250000000 4.796875000000 7.319999694824 161 161 161
13.906250000000 4.796875000000 7.343002319336 160 160 160
13.906250000000 4.796875000000 7.364997863770 161 161 161
13.906250000000 4.796875000000 7.387001037598 157 157 157
13.906250000000 4.796875000000 7.416000366211 148 148 148
13.906250000000 4.796875000000 7.440002441406 155 155 155
13.906250000000 4.796875000000 7.463996887207 154 154 154
13.906250000000 4.796875000000 7.486000061035 153 153 153
13.906250000000 4.796875000000 7.511001586914 144 144 144
13.906250000000 4.796875000000 7.536003112793 143 143 143
13.906250000000 4.796875000000 7.557998657227 139 139 139
13.906250000000 4.796875000000 7.582000732422 136 136 136
13.906250000000 4.796875000000 7.608001708984 140 140 140
13.906250000000 4.796875000000 7.632003784180 144 144 144
13.906250000000 4.796875000000 7.662002563477 142 142 142
13.906250000000 4.796875000000 7.685997009277 136 136 136
13.906250000000 4.796875000000 7.713996887207 129 129 129
13.906250000000 4.796875000000 7.737998962402 125 125 125
13.906250000000 4.796875000000 7.763000488281 127 127 127
13.906250000000 4.796875000000 7.790000915527 125 125 125
13.906250000000 4.796875000000 7.817001342773 112 112 112
13.906250000000 4.796875000000 7.844001770020 107 107 107
13.906250000000 4.796875000000 7.868003845215 95 95 95
13.875000000000 4.796875000000 7.901000976563 82 82 82
13.906250000000 4.796875000000 7.920997619629 71 71 71
13.875000000000 4.796875000000 7.952003479004 65 65 65
13.875000000000 4.796875000000 7.977996826172 56 56 56
13.875000000000 4.796875000000 8.007003784180 72 72 72
13.875000000000 4.796875000000 8.033996582031 51 51 51
13.875000000000 4.796875000000 8.063003540039 62 62 62
13.875000000000 4.796875000000 8.096000671387 57 57 57
13.875000000000 4.796875000000 8.118003845215 40 40 40
13.875000000000 4.796875000000 8.205001831055 37 37 37
13.625000000000 4.921875000000 6.757003784180 111 111 111
13.625000000000 4.921875000000 6.778999328613 123 123 123
13.593750000000 4.921875000000 6.804000854492 122 122 122
13.625000000000 4.921875000000 6.824996948242 128 128 128
13.625000000000 4.921875000000 6.846000671387 129 129 129
13.625000000000 4.937500000000 6.863998413086 71 71 71
13.718750000000 5.000000000000 7.036003112793 128 128 128
13.750000000000 5.015625000000 7.039001464844 255 255 255
13.781250000000 5.046875000000 7.051002502441 255 255 255
13.781250000000 5.046875000000 7.072998046875 202 202 202
13.781250000000 5.031250000000 7.099998474121 255 255 255
13.781250000000 5.046875000000 7.115997314453 255 255 255
13.781250000000 5.046875000000 7.140998840332 255 255 255
13.781250000000 5.046875000000 7.166000366211 255 255 255
13.781250000000 5.046875000000 7.189002990723 255 255 255
13.781250000000 5.046875000000 7.207000732422 255 255 255
13.781250000000 5.046875000000 7.233001708984 255 255 255
13.781250000000 5.046875000000 7.257003784180 255 255 255
13.781250000000 5.031250000000 7.282997131348 0 0 0
13.781250000000 5.046875000000 7.304000854492 0 0 0
13.781250000000 5.046875000000 7.322998046875 0 0 0
13.781250000000 5.031250000000 7.358001708984 0 0 0
13.781250000000 5.031250000000 7.377998352051 0 0 0
13.781250000000 5.046875000000 7.392997741699 178 178 178
13.625000000000 4.765625000000 8.329002380371 82 82 82
13.640625000000 4.750000000000 8.287002563477 80 80 80
13.625000000000 4.765625000000 8.264999389648 84 84 84
13.625000000000 4.765625000000 8.233001708984 78 78 78
13.625000000000 4.765625000000 8.208999633789 90 90 90
13.625000000000 4.765625000000 8.177001953125 92 92 92
13.625000000000 4.765625000000 8.144996643066 92 92 92
13.625000000000 4.765625000000 8.115997314453 96 96 96
13.625000000000 4.765625000000 8.087997436523 100 100 100
13.625000000000 4.765625000000 8.055000305176 118 118 118
13.625000000000 4.765625000000 8.030998229980 97 97 97
13.625000000000 4.765625000000 8.000000000000 99 99 99
13.625000000000 4.765625000000 7.966003417969 98 98 98
13.625000000000 4.765625000000 7.944000244141 89 89 89
13.625000000000 4.765625000000 7.908996582031 94 94 94
13.625000000000 4.765625000000 7.884002685547 102 102 102
13.625000000000 4.765625000000 7.855003356934 104 104 104
13.625000000000 4.765625000000 7.829002380371 101 101 101
13.625000000000 4.765625000000 7.800003051758 106 106 106
13.625000000000 4.765625000000 7.772003173828 106 106 106
13.656250000000 4.765625000000 7.740997314453 107 107 107
13.625000000000 4.765625000000 7.720001220703 101 101 101
13.625000000000 4.765625000000 7.693000793457 102 102 102
13.625000000000 4.765625000000 7.667999267578 103 103 103
13.656250000000 4.765625000000 7.638999938965 118 118 118
13.625000000000 4.765625000000 7.615997314453 114 114 114
13.656250000000 4.765625000000 7.587997436523 106 106 106
13.625000000000 4.765625000000 7.565002441406 110 110 110
13.656250000000 4.765625000000 7.531997680664 108 108 108
13.781250000000 4.703125000000 7.449996948242 120 120 120
13.875000000000 4.625000000000 7.364997863770 255 255 255
13.859375000000 4.640625000000 7.351997375488 255 255 255
13.875000000000 4.640625000000 7.323997497559 205 205 205
13.875000000000 4.640625000000 7.299003601074 255 255 255
13.875000000000 4.640625000000 7.275001525879 255 255 255
13.875000000000 4.640625000000 7.258003234863 255 255 255
13.875000000000 4.640625000000 7.232002258301 179 179 179
13.875000000000 4.640625000000 7.208999633789 180 180 180
13.875000000000 4.640625000000 7.182998657227 183 183 183
13.875000000000 4.640625000000 7.164001464844 183 183 183
13.875000000000 4.640625000000 7.138000488281 184 184 184
13.875000000000 4.640625000000 7.118003845215 180 180 180
13.875000000000 4.640625000000 7.096000671387 179 179 179
13.875000000000 4.625000000000 7.070999145508 180 180 180
13.875000000000 4.640625000000 7.052001953125 236 236 236
13.875000000000 4.640625000000 7.033996582031 254 254 254
13.812500000000 4.671875000000 7.029998779297 171 171 171
13.671875000000 4.765625000000 7.067001342773 138 138 138
13.656250000000 4.765625000000 7.046997070313 128 128 128
13.671875000000 4.765625000000 7.019996643066 160 160 160
13.656250000000 4.765625000000 7.000999450684 185 185 185
13.671875000000 4.765625000000 6.974998474121 187 187 187
13.656250000000 4.765625000000 6.956001281738 186 186 186
13.656250000000 4.765625000000 6.930999755859 145 145 145
13.656250000000 4.765625000000 6.908996582031 121 121 121
13.687500000000 4.750000000000 6.879997253418 142 142 142
13.718750000000 4.734375000000 6.847000122070 157 157 157
13.718750000000 4.734375000000 6.826004028320 173 173 173
13.718750000000 4.734375000000 6.803001403809 167 167 167
13.718750000000 4.734375000000 6.782997131348 178 178 178
13.718750000000 4.734375000000 6.759002685547 161 161 161
13.687500000000 4.765625000000 6.745002746582 160 160 160
13.671875000000 4.765625000000 6.725997924805 135 135 135
13.671875000000 4.765625000000 6.705001831055 145 145 145
13.656250000000 4.765625000000 6.683998107910 134 134 134
13.656250000000 4.765625000000 6.663002014160 135 135 135
13.656250000000 4.765625000000 6.640998840332 132 132 132
13.656250000000 4.765625000000 6.619003295898 130 130 130
13.656250000000 4.765625000000 6.597000122070 135 135 135
13.656250000000 4.765625000000 6.574996948242 138 138 138
13.656250000000 4.765625000000 6.553001403809 146 146 146
13.656250000000 4.765625000000 6.530998229980 147 147 147
13.671875000000 4.765625000000 6.508003234863 145 145 145
13.671875000000 4.765625000000 6.486999511719 160 160 160
13.656250000000 4.765625000000 6.467002868652 154 154 154
13.671875000000 4.765625000000 6.444000244141 151 151 151
13.656250000000 4.765625000000 6.422996520996 145 145 145
13.656250000000 4.765625000000 6.402000427246 141 141 141
13.656250000000 4.765625000000 6.380996704102 152 152 152
13.656250000000 4.765625000000 6.359001159668 154 154 154
13.656250000000 4.765625000000 6.337997436523 155 155 155
13.656250000000 4.765625000000 6.317001342773 152 152 152
13.687500000000 4.765625000000 6.294998168945 149 149 149
13.687500000000 4.765625000000 6.274002075195 150 150 150
13.656250000000 4.765625000000 6.253997802734 155 155 155
13.687500000000 4.765625000000 6.231002807617 150 150 150
13.687500000000 4.765625000000 6.210998535156 152 152 152
13.687500000000 4.765625000000 6.190002441406 154 154 154
13.687500000000 4.765625000000 6.167999267578 151 151 151
13.687500000000 4.765625000000 6.148002624512 152 152 152
13.687500000000 4.765625000000 6.125999450684 148 148 148
13.687500000000 4.781250000000 6.106002807617 148 148 148
13.687500000000 4.765625000000 6.084999084473 146 146 146
13.687500000000 4.781250000000 6.064002990723 152 152 152
13.687500000000 4.765625000000 6.042999267578 149 149 149
13.687500000000 4.765625000000 6.022003173828 149 149 149
13.687500000000 4.781250000000 6.001998901367 148 148 148
13.687500000000 4.765625000000 5.980003356934 151 151 151
13.687500000000 4.765625000000 5.959999084473 148 148 148
13.687500000000 4.765625000000 5.939002990723 141 141 141
13.687500000000 4.781250000000 5.917999267578 148 148 148
13.687500000000 4.765625000000 5.897003173828 139 139 139
13.687500000000 4.765625000000 5.876998901367 139 139 139
13.687500000000 4.781250000000 5.856002807617 144 144 144
13.687500000000 4.781250000000 5.834999084473 139 139 139
13.687500000000 4.765625000000 5.814002990723 150 150 150
13.718750000000 4.765625000000 5.793998718262 147 147 147
13.687500000000 4.765625000000 5.773002624512 150 150 150
13.718750000000 4.765625000000 5.751998901367 148 148 148
13.687500000000 4.765625000000 5.731002807617 152 152 152
13.703125000000 4.781250000000 5.710998535156 146 146 146
13.703125000000 4.781250000000 5.689998626709 148 148 148
13.718750000000 4.765625000000 5.668998718262 147 147 147
13.718750000000 4.765625000000 5.649002075195 148 148 148
13.718750000000 4.765625000000 5.627998352051 155 155 155
13.718750000000 4.765625000000 5.606998443604 158 158 158
13.718750000000 4.765625000000 5.585998535156 152 152 152
13.718750000000 4.765625000000 5.566001892090 156 156 156
13.718750000000 4.765625000000 5.545001983643 157 157 157
13.703125000000 4.781250000000 5.524002075195 159 159 159
13.718750000000 4.765625000000 5.502998352051 161 161 161
13.718750000000 4.765625000000 5.481998443604 152 152 152
13.718750000000 4.765625000000 5.462001800537 149 149 149
13.718750000000 4.765625000000 5.441001892090 164 164 164
13.718750000000 4.765625000000 5.421001434326 164 164 164
13.718750000000 4.765625000000 5.399002075195 152 152 152
13.718750000000 4.765625000000 5.379001617432 152 152 152
13.718750000000 4.765625000000 5.356998443604 157 157 157
13.718750000000 4.765625000000 5.335998535156 153 153 153
13.718750000000 4.765625000000 5.314998626709 151 151 151
13.703125000000 4.781250000000 5.292999267578 160 160 160
13.718750000000 4.765625000000 5.271999359131 175 175 175
13.718750000000 4.765625000000 5.250999450684 165 165 165
13.703125000000 4.781250000000 5.229000091553 170 170 170
13.718750000000 4.765625000000 5.208999633789 173 173 173
13.703125000000 4.781250000000 5.187000274658 166 166 166
13.703125000000 4.781250000000 5.164001464844 169 169 169
13.703125000000 4.781250000000 5.143001556396 168 168 168
13.718750000000 4.781250000000 5.124000549316 163 163 163
13.718750000000 4.765625000000 5.101001739502 165 165 165
13.687500000000 4.796875000000 5.076999664307 161 161 161
13.687500000000 4.796875000000 5.055000305176 166 166 166
13.687500000000 4.796875000000 5.034000396729 163 163 163
13.750000000000 4.765625000000 5.020999908447 173 173 173
13.750000000000 4.765625000000 5.000000000000 199 199 199
13.750000000000 4.765625000000 4.979000091553 191 191 191
13.750000000000 4.765625000000 4.957000732422 195 195 195
13.734375000000 4.765625000000 4.934001922607 196 196 196
13.750000000000 4.765625000000 4.915000915527 188 188 188
13.734375000000 4.765625000000 4.888999938965 200 200 200
13.734375000000 4.765625000000 4.867000579834 169 169 169
13.750000000000 4.765625000000 4.847999572754 204 204 204
13.750000000000 4.765625000000 4.825000762939 197 197 197
13.750000000000 4.765625000000 4.803001403809 186 186 186
13.718750000000 4.796875000000 4.770000457764 171 171 171
13.718750000000 4.796875000000 4.745998382568 170 170 170
13.718750000000 4.796875000000 4.722000122070 167 167 167
13.718750000000 4.796875000000 4.701999664307 174 174 174
13.718750000000 4.796875000000 4.675998687744 171 171 171
13.687500000000 4.796875000000 4.652000427246 174 174 174
13.718750000000 4.796875000000 4.631000518799 171 171 171
13.718750000000 4.796875000000 4.610000610352 176 176 176
13.718750000000 4.796875000000 4.583000183105 174 174 174
13.718750000000 4.796875000000 4.563999176025 173 173 173
13.718750000000 4.796875000000 4.536998748779 179 179 179
13.718750000000 4.796875000000 4.519001007080 168 168 168
13.734375000000 4.765625000000 4.504001617432 151 151 151
13.734375000000 4.765625000000 4.483001708984 144 144 144
13.734375000000 4.765625000000 4.459999084473 141 141 141
13.734375000000 4.765625000000 4.435001373291 146 146 146
13.734375000000 4.765625000000 4.413002014160 146 146 146
13.734375000000 4.765625000000 4.388000488281 143 143 143
13.718750000000 4.796875000000 4.349998474121 169 169 169
13.718750000000 4.796875000000 4.324001312256 174 174 174
13.718750000000 4.796875000000 4.298000335693 179 179 179
13.718750000000 4.796875000000 4.274002075195 179 179 179
13.718750000000 4.796875000000 4.249000549316 182 182 182
13.718750000000 4.796875000000 4.226001739502 185 185 185
13.718750000000 4.796875000000 4.199001312256 173 173 173
13.718750000000 4.796875000000 4.180000305176 162 162 162
13.718750000000 4.796875000000 4.154998779297 176 176 176
13.718750000000 4.796875000000 4.131999969482 173 173 173
