28.937500000000 18.421875000000 2.897994995117 165 165 165
28.937500000000 18.421875000000 2.934997558594 163 163 163
28.937500000000 18.421875000000 2.973999023438 181 181 181
28.937500000000 18.421875000000 3.011001586914 173 173 173
28.937500000000 18.421875000000 3.050994873047 167 167 167
28.937500000000 18.421875000000 3.087997436523 167 167 167
28.937500000000 18.406250000000 3.127990722656 161 161 161
28.937500000000 18.406250000000 3.164993286133 167 167 167
28.812500000000 18.421875000000 3.233993530273 182 182 182
28.796875000000 18.406250000000 3.272994995117 185 185 185
28.812500000000 18.390625000000 3.308990478516 187 187 187
28.812500000000 18.390625000000 3.345993041992 182 182 182
28.812500000000 18.421875000000 3.380996704102 170 170 170
28.906250000000 18.406250000000 3.395996093750 161 161 161
28.953125000000 18.421875000000 3.423995971680 161 161 161
29.000000000000 18.390625000000 3.453994750977 115 115 115
29.203125000000 18.390625000000 3.450988769531 100 100 100
28.765625000000 18.093750000000 3.210998535156 42 42 42
28.781250000000 18.093750000000 3.244995117188 157 157 157
28.781250000000 18.093750000000 3.279998779297 158 158 158
28.781250000000 18.093750000000 3.317993164063 162 162 162
28.765625000000 18.093750000000 3.356002807617 164 164 164
28.781250000000 18.093750000000 3.389999389648 159 159 159
29.406250000000 18.078125000000 3.291992187500 161 161 161
29.406250000000 18.078125000000 3.332992553711 155 155 155
29.406250000000 18.078125000000 3.373001098633 152 152 152
28.781250000000 17.781250000000 3.212997436523 81 81 81
28.750000000000 17.796875000000 3.257995605469 222 222 222
28.750000000000 17.796875000000 3.293991088867 218 218 218
28.750000000000 17.796875000000 3.330993652344 214 214 214
28.750000000000 17.796875000000 3.364990234375 218 218 218
28.828125000000 17.781250000000 3.384002685547 222 222 222
29.375000000000 17.765625000000 3.310989379883 176 176 176
29.375000000000 17.765625000000 3.348999023438 183 183 183
29.375000000000 17.765625000000 3.388992309570 130 130 130
28.718750000000 17.468750000000 3.241989135742 200 200 200
28.718750000000 17.468750000000 3.277999877930 215 215 215
28.718750000000 17.468750000000 3.313995361328 215 215 215
28.718750000000 17.468750000000 3.349990844727 214 214 214
28.734375000000 17.453125000000 3.381988525391 223 223 223
29.296875000000 17.437500000000 3.298995971680 194 194 194
29.296875000000 17.437500000000 3.338989257813 197 197 197
29.312500000000 17.453125000000 3.375991821289 151 151 151
28.687500000000 17.109375000000 3.231994628906 171 171 171
28.687500000000 17.109375000000 3.267990112305 215 215 215
28.703125000000 17.125000000000 3.302993774414 217 217 217
28.687500000000 17.109375000000 3.339996337891 217 217 217
28.687500000000 17.109375000000 3.375991821289 219 219 219
29.218750000000 17.125000000000 3.302001953125 212 212 212
29.234375000000 17.125000000000 3.338989257813 191 191 191
29.250000000000 17.109375000000 3.373992919922 182 182 182
28.718750000000 16.796875000000 3.211990356445 56 56 56
28.671875000000 16.796875000000 3.257995605469 217 217 217
28.671875000000 16.796875000000 3.292999267578 206 206 206
28.671875000000 16.796875000000 3.330001831055 201 201 201
28.671875000000 16.796875000000 3.365997314453 217 217 217
29.125000000000 16.796875000000 3.306991577148 215 215 215
29.156250000000 16.765625000000 3.337997436523 203 203 203
29.171875000000 16.796875000000 3.375000000000 184 184 184
28.671875000000 16.484375000000 3.236999511719 172 172 172
28.671875000000 16.484375000000 3.272994995117 215 215 215
28.671875000000 16.484375000000 3.307998657227 216 216 216
28.671875000000 16.484375000000 3.345993041992 216 216 216
28.671875000000 16.484375000000 3.379989624023 219 219 219
29.093750000000 16.453125000000 3.328994750977 212 212 212
29.093750000000 16.453125000000 3.364990234375 190 190 190
28.656250000000 16.171875000000 3.246994018555 192 192 192
28.640625000000 16.140625000000 3.284988403320 200 200 200
28.640625000000 16.140625000000 3.319992065430 185 185 185
28.656250000000 16.156250000000 3.354995727539 217 217 217
28.718750000000 16.156250000000 3.376998901367 222 222 222
29.031250000000 16.156250000000 3.349990844727 198 198 198
29.031250000000 16.156250000000 3.388000488281 168 168 168
28.625000000000 15.843750000000 3.256988525391 214 214 214
28.640625000000 15.859375000000 3.291992187500 201 201 201
28.625000000000 15.843750000000 3.330001831055 194 194 194
28.625000000000 15.843750000000 3.366989135742 212 212 212
28.890625000000 15.828125000000 3.347000122070 208 208 208
28.937500000000 15.828125000000 3.373992919922 192 192 192
28.625000000000 15.531250000000 3.239990234375 180 180 180
28.625000000000 15.531250000000 3.276992797852 214 214 214
28.625000000000 15.531250000000 3.313995361328 198 198 198
28.625000000000 15.515625000000 3.348999023438 202 202 202
28.703125000000 15.515625000000 3.367996215820 217 217 217
28.875000000000 15.515625000000 3.368988037109 190 190 190
28.625000000000 15.187500000000 3.229995727539 132 132 132
28.593750000000 15.171875000000 3.269989013672 214 214 214
28.593750000000 15.171875000000 3.304992675781 182 182 182
28.593750000000 15.171875000000 3.341995239258 206 206 206
28.640625000000 15.171875000000 3.371002197266 210 210 210
28.796875000000 15.187500000000 3.373992919922 188 188 188
28.578125000000 14.859375000000 3.259002685547 212 212 212
28.593750000000 14.859375000000 3.294998168945 211 211 211
28.578125000000 14.859375000000 3.332000732422 203 203 203
28.578125000000 14.859375000000 3.367996215820 213 213 213
28.734375000000 14.843750000000 3.373001098633 190 190 190
28.750000000000 14.859375000000 3.406997680664 124 124 124
28.750000000000 14.828125000000 3.444000244141 138 138 138
28.750000000000 14.828125000000 3.479995727539 143 143 143
28.750000000000 14.828125000000 3.516998291016 121 121 121
28.562500000000 14.546875000000 3.238998413086 152 152 152
28.562500000000 14.546875000000 3.276992797852 217 217 217
28.562500000000 14.546875000000 3.311996459961 213 213 213
28.562500000000 14.546875000000 3.347991943359 213 213 213
28.562500000000 14.546875000000 3.381988525391 192 192 192
28.687500000000 14.531250000000 3.392990112305 42 42 42
28.609375000000 14.484375000000 3.337997436523 177 177 177
28.562500000000 14.484375000000 3.309997558594 213 213 213
28.562500000000 14.484375000000 3.272994995117 211 211 211
28.562500000000 14.484375000000 3.237991333008 215 215 215
28.562500000000 14.515625000000 3.200988769531 161 161 161
28.718750000000 14.781250000000 3.518997192383 64 64 64
28.734375000000 14.781250000000 3.481994628906 165 165 165
28.718750000000 14.781250000000 3.446990966797 168 168 168
28.718750000000 14.781250000000 3.408996582031 150 150 150
28.718750000000 14.781250000000 3.373001098633 149 149 149
28.687500000000 14.796875000000 3.341995239258 153 153 153
28.593750000000 14.796875000000 3.328002929688 209 209 209
28.593750000000 14.796875000000 3.291992187500 189 189 189
28.593750000000 14.796875000000 3.255996704102 198 198 198
28.593750000000 14.796875000000 3.218002319336 203 203 203
28.781250000000 15.078125000000 3.337997436523 189 189 189
28.640625000000 15.093750000000 3.333999633789 203 203 203
28.609375000000 15.109375000000 3.302993774414 210 210 210
28.625000000000 15.093750000000 3.264999389648 197 197 197
28.625000000000 15.093750000000 3.228988647461 210 210 210
28.609375000000 15.109375000000 3.194992065430 27 27 27
28.859375000000 15.359375000000 3.340988159180 173 173 173
28.718750000000 15.359375000000 3.330001831055 201 201 201
28.625000000000 15.359375000000 3.313995361328 214 214 214
28.640625000000 15.375000000000 3.276000976563 178 178 178
28.625000000000 15.359375000000 3.242996215820 210 210 210
28.625000000000 15.359375000000 3.205993652344 176 176 176
28.937500000000 15.656250000000 3.349990844727 65 65 65
28.906250000000 15.671875000000 3.317993164063 192 192 192
28.656250000000 15.671875000000 3.333999633789 206 206 206
28.640625000000 15.687500000000 3.302001953125 212 212 212
28.640625000000 15.671875000000 3.264999389648 172 172 172
28.640625000000 15.687500000000 3.228988647461 214 214 214
28.625000000000 15.687500000000 3.194000244141 104 104 104
28.984375000000 15.984375000000 3.336990356445 176 176 176
28.984375000000 15.984375000000 3.300994873047 198 198 198
28.656250000000 16.000000000000 3.332000732422 210 210 210
28.640625000000 15.984375000000 3.296997070313 208 208 208
28.656250000000 16.000000000000 3.259994506836 195 195 195
28.640625000000 15.984375000000 3.224990844727 217 217 217
28.625000000000 15.984375000000 3.192001342773 96 96 96
29.093750000000 16.265625000000 3.352996826172 24 24 24
29.062500000000 16.265625000000 3.319992065430 188 188 188
29.031250000000 16.265625000000 3.287994384766 212 212 212
28.656250000000 16.296875000000 3.330001831055 210 210 210
28.656250000000 16.296875000000 3.293991088867 174 174 174
28.656250000000 16.296875000000 3.255996704102 192 192 192
28.656250000000 16.296875000000 3.220993041992 212 212 212
28.656250000000 16.296875000000 3.186996459961 39 39 39
29.125000000000 16.578125000000 3.333999633789 189 189 189
29.125000000000 16.578125000000 3.293991088867 205 205 205
28.734375000000 16.593750000000 3.338989257813 223 223 223
28.687500000000 16.593750000000 3.312988281250 217 217 217
28.687500000000 16.609375000000 3.277999877930 217 217 217
28.671875000000 16.609375000000 3.242996215820 214 214 214
28.671875000000 16.609375000000 3.205993652344 197 197 197
29.187500000000 16.859375000000 3.334991455078 190 190 190
29.187500000000 16.875000000000 3.298995971680 202 202 202
29.171875000000 16.859375000000 3.263000488281 208 208 208
28.687500000000 16.890625000000 3.328002929688 217 217 217
28.687500000000 16.890625000000 3.292999267578 218 218 218
28.687500000000 16.890625000000 3.253997802734 214 214 214
28.687500000000 16.890625000000 3.218002319336 212 212 212
29.250000000000 17.140625000000 3.341995239258 173 173 173
29.250000000000 17.140625000000 3.302001953125 199 199 199
29.250000000000 17.140625000000 3.263000488281 205 205 205
28.718750000000 17.171875000000 3.339996337891 213 213 213
28.687500000000 17.187500000000 3.305999755859 213 213 213
28.703125000000 17.187500000000 3.267990112305 215 215 215
28.703125000000 17.187500000000 3.231994628906 218 218 218
28.703125000000 17.187500000000 3.195999145508 170 170 170
29.343750000000 17.437500000000 3.350997924805 39 39 39
29.312500000000 17.453125000000 3.315994262695 183 183 183
29.312500000000 17.453125000000 3.277999877930 197 197 197
29.328125000000 17.437500000000 3.231994628906 200 200 200
28.718750000000 17.500000000000 3.326995849609 213 213 213
28.734375000000 17.500000000000 3.289993286133 219 219 219
28.718750000000 17.500000000000 3.253997802734 218 218 218
28.734375000000 17.500000000000 3.215988159180 218 218 218
28.750000000000 17.484375000000 3.175994873047 80 80 80
29.390625000000 17.765625000000 3.335998535156 156 156 156
29.375000000000 17.765625000000 3.296997070313 174 174 174
29.375000000000 17.765625000000 3.256988525391 170 170 170
28.781250000000 17.796875000000 3.347000122070 187 187 187
28.750000000000 17.812500000000 3.315002441406 208 208 208
28.750000000000 17.812500000000 3.277999877930 212 212 212
28.750000000000 17.812500000000 3.240997314453 216 216 216
28.750000000000 17.812500000000 3.205001831055 216 216 216
29.437500000000 18.046875000000 3.354995727539 18 18 18
29.421875000000 18.046875000000 3.319000244141 155 155 155
29.421875000000 18.046875000000 3.278991699219 159 159 159
29.406250000000 18.062500000000 3.240997314453 148 148 148
28.781250000000 18.109375000000 3.337997436523 167 167 167
28.781250000000 18.109375000000 3.300994873047 170 170 170
28.781250000000 18.109375000000 3.264999389648 157 157 157
28.781250000000 18.109375000000 3.227996826172 156 156 156
28.781250000000 18.109375000000 3.192001342773 157 157 157
29.281250000000 18.359375000000 3.410995483398 82 82 82
29.093750000000 18.390625000000 3.408996582031 98 98 98
28.968750000000 18.390625000000 3.393997192383 153 153 153
28.953125000000 18.390625000000 3.358993530273 157 157 157
28.828125000000 18.406250000000 3.347000122070 155 155 155
28.812500000000 18.421875000000 3.313995361328 179 179 179
28.812500000000 18.421875000000 3.277999877930 181 181 181
28.812500000000 18.421875000000 3.240997314453 183 183 183
28.812500000000 18.421875000000 3.203002929688 183 183 183
28.921875000000 18.406250000000 3.138992309570 159 159 159
28.968750000000 18.406250000000 3.090988159180 157 157 157
28.937500000000 18.390625000000 3.056991577148 151 151 151
28.953125000000 18.421875000000 3.016998291016 155 155 155
28.953125000000 18.421875000000 2.977996826172 148 148 148
28.953125000000 18.421875000000 2.940002441406 144 144 144
28.953125000000 18.421875000000 2.899993896484 147 147 147
28.953125000000 18.421875000000 2.860992431641 148 148 148
28.937500000000 18.421875000000 2.824996948242 147 147 147
28.953125000000 18.421875000000 2.784988403320 140 140 140
28.937500000000 18.421875000000 2.746994018555 146 146 146
28.953125000000 18.421875000000 2.705993652344 139 139 139
29.031250000000 18.421875000000 2.638000488281 138 138 138
29.046875000000 18.421875000000 2.593994140625 134 134 134
29.031250000000 18.421875000000 2.554000854492 135 135 135
29.031250000000 18.421875000000 2.515991210938 124 124 124
29.031250000000 18.421875000000 2.473999023438 123 123 123
29.046875000000 18.421875000000 2.430999755859 120 120 120
29.031250000000 18.421875000000 2.389999389648 112 112 112
29.625000000000 18.640625000000 3.313995361328 154 154 154
29.625000000000 18.640625000000 3.274002075195 161 161 161
29.625000000000 18.640625000000 3.231994628906 162 162 162
29.625000000000 18.640625000000 3.188995361328 156 156 156
28.765625000000 18.703125000000 3.337997436523 150 150 150
28.750000000000 18.703125000000 3.302993774414 151 151 151
28.765625000000 18.703125000000 3.264999389648 148 148 148
28.750000000000 18.703125000000 3.229995727539 151 151 151
28.765625000000 18.718750000000 3.190994262695 153 153 153
29.718750000000 18.921875000000 3.353988647461 139 139 139
29.656250000000 18.921875000000 3.320999145508 131 131 131
29.656250000000 18.953125000000 3.278991699219 136 136 136
29.671875000000 18.953125000000 3.235992431641 133 133 133
29.718750000000 18.937500000000 3.182998657227 121 121 121
28.671875000000 19.000000000000 3.368988037109 163 163 163
28.671875000000 19.000000000000 3.332992553711 177 177 177
28.671875000000 19.000000000000 3.297988891602 175 175 175
28.687500000000 19.015625000000 3.261001586914 168 168 168
28.687500000000 19.015625000000 3.223999023438 168 168 168
28.687500000000 19.015625000000 3.190002441406 164 164 164
28.703125000000 19.015625000000 3.146987915039 179 179 179
28.687500000000 14.484375000000 3.337997436523 133 133 133
28.593750000000 14.546875000000 3.322998046875 201 201 201
28.593750000000 14.546875000000 3.279998779297 201 201 201
28.578125000000 14.546875000000 3.236999511719 201 201 201
28.593750000000 14.546875000000 3.194000244141 111 111 111
28.750000000000 14.781250000000 3.491989135742 170 170 170
28.750000000000 14.781250000000 3.449996948242 170 170 170
28.750000000000 14.781250000000 3.405990600586 170 170 170
28.750000000000 14.781250000000 3.362991333008 155 155 155
28.656250000000 14.828125000000 3.337997436523 159 159 159
28.609375000000 14.859375000000 3.310989379883 196 196 196
28.625000000000 14.859375000000 3.264999389648 170 170 170
28.609375000000 14.859375000000 3.224990844727 198 198 198
28.812500000000 15.046875000000 3.332000732422 186 186 186
28.656250000000 15.156250000000 3.332000732422 199 199 199
28.625000000000 15.171875000000 3.291992187500 169 169 169
28.625000000000 15.171875000000 3.248992919922 195 195 195
28.640625000000 15.140625000000 3.203994750977 150 150 150
28.859375000000 15.312500000000 3.335998535156 179 179 179
28.703125000000 15.421875000000 3.336990356445 204 204 204
28.640625000000 15.453125000000 3.305999755859 189 189 189
28.640625000000 15.453125000000 3.263000488281 191 191 191
28.656250000000 15.453125000000 3.218002319336 187 187 187
28.921875000000 15.562500000000 3.335998535156 177 177 177
28.812500000000 15.640625000000 3.320999145508 209 209 209
28.656250000000 15.750000000000 3.315994262695 201 201 201
28.656250000000 15.750000000000 3.274993896484 178 178 178
28.656250000000 15.734375000000 3.228988647461 201 201 201
28.984375000000 15.828125000000 3.337997436523 157 157 157
28.968750000000 15.828125000000 3.294998168945 195 195 195
28.687500000000 16.015625000000 3.328002929688 199 199 199
28.656250000000 16.031250000000 3.289993286133 184 184 184
28.656250000000 16.031250000000 3.246994018555 196 196 196
28.671875000000 16.031250000000 3.200988769531 177 177 177
29.046875000000 16.093750000000 3.354995727539 62 62 62
29.031250000000 16.109375000000 3.312988281250 181 181 181
28.937500000000 16.171875000000 3.291000366211 212 212 212
28.671875000000 16.359375000000 3.319000244141 194 194 194
28.687500000000 16.343750000000 3.276000976563 195 195 195
28.687500000000 16.343750000000 3.233001708984 197 197 197
28.718750000000 16.328125000000 3.181991577148 102 102 102
29.109375000000 16.390625000000 3.332000732422 177 177 177
29.109375000000 16.390625000000 3.287002563477 200 200 200
28.750000000000 16.625000000000 3.336990356445 229 229 229
28.703125000000 16.671875000000 3.305999755859 194 194 194
28.703125000000 16.671875000000 3.264999389648 200 200 200
28.703125000000 16.671875000000 3.222000122070 200 200 200
29.171875000000 16.656250000000 3.345001220703 152 152 152
29.171875000000 16.671875000000 3.300994873047 142 142 142
29.109375000000 16.703125000000 3.270996093750 125 125 125
28.718750000000 16.953125000000 3.330001831055 199 199 199
28.718750000000 16.953125000000 3.287002563477 199 199 199
28.718750000000 16.968750000000 3.243988037109 203 203 203
28.718750000000 16.953125000000 3.199996948242 170 170 170
29.218750000000 16.906250000000 3.347991943359 161 161 161
29.218750000000 16.921875000000 3.302001953125 191 191 191
29.218750000000 16.921875000000 3.256988525391 200 200 200
28.734375000000 17.234375000000 3.339996337891 199 199 199
28.718750000000 17.265625000000 3.299987792969 199 199 199
28.734375000000 17.234375000000 3.253997802734 199 199 199
28.718750000000 17.250000000000 3.212997436523 192 192 192
29.296875000000 17.156250000000 3.347000122070 150 150 150
29.281250000000 17.156250000000 3.302993774414 192 192 192
29.281250000000 17.156250000000 3.255996704102 199 199 199
28.750000000000 17.515625000000 3.347000122070 206 206 206
28.750000000000 17.515625000000 3.305999755859 202 202 202
28.750000000000 17.531250000000 3.264999389648 203 203 203
28.750000000000 17.515625000000 3.220001220703 203 203 203
29.343750000000 17.421875000000 3.358993530273 13 13 13
29.328125000000 17.437500000000 3.315002441406 180 180 180
29.328125000000 17.421875000000 3.266998291016 187 187 187
29.359375000000 17.421875000000 3.212997436523 185 185 185
28.781250000000 17.796875000000 3.322998046875 190 190 190
28.781250000000 17.796875000000 3.281997680664 193 193 193
28.781250000000 17.796875000000 3.236999511719 194 194 194
28.781250000000 17.796875000000 3.194992065430 168 168 168
29.406250000000 17.718750000000 3.339996337891 141 141 141
29.390625000000 17.734375000000 3.294998168945 183 183 183
29.390625000000 17.734375000000 3.248001098633 175 175 175
29.421875000000 17.703125000000 3.192001342773 151 151 151
28.796875000000 18.109375000000 3.311996459961 122 122 122
28.796875000000 18.109375000000 3.268997192383 132 132 132
28.796875000000 18.109375000000 3.224990844727 131 131 131
28.796875000000 18.109375000000 3.181991577148 107 107 107
29.109375000000 18.250000000000 3.405990600586 99 99 99
28.984375000000 18.328125000000 3.392990112305 146 146 146
28.968750000000 18.343750000000 3.353988647461 138 138 138
28.843750000000 18.421875000000 3.340988159180 142 142 142
28.843750000000 18.421875000000 3.299987792969 158 158 158
28.843750000000 18.421875000000 3.252990722656 167 167 167
28.843750000000 18.421875000000 3.211990356445 158 158 158
28.906250000000 18.390625000000 3.151000976563 147 147 147
28.937500000000 18.359375000000 3.093002319336 119 119 119
28.968750000000 18.343750000000 3.041992187500 163 163 163
28.968750000000 18.328125000000 2.994995117188 160 160 160
28.968750000000 18.328125000000 2.949996948242 183 183 183
28.968750000000 18.328125000000 2.905990600586 166 166 166
28.968750000000 18.328125000000 2.860000610352 158 158 158
28.968750000000 18.328125000000 2.812988281250 158 158 158
28.937500000000 18.328125000000 2.772994995117 142 142 142
28.968750000000 18.328125000000 2.722000122070 129 129 129
29.250000000000 18.468750000000 3.403991699219 90 90 90
29.078125000000 18.562500000000 3.397994995117 120 120 120
29.031250000000 18.593750000000 3.361999511719 130 130 130
29.046875000000 18.593750000000 3.317001342773 126 126 126
28.812500000000 18.765625000000 3.335998535156 130 130 130
28.796875000000 18.765625000000 3.295989990234 136 136 136
28.796875000000 18.765625000000 3.253997802734 133 133 133
28.796875000000 18.765625000000 3.208999633789 131 131 131
28.812500000000 18.765625000000 3.162002563477 138 138 138
29.015625000000 18.609375000000 3.052001953125 139 139 139
29.015625000000 18.609375000000 3.006988525391 139 139 139
29.000000000000 18.609375000000 2.963989257813 139 139 139
29.000000000000 18.609375000000 2.918991088867 141 141 141
29.000000000000 18.609375000000 2.873992919922 144 144 144
29.000000000000 18.609375000000 2.828994750977 141 141 141
29.000000000000 18.609375000000 2.780990600586 152 152 152
29.000000000000 18.609375000000 2.737991333008 147 147 147
29.000000000000 18.609375000000 2.694000244141 152 152 152
29.593750000000 18.484375000000 3.332992553711 109 109 109
29.593750000000 18.484375000000 3.285995483398 146 146 146
29.578125000000 18.500000000000 3.238998413086 148 148 148
29.578125000000 18.500000000000 3.192001342773 141 141 141
28.734375000000 19.093750000000 3.371994018555 131 131 131
28.703125000000 19.109375000000 3.333999633789 140 140 140
28.718750000000 19.093750000000 3.289993286133 149 149 149
28.718750000000 19.093750000000 3.246994018555 148 148 148
28.703125000000 19.109375000000 3.207000732422 147 147 147
28.718750000000 19.093750000000 3.162002563477 145 145 145
29.718750000000 18.687500000000 3.319992065430 165 165 165
29.671875000000 18.750000000000 3.285995483398 139 139 139
29.671875000000 18.734375000000 3.235992431641 135 135 135
29.656250000000 18.734375000000 3.188995361328 134 134 134
29.734375000000 19.015625000000 3.350997924805 119 119 119
29.703125000000 19.015625000000 3.307998657227 111 111 111
29.703125000000 19.015625000000 3.259994506836 111 111 111
29.687500000000 19.031250000000 3.212997436523 114 114 114
29.703125000000 19.015625000000 3.159988403320 111 111 111
28.562500000000 14.609375000000 3.218002319336 209 209 209
28.562500000000 14.593750000000 3.257995605469 208 208 208
28.562500000000 14.593750000000 3.299987792969 205 205 205
28.593750000000 14.625000000000 3.333999633789 176 176 176
28.718750000000 14.671875000000 3.345993041992 56 56 56
28.718750000000 14.671875000000 3.389999389648 53 53 53
28.718750000000 14.671875000000 3.429992675781 52 52 52
28.718750000000 14.671875000000 3.472000122070 47 47 47
28.765625000000 14.703125000000 3.501998901367 22 22 22
28.578125000000 14.921875000000 3.197998046875 164 164 164
28.578125000000 14.921875000000 3.238998413086 188 188 188
28.578125000000 14.890625000000 3.280990600586 172 172 172
28.578125000000 14.890625000000 3.322998046875 210 210 210
28.750000000000 15.000000000000 3.323989868164 193 193 193
28.593750000000 15.218750000000 3.212997436523 199 199 199
28.593750000000 15.218750000000 3.257995605469 209 209 209
28.593750000000 15.218750000000 3.297988891602 201 201 201
28.640625000000 15.234375000000 3.330001831055 211 211 211
28.828125000000 15.328125000000 3.325988769531 182 182 182
28.609375000000 15.515625000000 3.224990844727 207 207 207
28.609375000000 15.515625000000 3.267990112305 203 203 203
28.609375000000 15.515625000000 3.307998657227 202 202 202
28.687500000000 15.546875000000 3.328994750977 222 222 222
28.890625000000 15.656250000000 3.322998046875 184 184 184
28.625000000000 15.828125000000 3.199996948242 188 188 188
28.625000000000 15.812500000000 3.242996215820 197 197 197
28.625000000000 15.812500000000 3.282989501953 188 188 188
28.625000000000 15.812500000000 3.325988769531 207 207 207
28.968750000000 15.984375000000 3.282989501953 206 206 206
28.984375000000 15.984375000000 3.324996948242 184 184 184
28.625000000000 16.109375000000 3.183990478516 123 123 123
28.625000000000 16.109375000000 3.227996826172 201 201 201
28.625000000000 16.109375000000 3.269989013672 194 194 194
28.640625000000 16.109375000000 3.308990478516 209 209 209
28.843750000000 16.234375000000 3.299987792969 228 228 228
29.062500000000 16.328125000000 3.292999267578 188 188 188
29.062500000000 16.328125000000 3.336990356445 152 152 152
28.640625000000 16.437500000000 3.214996337891 215 215 215
28.656250000000 16.453125000000 3.253997802734 213 213 213
28.656250000000 16.437500000000 3.297988891602 208 208 208
28.656250000000 16.421875000000 3.337997436523 193 193 193
29.109375000000 16.687500000000 3.271987915039 111 111 111
29.125000000000 16.671875000000 3.309997558594 165 165 165
29.156250000000 16.687500000000 3.350997924805 38 38 38
28.656250000000 16.750000000000 3.194992065430 172 172 172
28.656250000000 16.750000000000 3.235992431641 213 213 213
28.671875000000 16.750000000000 3.276992797852 210 210 210
28.671875000000 16.750000000000 3.317993164063 214 214 214
29.218750000000 17.031250000000 3.225997924805 178 178 178
29.203125000000 17.031250000000 3.276000976563 197 197 197
29.203125000000 17.015625000000 3.319992065430 186 186 186
28.671875000000 17.046875000000 3.207992553711 207 207 207
28.671875000000 17.046875000000 3.248992919922 211 211 211
28.671875000000 17.046875000000 3.291000366211 210 210 210
28.687500000000 17.046875000000 3.332000732422 210 210 210
29.265625000000 17.359375000000 3.231994628906 203 203 203
29.265625000000 17.343750000000 3.276992797852 189 189 189
29.265625000000 17.343750000000 3.321990966797 197 197 197
28.703125000000 17.343750000000 3.177993774414 96 96 96
28.703125000000 17.343750000000 3.220993041992 214 214 214
28.703125000000 17.343750000000 3.263992309570 209 209 209
28.703125000000 17.343750000000 3.304992675781 212 212 212
28.703125000000 17.343750000000 3.343994140625 187 187 187
29.296875000000 17.640625000000 3.246994018555 187 187 187
29.296875000000 17.640625000000 3.289993286133 186 186 186
29.343750000000 17.656250000000 3.326995849609 176 176 176
28.718750000000 17.640625000000 3.201995849609 208 208 208
28.718750000000 17.640625000000 3.241989135742 214 214 214
28.718750000000 17.640625000000 3.282989501953 208 208 208
28.718750000000 17.640625000000 3.325988769531 210 210 210
29.375000000000 18.000000000000 3.207000732422 124 124 124
29.375000000000 17.984375000000 3.253997802734 133 133 133
29.375000000000 17.984375000000 3.299987792969 125 125 125
29.406250000000 17.984375000000 3.341995239258 82 82 82
29.031250000000 18.156250000000 2.658996582031 241 241 241
28.968750000000 18.125000000000 2.722991943359 130 130 130
29.000000000000 18.125000000000 2.763000488281 132 132 132
29.000000000000 18.125000000000 2.805999755859 134 134 134
29.000000000000 18.125000000000 2.849990844727 136 136 136
29.000000000000 18.125000000000 2.892990112305 134 134 134
29.015625000000 18.125000000000 2.934997558594 134 134 134
29.031250000000 18.140625000000 2.977996826172 139 139 139
29.031250000000 18.140625000000 3.018997192383 139 139 139
29.062500000000 18.140625000000 3.059997558594 138 138 138
28.750000000000 17.984375000000 3.187988281250 132 132 132
28.750000000000 17.968750000000 3.227996826172 135 135 135
28.750000000000 17.968750000000 3.271987915039 133 133 133
28.750000000000 17.968750000000 3.312988281250 131 131 131
28.812500000000 18.000000000000 3.335998535156 133 133 133
29.093750000000 18.140625000000 3.315002441406 134 134 134
29.109375000000 18.140625000000 3.356002807617 133 133 133
29.125000000000 18.156250000000 3.395996093750 125 125 125
29.265625000000 18.218750000000 3.408996582031 42 42 42
28.937500000000 18.406250000000 2.686996459961 135 135 135
28.906250000000 18.390625000000 2.735000610352 124 124 124
28.906250000000 18.390625000000 2.781997680664 132 132 132
28.906250000000 18.390625000000 2.825988769531 140 140 140
28.921875000000 18.390625000000 2.866989135742 138 138 138
28.906250000000 18.375000000000 2.914993286133 150 150 150
28.921875000000 18.390625000000 2.955993652344 150 150 150
28.921875000000 18.390625000000 3.000000000000 141 141 141
28.937500000000 18.390625000000 3.041992187500 144 144 144
28.906250000000 18.375000000000 3.090988159180 121 121 121
28.812500000000 18.312500000000 3.164001464844 150 150 150
28.781250000000 18.296875000000 3.212997436523 175 175 175
28.781250000000 18.296875000000 3.254989624023 179 179 179
28.781250000000 18.296875000000 3.297988891602 170 170 170
28.781250000000 18.296875000000 3.339996337891 138 138 138
28.921875000000 18.359375000000 3.347000122070 136 136 136
28.937500000000 18.359375000000 3.388992309570 140 140 140
29.062500000000 18.421875000000 3.402999877930 90 90 90
29.296875000000 18.546875000000 3.393997192383 111 111 111
29.703125000000 18.750000000000 3.351989746094 95 95 95
28.750000000000 18.578125000000 3.162002563477 84 84 84
28.781250000000 18.593750000000 3.197998046875 149 149 149
28.781250000000 18.578125000000 3.238998413086 147 147 147
28.781250000000 18.578125000000 3.283996582031 147 147 147
28.781250000000 18.578125000000 3.322998046875 152 152 152
29.656250000000 19.046875000000 3.149993896484 103 103 103
29.656250000000 19.031250000000 3.201995849609 117 117 117
29.656250000000 19.031250000000 3.250991821289 115 115 115
29.656250000000 19.031250000000 3.296997070313 113 113 113
29.687500000000 19.046875000000 3.332992553711 118 118 118
28.750000000000 18.859375000000 3.180999755859 135 135 135
28.750000000000 18.859375000000 3.220993041992 135 135 135
28.750000000000 18.859375000000 3.264999389648 128 128 128
28.750000000000 18.859375000000 3.306991577148 131 131 131
28.750000000000 18.859375000000 3.348999023438 47 47 47
28.703125000000 19.125000000000 3.132995605469 212 212 212
28.671875000000 19.109375000000 3.183990478516 151 151 151
28.687500000000 19.093750000000 3.224990844727 149 149 149
28.671875000000 19.109375000000 3.267990112305 148 148 148
28.687500000000 19.093750000000 3.304992675781 147 147 147
28.687500000000 19.093750000000 3.347000122070 144 144 144
28.718750000000 19.109375000000 3.376998901367 80 80 80
28.718750000000 19.265625000000 3.304992675781 39 39 39
28.734375000000 19.250000000000 3.345993041992 20 20 20
28.718750000000 18.953125000000 3.127990722656 225 225 225
28.687500000000 18.937500000000 3.180999755859 177 177 177
28.687500000000 18.937500000000 3.220993041992 166 166 166
28.687500000000 18.921875000000 3.263000488281 164 164 164
28.687500000000 18.921875000000 3.304000854492 185 185 185
28.687500000000 18.921875000000 3.343994140625 179 179 179
28.734375000000 18.937500000000 3.375000000000 109 109 109
28.843750000000 18.687500000000 3.151000976563 253 253 253
28.781250000000 18.640625000000 3.211990356445 157 157 157
28.781250000000 18.640625000000 3.252990722656 156 156 156
28.796875000000 18.656250000000 3.292999267578 157 157 157
28.781250000000 18.640625000000 3.334991455078 141 141 141
29.734375000000 19.140625000000 3.243988037109 17 17 17
29.734375000000 19.140625000000 3.289993286133 34 34 34
29.734375000000 19.140625000000 3.338989257813 30 30 30
29.000000000000 18.468750000000 2.664993286133 225 225 225
28.953125000000 18.421875000000 2.724990844727 125 125 125
28.953125000000 18.437500000000 2.772994995117 130 130 130
28.953125000000 18.421875000000 2.813995361328 139 139 139
28.953125000000 18.421875000000 2.860000610352 139 139 139
28.953125000000 18.421875000000 2.904998779297 131 131 131
28.953125000000 18.421875000000 2.948989868164 132 132 132
28.953125000000 18.421875000000 2.990997314453 137 137 137
28.937500000000 18.390625000000 3.039001464844 135 135 135
28.937500000000 18.390625000000 3.080993652344 126 126 126
28.906250000000 18.375000000000 3.138000488281 144 144 144
28.812500000000 18.328125000000 3.205993652344 176 176 176
28.812500000000 18.312500000000 3.248992919922 179 179 179
28.812500000000 18.312500000000 3.289001464844 177 177 177
28.812500000000 18.312500000000 3.330993652344 161 161 161
28.921875000000 18.375000000000 3.347991943359 137 137 137
28.968750000000 18.390625000000 3.379989624023 146 146 146
29.015625000000 18.406250000000 3.412002563477 107 107 107
29.234375000000 18.515625000000 3.405990600586 109 109 109
29.718750000000 18.765625000000 3.348999023438 110 110 110
29.031250000000 18.109375000000 2.705001831055 134 134 134
29.031250000000 18.140625000000 2.748001098633 132 132 132
29.046875000000 18.125000000000 2.789001464844 134 134 134
29.062500000000 18.125000000000 2.832000732422 136 136 136
29.062500000000 18.125000000000 2.875000000000 138 138 138
29.062500000000 18.140625000000 2.916992187500 140 140 140
29.093750000000 18.140625000000 2.957000732422 138 138 138
29.093750000000 18.140625000000 3.000000000000 136 136 136
29.109375000000 18.140625000000 3.041992187500 134 134 134
28.812500000000 17.984375000000 3.166992187500 130 130 130
28.781250000000 17.953125000000 3.218994140625 131 131 131
28.781250000000 17.953125000000 3.259994506836 133 133 133
28.781250000000 17.953125000000 3.298995971680 134 134 134
28.781250000000 17.953125000000 3.343002319336 123 123 123
29.156250000000 18.140625000000 3.296997070313 133 133 133
29.156250000000 18.156250000000 3.337997436523 135 135 135
29.187500000000 18.140625000000 3.379989624023 137 137 137
29.250000000000 18.171875000000 3.407989501953 91 91 91
28.734375000000 17.609375000000 3.203002929688 210 210 210
28.750000000000 17.609375000000 3.242996215820 211 211 211
28.734375000000 17.609375000000 3.285995483398 211 211 211
28.750000000000 17.609375000000 3.324996948242 209 209 209
29.406250000000 17.953125000000 3.207992553711 113 113 113
29.406250000000 17.953125000000 3.252990722656 129 129 129
29.406250000000 17.937500000000 3.299987792969 130 130 130
29.421875000000 17.953125000000 3.341995239258 89 89 89
28.718750000000 17.281250000000 3.192993164063 191 191 191
28.718750000000 17.296875000000 3.233001708984 211 211 211
28.734375000000 17.296875000000 3.274002075195 209 209 209
28.718750000000 17.281250000000 3.315994262695 211 211 211
29.390625000000 17.609375000000 3.194992065430 167 167 167
29.359375000000 17.593750000000 3.251998901367 184 184 184
29.359375000000 17.593750000000 3.295989990234 175 175 175
29.390625000000 17.609375000000 3.334991455078 172 172 172
28.703125000000 16.968750000000 3.215988159180 216 216 216
28.703125000000 16.953125000000 3.259002685547 211 211 211
28.703125000000 16.953125000000 3.300994873047 215 215 215
28.718750000000 16.953125000000 3.339996337891 216 216 216
29.281250000000 17.265625000000 3.243988037109 201 201 201
29.281250000000 17.250000000000 3.289993286133 192 192 192
29.281250000000 17.250000000000 3.335998535156 167 167 167
28.687500000000 16.609375000000 3.187988281250 138 138 138
28.687500000000 16.609375000000 3.231002807617 212 212 212
28.687500000000 16.609375000000 3.272994995117 209 209 209
28.687500000000 16.609375000000 3.313995361328 210 210 210
28.765625000000 16.640625000000 3.336990356445 238 238 238
29.203125000000 16.890625000000 3.276000976563 204 204 204
29.203125000000 16.890625000000 3.320999145508 185 185 185
28.671875000000 16.265625000000 3.199996948242 191 191 191
28.671875000000 16.265625000000 3.241989135742 207 207 207
28.671875000000 16.265625000000 3.283996582031 180 180 180
28.671875000000 16.265625000000 3.323989868164 207 207 207
29.093750000000 16.484375000000 3.263000488281 210 210 210
29.125000000000 16.484375000000 3.302001953125 188 188 188
29.125000000000 16.484375000000 3.347000122070 130 130 130
28.656250000000 15.921875000000 3.214996337891 210 210 210
28.656250000000 15.906250000000 3.257995605469 200 200 200
28.656250000000 15.906250000000 3.298995971680 213 213 213
28.703125000000 15.921875000000 3.330001831055 225 225 225
29.031250000000 16.125000000000 3.291000366211 202 202 202
29.031250000000 16.109375000000 3.335998535156 166 166 166
28.640625000000 15.609375000000 3.194992065430 174 174 174
28.640625000000 15.609375000000 3.236999511719 211 211 211
28.640625000000 15.593750000000 3.277999877930 210 210 210
28.656250000000 15.609375000000 3.319000244141 211 211 211
28.937500000000 15.750000000000 3.292999267578 201 201 201
28.953125000000 15.734375000000 3.330993652344 176 176 176
28.625000000000 15.265625000000 3.220993041992 210 210 210
28.625000000000 15.265625000000 3.261993408203 190 190 190
28.625000000000 15.250000000000 3.302993774414 214 214 214
28.718750000000 15.328125000000 3.320999145508 214 214 214
28.875000000000 15.375000000000 3.330993652344 173 173 173
28.625000000000 14.937500000000 3.197998046875 171 171 171
28.609375000000 14.921875000000 3.241989135742 203 203 203
28.609375000000 14.921875000000 3.282989501953 197 197 197
28.609375000000 14.921875000000 3.324996948242 210 210 210
28.781250000000 15.015625000000 3.324996948242 192 192 192
28.593750000000 14.593750000000 3.215988159180 208 208 208
28.593750000000 14.593750000000 3.255996704102 203 203 203
28.578125000000 14.578125000000 3.300994873047 201 201 201
28.593750000000 14.578125000000 3.336990356445 190 190 190
28.750000000000 14.656250000000 3.345001220703 87 87 87
28.765625000000 14.671875000000 3.381988525391 53 53 53
28.765625000000 14.671875000000 3.423995971680 46 46 46
28.765625000000 14.671875000000 3.464996337891 42 42 42
29.750000000000 19.062500000000 3.363998413086 77 77 77
29.750000000000 19.062500000000 3.322998046875 146 146 146
29.734375000000 19.062500000000 3.283996582031 146 146 146
29.718750000000 19.078125000000 3.243988037109 145 145 145
29.734375000000 19.062500000000 3.197998046875 151 151 151
28.750000000000 19.125000000000 3.371994018555 141 141 141
28.734375000000 19.125000000000 3.338989257813 171 171 171
28.718750000000 19.140625000000 3.304992675781 166 166 166
28.718750000000 19.125000000000 3.267990112305 166 166 166
28.718750000000 19.125000000000 3.231002807617 170 170 170
28.718750000000 19.140625000000 3.195999145508 170 170 170
28.718750000000 19.125000000000 3.158996582031 169 169 169
28.734375000000 19.125000000000 3.119995117188 21 21 21
29.671875000000 18.734375000000 3.315002441406 150 150 150
29.656250000000 18.734375000000 3.274993896484 152 152 152
29.656250000000 18.734375000000 3.233993530273 154 154 154
29.671875000000 18.734375000000 3.190994262695 157 157 157
28.812500000000 18.796875000000 3.336990356445 150 150 150
28.812500000000 18.796875000000 3.300994873047 151 151 151
28.812500000000 18.796875000000 3.264999389648 146 146 146
28.812500000000 18.796875000000 3.227996826172 143 143 143
28.812500000000 18.796875000000 3.192001342773 162 162 162
28.765625000000 18.812500000000 3.162994384766 54 54 54
29.203125000000 18.421875000000 3.408996582031 99 99 99
29.015625000000 18.453125000000 3.408996582031 123 123 123
29.000000000000 18.453125000000 3.375991821289 162 162 162
29.000000000000 18.453125000000 3.338989257813 156 156 156
28.843750000000 18.453125000000 3.332000732422 157 157 157
28.859375000000 18.453125000000 3.292999267578 158 158 158
28.859375000000 18.453125000000 3.252990722656 173 173 173
28.859375000000 18.453125000000 3.218994140625 159 159 159
28.843750000000 18.453125000000 3.184997558594 157 157 157
29.000000000000 18.453125000000 3.111999511719 151 151 151
29.000000000000 18.453125000000 3.069992065430 148 148 148
29.000000000000 18.453125000000 3.033996582031 156 156 156
29.000000000000 18.453125000000 2.996002197266 150 150 150
29.000000000000 18.453125000000 2.955993652344 153 153 153
28.968750000000 18.453125000000 2.921997070313 157 157 157
29.000000000000 18.453125000000 2.879989624023 154 154 154
28.968750000000 18.437500000000 2.843002319336 154 154 154
28.984375000000 18.453125000000 2.802993774414 155 155 155
28.968750000000 18.453125000000 2.763992309570 151 151 151
28.968750000000 18.453125000000 2.724990844727 144 144 144
29.000000000000 18.453125000000 2.681991577148 135 135 135
29.093750000000 18.437500000000 2.608001708984 109 109 109
29.093750000000 18.437500000000 2.569000244141 103 103 103
29.093750000000 18.437500000000 2.526992797852 108 108 108
29.109375000000 18.421875000000 2.483001708984 103 103 103
29.093750000000 18.437500000000 2.442001342773 102 102 102
29.109375000000 18.421875000000 2.399993896484 99 99 99
29.453125000000 18.062500000000 3.325988769531 155 155 155
29.453125000000 18.046875000000 3.285995483398 156 156 156
29.453125000000 18.046875000000 3.246002197266 155 155 155
28.812500000000 18.109375000000 3.343994140625 162 162 162
28.812500000000 18.109375000000 3.304992675781 167 167 167
28.812500000000 18.093750000000 3.270996093750 155 155 155
28.812500000000 18.109375000000 3.231994628906 154 154 154
28.812500000000 18.093750000000 3.196990966797 155 155 155
29.421875000000 17.734375000000 3.348999023438 36 36 36
29.390625000000 17.734375000000 3.313995361328 193 193 193
29.406250000000 17.718750000000 3.272994995117 193 193 193
29.406250000000 17.734375000000 3.231002807617 182 182 182
28.781250000000 17.781250000000 3.328002929688 215 215 215
28.781250000000 17.781250000000 3.291992187500 215 215 215
28.781250000000 17.781250000000 3.254989624023 218 218 218
28.781250000000 17.781250000000 3.218994140625 218 218 218
28.781250000000 17.781250000000 3.182998657227 134 134 134
29.328125000000 17.406250000000 3.315994262695 190 190 190
29.343750000000 17.406250000000 3.274993896484 197 197 197
29.296875000000 17.406250000000 3.241989135742 197 197 197
28.750000000000 17.453125000000 3.321990966797 217 217 217
28.750000000000 17.453125000000 3.287994384766 218 218 218
28.750000000000 17.453125000000 3.250991821289 216 216 216
28.750000000000 17.453125000000 3.213989257813 217 217 217
28.750000000000 17.453125000000 3.179000854492 95 95 95
29.296875000000 17.093750000000 3.347991943359 48 48 48
29.265625000000 17.093750000000 3.315994262695 200 200 200
29.265625000000 17.093750000000 3.276000976563 200 200 200
28.812500000000 17.125000000000 3.333999633789 230 230 230
28.734375000000 17.109375000000 3.315002441406 216 216 216
28.734375000000 17.109375000000 3.276992797852 218 218 218
28.734375000000 17.109375000000 3.241989135742 216 216 216
28.718750000000 17.125000000000 3.205993652344 204 204 204
29.187500000000 16.765625000000 3.343994140625 167 167 167
29.187500000000 16.765625000000 3.304992675781 194 194 194
29.156250000000 16.765625000000 3.272994995117 219 219 219
28.718750000000 16.796875000000 3.332000732422 214 214 214
28.718750000000 16.796875000000 3.295989990234 201 201 201
28.718750000000 16.796875000000 3.259002685547 212 212 212
28.718750000000 16.796875000000 3.222000122070 213 213 213
28.703125000000 16.796875000000 3.185989379883 86 86 86
29.125000000000 16.421875000000 3.325988769531 189 189 189
29.125000000000 16.421875000000 3.289001464844 209 209 209
28.703125000000 16.453125000000 3.336990356445 220 220 220
28.687500000000 16.453125000000 3.302001953125 214 214 214
28.687500000000 16.453125000000 3.267990112305 213 213 213
28.687500000000 16.453125000000 3.229995727539 217 217 217
28.687500000000 16.453125000000 3.194992065430 108 108 108
29.046875000000 16.078125000000 3.345993041992 151 151 151
29.031250000000 16.078125000000 3.308990478516 197 197 197
28.750000000000 16.093750000000 3.334991455078 217 217 217
28.687500000000 16.093750000000 3.310989379883 215 215 215
28.687500000000 16.093750000000 3.276000976563 193 193 193
28.671875000000 16.109375000000 3.239990234375 210 210 210
28.687500000000 16.093750000000 3.200988769531 170 170 170
28.968750000000 15.734375000000 3.341995239258 156 156 156
28.953125000000 15.734375000000 3.306991577148 189 189 189
28.671875000000 15.765625000000 3.328994750977 212 212 212
28.656250000000 15.781250000000 3.294998168945 197 197 197
28.671875000000 15.765625000000 3.255996704102 192 192 192
28.656250000000 15.781250000000 3.222000122070 212 212 212
28.906250000000 15.437500000000 3.347000122070 77 77 77
28.890625000000 15.437500000000 3.313995361328 195 195 195
28.656250000000 15.453125000000 3.324996948242 214 214 214
28.656250000000 15.453125000000 3.289993286133 202 202 202
28.656250000000 15.453125000000 3.253997802734 216 216 216
28.656250000000 15.453125000000 3.218002319336 210 210 210
28.843750000000 15.109375000000 3.347991943359 51 51 51
28.781250000000 15.125000000000 3.323989868164 191 191 191
28.640625000000 15.125000000000 3.317001342773 214 214 214
28.640625000000 15.125000000000 3.281997680664 189 189 189
28.640625000000 15.125000000000 3.244995117188 212 212 212
28.656250000000 15.125000000000 3.205993652344 198 198 198
28.750000000000 14.796875000000 3.491989135742 167 167 167
28.750000000000 14.796875000000 3.455001831055 169 169 169
28.750000000000 14.796875000000 3.417999267578 149 149 149
28.765625000000 14.796875000000 3.378997802734 158 158 158
28.718750000000 14.781250000000 3.348999023438 146 146 146
28.625000000000 14.796875000000 3.334991455078 206 206 206
28.625000000000 14.796875000000 3.298995971680 209 209 209
28.625000000000 14.796875000000 3.261993408203 187 187 187
28.625000000000 14.796875000000 3.225997924805 215 215 215
28.656250000000 14.796875000000 3.179992675781 17 17 17
28.718750000000 14.437500000000 3.353988647461 22 22 22
28.593750000000 14.437500000000 3.340988159180 196 196 196
28.593750000000 14.437500000000 3.304992675781 215 215 215
28.593750000000 14.437500000000 3.269989013672 211 211 211
28.593750000000 14.437500000000 3.231994628906 219 219 219
28.578125000000 14.453125000000 3.199996948242 90 90 90
29.781250000000 18.984375000000 3.363998413086 69 69 69
29.750000000000 19.031250000000 3.324996948242 113 113 113
29.734375000000 19.015625000000 3.276000976563 115 115 115
29.734375000000 19.015625000000 3.227996826172 122 122 122
29.718750000000 19.015625000000 3.179992675781 119 119 119
29.765625000000 19.000000000000 3.121002197266 86 86 86
29.687500000000 18.703125000000 3.299987792969 137 137 137
29.687500000000 18.703125000000 3.248992919922 146 146 146
29.671875000000 18.703125000000 3.201995849609 143 143 143
29.687500000000 18.687500000000 3.147994995117 33 33 33
29.359375000000 18.562500000000 3.379989624023 120 120 120
29.359375000000 18.562500000000 3.333999633789 123 123 123
29.343750000000 18.562500000000 3.291000366211 119 119 119
28.937500000000 18.828125000000 3.349990844727 151 151 151
28.734375000000 18.984375000000 3.362991333008 155 155 155
28.734375000000 18.984375000000 3.321990966797 176 176 176
28.718750000000 18.984375000000 3.279998779297 154 154 154
28.734375000000 18.984375000000 3.236999511719 154 154 154
28.734375000000 18.984375000000 3.192993164063 150 150 150
28.734375000000 18.984375000000 3.149002075195 149 149 149
29.296875000000 18.578125000000 2.927993774414 114 114 114
29.281250000000 18.593750000000 2.880996704102 120 120 120
29.281250000000 18.593750000000 2.836990356445 117 117 117
29.265625000000 18.593750000000 2.789993286133 120 120 120
29.265625000000 18.593750000000 2.742996215820 113 113 113
29.265625000000 18.593750000000 2.697998046875 120 120 120
29.312500000000 18.265625000000 3.405990600586 77 77 77
29.140625000000 18.375000000000 3.401992797852 103 103 103
29.015625000000 18.453125000000 3.386993408203 145 145 145
29.000000000000 18.468750000000 3.345001220703 147 147 147
