30.500000000000 18.234375000000 4.112991333008 64 64 64
30.500000000000 18.234375000000 4.157989501953 41 41 41
30.500000000000 18.234375000000 4.201995849609 55 55 55
30.515625000000 18.234375000000 4.246994018555 61 61 61
30.500000000000 18.234375000000 4.291992187500 54 54 54
30.515625000000 18.218750000000 4.336990356445 34 34 34
30.515625000000 18.218750000000 4.381988525391 47 47 47
30.531250000000 18.218750000000 4.425994873047 38 38 38
30.515625000000 18.218750000000 4.470993041992 36 36 36
30.515625000000 18.234375000000 4.516998291016 34 34 34
30.531250000000 18.218750000000 4.560989379883 30 30 30
30.515625000000 18.218750000000 4.606002807617 21 21 21
30.515625000000 18.218750000000 4.651000976563 14 14 14
30.500000000000 18.218750000000 4.695999145508 11 11 11
30.812500000000 18.218750000000 5.304000854492 124 124 124
30.812500000000 18.218750000000 5.348999023438 116 116 116
30.812500000000 18.218750000000 5.396987915039 130 130 130
30.812500000000 18.218750000000 5.444992065430 117 117 117
30.812500000000 18.218750000000 5.490997314453 125 125 125
30.796875000000 18.218750000000 5.537002563477 22 22 22
30.781250000000 18.218750000000 5.582000732422 31 31 31
30.796875000000 18.218750000000 5.630996704102 117 117 117
30.796875000000 18.218750000000 5.677993774414 118 118 118
30.796875000000 18.218750000000 5.724990844727 122 122 122
30.812500000000 18.218750000000 5.774002075195 123 123 123
30.812500000000 18.218750000000 5.820999145508 97 97 97
30.468750000000 18.218750000000 5.957000732422 63 63 63
30.468750000000 18.218750000000 6.002990722656 99 99 99
30.671875000000 18.218750000000 6.082992553711 105 105 105
30.656250000000 18.218750000000 6.127990722656 126 126 126
30.390625000000 18.218750000000 6.125000000000 98 98 98
30.562500000000 17.859375000000 4.335998535156 78 78 78
30.593750000000 17.875000000000 4.388000488281 7 7 7
30.484375000000 17.828125000000 4.548995971680 26 26 26
30.437500000000 17.796875000000 4.602996826172 52 52 52
30.421875000000 17.781250000000 4.654998779297 172 172 172
30.437500000000 17.781250000000 4.705993652344 39 39 39
30.515625000000 17.828125000000 4.756988525391 44 44 44
30.468750000000 18.156250000000 3.151000976563 181 181 181
30.468750000000 18.156250000000 3.205001831055 183 183 183
30.468750000000 18.156250000000 3.259002685547 185 185 185
30.468750000000 18.156250000000 3.312988281250 187 187 187
30.468750000000 18.156250000000 3.366989135742 189 189 189
30.453125000000 18.156250000000 3.420989990234 189 189 189
30.468750000000 18.156250000000 3.472000122070 191 191 191
30.468750000000 18.156250000000 3.526000976563 191 191 191
30.468750000000 18.156250000000 3.580001831055 195 195 195
30.468750000000 18.156250000000 3.632995605469 198 198 198
30.468750000000 18.156250000000 3.685989379883 198 198 198
30.468750000000 18.156250000000 3.738998413086 198 198 198
30.468750000000 18.156250000000 3.791000366211 199 199 199
30.468750000000 18.140625000000 3.845001220703 199 199 199
30.468750000000 18.140625000000 3.896987915039 204 204 204
30.468750000000 18.140625000000 3.949996948242 201 201 201
30.468750000000 18.140625000000 4.001998901367 206 206 206
30.468750000000 18.140625000000 4.054992675781 203 203 203
30.468750000000 18.140625000000 4.106002807617 206 206 206
30.468750000000 18.140625000000 4.158996582031 206 206 206
30.468750000000 18.140625000000 4.210998535156 205 205 205
30.468750000000 18.140625000000 4.263000488281 205 205 205
30.468750000000 18.140625000000 4.315002441406 204 204 204
30.468750000000 18.109375000000 4.367996215820 201 201 201
30.468750000000 18.109375000000 4.419998168945 207 207 207
30.468750000000 18.109375000000 4.472000122070 202 202 202
30.468750000000 18.109375000000 4.524002075195 199 199 199
30.468750000000 18.109375000000 4.574996948242 205 205 205
30.484375000000 18.109375000000 4.626998901367 201 201 201
30.484375000000 18.109375000000 4.679000854492 198 198 198
30.484375000000 18.109375000000 4.731002807617 202 202 202
30.484375000000 18.109375000000 4.782989501953 201 201 201
30.500000000000 18.109375000000 4.834991455078 196 196 196
30.500000000000 18.109375000000 4.886993408203 200 200 200
30.500000000000 18.109375000000 4.938995361328 211 211 211
30.515625000000 18.109375000000 4.990997314453 5 5 5
30.500000000000 18.109375000000 5.042999267578 232 232 232
30.500000000000 18.109375000000 5.095001220703 231 231 231
30.500000000000 18.109375000000 5.146987915039 231 231 231
30.500000000000 18.109375000000 5.198989868164 238 238 238
30.500000000000 18.109375000000 5.250991821289 236 236 236
30.500000000000 18.078125000000 5.302993774414 238 238 238
30.515625000000 18.109375000000 5.354995727539 232 232 232
30.515625000000 18.109375000000 5.406997680664 230 230 230
30.500000000000 18.078125000000 5.458999633789 225 225 225
30.500000000000 18.078125000000 5.511001586914 222 222 222
30.500000000000 18.078125000000 5.563995361328 218 218 218
30.500000000000 18.078125000000 5.615997314453 213 213 213
30.500000000000 18.078125000000 5.667999267578 209 209 209
30.500000000000 18.078125000000 5.720001220703 213 213 213
30.500000000000 18.078125000000 5.770996093750 191 191 191
30.500000000000 18.078125000000 5.822998046875 203 203 203
30.500000000000 18.078125000000 5.875000000000 205 205 205
30.484375000000 18.046875000000 5.927001953125 196 196 196
30.453125000000 18.031250000000 5.974990844727 101 101 101
30.437500000000 18.015625000000 6.024993896484 121 121 121
30.453125000000 18.031250000000 6.078994750977 91 91 91
30.406250000000 18.000000000000 6.123992919922 125 125 125
30.390625000000 17.984375000000 6.173995971680 109 109 109
30.531250000000 18.062500000000 6.250000000000 172 172 172
30.218750000000 17.796875000000 5.961990356445 177 177 177
30.218750000000 17.781250000000 5.912002563477 201 201 201
30.218750000000 17.781250000000 5.861999511719 203 203 203
30.218750000000 17.781250000000 5.811996459961 207 207 207
30.203125000000 17.796875000000 5.761993408203 200 200 200
30.187500000000 17.796875000000 5.364990234375 195 195 195
30.187500000000 17.796875000000 5.315994262695 200 200 200
30.187500000000 17.796875000000 5.265991210938 211 211 211
30.171875000000 17.781250000000 5.216995239258 224 224 224
30.171875000000 17.781250000000 5.167999267578 193 193 193
30.453125000000 17.953125000000 6.128997802734 56 56 56
30.593750000000 17.875000000000 6.097991943359 11 11 11
30.453125000000 17.968750000000 5.819992065430 92 92 92
30.453125000000 17.953125000000 5.769989013672 200 200 200
30.453125000000 17.953125000000 5.718994140625 204 204 204
30.453125000000 17.953125000000 5.667999267578 201 201 201
30.437500000000 17.953125000000 5.615997314453 198 198 198
30.437500000000 17.953125000000 5.565002441406 167 167 167
30.421875000000 17.953125000000 5.513000488281 200 200 200
30.421875000000 17.953125000000 5.461990356445 215 215 215
30.421875000000 17.953125000000 5.412002563477 211 211 211
30.421875000000 17.953125000000 5.360992431641 200 200 200
30.421875000000 17.953125000000 5.309997558594 128 128 128
30.562500000000 17.859375000000 4.852996826172 13 13 13
30.562500000000 17.843750000000 4.800994873047 70 70 70
30.562500000000 17.859375000000 4.748992919922 69 69 69
30.531250000000 17.875000000000 4.697998046875 65 65 65
30.484375000000 17.890625000000 4.647994995117 58 58 58
30.515625000000 17.890625000000 4.595993041992 66 66 66
30.531250000000 17.859375000000 4.543991088867 76 76 76
30.500000000000 17.859375000000 4.492996215820 68 68 68
30.531250000000 17.859375000000 4.440994262695 68 68 68
30.500000000000 17.859375000000 4.389999389648 63 63 63
30.500000000000 17.875000000000 4.338989257813 34 34 34
30.546875000000 18.203125000000 6.233001708984 49 49 49
30.484375000000 18.265625000000 6.170989990234 101 101 101
30.500000000000 18.250000000000 6.119995117188 123 123 123
30.531250000000 18.218750000000 6.074996948242 100 100 100
30.515625000000 18.218750000000 6.020996093750 121 121 121
30.546875000000 18.203125000000 5.972991943359 109 109 109
30.531250000000 18.218750000000 5.918991088867 116 116 116
30.546875000000 18.203125000000 5.868988037109 140 140 140
30.562500000000 18.203125000000 5.817993164063 157 157 157
30.531250000000 18.203125000000 5.763992309570 165 165 165
30.531250000000 18.203125000000 5.712997436523 176 176 176
30.531250000000 18.203125000000 5.660995483398 186 186 186
30.531250000000 18.203125000000 5.610000610352 195 195 195
30.531250000000 18.203125000000 5.557998657227 199 199 199
30.531250000000 18.203125000000 5.505996704102 209 209 209
30.531250000000 18.203125000000 5.455001831055 214 214 214
30.531250000000 18.203125000000 5.402999877930 220 220 220
30.531250000000 18.203125000000 5.351989746094 222 222 222
30.531250000000 18.187500000000 5.300994873047 227 227 227
30.531250000000 18.187500000000 5.248992919922 229 229 229
30.531250000000 18.187500000000 5.197998046875 233 233 233
30.531250000000 18.187500000000 5.146987915039 239 239 239
30.515625000000 18.187500000000 5.095001220703 244 244 244
30.515625000000 18.187500000000 5.043991088867 0 0 0
30.531250000000 18.171875000000 4.992996215820 46 46 46
30.531250000000 18.171875000000 4.940994262695 46 46 46
30.531250000000 18.171875000000 4.889999389648 37 37 37
30.531250000000 18.171875000000 4.838989257813 8 8 8
30.515625000000 18.171875000000 4.787002563477 239 239 239
30.515625000000 18.171875000000 4.735992431641 230 230 230
30.531250000000 18.171875000000 4.684997558594 221 221 221
30.515625000000 18.171875000000 4.632995605469 210 210 210
30.531250000000 18.171875000000 4.582000732422 198 198 198
30.515625000000 18.156250000000 4.529998779297 185 185 185
30.515625000000 18.156250000000 4.478988647461 180 180 180
30.531250000000 18.156250000000 4.427001953125 167 167 167
30.531250000000 18.140625000000 4.375000000000 169 169 169
30.562500000000 18.125000000000 4.320999145508 164 164 164
30.562500000000 18.125000000000 4.267990112305 179 179 179
30.562500000000 18.109375000000 4.215988159180 187 187 187
30.562500000000 18.109375000000 4.164001464844 181 181 181
30.578125000000 18.109375000000 4.110000610352 182 182 182
30.578125000000 18.109375000000 4.056991577148 191 191 191
30.578125000000 18.109375000000 4.004989624023 184 184 184
30.578125000000 18.109375000000 3.953002929688 186 186 186
30.578125000000 18.109375000000 3.899993896484 176 176 176
30.578125000000 18.109375000000 3.847000122070 173 173 173
30.593750000000 18.109375000000 3.791992187500 172 172 172
30.593750000000 18.078125000000 3.738998413086 173 173 173
30.593750000000 18.078125000000 3.685989379883 172 172 172
30.578125000000 18.093750000000 3.634002685547 165 165 165
30.593750000000 18.078125000000 3.580001831055 165 165 165
30.578125000000 18.093750000000 3.527999877930 153 153 153
30.578125000000 18.093750000000 3.474990844727 158 158 158
30.578125000000 18.093750000000 3.420989990234 152 152 152
30.562500000000 18.093750000000 3.368988037109 132 132 132
30.578125000000 18.078125000000 3.313995361328 123 123 123
30.578125000000 18.078125000000 3.259994506836 95 95 95
30.593750000000 18.078125000000 3.203002929688 54 54 54
30.921875000000 18.265625000000 5.891998291016 187 187 187
30.921875000000 18.265625000000 5.836990356445 196 196 196
30.906250000000 18.265625000000 5.782989501953 200 200 200
30.906250000000 18.265625000000 5.727996826172 195 195 195
30.906250000000 18.265625000000 5.673995971680 177 177 177
30.906250000000 18.250000000000 5.511993408203 92 92 92
30.906250000000 18.265625000000 5.457992553711 196 196 196
30.906250000000 18.265625000000 5.403991699219 195 195 195
30.906250000000 18.250000000000 5.350997924805 193 193 193
30.890625000000 18.265625000000 5.295989990234 190 190 190
30.906250000000 18.250000000000 5.242996215820 5 5 5
31.015625000000 18.171875000000 4.699996948242 28 28 28
31.000000000000 18.171875000000 4.645996093750 57 57 57
30.984375000000 18.187500000000 4.591995239258 56 56 56
31.000000000000 18.171875000000 4.535995483398 18 18 18
31.140625000000 18.437500000000 5.832000732422 83 83 83
31.156250000000 18.421875000000 5.332000732422 138 138 138
31.140625000000 18.421875000000 5.276000976563 73 73 73
31.062500000000 18.406250000000 6.000000000000 154 154 154
31.062500000000 18.406250000000 5.944992065430 198 198 198
31.062500000000 18.406250000000 5.888992309570 202 202 202
31.062500000000 18.406250000000 5.832992553711 207 207 207
31.078125000000 18.390625000000 5.779998779297 93 93 93
31.062500000000 18.375000000000 5.392990112305 186 186 186
31.062500000000 18.375000000000 5.337997436523 224 224 224
31.062500000000 18.375000000000 5.282989501953 191 191 191
31.062500000000 18.375000000000 5.228988647461 192 192 192
31.062500000000 18.375000000000 5.172988891602 108 108 108
30.750000000000 18.296875000000 6.140991210938 42 42 42
30.828125000000 18.234375000000 5.832000732422 188 188 188
30.812500000000 18.234375000000 5.776992797852 198 198 198
30.812500000000 18.234375000000 5.723999023438 198 198 198
30.812500000000 18.234375000000 5.669998168945 197 197 197
30.812500000000 18.218750000000 5.616989135742 188 188 188
30.812500000000 18.218750000000 5.563995361328 182 182 182
30.812500000000 18.218750000000 5.511001586914 196 196 196
30.812500000000 18.218750000000 5.457000732422 193 193 193
30.812500000000 18.218750000000 5.403991699219 198 198 198
30.812500000000 18.218750000000 5.349990844727 150 150 150
30.921875000000 18.109375000000 4.815994262695 55 55 55
30.921875000000 18.109375000000 4.761993408203 52 52 52
30.875000000000 18.140625000000 4.709991455078 66 66 66
30.843750000000 18.140625000000 4.656997680664 71 71 71
30.859375000000 18.125000000000 4.602996826172 72 72 72
30.812500000000 18.156250000000 4.550994873047 106 106 106
30.781250000000 18.171875000000 4.500991821289 167 167 167
30.687500000000 18.234375000000 4.453002929688 108 108 108
30.828125000000 18.140625000000 4.389999389648 11 11 11
30.828125000000 18.140625000000 4.335998535156 90 90 90
30.781250000000 18.156250000000 4.285995483398 13 13 13
30.609375000000 18.265625000000 3.986999511719 23 23 23
30.609375000000 18.265625000000 3.933990478516 42 42 42
30.609375000000 18.265625000000 3.881988525391 60 60 60
30.593750000000 18.265625000000 3.830001831055 72 72 72
30.593750000000 18.250000000000 3.776992797852 90 90 90
30.593750000000 18.250000000000 3.725997924805 92 92 92
30.578125000000 18.265625000000 3.672988891602 100 100 100
30.578125000000 18.265625000000 3.619995117188 111 111 111
30.562500000000 18.265625000000 3.569000244141 125 125 125
30.562500000000 18.265625000000 3.515991210938 143 143 143
30.593750000000 18.250000000000 3.459991455078 146 146 146
30.593750000000 18.250000000000 3.406997680664 158 158 158
30.578125000000 18.234375000000 3.351989746094 160 160 160
30.578125000000 18.234375000000 3.298995971680 167 167 167
30.562500000000 18.234375000000 3.246994018555 176 176 176
30.625000000000 18.203125000000 3.179992675781 157 157 157
30.562500000000 18.234375000000 2.920989990234 187 187 187
30.562500000000 18.234375000000 2.868988037109 189 189 189
30.546875000000 18.234375000000 2.815002441406 190 190 190
30.562500000000 18.234375000000 2.757995605469 185 185 185
30.546875000000 18.203125000000 2.703002929688 183 183 183
30.546875000000 18.218750000000 2.649993896484 181 181 181
30.484375000000 18.125000000000 6.242996215820 27 27 27
30.421875000000 18.156250000000 6.180999755859 103 103 103
30.437500000000 18.140625000000 6.132995605469 127 127 127
30.531250000000 18.078125000000 6.093994140625 88 88 88
30.468750000000 18.109375000000 6.032989501953 106 106 106
30.500000000000 18.109375000000 5.985992431641 75 75 75
30.484375000000 18.109375000000 5.932998657227 15 15 15
30.531250000000 18.078125000000 5.886001586914 114 114 114
30.531250000000 18.078125000000 5.835998535156 89 89 89
30.531250000000 18.078125000000 5.782989501953 33 33 33
30.546875000000 18.046875000000 5.735000610352 197 197 197
30.562500000000 18.046875000000 5.683990478516 207 207 207
30.546875000000 18.046875000000 5.630996704102 198 198 198
30.546875000000 18.046875000000 5.578002929688 210 210 210
30.531250000000 18.046875000000 5.526992797852 196 196 196
30.531250000000 18.046875000000 5.474990844727 216 216 216
30.531250000000 18.046875000000 5.423995971680 194 194 194
30.671875000000 17.921875000000 4.856002807617 30 30 30
30.656250000000 17.921875000000 4.804000854492 68 68 68
30.656250000000 17.921875000000 4.751998901367 69 69 69
30.625000000000 17.953125000000 4.699996948242 76 76 76
30.593750000000 17.953125000000 4.649002075195 89 89 89
30.625000000000 17.937500000000 4.595993041992 73 73 73
30.625000000000 17.921875000000 4.543991088867 63 63 63
30.593750000000 17.953125000000 4.492996215820 139 139 139
30.609375000000 17.937500000000 4.440002441406 68 68 68
30.593750000000 17.937500000000 4.388000488281 72 72 72
30.593750000000 17.953125000000 4.336990356445 69 69 69
30.593750000000 17.953125000000 4.283996582031 68 68 68
30.593750000000 17.953125000000 4.233001708984 62 62 62
30.296875000000 17.875000000000 5.944000244141 120 120 120
30.281250000000 17.859375000000 5.893997192383 203 203 203
30.281250000000 17.859375000000 5.843002319336 196 196 196
30.281250000000 17.859375000000 5.792999267578 218 218 218
30.281250000000 17.859375000000 5.742996215820 203 203 203
30.312500000000 17.859375000000 5.694000244141 80 80 80
30.250000000000 17.875000000000 5.440994262695 180 180 180
30.265625000000 17.859375000000 5.390991210938 195 195 195
30.250000000000 17.859375000000 5.340988159180 212 212 212
30.250000000000 17.859375000000 5.291992187500 209 209 209
30.250000000000 17.859375000000 5.241989135742 205 205 205
30.234375000000 17.859375000000 5.192001342773 81 81 81
30.468750000000 18.203125000000 4.962997436523 15 15 15
30.468750000000 18.203125000000 5.013992309570 33 33 33
30.453125000000 18.203125000000 5.065994262695 57 57 57
30.468750000000 18.203125000000 5.117996215820 68 68 68
30.453125000000 18.203125000000 5.168991088867 72 72 72
30.453125000000 18.171875000000 5.220001220703 77 77 77
30.453125000000 18.171875000000 5.271987915039 82 82 82
30.453125000000 18.171875000000 5.323989868164 90 90 90
30.453125000000 18.171875000000 5.373992919922 97 97 97
30.468750000000 18.171875000000 5.427001953125 103 103 103
30.468750000000 18.171875000000 5.478988647461 108 108 108
30.437500000000 18.171875000000 5.529998779297 116 116 116
30.437500000000 18.171875000000 5.580993652344 120 120 120
30.437500000000 18.171875000000 5.632995605469 133 133 133
30.437500000000 18.171875000000 5.683990478516 137 137 137
30.453125000000 18.156250000000 5.735992431641 146 146 146
30.453125000000 18.156250000000 5.787994384766 151 151 151
30.437500000000 18.171875000000 5.838989257813 156 156 156
30.437500000000 18.140625000000 5.888000488281 134 134 134
30.437500000000 18.140625000000 5.940994262695 121 121 121
30.421875000000 18.140625000000 5.989990234375 94 94 94
30.406250000000 18.125000000000 6.041992187500 120 120 120
30.406250000000 18.125000000000 6.093994140625 97 97 97
30.375000000000 18.109375000000 6.138000488281 119 119 119
30.375000000000 18.078125000000 6.188995361328 94 94 94
30.437500000000 18.140625000000 6.252990722656 61 61 61
30.687500000000 18.078125000000 4.237991333008 198 198 198
30.656250000000 18.062500000000 4.293991088867 107 107 107
30.562500000000 17.984375000000 4.352996826172 84 84 84
30.578125000000 18.000000000000 4.404998779297 44 44 44
30.734375000000 18.078125000000 4.448989868164 95 95 95
30.578125000000 18.000000000000 4.509994506836 133 133 133
30.687500000000 18.078125000000 4.558990478516 182 182 182
30.609375000000 18.031250000000 4.614990234375 65 65 65
30.578125000000 17.984375000000 4.667999267578 76 76 76
30.796875000000 18.109375000000 4.716995239258 133 133 133
30.968750000000 18.328125000000 5.216995239258 105 105 105
30.953125000000 18.328125000000 5.263992309570 118 118 118
30.953125000000 18.312500000000 5.310989379883 124 124 124
30.937500000000 18.312500000000 5.358001708984 118 118 118
30.953125000000 18.312500000000 5.405990600586 128 128 128
30.921875000000 18.328125000000 5.451995849609 56 56 56
30.906250000000 18.296875000000 5.690002441406 46 46 46
30.937500000000 18.312500000000 5.739990234375 142 142 142
30.921875000000 18.296875000000 5.785995483398 169 169 169
30.937500000000 18.312500000000 5.835998535156 117 117 117
30.921875000000 18.296875000000 5.884002685547 122 122 122
30.937500000000 18.296875000000 5.932998657227 83 83 83
30.625000000000 18.328125000000 6.118988037109 83 83 83
30.656250000000 18.046875000000 4.151992797852 17 17 17
30.656250000000 18.046875000000 4.197998046875 69 69 69
30.625000000000 18.031250000000 4.244995117188 103 103 103
30.625000000000 18.046875000000 4.291992187500 44 44 44
30.593750000000 18.031250000000 4.337997436523 72 72 72
30.609375000000 18.031250000000 4.382995605469 47 47 47
30.656250000000 18.046875000000 4.427001953125 47 47 47
30.562500000000 18.031250000000 4.474990844727 125 125 125
30.515625000000 18.031250000000 4.520996093750 109 109 109
30.531250000000 18.046875000000 4.565994262695 113 113 113
30.531250000000 18.031250000000 4.610992431641 99 99 99
30.562500000000 18.031250000000 4.655990600586 91 91 91
30.750000000000 18.031250000000 4.701995849609 55 55 55
30.765625000000 18.015625000000 4.748001098633 53 53 53
30.750000000000 18.031250000000 4.793991088867 50 50 50
30.765625000000 18.015625000000 4.840988159180 32 32 32
30.468750000000 18.031250000000 5.371994018555 54 54 54
30.500000000000 18.015625000000 5.418991088867 136 136 136
30.500000000000 18.015625000000 5.463989257813 157 157 157
30.484375000000 18.015625000000 5.509002685547 149 149 149
30.484375000000 18.015625000000 5.554000854492 159 159 159
30.484375000000 18.015625000000 5.599990844727 125 125 125
30.500000000000 18.015625000000 5.646987915039 142 142 142
30.515625000000 18.015625000000 5.694000244141 140 140 140
30.484375000000 18.015625000000 5.735992431641 119 119 119
30.500000000000 18.015625000000 5.783996582031 21 21 21
30.500000000000 18.015625000000 5.828002929688 130 130 130
30.500000000000 18.015625000000 5.968002319336 16 16 16
30.468750000000 18.015625000000 6.007995605469 85 85 85
30.625000000000 18.000000000000 6.080993652344 89 89 89
30.671875000000 18.000000000000 6.136993408203 113 113 113
30.390625000000 18.000000000000 6.132995605469 100 100 100
30.468750000000 18.015625000000 6.190994262695 21 21 21
30.062500000000 17.718750000000 5.820999145508 57 57 57
30.406250000000 17.937500000000 6.100997924805 42 42 42
30.640625000000 17.921875000000 6.095001220703 99 99 99
30.406250000000 17.953125000000 5.778991699219 73 73 73
30.421875000000 17.937500000000 5.735000610352 132 132 132
30.406250000000 17.937500000000 5.688995361328 124 124 124
30.406250000000 17.937500000000 5.643997192383 132 132 132
30.421875000000 17.953125000000 5.599990844727 117 117 117
30.421875000000 17.937500000000 5.554000854492 120 120 120
30.406250000000 17.953125000000 5.506988525391 128 128 128
30.406250000000 17.953125000000 5.461990356445 176 176 176
30.406250000000 17.953125000000 5.416000366211 144 144 144
30.421875000000 17.953125000000 5.373001098633 168 168 168
30.406250000000 17.953125000000 5.326995849609 121 121 121
30.687500000000 17.937500000000 4.794998168945 40 40 40
30.687500000000 17.937500000000 4.748992919922 47 47 47
30.671875000000 17.953125000000 4.703002929688 50 50 50
30.671875000000 17.953125000000 4.656997680664 46 46 46
30.671875000000 17.953125000000 4.610992431641 60 60 60
30.625000000000 17.953125000000 4.565002441406 52 52 52
30.562500000000 17.953125000000 4.519989013672 77 77 77
30.562500000000 17.953125000000 4.474990844727 88 88 88
30.640625000000 17.953125000000 4.427001953125 109 109 109
30.656250000000 17.953125000000 4.380996704102 58 58 58
30.593750000000 17.953125000000 4.336990356445 60 60 60
30.593750000000 17.968750000000 4.291000366211 58 58 58
30.609375000000 17.953125000000 4.244995117188 44 44 44
30.609375000000 17.953125000000 4.197998046875 45 45 45
30.593750000000 17.953125000000 4.152999877930 48 48 48
30.406250000000 18.234375000000 6.118988037109 79 79 79
30.625000000000 18.234375000000 6.113998413086 112 112 112
30.703125000000 18.234375000000 6.080993652344 93 93 93
30.500000000000 18.234375000000 5.998001098633 72 72 72
30.531250000000 18.234375000000 5.955993652344 30 30 30
30.828125000000 18.234375000000 5.815002441406 105 105 105
30.812500000000 18.234375000000 5.764999389648 108 108 108
30.812500000000 18.234375000000 5.716995239258 128 128 128
30.812500000000 18.234375000000 5.668991088867 113 113 113
30.812500000000 18.234375000000 5.621994018555 111 111 111
30.828125000000 18.234375000000 5.481002807617 103 103 103
30.828125000000 18.234375000000 5.433990478516 116 116 116
30.828125000000 18.234375000000 5.386001586914 124 124 124
30.828125000000 18.234375000000 5.338989257813 109 109 109
30.843750000000 18.234375000000 5.291992187500 112 112 112
30.859375000000 18.234375000000 5.246002197266 43 43 43
30.281250000000 17.859375000000 5.892990112305 135 135 135
30.281250000000 17.843750000000 5.841995239258 184 184 184
30.281250000000 17.828125000000 5.791000366211 184 184 184
30.281250000000 17.828125000000 5.739990234375 192 192 192
30.281250000000 17.828125000000 5.687988281250 186 186 186
30.296875000000 17.828125000000 5.638000488281 21 21 21
30.281250000000 17.828125000000 5.430999755859 25 25 25
30.250000000000 17.843750000000 5.378997802734 186 186 186
30.250000000000 17.843750000000 5.328002929688 182 182 182
30.250000000000 17.843750000000 5.276992797852 187 187 187
30.250000000000 17.843750000000 5.225997924805 193 193 193
30.250000000000 17.843750000000 5.174987792969 172 172 172
30.406250000000 18.046875000000 6.139999389648 26 26 26
30.500000000000 18.000000000000 6.100997924805 105 105 105
30.500000000000 17.984375000000 5.728988647461 181 181 181
30.500000000000 17.984375000000 5.675994873047 191 191 191
30.500000000000 17.984375000000 5.623001098633 186 186 186
30.500000000000 17.984375000000 5.569992065430 189 189 189
30.484375000000 17.984375000000 5.516998291016 189 189 189
30.468750000000 17.984375000000 5.463989257813 185 185 185
30.468750000000 17.984375000000 5.410995483398 186 186 186
30.468750000000 17.968750000000 5.358993530273 190 190 190
30.468750000000 17.984375000000 5.305999755859 63 63 63
30.593750000000 17.875000000000 4.778991699219 58 58 58
30.593750000000 17.875000000000 4.725997924805 55 55 55
30.562500000000 17.890625000000 4.673995971680 60 60 60
30.531250000000 17.921875000000 4.621002197266 79 79 79
30.531250000000 17.921875000000 4.567993164063 61 61 61
30.562500000000 17.890625000000 4.513992309570 103 103 103
30.562500000000 17.890625000000 4.460998535156 119 119 119
30.562500000000 17.890625000000 4.405990600586 56 56 56
30.562500000000 17.890625000000 4.353988647461 55 55 55
30.562500000000 17.890625000000 4.300994873047 53 53 53
30.531250000000 17.890625000000 4.248992919922 42 42 42
30.562500000000 18.250000000000 6.180999755859 38 38 38
30.500000000000 18.296875000000 6.116989135742 95 95 95
30.671875000000 18.171875000000 6.090988159180 101 101 101
30.546875000000 18.250000000000 6.019989013672 78 78 78
30.562500000000 18.234375000000 5.968002319336 96 96 96
30.578125000000 18.218750000000 5.809997558594 12 12 12
30.593750000000 18.218750000000 5.755996704102 24 24 24
30.687500000000 18.140625000000 5.712997436523 155 155 155
30.671875000000 18.140625000000 5.657989501953 169 169 169
30.656250000000 18.156250000000 5.602996826172 164 164 164
30.656250000000 18.156250000000 5.548995971680 166 166 166
30.656250000000 18.156250000000 5.494995117188 159 159 159
30.656250000000 18.156250000000 5.440994262695 162 162 162
30.625000000000 18.171875000000 5.386001586914 160 160 160
30.562500000000 18.203125000000 5.328994750977 101 101 101
30.546875000000 18.203125000000 5.274993896484 108 108 108
30.546875000000 18.203125000000 5.222000122070 113 113 113
30.562500000000 18.203125000000 5.168991088867 127 127 127
30.562500000000 18.203125000000 5.115997314453 141 141 141
30.562500000000 18.203125000000 5.062988281250 159 159 159
30.546875000000 18.203125000000 5.009994506836 177 177 177
30.546875000000 18.203125000000 4.957000732422 200 200 200
30.531250000000 18.203125000000 4.903991699219 211 211 211
30.531250000000 18.218750000000 4.850997924805 207 207 207
30.531250000000 18.203125000000 4.797988891602 210 210 210
30.531250000000 18.203125000000 4.744995117188 208 208 208
30.546875000000 18.203125000000 4.692001342773 211 211 211
30.531250000000 18.203125000000 4.638992309570 213 213 213
30.531250000000 18.203125000000 4.585998535156 208 208 208
30.531250000000 18.203125000000 4.532989501953 206 206 206
30.531250000000 18.203125000000 4.479995727539 201 201 201
30.531250000000 18.203125000000 4.427001953125 204 204 204
30.531250000000 18.187500000000 4.373001098633 201 201 201
30.531250000000 18.171875000000 4.319992065430 180 180 180
30.531250000000 18.187500000000 4.266998291016 193 193 193
30.531250000000 18.187500000000 4.213989257813 183 183 183
30.531250000000 18.187500000000 4.160995483398 187 187 187
30.531250000000 18.187500000000 4.106994628906 194 194 194
30.531250000000 18.187500000000 4.052993774414 193 193 193
30.531250000000 18.187500000000 4.000000000000 188 188 188
30.531250000000 18.187500000000 3.946990966797 187 187 187
30.531250000000 18.171875000000 3.891998291016 181 181 181
30.531250000000 18.171875000000 3.837997436523 178 178 178
30.515625000000 18.171875000000 3.785995483398 172 172 172
30.531250000000 18.171875000000 3.731002807617 171 171 171
30.531250000000 18.171875000000 3.674987792969 165 165 165
30.531250000000 18.171875000000 3.621994018555 155 155 155
30.531250000000 18.171875000000 3.567001342773 150 150 150
30.531250000000 18.171875000000 3.513000488281 141 141 141
30.546875000000 18.140625000000 3.455993652344 148 148 148
30.546875000000 18.140625000000 3.401000976563 143 143 143
30.562500000000 18.140625000000 3.345001220703 152 152 152
30.562500000000 18.140625000000 3.287994384766 149 149 149
30.562500000000 18.125000000000 3.231994628906 152 152 152
30.562500000000 18.125000000000 3.175994873047 148 148 148
30.593750000000 18.109375000000 2.888992309570 160 160 160
30.625000000000 18.093750000000 2.824996948242 200 200 200
30.625000000000 18.078125000000 2.763992309570 211 211 211
30.640625000000 18.078125000000 2.705993652344 201 201 201
30.640625000000 18.062500000000 2.647994995117 208 208 208
30.937500000000 18.281250000000 5.884002685547 163 163 163
30.937500000000 18.281250000000 5.826995849609 185 185 185
30.937500000000 18.281250000000 5.770996093750 188 188 188
30.937500000000 18.281250000000 5.714996337891 186 186 186
30.906250000000 18.296875000000 5.657989501953 162 162 162
30.937500000000 18.265625000000 5.436996459961 165 165 165
30.921875000000 18.265625000000 5.380996704102 180 180 180
30.937500000000 18.265625000000 5.324996948242 181 181 181
30.921875000000 18.265625000000 5.269989013672 185 185 185
30.937500000000 18.265625000000 5.213989257813 125 125 125
31.031250000000 18.187500000000 4.598999023438 5 5 5
30.546875000000 17.921875000000 4.194992065430 17 17 17
30.562500000000 17.937500000000 4.244995117188 36 36 36
30.515625000000 17.906250000000 4.299987792969 65 65 65
30.515625000000 17.906250000000 4.350997924805 51 51 51
30.562500000000 17.921875000000 4.399993896484 55 55 55
30.515625000000 17.890625000000 4.453994750977 116 116 116
30.500000000000 17.890625000000 4.505996704102 103 103 103
30.453125000000 17.875000000000 4.557998657227 63 63 63
30.453125000000 17.859375000000 4.608993530273 82 82 82
30.453125000000 17.859375000000 4.659988403320 58 58 58
30.640625000000 17.953125000000 4.707992553711 43 43 43
30.703125000000 17.968750000000 4.759994506836 33 33 33
30.703125000000 17.968750000000 4.811996459961 16 16 16
30.484375000000 18.218750000000 3.545989990234 8 8 8
30.484375000000 18.218750000000 3.597000122070 10 10 10
30.484375000000 18.218750000000 3.651000976563 21 21 21
30.500000000000 18.218750000000 3.700988769531 37 37 37
30.468750000000 18.203125000000 3.755996704102 46 46 46
30.468750000000 18.203125000000 3.806991577148 62 62 62
30.468750000000 18.187500000000 3.858993530273 75 75 75
30.468750000000 18.187500000000 3.912002563477 84 84 84
30.468750000000 18.187500000000 3.962997436523 89 89 89
30.468750000000 18.187500000000 4.013992309570 94 94 94
30.468750000000 18.171875000000 4.065994262695 107 107 107
30.468750000000 18.171875000000 4.116989135742 111 111 111
30.468750000000 18.171875000000 4.168991088867 124 124 124
30.468750000000 18.171875000000 4.220001220703 130 130 130
30.468750000000 18.156250000000 4.270996093750 118 118 118
30.468750000000 18.171875000000 4.321990966797 159 159 159
30.468750000000 18.156250000000 4.373001098633 169 169 169
30.468750000000 18.156250000000 4.423995971680 178 178 178
30.468750000000 18.156250000000 4.474990844727 188 188 188
30.468750000000 18.156250000000 4.526000976563 199 199 199
30.453125000000 18.156250000000 4.576995849609 213 213 213
30.453125000000 18.156250000000 4.627990722656 221 221 221
30.453125000000 18.140625000000 4.677993774414 229 229 229
30.468750000000 18.156250000000 4.728988647461 244 244 244
30.453125000000 18.140625000000 4.779998779297 246 246 246
30.468750000000 18.140625000000 4.830001831055 253 253 253
30.484375000000 18.140625000000 4.880996704102 13 13 13
30.468750000000 18.140625000000 4.931991577148 44 44 44
30.468750000000 18.140625000000 4.981994628906 43 43 43
30.468750000000 18.140625000000 5.032989501953 251 251 251
30.468750000000 18.125000000000 5.082992553711 246 246 246
30.468750000000 18.125000000000 5.134002685547 244 244 244
30.468750000000 18.109375000000 5.184997558594 241 241 241
30.468750000000 18.109375000000 5.235992431641 235 235 235
30.468750000000 18.109375000000 5.285995483398 234 234 234
30.468750000000 18.109375000000 5.335998535156 226 226 226
30.468750000000 18.109375000000 5.388000488281 220 220 220
30.468750000000 18.093750000000 5.437988281250 211 211 211
30.468750000000 18.093750000000 5.488998413086 201 201 201
30.468750000000 18.093750000000 5.539993286133 193 193 193
30.468750000000 18.093750000000 5.590988159180 182 182 182
30.468750000000 18.093750000000 5.641998291016 175 175 175
30.500000000000 18.109375000000 5.694992065430 169 169 169
30.468750000000 18.078125000000 5.743988037109 175 175 175
30.468750000000 18.078125000000 5.793991088867 153 153 153
30.453125000000 18.078125000000 5.841995239258 160 160 160
30.531250000000 18.093750000000 5.902999877930 204 204 204
30.437500000000 18.046875000000 5.942001342773 101 101 101
30.437500000000 18.046875000000 5.993988037109 135 135 135
30.453125000000 18.046875000000 6.047988891602 108 108 108
30.375000000000 18.015625000000 6.084991455078 128 128 128
30.406250000000 18.015625000000 6.140991210938 103 103 103
30.500000000000 18.296875000000 6.082000732422 63 63 63
30.500000000000 18.187500000000 3.138000488281 82 82 82
30.500000000000 18.187500000000 3.190994262695 93 93 93
30.500000000000 18.187500000000 3.243988037109 102 102 102
30.515625000000 18.187500000000 3.295989990234 110 110 110
30.500000000000 18.171875000000 3.350997924805 126 126 126
30.515625000000 18.171875000000 3.401992797852 137 137 137
30.515625000000 18.171875000000 3.455001831055 140 140 140
30.500000000000 18.156250000000 3.507995605469 148 148 148
30.515625000000 18.156250000000 3.559997558594 158 158 158
30.515625000000 18.156250000000 3.611999511719 166 166 166
30.500000000000 18.140625000000 3.666000366211 177 177 177
30.500000000000 18.140625000000 3.718002319336 184 184 184
30.500000000000 18.140625000000 3.769989013672 191 191 191
30.515625000000 18.140625000000 3.820999145508 197 197 197
30.500000000000 18.140625000000 3.873001098633 199 199 199
30.500000000000 18.140625000000 3.925994873047 205 205 205
30.515625000000 18.140625000000 3.976989746094 212 212 212
30.531250000000 18.140625000000 4.027999877930 212 212 212
30.515625000000 18.140625000000 4.080001831055 216 216 216
30.500000000000 18.125000000000 4.131988525391 216 216 216
30.515625000000 18.140625000000 4.182998657227 216 216 216
30.515625000000 18.140625000000 4.233993530273 221 221 221
30.515625000000 18.109375000000 4.284988403320 222 222 222
30.515625000000 18.109375000000 4.336990356445 220 220 220
30.515625000000 18.109375000000 4.388000488281 219 219 219
30.515625000000 18.109375000000 4.438995361328 216 216 216
30.515625000000 18.109375000000 4.489990234375 213 213 213
30.531250000000 18.109375000000 4.541000366211 209 209 209
30.531250000000 18.093750000000 4.591995239258 198 198 198
30.531250000000 18.109375000000 4.642990112305 198 198 198
30.546875000000 18.109375000000 4.694000244141 196 196 196
30.546875000000 18.109375000000 4.744995117188 193 193 193
30.546875000000 18.109375000000 4.795989990234 211 211 211
30.546875000000 18.109375000000 4.847000122070 245 245 245
30.562500000000 18.109375000000 4.899002075195 11 11 11
30.562500000000 18.093750000000 4.949996948242 45 45 45
30.562500000000 18.093750000000 5.000991821289 45 45 45
30.578125000000 18.093750000000 5.052993774414 30 30 30
30.562500000000 18.093750000000 5.103988647461 1 1 1
30.562500000000 18.078125000000 5.154998779297 250 250 250
30.546875000000 18.062500000000 5.205001831055 247 247 247
30.531250000000 18.078125000000 5.255996704102 244 244 244
30.531250000000 18.046875000000 5.306991577148 244 244 244
30.546875000000 18.062500000000 5.358993530273 242 242 242
30.562500000000 18.062500000000 5.410995483398 234 234 234
30.562500000000 18.062500000000 5.461990356445 223 223 223
30.562500000000 18.062500000000 5.513992309570 214 214 214
30.562500000000 18.046875000000 5.563995361328 204 204 204
30.562500000000 18.046875000000 5.614990234375 195 195 195
30.546875000000 18.031250000000 5.666000366211 187 187 187
30.531250000000 18.015625000000 5.715988159180 185 185 185
30.531250000000 18.015625000000 5.766998291016 192 192 192
30.531250000000 18.015625000000 5.819992065430 195 195 195
30.640625000000 18.078125000000 5.935989379883 166 166 166
30.515625000000 17.984375000000 5.970001220703 102 102 102
30.562500000000 18.015625000000 6.027999877930 87 87 87
30.562500000000 18.015625000000 6.080001831055 106 106 106
30.453125000000 17.953125000000 6.114990234375 96 96 96
30.625000000000 17.843750000000 4.307998657227 27 27 27
30.531250000000 17.796875000000 4.519989013672 18 18 18
30.484375000000 17.765625000000 4.571990966797 30 30 30
30.468750000000 17.765625000000 4.623001098633 90 90 90
30.500000000000 17.765625000000 4.673995971680 17 17 17
30.578125000000 17.796875000000 4.723999023438 15 15 15
30.640625000000 18.328125000000 6.095001220703 69 69 69
30.937500000000 18.281250000000 5.905990600586 20 20 20
30.937500000000 18.281250000000 5.856002807617 114 114 114
30.937500000000 18.281250000000 5.806991577148 108 108 108
30.937500000000 18.281250000000 5.759994506836 155 155 155
30.937500000000 18.281250000000 5.711990356445 147 147 147
30.921875000000 18.281250000000 5.660995483398 83 83 83
30.937500000000 18.281250000000 5.421997070313 97 97 97
30.953125000000 18.296875000000 5.375991821289 116 116 116
30.937500000000 18.296875000000 5.326995849609 109 109 109
30.937500000000 18.296875000000 5.278991699219 109 109 109
30.953125000000 18.296875000000 5.231994628906 110 110 110
30.984375000000 18.281250000000 5.185989379883 38 38 38
30.437500000000 17.968750000000 6.113998413086 60 60 60
30.640625000000 17.953125000000 6.106002807617 104 104 104
30.718750000000 17.953125000000 6.073989868164 64 64 64
30.531250000000 17.968750000000 5.991989135742 13 13 13
30.468750000000 17.984375000000 5.751998901367 90 90 90
30.484375000000 17.968750000000 5.708999633789 129 129 129
30.468750000000 17.968750000000 5.662002563477 123 123 123
30.500000000000 17.968750000000 5.617996215820 131 131 131
30.468750000000 17.968750000000 5.570999145508 125 125 125
30.468750000000 17.968750000000 5.524993896484 140 140 140
30.468750000000 17.984375000000 5.477996826172 171 171 171
30.468750000000 17.984375000000 5.432998657227 148 148 148
30.468750000000 17.984375000000 5.388000488281 180 180 180
30.453125000000 17.984375000000 5.341995239258 116 116 116
30.734375000000 17.953125000000 4.808990478516 33 33 33
30.734375000000 17.953125000000 4.761993408203 46 46 46
30.703125000000 17.953125000000 4.714996337891 50 50 50
30.734375000000 17.968750000000 4.668991088867 44 44 44
30.687500000000 17.953125000000 4.623001098633 53 53 53
30.656250000000 17.968750000000 4.576995849609 60 60 60
30.593750000000 17.968750000000 4.531997680664 75 75 75
30.609375000000 17.984375000000 4.486999511719 99 99 99
30.656250000000 17.968750000000 4.438995361328 97 97 97
30.656250000000 17.968750000000 4.392990112305 63 63 63
30.625000000000 17.968750000000 4.348999023438 48 48 48
30.625000000000 17.968750000000 4.302993774414 54 54 54
30.640625000000 17.953125000000 4.255996704102 45 45 45
30.640625000000 17.953125000000 4.209991455078 45 45 45
30.625000000000 17.968750000000 4.164993286133 46 46 46
30.984375000000 18.296875000000 5.901992797852 151 151 151
30.984375000000 18.296875000000 5.845001220703 182 182 182
30.984375000000 18.281250000000 5.789993286133 185 185 185
30.968750000000 18.296875000000 5.731994628906 197 197 197
30.968750000000 18.281250000000 5.675994873047 175 175 175
30.984375000000 18.281250000000 5.455001831055 89 89 89
30.968750000000 18.281250000000 5.397994995117 180 180 180
30.968750000000 18.281250000000 5.343002319336 176 176 176
30.968750000000 18.265625000000 5.287002563477 182 182 182
30.968750000000 18.265625000000 5.231994628906 170 170 170
30.593750000000 18.234375000000 6.192993164063 42 42 42
30.500000000000 18.281250000000 6.126998901367 89 89 89
30.609375000000 18.203125000000 6.089996337891 96 96 96
30.562500000000 18.234375000000 6.028991699219 81 81 81
30.562500000000 18.234375000000 5.975997924805 102 102 102
30.625000000000 18.187500000000 5.930999755859 53 53 53
30.578125000000 18.218750000000 5.871994018555 72 72 72
30.593750000000 18.203125000000 5.819992065430 94 94 94
30.578125000000 18.203125000000 5.764999389648 108 108 108
30.593750000000 18.203125000000 5.713989257813 133 133 133
30.578125000000 18.203125000000 5.658996582031 141 141 141
30.578125000000 18.203125000000 5.606002807617 149 149 149
30.578125000000 18.203125000000 5.552993774414 158 158 158
30.562500000000 18.203125000000 5.498992919922 169 169 169
30.578125000000 18.203125000000 5.445999145508 174 174 174
30.562500000000 18.203125000000 5.391998291016 187 187 187
30.562500000000 18.203125000000 5.338989257813 193 193 193
30.546875000000 18.203125000000 5.285995483398 203 203 203
30.562500000000 18.203125000000 5.233001708984 208 208 208
30.562500000000 18.203125000000 5.179992675781 218 218 218
30.546875000000 18.203125000000 5.126998901367 219 219 219
30.546875000000 18.203125000000 5.074996948242 227 227 227
30.562500000000 18.203125000000 5.021987915039 235 235 235
30.562500000000 18.203125000000 4.968994140625 0 0 0
30.562500000000 18.171875000000 4.916000366211 6 6 6
30.531250000000 18.171875000000 4.862991333008 249 249 249
30.531250000000 18.171875000000 4.810989379883 242 242 242
30.531250000000 18.171875000000 4.757995605469 227 227 227
30.546875000000 18.171875000000 4.705001831055 226 226 226
30.531250000000 18.171875000000 4.651992797852 218 218 218
30.546875000000 18.171875000000 4.598999023438 207 207 207
30.546875000000 18.171875000000 4.545989990234 194 194 194
30.546875000000 18.156250000000 4.492996215820 183 183 183
30.546875000000 18.171875000000 4.440002441406 178 178 178
30.562500000000 18.156250000000 4.386001586914 171 171 171
30.546875000000 18.156250000000 4.333999633789 162 162 162
30.562500000000 18.140625000000 4.278991699219 137 137 137
30.562500000000 18.140625000000 4.224990844727 158 158 158
30.578125000000 18.125000000000 4.170989990234 169 169 169
30.593750000000 18.125000000000 4.116989135742 169 169 169
30.593750000000 18.109375000000 4.061996459961 169 169 169
30.593750000000 18.109375000000 4.007995605469 169 169 169
30.593750000000 18.109375000000 3.953002929688 172 172 172
30.593750000000 18.109375000000 3.899002075195 162 162 162
30.593750000000 18.109375000000 3.845001220703 162 162 162
30.593750000000 18.109375000000 3.791000366211 150 150 150
30.593750000000 18.109375000000 3.735992431641 143 143 143
30.609375000000 18.093750000000 3.679000854492 136 136 136
30.625000000000 18.078125000000 3.623001098633 145 145 145
30.609375000000 18.093750000000 3.570999145508 148 148 148
30.609375000000 18.078125000000 3.514999389648 148 148 148
30.609375000000 18.078125000000 3.459991455078 143 143 143
30.609375000000 18.078125000000 3.405990600586 136 136 136
30.609375000000 18.078125000000 3.349990844727 139 139 139
30.609375000000 18.078125000000 3.295989990234 125 125 125
30.609375000000 18.078125000000 3.240997314453 110 110 110
30.593750000000 18.078125000000 3.186996459961 77 77 77
30.593750000000 18.078125000000 3.131988525391 24 24 24
30.500000000000 17.906250000000 6.087997436523 10 10 10
30.453125000000 17.921875000000 5.815994262695 63 63 63
30.437500000000 17.921875000000 5.763000488281 184 184 184
30.453125000000 17.921875000000 5.710998535156 187 187 187
30.437500000000 17.921875000000 5.657989501953 189 189 189
30.437500000000 17.921875000000 5.604995727539 186 186 186
30.437500000000 17.921875000000 5.552993774414 93 93 93
30.437500000000 17.937500000000 5.500000000000 170 170 170
30.437500000000 17.937500000000 5.446990966797 184 184 184
30.421875000000 17.921875000000 5.394989013672 194 194 194
30.421875000000 17.921875000000 5.343002319336 189 189 189
30.406250000000 17.921875000000 5.289993286133 181 181 181
30.531250000000 17.843750000000 4.767990112305 57 57 57
30.546875000000 17.828125000000 4.714996337891 51 51 51
30.531250000000 17.828125000000 4.662002563477 56 56 56
30.531250000000 17.828125000000 4.608993530273 49 49 49
30.515625000000 17.828125000000 4.555999755859 59 59 59
30.515625000000 17.828125000000 4.503997802734 53 53 53
30.500000000000 17.828125000000 4.451995849609 56 56 56
30.500000000000 17.828125000000 4.397994995117 39 39 39
30.203125000000 17.750000000000 5.957000732422 148 148 148
30.187500000000 17.765625000000 5.904998779297 186 186 186
30.187500000000 17.765625000000 5.853988647461 182 182 182
30.203125000000 17.750000000000 5.802993774414 190 190 190
30.187500000000 17.765625000000 5.751998901367 179 179 179
30.187500000000 17.765625000000 5.345993041992 47 47 47
30.156250000000 17.765625000000 5.294998168945 188 188 188
30.156250000000 17.765625000000 5.243988037109 195 195 195
30.156250000000 17.765625000000 5.194000244141 169 169 169
30.156250000000 17.765625000000 5.143997192383 90 90 90
15.109375000000 15.062500000000 6.513000488281 35 35 35
14.921875000000 15.062500000000 6.511993408203 99 99 99
14.875000000000 15.078125000000 6.478988647461 67 67 67
14.843750000000 15.062500000000 6.203002929688 80 80 80
14.875000000000 15.078125000000 6.153991699219 185 185 185
14.859375000000 15.078125000000 6.110000610352 188 188 188
14.859375000000 15.078125000000 6.063995361328 185 185 185
14.843750000000 15.062500000000 6.018997192383 190 190 190
14.859375000000 15.078125000000 5.972991943359 181 181 181
14.859375000000 15.078125000000 5.925994873047 177 177 177
14.859375000000 15.078125000000 5.879989624023 183 183 183
14.859375000000 15.078125000000 5.834991455078 187 187 187
14.859375000000 15.078125000000 5.789993286133 194 194 194
14.859375000000 15.078125000000 5.743988037109 188 188 188
14.859375000000 15.078125000000 5.697998046875 97 97 97
14.656250000000 15.078125000000 5.218994140625 72 72 72
14.656250000000 15.078125000000 5.172988891602 70 70 70
14.656250000000 15.078125000000 5.126998901367 75 75 75
14.671875000000 15.093750000000 5.080001831055 74 74 74
14.687500000000 15.078125000000 5.033996582031 76 76 76
14.656250000000 15.078125000000 4.989990234375 83 83 83
