25.859375000000 28.281250000000 9.942993164063 200 200 200
25.843750000000 28.281250000000 9.830993652344 170 170 170
25.859375000000 28.265625000000 9.817993164063 178 178 178
25.890625000000 28.250000000000 9.810989379883 181 181 181
25.921875000000 28.218750000000 9.799987792969 182 182 182
25.937500000000 28.203125000000 9.797988891602 180 180 180
25.984375000000 28.171875000000 9.817001342773 176 176 176
26.031250000000 28.156250000000 9.817001342773 143 143 143
25.734375000000 28.250000000000 8.274993896484 67 67 67
25.734375000000 28.250000000000 8.235992431641 91 91 91
25.750000000000 28.234375000000 8.212997436523 123 123 123
25.750000000000 28.234375000000 8.198989868164 149 149 149
25.781250000000 28.218750000000 8.173995971680 191 191 191
25.781250000000 28.218750000000 8.160995483398 201 201 201
25.812500000000 28.203125000000 8.149002075195 181 181 181
25.828125000000 28.203125000000 8.146987915039 160 160 160
25.843750000000 28.203125000000 8.123001098633 132 132 132
25.859375000000 28.171875000000 8.123992919922 103 103 103
25.296875000000 28.312500000000 9.806991577148 91 91 91
25.328125000000 28.281250000000 9.805999755859 162 162 162
25.343750000000 28.265625000000 9.795989990234 153 153 153
25.375000000000 28.250000000000 9.800994873047 72 72 72
25.218750000000 28.265625000000 8.535995483398 59 59 59
25.234375000000 28.265625000000 8.513992309570 142 142 142
25.250000000000 28.265625000000 8.498992919922 194 194 194
25.265625000000 28.234375000000 8.483993530273 201 201 201
25.281250000000 28.234375000000 8.477996826172 151 151 151
25.312500000000 28.218750000000 8.478988647461 65 65 65
24.703125000000 28.359375000000 9.767990112305 111 111 111
24.718750000000 28.343750000000 9.770996093750 167 167 167
24.750000000000 28.328125000000 9.782989501953 164 164 164
24.781250000000 28.312500000000 9.777999877930 84 84 84
24.687500000000 28.312500000000 8.843002319336 103 103 103
24.687500000000 28.312500000000 8.766998291016 155 155 155
24.656250000000 28.328125000000 8.621994018555 166 166 166
24.656250000000 28.328125000000 8.562988281250 174 174 174
24.656250000000 28.312500000000 8.550994873047 174 174 174
24.687500000000 28.296875000000 8.565002441406 140 140 140
24.718750000000 28.296875000000 8.563995361328 49 49 49
24.093750000000 28.406250000000 9.751998901367 141 141 141
24.125000000000 28.390625000000 9.748001098633 185 185 185
24.140625000000 28.359375000000 9.752990722656 178 178 178
24.171875000000 28.359375000000 9.770996093750 86 86 86
24.000000000000 28.406250000000 8.582000732422 44 44 44
24.015625000000 28.390625000000 8.574996948242 143 143 143
24.031250000000 28.390625000000 8.562988281250 183 183 183
24.046875000000 28.390625000000 8.563995361328 195 195 195
24.062500000000 28.375000000000 8.563995361328 167 167 167
24.093750000000 28.343750000000 8.586990356445 115 115 115
23.406250000000 28.453125000000 8.554992675781 154 154 154
23.421875000000 28.453125000000 8.560989379883 171 171 171
23.437500000000 28.437500000000 8.562988281250 179 179 179
23.453125000000 28.421875000000 8.570999145508 156 156 156
23.531250000000 28.437500000000 9.802001953125 150 150 150
23.531250000000 28.421875000000 9.733993530273 160 160 160
23.562500000000 28.406250000000 9.744995117188 62 62 62
23.578125000000 28.390625000000 9.492996215820 50 50 50
23.609375000000 28.375000000000 9.479995727539 142 142 142
23.625000000000 28.359375000000 9.464996337891 167 167 167
23.640625000000 28.343750000000 9.455993652344 143 143 143
23.656250000000 28.328125000000 9.453994750977 58 58 58
23.375000000000 28.531250000000 9.791000366211 119 119 119
23.390625000000 28.484375000000 8.617996215820 125 125 125
23.265625000000 28.546875000000 8.300994873047 112 112 112
23.250000000000 28.531250000000 8.295989990234 204 204 204
23.281250000000 28.515625000000 9.830001831055 85 85 85
23.625000000000 28.375000000000 9.746002197266 74 74 74
23.593750000000 28.359375000000 9.817001342773 145 145 145
23.500000000000 28.375000000000 8.575988769531 156 156 156
23.500000000000 28.359375000000 8.562988281250 193 193 193
23.468750000000 28.359375000000 8.565002441406 174 174 174
23.453125000000 28.359375000000 8.599990844727 149 149 149
23.468750000000 28.328125000000 9.532989501953 143 143 143
23.437500000000 28.296875000000 9.534988403320 154 154 154
23.406250000000 28.281250000000 9.555999755859 103 103 103
24.000000000000 28.343750000000 8.562988281250 135 135 135
23.984375000000 28.328125000000 8.571990966797 183 183 183
23.968750000000 28.312500000000 8.567993164063 179 179 179
23.937500000000 28.312500000000 8.578994750977 118 118 118
24.093750000000 28.328125000000 9.763992309570 160 160 160
24.078125000000 28.328125000000 9.733993530273 176 176 176
23.968750000000 28.281250000000 9.265991210938 150 150 150
23.968750000000 28.281250000000 9.257995605469 163 163 163
23.937500000000 28.250000000000 9.263000488281 148 148 148
23.906250000000 28.234375000000 9.285995483398 74 74 74
24.500000000000 28.296875000000 8.582992553711 71 71 71
24.468750000000 28.265625000000 8.574996948242 154 154 154
24.468750000000 28.265625000000 8.570999145508 175 175 175
24.437500000000 28.250000000000 8.580993652344 144 144 144
24.421875000000 28.234375000000 8.593002319336 65 65 65
24.468750000000 28.250000000000 8.957992553711 130 130 130
24.453125000000 28.234375000000 8.961990356445 171 171 171
24.437500000000 28.234375000000 8.973999023438 163 163 163
24.421875000000 28.218750000000 9.009002685547 116 116 116
24.609375000000 28.265625000000 9.794998168945 127 127 127
24.593750000000 28.265625000000 9.776000976563 162 162 162
24.562500000000 28.265625000000 9.796997070313 115 115 115
24.968750000000 28.234375000000 8.573989868164 154 154 154
24.953125000000 28.218750000000 8.561996459961 186 186 186
24.921875000000 28.203125000000 8.572998046875 174 174 174
24.937500000000 28.203125000000 8.623992919922 164 164 164
24.937500000000 28.203125000000 8.680999755859 177 177 177
24.906250000000 28.203125000000 8.699996948242 120 120 120
25.109375000000 28.234375000000 9.802993774414 136 136 136
25.078125000000 28.218750000000 9.805999755859 157 157 157
25.062500000000 28.203125000000 9.825988769531 94 94 94
25.468750000000 28.187500000000 8.367996215820 117 117 117
25.437500000000 28.187500000000 8.368988037109 190 190 190
25.437500000000 28.171875000000 8.386993408203 187 187 187
25.406250000000 28.171875000000 8.397994995117 145 145 145
25.390625000000 28.156250000000 8.412002563477 64 64 64
25.671875000000 28.218750000000 9.830001831055 64 64 64
25.625000000000 28.203125000000 9.822998046875 135 135 135
25.593750000000 28.171875000000 9.822998046875 165 165 165
25.578125000000 28.171875000000 9.837997436523 142 142 142
25.546875000000 28.140625000000 9.861999511719 94 94 94
25.750000000000 28.234375000000 10.328994750977 96 96 96
25.718750000000 28.218750000000 10.353988647461 153 153 153
25.687500000000 28.203125000000 10.365997314453 170 170 170
25.656250000000 28.171875000000 10.366989135742 172 172 172
25.640625000000 28.171875000000 10.382995605469 151 151 151
25.625000000000 28.140625000000 10.453002929688 153 153 153
25.625000000000 28.140625000000 10.500991821289 156 156 156
25.625000000000 28.140625000000 10.590988159180 156 156 156
25.625000000000 28.140625000000 10.660995483398 137 137 137
25.984375000000 28.171875000000 8.034988403320 113 113 113
25.968750000000 28.171875000000 8.054000854492 145 145 145
25.937500000000 28.156250000000 8.061996459961 172 172 172
25.921875000000 28.140625000000 8.076995849609 189 189 189
25.906250000000 28.140625000000 8.089996337891 177 177 177
25.890625000000 28.125000000000 8.106002807617 155 155 155
25.890625000000 28.125000000000 8.138000488281 135 135 135
25.890625000000 28.125000000000 8.177001953125 188 188 188
26.156250000000 28.171875000000 9.845001220703 90 90 90
26.125000000000 28.140625000000 9.854995727539 131 131 131
26.093750000000 28.109375000000 9.847000122070 148 148 148
26.062500000000 28.109375000000 9.854995727539 138 138 138
26.015625000000 28.093750000000 9.848999023438 118 118 118
26.031250000000 28.109375000000 9.940002441406 153 153 153
26.218750000000 28.156250000000 10.343002319336 150 150 150
26.187500000000 28.140625000000 10.348999023438 163 163 163
26.156250000000 28.125000000000 10.351989746094 161 161 161
26.125000000000 28.109375000000 10.358993530273 160 160 160
26.093750000000 28.093750000000 10.353988647461 141 141 141
26.031250000000 28.062500000000 10.338989257813 61 61 61
26.296875000000 28.171875000000 5.864990234375 157 157 157
26.296875000000 28.171875000000 5.884994506836 156 156 156
26.296875000000 28.171875000000 5.907989501953 155 155 155
26.296875000000 28.171875000000 5.927993774414 156 156 156
26.296875000000 28.171875000000 5.948989868164 157 157 157
26.296875000000 28.171875000000 5.970001220703 157 157 157
26.296875000000 28.171875000000 5.992996215820 159 159 159
26.312500000000 28.171875000000 6.014999389648 159 159 159
26.296875000000 28.171875000000 6.034988403320 157 157 157
26.296875000000 28.156250000000 6.056991577148 160 160 160
26.296875000000 28.156250000000 6.080001831055 160 160 160
26.296875000000 28.156250000000 6.100997924805 160 160 160
26.296875000000 28.156250000000 6.123992919922 160 160 160
26.296875000000 28.171875000000 6.142990112305 158 158 158
26.296875000000 28.156250000000 6.167999267578 159 159 159
26.296875000000 28.156250000000 6.192001342773 159 159 159
26.296875000000 28.156250000000 6.213989257813 159 159 159
26.296875000000 28.156250000000 6.236999511719 159 159 159
26.296875000000 28.156250000000 6.257995605469 162 162 162
26.296875000000 28.156250000000 6.278991699219 162 162 162
26.296875000000 28.156250000000 6.302993774414 161 161 161
26.296875000000 28.156250000000 6.328002929688 163 163 163
26.296875000000 28.156250000000 6.349990844727 162 162 162
26.312500000000 28.156250000000 6.373992919922 161 161 161
26.312500000000 28.156250000000 6.396987915039 160 160 160
26.312500000000 28.140625000000 6.419998168945 160 160 160
26.312500000000 28.140625000000 6.442001342773 161 161 161
26.312500000000 28.140625000000 6.466995239258 161 161 161
26.312500000000 28.140625000000 6.490997314453 161 161 161
26.312500000000 28.140625000000 6.513000488281 161 161 161
26.312500000000 28.140625000000 6.537994384766 160 160 160
26.312500000000 28.140625000000 6.562988281250 159 159 159
26.312500000000 28.140625000000 6.587997436523 157 157 157
26.312500000000 28.140625000000 6.612991333008 158 158 158
26.312500000000 28.140625000000 6.634994506836 159 159 159
26.312500000000 28.140625000000 6.662002563477 162 162 162
26.312500000000 28.140625000000 6.683990478516 160 160 160
26.312500000000 28.125000000000 6.707992553711 157 157 157
26.312500000000 28.125000000000 6.733993530273 158 158 158
26.312500000000 28.125000000000 6.754989624023 160 160 160
26.312500000000 28.125000000000 6.783996582031 159 159 159
26.312500000000 28.125000000000 6.809997558594 159 159 159
26.312500000000 28.125000000000 6.832000732422 159 159 159
26.312500000000 28.125000000000 6.860000610352 159 159 159
26.312500000000 28.125000000000 6.886001586914 156 156 156
26.312500000000 28.125000000000 6.912002563477 158 158 158
26.312500000000 28.125000000000 6.935989379883 159 159 159
26.312500000000 28.109375000000 6.960998535156 159 159 159
26.312500000000 28.109375000000 6.991989135742 156 156 156
26.312500000000 28.109375000000 7.015991210938 158 158 158
26.312500000000 28.109375000000 7.046997070313 161 161 161
26.312500000000 28.109375000000 7.069000244141 156 156 156
26.312500000000 28.109375000000 7.099990844727 158 158 158
26.312500000000 28.109375000000 7.123992919922 158 158 158
26.312500000000 28.109375000000 7.153991699219 158 158 158
26.312500000000 28.109375000000 7.180999755859 158 158 158
26.328125000000 28.093750000000 7.212997436523 159 159 159
26.312500000000 28.109375000000 7.235000610352 157 157 157
26.328125000000 28.093750000000 7.267990112305 157 157 157
26.312500000000 28.078125000000 7.291000366211 155 155 155
26.312500000000 28.078125000000 7.320999145508 155 155 155
26.328125000000 28.093750000000 7.354995727539 157 157 157
26.312500000000 28.078125000000 7.379989624023 154 154 154
26.328125000000 28.093750000000 7.417999267578 156 156 156
26.328125000000 28.078125000000 7.442993164063 156 156 156
26.328125000000 28.078125000000 7.470001220703 153 153 153
26.312500000000 28.078125000000 7.498992919922 154 154 154
26.328125000000 28.078125000000 7.529998779297 156 156 156
26.328125000000 28.078125000000 7.558990478516 154 154 154
26.328125000000 28.078125000000 7.593994140625 155 155 155
26.328125000000 28.078125000000 7.623992919922 157 157 157
26.312500000000 28.062500000000 7.653991699219 153 153 153
26.312500000000 28.062500000000 7.681991577148 155 155 155
26.328125000000 28.062500000000 7.718994140625 156 156 156
26.328125000000 28.062500000000 7.752990722656 156 156 156
26.328125000000 28.062500000000 7.785995483398 158 158 158
26.328125000000 28.062500000000 7.811996459961 157 157 157
26.312500000000 28.046875000000 7.834991455078 162 162 162
26.296875000000 28.046875000000 7.853988647461 156 156 156
26.296875000000 28.031250000000 7.890991210938 151 151 151
26.343750000000 28.062500000000 7.957992553711 154 154 154
26.343750000000 28.062500000000 7.991989135742 155 155 155
26.343750000000 28.046875000000 8.029998779297 153 153 153
26.328125000000 28.046875000000 8.059997558594 152 152 152
26.343750000000 28.046875000000 8.097000122070 149 149 149
26.343750000000 28.046875000000 8.132995605469 148 148 148
26.343750000000 28.046875000000 8.169998168945 147 147 147
26.343750000000 28.046875000000 8.210998535156 146 146 146
26.343750000000 28.046875000000 8.246002197266 143 143 143
26.343750000000 28.046875000000 8.287002563477 142 142 142
26.359375000000 28.031250000000 8.334991455078 144 144 144
26.359375000000 28.031250000000 8.368988037109 146 146 146
26.359375000000 28.031250000000 8.408996582031 141 141 141
26.359375000000 28.031250000000 8.453994750977 138 138 138
26.359375000000 28.031250000000 8.490997314453 140 140 140
26.375000000000 28.031250000000 8.541000366211 140 140 140
26.375000000000 28.031250000000 8.578994750977 135 135 135
26.375000000000 28.031250000000 8.634994506836 137 137 137
26.375000000000 28.031250000000 8.673995971680 138 138 138
26.375000000000 28.046875000000 8.727996826172 139 139 139
26.375000000000 28.015625000000 8.769989013672 137 137 137
26.390625000000 28.031250000000 8.822998046875 142 142 142
26.406250000000 28.031250000000 8.878997802734 142 142 142
26.406250000000 28.031250000000 8.929992675781 141 141 141
26.421875000000 28.046875000000 8.990997314453 142 142 142
26.421875000000 28.046875000000 9.047988891602 143 143 143
26.437500000000 28.031250000000 9.112991333008 143 143 143
26.453125000000 28.046875000000 9.175994873047 146 146 146
26.468750000000 28.046875000000 9.240997314453 146 146 146
26.500000000000 28.046875000000 9.317001342773 146 146 146
26.515625000000 28.062500000000 9.388000488281 146 146 146
26.484375000000 28.046875000000 9.394989013672 126 126 126
26.437500000000 28.015625000000 9.405990600586 99 99 99
26.437500000000 28.015625000000 9.457000732422 104 104 104
26.484375000000 28.031250000000 9.570999145508 143 143 143
26.546875000000 28.062500000000 9.720001220703 152 152 152
26.546875000000 28.062500000000 9.770996093750 153 153 153
26.531250000000 28.046875000000 9.809997558594 153 153 153
26.515625000000 28.046875000000 9.825988769531 145 145 145
26.531250000000 28.046875000000 9.901992797852 142 142 142
26.515625000000 28.015625000000 9.940002441406 136 136 136
26.515625000000 28.015625000000 10.000000000000 131 131 131
26.515625000000 28.015625000000 10.061996459961 130 130 130
26.515625000000 28.015625000000 10.121002197266 121 121 121
26.515625000000 28.015625000000 10.183990478516 120 120 120
26.515625000000 28.015625000000 10.248992919922 123 123 123
26.515625000000 28.000000000000 10.326995849609 121 121 121
26.515625000000 28.000000000000 10.388992309570 119 119 119
26.531250000000 28.000000000000 10.474990844727 125 125 125
26.515625000000 27.984375000000 10.519989013672 129 129 129
26.500000000000 27.984375000000 10.552001953125 83 83 83
26.531250000000 27.984375000000 10.672988891602 53 53 53
26.546875000000 28.000000000000 10.761993408203 24 24 24
26.593750000000 28.031250000000 5.825988769531 82 82 82
26.578125000000 28.015625000000 5.845001220703 78 78 78
26.593750000000 28.015625000000 5.871002197266 64 64 64
26.593750000000 28.015625000000 5.895996093750 53 53 53
27.187500000000 28.109375000000 9.476989746094 77 77 77
27.187500000000 28.109375000000 9.518997192383 130 130 130
27.140625000000 28.078125000000 9.518997192383 142 142 142
27.109375000000 28.046875000000 9.526992797852 149 149 149
27.031250000000 28.000000000000 9.494995117188 130 130 130
27.281250000000 28.109375000000 10.433990478516 18 18 18
27.250000000000 28.078125000000 10.451995849609 124 124 124
27.250000000000 28.062500000000 10.489990234375 146 146 146
27.187500000000 28.031250000000 10.481994628906 139 139 139
27.125000000000 28.000000000000 10.468002319336 137 137 137
27.093750000000 27.984375000000 10.486999511719 105 105 105
27.187500000000 28.015625000000 10.675994873047 143 143 143
27.187500000000 28.015625000000 10.740997314453 144 144 144
27.171875000000 28.000000000000 10.796997070313 107 107 107
23.593750000000 28.312500000000 9.493988037109 109 109 109
23.562500000000 28.312500000000 9.496994018555 153 153 153
23.546875000000 28.328125000000 9.509994506836 151 151 151
23.515625000000 28.328125000000 9.532989501953 118 118 118
23.390625000000 28.390625000000 8.574996948242 64 64 64
23.375000000000 28.390625000000 8.584991455078 138 138 138
23.359375000000 28.390625000000 8.563995361328 154 154 154
23.343750000000 28.406250000000 8.565994262695 178 178 178
23.328125000000 28.406250000000 8.567001342773 177 177 177
23.312500000000 28.421875000000 8.558990478516 157 157 157
23.281250000000 28.421875000000 8.406997680664 147 147 147
23.265625000000 28.437500000000 8.373992919922 124 124 124
23.250000000000 28.453125000000 8.291992187500 207 207 207
23.234375000000 28.453125000000 8.307998657227 178 178 178
23.265625000000 28.515625000000 9.873992919922 122 122 122
23.015625000000 28.312500000000 9.834991455078 43 43 43
23.000000000000 28.343750000000 9.839996337891 129 129 129
22.968750000000 28.359375000000 9.843002319336 148 148 148
22.937500000000 28.359375000000 9.863998413086 127 127 127
22.718750000000 28.453125000000 8.572998046875 108 108 108
22.703125000000 28.453125000000 8.569000244141 154 154 154
22.687500000000 28.484375000000 8.567993164063 179 179 179
22.671875000000 28.484375000000 8.556991577148 173 173 173
22.656250000000 28.484375000000 8.509002685547 148 148 148
22.640625000000 28.500000000000 8.483001708984 107 107 107
23.312500000000 28.531250000000 9.817993164063 91 91 91
26.296875000000 28.156250000000 5.858993530273 164 164 164
26.296875000000 28.156250000000 5.879989624023 166 166 166
26.296875000000 28.156250000000 5.899002075195 164 164 164
26.296875000000 28.156250000000 5.918991088867 165 165 165
26.296875000000 28.171875000000 5.935989379883 165 165 165
26.296875000000 28.156250000000 5.959991455078 165 165 165
26.296875000000 28.156250000000 5.979995727539 165 165 165
26.296875000000 28.156250000000 6.001998901367 166 166 166
26.296875000000 28.156250000000 6.021987915039 164 164 164
26.296875000000 28.156250000000 6.041000366211 164 164 164
26.296875000000 28.156250000000 6.059997558594 162 162 162
26.296875000000 28.156250000000 6.085998535156 164 164 164
26.296875000000 28.156250000000 6.106002807617 166 166 166
26.296875000000 28.156250000000 6.127990722656 163 163 163
26.312500000000 28.156250000000 6.149993896484 165 165 165
26.312500000000 28.156250000000 6.170989990234 166 166 166
26.296875000000 28.156250000000 6.190994262695 165 165 165
26.296875000000 28.156250000000 6.211990356445 163 163 163
26.312500000000 28.156250000000 6.235000610352 162 162 162
26.296875000000 28.156250000000 6.255996704102 161 161 161
26.312500000000 28.156250000000 6.278991699219 164 164 164
26.312500000000 28.156250000000 6.300994873047 164 164 164
26.312500000000 28.156250000000 6.325988769531 166 166 166
26.312500000000 28.156250000000 6.350997924805 164 164 164
26.312500000000 28.156250000000 6.366989135742 164 164 164
26.312500000000 28.156250000000 6.389999389648 167 167 167
26.312500000000 28.156250000000 6.416000366211 166 166 166
26.328125000000 28.156250000000 6.442993164063 164 164 164
26.312500000000 28.156250000000 6.462997436523 163 163 163
26.312500000000 28.156250000000 6.485000610352 161 161 161
26.312500000000 28.156250000000 6.507995605469 165 165 165
26.312500000000 28.156250000000 6.530990600586 164 164 164
26.328125000000 28.156250000000 6.558990478516 165 165 165
26.328125000000 28.156250000000 6.583999633789 163 163 163
26.328125000000 28.156250000000 6.610992431641 164 164 164
26.328125000000 28.156250000000 6.630996704102 164 164 164
26.328125000000 28.156250000000 6.657989501953 165 165 165
26.328125000000 28.156250000000 6.682998657227 163 163 163
26.328125000000 28.156250000000 6.707000732422 161 161 161
26.328125000000 28.156250000000 6.731994628906 163 163 163
26.312500000000 28.140625000000 6.755996704102 164 164 164
26.328125000000 28.140625000000 6.784988403320 167 167 167
26.312500000000 28.140625000000 6.807998657227 166 166 166
26.328125000000 28.140625000000 6.837997436523 165 165 165
26.312500000000 28.140625000000 6.860000610352 166 166 166
26.328125000000 28.140625000000 6.888992309570 166 166 166
26.328125000000 28.140625000000 6.912994384766 163 163 163
26.328125000000 28.140625000000 6.942001342773 163 163 163
26.312500000000 28.140625000000 6.963989257813 162 162 162
26.343750000000 28.125000000000 7.000000000000 161 161 161
26.328125000000 28.140625000000 7.024002075195 164 164 164
26.343750000000 28.125000000000 7.052993774414 164 164 164
26.343750000000 28.125000000000 7.082992553711 164 164 164
26.343750000000 28.125000000000 7.108001708984 162 162 162
26.328125000000 28.140625000000 7.134994506836 162 162 162
26.343750000000 28.125000000000 7.164993286133 161 161 161
26.343750000000 28.125000000000 7.197998046875 158 158 158
26.343750000000 28.125000000000 7.226989746094 161 161 161
26.343750000000 28.125000000000 7.254989624023 157 157 157
26.343750000000 28.125000000000 7.292999267578 161 161 161
26.343750000000 28.125000000000 7.317993164063 158 158 158
26.343750000000 28.125000000000 7.350997924805 161 161 161
26.343750000000 28.125000000000 7.382995605469 161 161 161
26.343750000000 28.125000000000 7.414993286133 157 157 157
26.343750000000 28.125000000000 7.448989868164 156 156 156
26.343750000000 28.125000000000 7.472000122070 157 157 157
26.343750000000 28.125000000000 7.506988525391 157 157 157
26.343750000000 28.125000000000 7.539993286133 155 155 155
26.343750000000 28.125000000000 7.575988769531 156 156 156
26.343750000000 28.125000000000 7.608001708984 157 157 157
26.343750000000 28.125000000000 7.636993408203 160 160 160
26.359375000000 28.125000000000 7.677993774414 162 162 162
26.343750000000 28.125000000000 7.707992553711 159 159 159
26.359375000000 28.125000000000 7.748992919922 164 164 164
26.343750000000 28.125000000000 7.767990112305 183 183 183
26.312500000000 28.109375000000 7.782989501953 207 207 207
26.296875000000 28.125000000000 7.793991088867 184 184 184
26.281250000000 28.109375000000 7.811996459961 170 170 170
26.250000000000 28.125000000000 7.819000244141 160 160 160
26.234375000000 28.109375000000 7.835998535156 188 188 188
26.203125000000 28.125000000000 7.841995239258 173 173 173
26.187500000000 28.109375000000 7.852996826172 184 184 184
26.171875000000 28.125000000000 7.884994506836 162 162 162
26.171875000000 28.125000000000 7.914993286133 163 163 163
26.156250000000 28.125000000000 7.929000854492 163 163 163
26.125000000000 28.125000000000 7.937988281250 168 168 168
26.125000000000 28.125000000000 7.976989746094 161 161 161
26.125000000000 28.125000000000 7.998992919922 151 151 151
26.062500000000 28.125000000000 7.979995727539 163 163 163
26.031250000000 28.109375000000 7.988998413086 173 173 173
26.031250000000 28.125000000000 8.002990722656 178 178 178
26.000000000000 28.140625000000 8.014999389648 154 154 154
25.968750000000 28.140625000000 8.029998779297 163 163 163
25.968750000000 28.140625000000 8.049987792969 159 159 159
25.937500000000 28.140625000000 8.054000854492 148 148 148
25.921875000000 28.140625000000 8.073989868164 150 150 150
25.906250000000 28.140625000000 8.087997436523 142 142 142
25.875000000000 28.140625000000 8.098999023438 144 144 144
25.859375000000 28.140625000000 8.119995117188 150 150 150
25.843750000000 28.140625000000 8.129989624023 149 149 149
25.812500000000 28.140625000000 8.139999389648 148 148 148
25.812500000000 28.140625000000 8.177001953125 159 159 159
25.781250000000 28.140625000000 8.171997070313 159 159 159
25.750000000000 28.140625000000 8.175994873047 86 86 86
25.750000000000 28.140625000000 8.220001220703 172 172 172
25.718750000000 28.140625000000 8.225997924805 160 160 160
25.718750000000 28.140625000000 8.241989135742 172 172 172
25.687500000000 28.140625000000 8.270996093750 176 176 176
25.656250000000 28.140625000000 8.252990722656 98 98 98
26.406250000000 28.109375000000 9.406997680664 134 134 134
26.406250000000 28.093750000000 9.472000122070 137 137 137
26.406250000000 28.093750000000 9.530990600586 137 137 137
26.406250000000 28.093750000000 9.591995239258 139 139 139
26.406250000000 28.093750000000 9.632995605469 166 166 166
26.375000000000 28.093750000000 9.664993286133 187 187 187
26.359375000000 28.078125000000 9.686996459961 192 192 192
26.343750000000 28.093750000000 9.725997924805 181 181 181
26.312500000000 28.078125000000 9.742996215820 177 177 177
26.296875000000 28.093750000000 9.791992187500 161 161 161
26.296875000000 28.093750000000 9.867996215820 145 145 145
26.312500000000 28.078125000000 9.955001831055 144 144 144
26.281250000000 28.093750000000 9.972991943359 150 150 150
26.375000000000 28.078125000000 10.196990966797 153 153 153
26.218750000000 28.078125000000 10.002990722656 166 166 166
26.093750000000 28.109375000000 9.820999145508 165 165 165
26.031250000000 28.109375000000 9.802993774414 168 168 168
26.000000000000 28.109375000000 9.810989379883 164 164 164
25.968750000000 28.109375000000 9.819992065430 164 164 164
25.921875000000 28.109375000000 9.812988281250 161 161 161
25.906250000000 28.125000000000 9.817993164063 161 161 161
25.859375000000 28.109375000000 9.825988769531 159 159 159
25.812500000000 28.109375000000 9.819992065430 156 156 156
25.875000000000 28.109375000000 10.013992309570 161 161 161
25.984375000000 28.109375000000 10.317993164063 153 153 153
25.937500000000 28.109375000000 10.313995361328 153 153 153
25.718750000000 28.109375000000 9.920989990234 159 159 159
25.687500000000 28.109375000000 9.924987792969 147 147 147
25.828125000000 28.109375000000 10.307998657227 125 125 125
25.781250000000 28.109375000000 10.309997558594 118 118 118
25.750000000000 28.109375000000 10.319992065430 123 123 123
25.734375000000 28.109375000000 10.349990844727 133 133 133
25.718750000000 28.109375000000 10.397994995117 140 140 140
25.687500000000 28.109375000000 10.445999145508 147 147 147
25.687500000000 28.109375000000 10.526000976563 146 146 146
25.687500000000 28.109375000000 10.617996215820 135 135 135
26.437500000000 28.109375000000 9.126998901367 120 120 120
26.437500000000 28.093750000000 9.399002075195 117 117 117
23.265625000000 28.250000000000 9.779998779297 129 129 129
23.296875000000 28.281250000000 9.728988647461 163 163 163
23.250000000000 28.359375000000 8.261001586914 220 220 220
23.250000000000 28.359375000000 8.244995117188 201 201 201
23.406250000000 28.343750000000 9.552993774414 124 124 124
23.437500000000 28.359375000000 9.541992187500 157 157 157
23.453125000000 28.359375000000 9.527999877930 140 140 140
23.390625000000 28.390625000000 8.625000000000 129 129 129
23.406250000000 28.390625000000 8.522994995117 147 147 147
23.421875000000 28.406250000000 8.505996704102 156 156 156
23.437500000000 28.421875000000 8.511001586914 172 172 172
23.468750000000 28.421875000000 8.533996582031 145 145 145
22.875000000000 28.437500000000 8.533996582031 90 90 90
22.906250000000 28.468750000000 8.502990722656 112 112 112
22.921875000000 28.484375000000 8.427993774414 138 138 138
22.937500000000 28.484375000000 8.507995605469 178 178 178
22.937500000000 28.484375000000 8.522994995117 162 162 162
22.968750000000 28.500000000000 8.534988403320 89 89 89
22.953125000000 28.406250000000 9.838989257813 127 127 127
22.984375000000 28.421875000000 9.820999145508 39 39 39
23.000000000000 28.453125000000 9.694000244141 58 58 58
23.031250000000 28.453125000000 9.692993164063 159 159 159
23.046875000000 28.453125000000 9.687988281250 180 180 180
23.078125000000 28.484375000000 9.707000732422 138 138 138
22.921875000000 28.390625000000 9.940002441406 102 102 102
22.375000000000 28.515625000000 8.526000976563 48 48 48
22.406250000000 28.515625000000 8.541000366211 145 145 145
22.437500000000 28.515625000000 8.507995605469 169 169 169
22.453125000000 28.546875000000 8.464996337891 161 161 161
22.468750000000 28.546875000000 8.504989624023 141 141 141
22.484375000000 28.562500000000 8.537994384766 117 117 117
23.296875000000 28.484375000000 9.740997314453 109 109 109
23.359375000000 28.468750000000 9.742996215820 88 88 88
23.375000000000 28.484375000000 9.743988037109 154 154 154
25.687500000000 28.265625000000 10.610992431641 127 127 127
25.687500000000 28.265625000000 10.522994995117 136 136 136
25.687500000000 28.265625000000 10.435989379883 140 140 140
25.687500000000 28.250000000000 10.373992919922 136 136 136
25.703125000000 28.265625000000 10.310989379883 136 136 136
25.734375000000 28.250000000000 10.296997070313 121 121 121
25.765625000000 28.265625000000 10.268997192383 105 105 105
25.812500000000 28.265625000000 10.270996093750 105 105 105
25.843750000000 28.250000000000 10.281997680664 100 100 100
25.875000000000 28.250000000000 10.268997192383 97 97 97
25.921875000000 28.250000000000 10.265991210938 99 99 99
25.953125000000 28.234375000000 10.269989013672 93 93 93
26.000000000000 28.234375000000 10.257995605469 92 92 92
25.843750000000 28.250000000000 9.853988647461 117 117 117
25.875000000000 28.250000000000 9.868988037109 133 133 133
25.937500000000 28.250000000000 9.910995483398 162 162 162
25.984375000000 28.250000000000 9.927993774414 163 163 163
26.031250000000 28.250000000000 9.940994262695 157 157 157
26.078125000000 28.250000000000 9.959991455078 155 155 155
26.171875000000 28.234375000000 10.067001342773 141 141 141
26.359375000000 28.203125000000 10.317993164063 121 121 121
26.390625000000 28.218750000000 10.302993774414 124 124 124
26.406250000000 28.203125000000 10.252990722656 116 116 116
26.437500000000 28.218750000000 10.218994140625 133 133 133
26.437500000000 28.218750000000 10.140991210938 120 120 120
26.437500000000 28.218750000000 10.063995361328 120 120 120
26.437500000000 28.218750000000 9.996002197266 122 122 122
26.437500000000 28.218750000000 9.924987792969 123 123 123
26.421875000000 28.218750000000 9.856002807617 117 117 117
26.406250000000 28.234375000000 9.771987915039 119 119 119
26.375000000000 28.218750000000 9.674987792969 131 131 131
26.406250000000 28.234375000000 9.638992309570 140 140 140
26.437500000000 28.218750000000 9.617996215820 135 135 135
26.437500000000 28.218750000000 9.554992675781 140 140 140
26.453125000000 28.218750000000 9.514999389648 189 189 189
26.453125000000 28.203125000000 9.460998535156 171 171 171
26.453125000000 28.203125000000 9.416992187500 171 171 171
26.468750000000 28.203125000000 9.382995605469 145 145 145
26.468750000000 28.203125000000 9.328994750977 136 136 136
26.484375000000 28.218750000000 9.284988403320 136 136 136
26.500000000000 28.203125000000 9.250000000000 122 122 122
26.406250000000 28.234375000000 9.074996948242 49 49 49
26.500000000000 28.203125000000 9.129989624023 104 104 104
26.531250000000 28.218750000000 9.134994506836 122 122 122
26.578125000000 28.203125000000 9.139999389648 135 135 135
26.609375000000 28.203125000000 9.125000000000 147 147 147
27.250000000000 28.156250000000 9.778991699219 152 152 152
27.265625000000 28.140625000000 9.731994628906 94 94 94
27.265625000000 28.140625000000 9.679992675781 100 100 100
27.281250000000 28.140625000000 9.628997802734 102 102 102
27.265625000000 28.140625000000 9.565002441406 98 98 98
27.296875000000 28.140625000000 9.545989990234 96 96 96
26.343750000000 28.250000000000 7.809997558594 97 97 97
26.343750000000 28.250000000000 7.787002563477 134 134 134
26.375000000000 28.234375000000 7.776992797852 34 34 34
23.687500000000 28.406250000000 9.703002929688 89 89 89
23.718750000000 28.390625000000 9.763992309570 124 124 124
23.640625000000 28.390625000000 8.531997680664 156 156 156
23.640625000000 28.375000000000 8.513000488281 179 179 179
23.656250000000 28.375000000000 8.514999389648 175 175 175
23.687500000000 28.359375000000 8.532989501953 149 149 149
23.796875000000 28.328125000000 9.364990234375 135 135 135
23.812500000000 28.312500000000 9.302001953125 155 155 155
23.828125000000 28.296875000000 9.296997070313 140 140 140
23.843750000000 28.281250000000 9.284988403320 65 65 65
24.250000000000 28.343750000000 9.725997924805 123 123 123
24.265625000000 28.328125000000 9.715988159180 167 167 167
24.281250000000 28.312500000000 9.718002319336 150 150 150
24.312500000000 28.296875000000 9.723999023438 47 47 47
24.265625000000 28.296875000000 8.976989746094 90 90 90
24.187500000000 28.328125000000 8.593002319336 150 150 150
24.187500000000 28.328125000000 8.521987915039 155 155 155
24.218750000000 28.328125000000 8.513992309570 172 172 172
24.234375000000 28.312500000000 8.521987915039 161 161 161
24.250000000000 28.296875000000 8.524993896484 119 119 119
24.765625000000 28.328125000000 9.737991333008 94 94 94
24.781250000000 28.296875000000 9.741989135742 153 153 153
24.812500000000 28.281250000000 9.735992431641 148 148 148
24.843750000000 28.265625000000 9.735992431641 81 81 81
24.765625000000 28.265625000000 8.767990112305 58 58 58
24.781250000000 28.265625000000 8.740997314453 140 140 140
24.765625000000 28.265625000000 8.668991088867 167 167 167
24.750000000000 28.265625000000 8.547988891602 157 157 157
24.750000000000 28.265625000000 8.515991210938 163 163 163
24.781250000000 28.265625000000 8.522994995117 151 151 151
24.796875000000 28.234375000000 8.515991210938 91 91 91
25.312500000000 28.250000000000 9.778991699219 116 116 116
25.328125000000 28.234375000000 9.754989624023 147 147 147
25.359375000000 28.218750000000 9.752990722656 127 127 127
25.250000000000 28.234375000000 8.455993652344 57 57 57
25.281250000000 28.234375000000 8.442993164063 134 134 134
25.281250000000 28.218750000000 8.425994873047 167 167 167
25.312500000000 28.203125000000 8.412994384766 183 183 183
25.312500000000 28.203125000000 8.409988403320 152 152 152
25.343750000000 28.171875000000 8.397994995117 58 58 58
25.718750000000 28.312500000000 10.621994018555 50 50 50
25.765625000000 28.281250000000 10.419998168945 18 18 18
25.796875000000 28.250000000000 10.414001464844 40 40 40
25.812500000000 28.250000000000 10.293991088867 105 105 105
25.843750000000 28.218750000000 10.302001953125 150 150 150
25.875000000000 28.203125000000 10.312988281250 160 160 160
25.906250000000 28.171875000000 10.311996459961 160 160 160
25.937500000000 28.156250000000 10.306991577148 159 159 159
25.968750000000 28.140625000000 10.298995971680 155 155 155
26.000000000000 28.109375000000 10.278991699219 125 125 125
25.812500000000 28.218750000000 9.845001220703 150 150 150
25.812500000000 28.234375000000 9.770996093750 166 166 166
25.843750000000 28.203125000000 9.765991210938 165 165 165
25.875000000000 28.187500000000 9.753997802734 169 169 169
25.906250000000 28.171875000000 9.759994506836 165 165 165
25.937500000000 28.156250000000 9.774002075195 159 159 159
25.968750000000 28.125000000000 9.782989501953 131 131 131
25.718750000000 28.234375000000 8.175994873047 74 74 74
25.750000000000 28.203125000000 8.175994873047 102 102 102
25.765625000000 28.203125000000 8.151992797852 154 154 154
25.765625000000 28.203125000000 8.123001098633 191 191 191
25.796875000000 28.203125000000 8.108993530273 185 185 185
25.796875000000 28.171875000000 8.097991943359 174 174 174
25.828125000000 28.171875000000 8.093994140625 162 162 162
25.843750000000 28.156250000000 8.069000244141 98 98 98
25.843750000000 28.140625000000 8.055999755859 90 90 90
26.453125000000 28.156250000000 10.965988159180 67 67 67
26.453125000000 28.156250000000 10.893997192383 103 103 103
26.437500000000 28.156250000000 10.804992675781 118 118 118
26.437500000000 28.140625000000 10.740997314453 109 109 109
26.437500000000 28.140625000000 10.659988403320 123 123 123
26.437500000000 28.140625000000 10.576995849609 124 124 124
26.390625000000 28.171875000000 10.417999267578 128 128 128
26.343750000000 28.203125000000 10.289993286133 132 132 132
26.375000000000 28.171875000000 10.282989501953 151 151 151
26.421875000000 28.156250000000 10.278991699219 155 155 155
26.437500000000 28.140625000000 10.235992431641 139 139 139
26.421875000000 28.125000000000 10.167999267578 129 129 129
26.421875000000 28.125000000000 10.103988647461 137 137 137
26.421875000000 28.125000000000 10.039993286133 141 141 141
26.421875000000 28.140625000000 9.974990844727 135 135 135
26.421875000000 28.125000000000 9.916992187500 136 136 136
26.375000000000 28.171875000000 9.761001586914 158 158 158
26.343750000000 28.171875000000 9.688995361328 184 184 184
26.359375000000 28.156250000000 9.649002075195 184 184 184
26.390625000000 28.140625000000 9.627990722656 184 184 184
26.421875000000 28.140625000000 9.611999511719 146 146 146
26.406250000000 28.125000000000 9.562988281250 138 138 138
26.406250000000 28.125000000000 9.506988525391 141 141 141
26.406250000000 28.125000000000 9.455993652344 143 143 143
26.406250000000 28.125000000000 9.395996093750 139 139 139
26.406250000000 28.125000000000 9.338989257813 139 139 139
26.406250000000 28.125000000000 9.287002563477 139 139 139
26.406250000000 28.125000000000 9.240997314453 143 143 143
26.406250000000 28.125000000000 9.188995361328 140 140 140
26.406250000000 28.125000000000 9.136001586914 141 141 141
26.406250000000 28.125000000000 9.087997436523 143 143 143
26.390625000000 28.125000000000 9.035995483398 141 141 141
26.406250000000 28.109375000000 8.994995117188 142 142 142
26.406250000000 28.109375000000 8.948989868164 144 144 144
26.406250000000 28.109375000000 8.901992797852 145 145 145
26.390625000000 28.109375000000 8.849990844727 146 146 146
26.406250000000 28.109375000000 8.811996459961 143 143 143
26.390625000000 28.109375000000 8.761001586914 141 141 141
26.390625000000 28.109375000000 8.714996337891 142 142 142
26.375000000000 28.109375000000 8.669998168945 143 143 143
26.375000000000 28.109375000000 8.628997802734 144 144 144
26.390625000000 28.109375000000 8.588989257813 146 146 146
26.390625000000 28.109375000000 8.550994873047 144 144 144
26.375000000000 28.109375000000 8.496002197266 142 142 142
26.375000000000 28.109375000000 8.461990356445 145 145 145
26.390625000000 28.109375000000 8.425994873047 149 149 149
26.375000000000 28.109375000000 8.375000000000 150 150 150
26.375000000000 28.093750000000 8.339996337891 146 146 146
26.375000000000 28.093750000000 8.304000854492 147 147 147
26.375000000000 28.109375000000 8.259994506836 148 148 148
26.375000000000 28.109375000000 8.222991943359 150 150 150
26.359375000000 28.109375000000 8.179992675781 149 149 149
26.375000000000 28.109375000000 8.144989013672 150 150 150
26.375000000000 28.109375000000 8.110992431641 150 150 150
26.375000000000 28.109375000000 8.072998046875 152 152 152
26.359375000000 28.109375000000 8.034988403320 153 153 153
26.312500000000 28.140625000000 7.942001342773 159 159 159
26.281250000000 28.156250000000 7.879989624023 172 172 172
26.281250000000 28.156250000000 7.838989257813 186 186 186
26.281250000000 28.156250000000 7.805999755859 185 185 185
26.281250000000 28.140625000000 7.787994384766 189 189 189
26.312500000000 28.140625000000 7.772994995117 182 182 182
26.312500000000 28.125000000000 7.753997802734 184 184 184
26.343750000000 28.109375000000 7.748992919922 159 159 159
26.343750000000 28.109375000000 7.720001220703 157 157 157
26.359375000000 28.109375000000 7.690994262695 155 155 155
26.343750000000 28.109375000000 7.651992797852 157 157 157
26.343750000000 28.093750000000 7.623992919922 156 156 156
26.343750000000 28.093750000000 7.593002319336 153 153 153
26.359375000000 28.078125000000 7.562988281250 153 153 153
26.343750000000 28.093750000000 7.529998779297 155 155 155
26.343750000000 28.093750000000 7.494995117188 155 155 155
26.343750000000 28.093750000000 7.463989257813 155 155 155
26.343750000000 28.093750000000 7.436996459961 155 155 155
26.343750000000 28.093750000000 7.403991699219 152 152 152
26.343750000000 28.093750000000 7.375000000000 154 154 154
26.343750000000 28.093750000000 7.347991943359 154 154 154
26.343750000000 28.093750000000 7.317001342773 155 155 155
26.343750000000 28.093750000000 7.285995483398 154 154 154
26.343750000000 28.093750000000 7.255996704102 154 154 154
26.343750000000 28.093750000000 7.225997924805 154 154 154
26.343750000000 28.093750000000 7.194992065430 154 154 154
26.328125000000 28.093750000000 7.164993286133 155 155 155
26.343750000000 28.093750000000 7.138992309570 154 154 154
26.343750000000 28.093750000000 7.115997314453 155 155 155
26.328125000000 28.093750000000 7.080993652344 155 155 155
26.343750000000 28.093750000000 7.057998657227 155 155 155
26.343750000000 28.093750000000 7.027999877930 156 156 156
26.328125000000 28.093750000000 6.996994018555 156 156 156
26.343750000000 28.093750000000 6.973999023438 157 157 157
26.328125000000 28.093750000000 6.944992065430 159 159 159
26.328125000000 28.078125000000 6.918991088867 157 157 157
26.328125000000 28.078125000000 6.890991210938 157 157 157
26.328125000000 28.078125000000 6.865997314453 157 157 157
26.328125000000 28.078125000000 6.837997436523 158 158 158
26.328125000000 28.078125000000 6.815994262695 155 155 155
26.312500000000 28.078125000000 6.783996582031 157 157 157
26.328125000000 28.078125000000 6.759002685547 159 159 159
26.312500000000 28.078125000000 6.731994628906 159 159 159
26.328125000000 28.078125000000 6.708999633789 158 158 158
26.312500000000 28.078125000000 6.680999755859 159 159 159
26.328125000000 28.078125000000 6.660995483398 158 158 158
26.312500000000 28.078125000000 6.628997802734 158 158 158
26.312500000000 28.078125000000 6.604995727539 159 159 159
26.312500000000 28.078125000000 6.582992553711 159 159 159
26.312500000000 28.078125000000 6.557998657227 158 158 158
26.312500000000 28.078125000000 6.533996582031 159 159 159
26.312500000000 28.078125000000 6.509994506836 157 157 157
26.312500000000 28.078125000000 6.483001708984 158 158 158
26.312500000000 28.078125000000 6.460998535156 161 161 161
26.312500000000 28.078125000000 6.435989379883 158 158 158
26.312500000000 28.078125000000 6.409988403320 157 157 157
26.312500000000 28.078125000000 6.389999389648 158 158 158
26.312500000000 28.078125000000 6.364990234375 158 158 158
26.312500000000 28.078125000000 6.341995239258 159 159 159
26.312500000000 28.078125000000 6.317993164063 158 158 158
26.312500000000 28.078125000000 6.294998168945 158 158 158
26.312500000000 28.078125000000 6.269989013672 161 161 161
26.312500000000 28.078125000000 6.248001098633 160 160 160
26.312500000000 28.062500000000 6.225997924805 160 160 160
26.312500000000 28.062500000000 6.203002929688 161 161 161
26.312500000000 28.078125000000 6.177001953125 159 159 159
26.312500000000 28.078125000000 6.155990600586 161 161 161
26.312500000000 28.062500000000 6.134994506836 160 160 160
26.312500000000 28.078125000000 6.110000610352 160 160 160
26.312500000000 28.078125000000 6.086990356445 161 161 161
26.312500000000 28.078125000000 6.065002441406 159 159 159
26.312500000000 28.078125000000 6.042999267578 159 159 159
26.312500000000 28.078125000000 6.018997192383 158 158 158
26.312500000000 28.078125000000 5.998001098633 158 158 158
26.312500000000 28.062500000000 5.976989746094 159 159 159
26.296875000000 28.078125000000 5.950988769531 160 160 160
26.296875000000 28.078125000000 5.930999755859 160 160 160
26.312500000000 28.078125000000 5.909988403320 158 158 158
26.296875000000 28.078125000000 5.886993408203 160 160 160
26.312500000000 28.078125000000 5.865997314453 159 159 159
26.843750000000 28.171875000000 10.408996582031 23 23 23
26.875000000000 28.156250000000 10.401992797852 116 116 116
26.937500000000 28.093750000000 10.429000854492 143 143 143
26.968750000000 28.078125000000 10.416000366211 143 143 143
27.015625000000 28.046875000000 10.418991088867 144 144 144
27.046875000000 28.015625000000 10.408996582031 132 132 132
27.062500000000 28.015625000000 10.367996215820 86 86 86
26.781250000000 28.171875000000 9.466995239258 16 16 16
26.781250000000 28.171875000000 9.422988891602 90 90 90
26.687500000000 28.234375000000 9.246002197266 142 142 142
26.906250000000 28.093750000000 9.462997436523 145 145 145
26.937500000000 28.062500000000 9.458999633789 146 146 146
26.968750000000 28.046875000000 9.453994750977 140 140 140
27.000000000000 28.015625000000 9.435989379883 118 118 118
27.015625000000 28.015625000000 9.408996582031 64 64 64
26.625000000000 28.187500000000 6.778991699219 43 43 43
26.625000000000 28.187500000000 6.751998901367 55 55 55
26.625000000000 28.203125000000 6.720993041992 61 61 61
26.609375000000 28.187500000000 6.695999145508 67 67 67
26.625000000000 28.171875000000 6.675994873047 73 73 73
26.625000000000 28.171875000000 6.646987915039 79 79 79
26.625000000000 28.171875000000 6.623992919922 82 82 82
26.609375000000 28.187500000000 6.587997436523 87 87 87
26.625000000000 28.171875000000 6.569992065430 85 85 85
26.625000000000 28.171875000000 6.544998168945 93 93 93
26.625000000000 28.171875000000 6.518997192383 91 91 91
26.625000000000 28.187500000000 6.488998413086 91 91 91
26.625000000000 28.187500000000 6.462997436523 93 93 93
26.609375000000 28.187500000000 6.434997558594 99 99 99
26.625000000000 28.171875000000 6.412994384766 98 98 98
26.625000000000 28.187500000000 6.386001586914 99 99 99
26.625000000000 28.187500000000 6.360000610352 99 99 99
26.625000000000 28.187500000000 6.334991455078 104 104 104
26.609375000000 28.187500000000 6.308990478516 107 107 107
26.625000000000 28.171875000000 6.287002563477 113 113 113
26.625000000000 28.187500000000 6.259994506836 109 109 109
26.625000000000 28.187500000000 6.235000610352 116 116 116
26.625000000000 28.171875000000 6.212997436523 113 113 113
26.625000000000 28.171875000000 6.187988281250 119 119 119
26.609375000000 28.171875000000 6.159988403320 124 124 124
26.609375000000 28.171875000000 6.138000488281 126 126 126
26.609375000000 28.171875000000 6.112991333008 132 132 132
26.609375000000 28.171875000000 6.087997436523 132 132 132
26.625000000000 28.171875000000 6.065994262695 130 130 130
26.609375000000 28.171875000000 6.039001464844 135 135 135
26.609375000000 28.171875000000 6.015991210938 131 131 131
26.609375000000 28.171875000000 5.991989135742 133 133 133
26.609375000000 28.171875000000 5.966995239258 133 133 133
26.609375000000 28.171875000000 5.942993164063 134 134 134
26.609375000000 28.171875000000 5.918991088867 134 134 134
26.593750000000 28.171875000000 5.892990112305 132 132 132
26.609375000000 28.171875000000 5.871002197266 133 133 133
26.609375000000 28.171875000000 5.845993041992 132 132 132
26.609375000000 28.171875000000 5.823989868164 135 135 135
27.250000000000 28.203125000000 10.780990600586 25 25 25
27.265625000000 28.203125000000 10.739990234375 110 110 110
