31.171875000000 17.343750000000 8.086990356445 72 72 72
31.156250000000 17.015625000000 7.401000976563 148 148 148
31.125000000000 16.984375000000 7.938995361328 39 39 39
31.062500000000 16.687500000000 7.090988159180 98 98 98
31.093750000000 16.671875000000 7.368988037109 128 128 128
31.093750000000 16.671875000000 7.417999267578 65 65 65
31.046875000000 16.671875000000 7.843994140625 38 38 38
31.000000000000 16.359375000000 7.101989746094 101 101 101
31.031250000000 16.359375000000 7.373992919922 140 140 140
31.031250000000 16.359375000000 7.427993774414 4 4 4
31.015625000000 16.359375000000 7.694000244141 57 57 57
30.953125000000 16.046875000000 7.102996826172 79 79 79
30.968750000000 16.046875000000 7.373992919922 141 141 141
30.968750000000 16.046875000000 7.588989257813 89 89 89
30.906250000000 15.734375000000 7.059997558594 82 82 82
30.953125000000 15.734375000000 7.335998535156 70 70 70
30.921875000000 15.734375000000 7.378997802734 116 116 116
30.937500000000 15.734375000000 7.488998413086 69 69 69
30.843750000000 15.421875000000 7.073989868164 161 161 161
30.859375000000 15.421875000000 7.129989624023 194 194 194
30.875000000000 15.421875000000 7.185989379883 192 192 192
30.890625000000 15.421875000000 7.246002197266 185 185 185
30.906250000000 15.421875000000 7.300994873047 8 8 8
30.875000000000 15.406250000000 7.345001220703 127 127 127
30.875000000000 15.421875000000 7.393997192383 31 31 31
30.765625000000 15.078125000000 7.041992187500 109 109 109
30.781250000000 15.078125000000 7.099990844727 192 192 192
30.812500000000 15.078125000000 7.157989501953 166 166 166
30.828125000000 15.078125000000 7.214996337891 162 162 162
30.828125000000 15.078125000000 7.268997192383 125 125 125
30.828125000000 15.078125000000 7.320999145508 86 86 86
30.812500000000 15.078125000000 7.365997314453 105 105 105
30.718750000000 14.750000000000 7.063995361328 146 146 146
30.734375000000 14.750000000000 7.121002197266 152 152 152
30.750000000000 14.765625000000 7.174987792969 113 113 113
30.781250000000 14.765625000000 7.240997314453 168 168 168
30.781250000000 14.750000000000 7.289001464844 49 49 49
30.765625000000 14.750000000000 7.336990356445 137 137 137
30.765625000000 14.750000000000 7.388000488281 53 53 53
30.656250000000 14.437500000000 7.071990966797 150 150 150
30.656250000000 14.437500000000 7.123992919922 152 152 152
30.703125000000 14.437500000000 7.184997558594 189 189 189
30.718750000000 14.421875000000 7.244995117188 176 176 176
30.718750000000 14.421875000000 7.295989990234 28 28 28
30.718750000000 14.437500000000 7.343002319336 141 141 141
30.718750000000 14.437500000000 7.392990112305 27 27 27
30.718750000000 14.593750000000 7.365997314453 67 67 67
30.734375000000 14.578125000000 7.317001342773 123 123 123
30.765625000000 14.578125000000 7.274993896484 64 64 64
30.750000000000 14.578125000000 7.218002319336 176 176 176
30.718750000000 14.593750000000 7.158996582031 177 177 177
30.703125000000 14.578125000000 7.099990844727 179 179 179
30.687500000000 14.593750000000 7.042999267578 139 139 139
30.781250000000 14.875000000000 7.347000122070 137 137 137
30.796875000000 14.875000000000 7.300994873047 40 40 40
30.796875000000 14.875000000000 7.248001098633 149 149 149
30.781250000000 14.875000000000 7.192001342773 145 145 145
30.765625000000 14.875000000000 7.134994506836 128 128 128
30.750000000000 14.890625000000 7.078994750977 181 181 181
30.734375000000 14.875000000000 7.024993896484 77 77 77
30.843750000000 15.156250000000 7.384002685547 31 31 31
30.828125000000 15.156250000000 7.328002929688 144 144 144
30.843750000000 15.156250000000 7.281997680664 18 18 18
30.859375000000 15.171875000000 7.233001708984 169 169 169
30.828125000000 15.156250000000 7.170989990234 100 100 100
30.812500000000 15.171875000000 7.114990234375 178 178 178
30.781250000000 15.156250000000 7.052993774414 158 158 158
30.875000000000 15.468750000000 7.371994018555 65 65 65
30.875000000000 15.453125000000 7.315994262695 114 114 114
30.906250000000 15.453125000000 7.278991699219 96 96 96
30.890625000000 15.453125000000 7.215988159180 137 137 137
30.875000000000 15.468750000000 7.160995483398 140 140 140
30.859375000000 15.468750000000 7.103988647461 145 145 145
30.843750000000 15.453125000000 7.044998168945 122 122 122
30.921875000000 15.750000000000 7.479995727539 58 58 58
30.937500000000 15.750000000000 7.377990722656 63 63 63
30.937500000000 15.765625000000 7.324996948242 119 119 119
30.890625000000 15.765625000000 7.047988891602 101 101 101
30.968750000000 16.078125000000 7.595993041992 74 74 74
30.968750000000 16.078125000000 7.378997802734 67 67 67
31.000000000000 16.078125000000 7.330993652344 112 112 112
30.953125000000 16.078125000000 7.057998657227 104 104 104
31.015625000000 16.375000000000 7.696990966797 74 74 74
31.015625000000 16.375000000000 7.373001098633 122 122 122
31.046875000000 16.390625000000 7.326995849609 49 49 49
31.000000000000 16.390625000000 7.099990844727 11 11 11
31.015625000000 16.390625000000 7.050994873047 51 51 51
31.046875000000 16.656250000000 7.833999633789 13 13 13
31.078125000000 16.671875000000 7.405990600586 53 53 53
31.093750000000 16.671875000000 7.358993530273 123 123 123
31.062500000000 16.671875000000 7.082000732422 97 97 97
31.109375000000 16.937500000000 7.934997558594 66 66 66
31.109375000000 16.937500000000 7.384994506836 118 118 118
31.156250000000 16.937500000000 7.341995239258 25 25 25
31.156250000000 17.234375000000 8.041992187500 65 65 65
31.187500000000 17.250000000000 7.380996704102 134 134 134
31.234375000000 17.546875000000 8.166992187500 22 22 22
31.234375000000 17.546875000000 7.433990478516 17 17 17
31.234375000000 17.546875000000 7.379989624023 124 124 124
31.250000000000 17.859375000000 8.323989868164 31 31 31
31.281250000000 17.859375000000 7.429992675781 89 89 89
31.296875000000 17.859375000000 7.379989624023 76 76 76
31.281250000000 18.140625000000 8.427001953125 89 89 89
31.343750000000 18.156250000000 7.418991088867 143 143 143
31.312500000000 18.437500000000 8.632995605469 45 45 45
31.328125000000 18.437500000000 8.578002929688 119 119 119
31.343750000000 18.421875000000 8.521987915039 114 114 114
31.312500000000 18.437500000000 8.455993652344 110 110 110
31.328125000000 18.437500000000 8.399993896484 135 135 135
31.343750000000 18.421875000000 8.343994140625 139 139 139
31.328125000000 18.437500000000 8.281997680664 136 136 136
31.343750000000 18.421875000000 8.228988647461 142 142 142
31.343750000000 18.437500000000 8.170989990234 138 138 138
31.343750000000 18.421875000000 8.108993530273 140 140 140
31.359375000000 18.437500000000 8.057998657227 137 137 137
31.359375000000 18.437500000000 7.998992919922 139 139 139
31.343750000000 18.453125000000 7.936996459961 139 139 139
31.343750000000 18.453125000000 7.880996704102 139 139 139
31.343750000000 18.437500000000 7.826995849609 139 139 139
31.343750000000 18.437500000000 7.767990112305 140 140 140
31.359375000000 18.437500000000 7.714996337891 141 141 141
31.343750000000 18.437500000000 7.655990600586 136 136 136
31.343750000000 18.437500000000 7.600997924805 134 134 134
31.343750000000 18.437500000000 7.544998168945 132 132 132
31.343750000000 18.437500000000 7.489990234375 134 134 134
31.343750000000 18.437500000000 7.433990478516 102 102 102
31.343750000000 18.437500000000 7.379989624023 133 133 133
31.359375000000 18.453125000000 7.328994750977 137 137 137
31.375000000000 18.453125000000 7.276000976563 134 134 134
31.359375000000 18.453125000000 7.218994140625 136 136 136
31.359375000000 18.453125000000 7.164993286133 139 139 139
31.375000000000 18.453125000000 7.112991333008 141 141 141
31.375000000000 18.453125000000 7.059997558594 144 144 144
31.375000000000 18.453125000000 7.005996704102 143 143 143
31.375000000000 18.453125000000 6.950988769531 143 143 143
31.390625000000 18.453125000000 6.901000976563 146 146 146
31.390625000000 18.453125000000 6.847991943359 164 164 164
31.375000000000 18.468750000000 6.792999267578 159 159 159
31.390625000000 18.453125000000 6.741989135742 150 150 150
31.390625000000 18.453125000000 6.687988281250 158 158 158
31.406250000000 18.453125000000 6.638000488281 158 158 158
31.406250000000 18.453125000000 6.585998535156 163 163 163
31.406250000000 18.453125000000 6.533996582031 163 163 163
31.406250000000 18.453125000000 6.481994628906 170 170 170
31.406250000000 18.453125000000 6.429000854492 171 171 171
31.437500000000 18.468750000000 6.379989624023 172 172 172
31.421875000000 18.468750000000 6.326995849609 172 172 172
31.437500000000 18.468750000000 6.276000976563 171 171 171
31.437500000000 18.468750000000 6.223999023438 172 172 172
31.437500000000 18.468750000000 6.173995971680 171 171 171
31.437500000000 18.453125000000 6.123001098633 180 180 180
31.437500000000 18.453125000000 6.070999145508 177 177 177
31.437500000000 18.453125000000 6.018997192383 169 169 169
31.437500000000 18.453125000000 5.968002319336 158 158 158
31.437500000000 18.484375000000 5.916000366211 155 155 155
31.453125000000 18.468750000000 5.865997314453 150 150 150
31.468750000000 18.468750000000 5.815994262695 150 150 150
31.453125000000 18.468750000000 5.763992309570 149 149 149
31.453125000000 18.468750000000 5.711990356445 149 149 149
31.453125000000 18.468750000000 5.660995483398 133 133 133
31.453125000000 18.468750000000 5.610000610352 156 156 156
31.468750000000 18.468750000000 5.559997558594 161 161 161
31.453125000000 18.468750000000 5.506988525391 162 162 162
31.484375000000 18.484375000000 5.457992553711 169 169 169
31.468750000000 18.484375000000 5.405990600586 149 149 149
31.484375000000 18.484375000000 5.356994628906 155 155 155
31.484375000000 18.484375000000 5.304992675781 151 151 151
31.484375000000 18.484375000000 5.253997802734 146 146 146
31.484375000000 18.484375000000 5.203994750977 146 146 146
31.484375000000 18.484375000000 5.151992797852 140 140 140
31.484375000000 18.484375000000 5.101989746094 122 122 122
31.484375000000 18.484375000000 5.050994873047 127 127 127
31.484375000000 18.484375000000 5.000000000000 128 128 128
31.500000000000 18.484375000000 4.948989868164 118 118 118
31.500000000000 18.484375000000 4.899002075195 114 114 114
31.500000000000 18.484375000000 4.847991943359 128 128 128
31.531250000000 18.484375000000 4.796997070313 118 118 118
31.515625000000 18.484375000000 4.746002197266 103 103 103
31.515625000000 18.484375000000 4.694992065430 114 114 114
31.515625000000 18.484375000000 4.643997192383 101 101 101
31.531250000000 18.484375000000 4.593002319336 113 113 113
31.546875000000 18.484375000000 4.541992187500 109 109 109
31.546875000000 18.484375000000 4.490997314453 96 96 96
31.562500000000 18.484375000000 4.440002441406 98 98 98
31.546875000000 18.484375000000 4.388992309570 94 94 94
31.546875000000 18.484375000000 4.336990356445 87 87 87
31.546875000000 18.484375000000 4.285995483398 85 85 85
31.562500000000 18.484375000000 4.233993530273 89 89 89
31.562500000000 18.484375000000 4.182998657227 81 81 81
31.562500000000 18.484375000000 4.131988525391 77 77 77
31.578125000000 18.484375000000 4.078994750977 76 76 76
31.562500000000 18.484375000000 4.028991699219 66 66 66
31.546875000000 18.484375000000 3.977996826172 66 66 66
31.578125000000 18.484375000000 3.924987792969 68 68 68
31.562500000000 18.484375000000 3.875000000000 62 62 62
31.578125000000 18.484375000000 3.820999145508 62 62 62
31.578125000000 18.484375000000 3.768997192383 69 69 69
31.578125000000 18.484375000000 3.716995239258 64 64 64
31.578125000000 18.484375000000 3.664993286133 68 68 68
31.578125000000 18.484375000000 3.612991333008 67 67 67
31.578125000000 18.484375000000 3.559997558594 70 70 70
31.593750000000 18.484375000000 3.507995605469 57 57 57
31.593750000000 18.484375000000 3.453994750977 79 79 79
31.593750000000 18.484375000000 3.402999877930 77 77 77
31.593750000000 18.484375000000 3.348999023438 82 82 82
31.593750000000 18.484375000000 3.298995971680 86 86 86
31.593750000000 18.484375000000 3.243988037109 82 82 82
31.625000000000 18.500000000000 3.134002685547 125 125 125
31.812500000000 18.484375000000 3.044998168945 49 49 49
31.812500000000 18.484375000000 2.994995117188 49 49 49
30.750000000000 14.484375000000 7.356002807617 112 112 112
30.781250000000 14.484375000000 7.302001953125 17 17 17
30.781250000000 14.484375000000 7.242996215820 163 163 163
30.750000000000 14.484375000000 7.181991577148 171 171 171
30.718750000000 14.500000000000 7.115997314453 174 174 174
30.718750000000 14.515625000000 7.054992675781 138 138 138
30.796875000000 14.765625000000 7.332000732422 119 119 119
30.828125000000 14.734375000000 7.282989501953 15 15 15
30.812500000000 14.734375000000 7.220993041992 146 146 146
30.796875000000 14.765625000000 7.156997680664 127 127 127
30.765625000000 14.765625000000 7.091995239258 167 167 167
30.750000000000 14.781250000000 7.029998779297 91 91 91
30.843750000000 15.031250000000 7.376998901367 26 26 26
30.843750000000 15.031250000000 7.319992065430 91 91 91
30.859375000000 15.015625000000 7.267990112305 97 97 97
30.859375000000 15.031250000000 7.205993652344 153 153 153
30.828125000000 15.031250000000 7.141998291016 143 143 143
30.812500000000 15.046875000000 7.078994750977 175 175 175
30.781250000000 15.046875000000 7.016998291016 24 24 24
30.890625000000 15.328125000000 7.373001098633 76 76 76
30.890625000000 15.328125000000 7.311996459961 66 66 66
30.906250000000 15.312500000000 7.261993408203 120 120 120
30.890625000000 15.328125000000 7.194992065430 138 138 138
30.875000000000 15.343750000000 7.131988525391 122 122 122
30.859375000000 15.343750000000 7.069000244141 169 169 169
30.843750000000 15.359375000000 7.009994506836 6 6 6
30.937500000000 15.625000000000 7.417999267578 75 75 75
30.937500000000 15.625000000000 7.358001708984 107 107 107
30.937500000000 15.609375000000 7.302001953125 76 76 76
30.906250000000 15.640625000000 7.054000854492 95 95 95
31.000000000000 15.890625000000 7.513992309570 58 58 58
30.968750000000 15.890625000000 7.390991210938 87 87 87
30.968750000000 15.875000000000 7.333999633789 97 97 97
31.000000000000 15.859375000000 7.280990600586 81 81 81
30.984375000000 15.875000000000 7.214996337891 87 87 87
30.984375000000 15.875000000000 7.155990600586 93 93 93
30.953125000000 15.890625000000 7.090988159180 113 113 113
31.000000000000 16.171875000000 7.597991943359 52 52 52
31.031250000000 16.140625000000 7.364990234375 116 116 116
31.000000000000 16.140625000000 7.060989379883 71 71 71
31.062500000000 16.437500000000 7.705001831055 35 35 35
31.078125000000 16.406250000000 7.405990600586 38 38 38
31.062500000000 16.421875000000 7.343994140625 90 90 90
31.046875000000 16.421875000000 7.100997924805 47 47 47
31.109375000000 16.718750000000 7.819992065430 35 35 35
31.109375000000 16.703125000000 7.395996093750 84 84 84
31.125000000000 16.671875000000 7.341995239258 51 51 51
31.093750000000 16.703125000000 7.090988159180 76 76 76
31.140625000000 17.031250000000 7.938995361328 40 40 40
31.171875000000 16.984375000000 7.396987915039 109 109 109
31.218750000000 17.296875000000 8.055999755859 47 47 47
31.218750000000 17.250000000000 7.384994506836 114 114 114
31.218750000000 17.578125000000 8.211990356445 12 12 12
31.265625000000 17.515625000000 7.416992187500 113 113 113
31.296875000000 17.828125000000 8.317993164063 48 48 48
31.312500000000 17.796875000000 7.447998046875 31 31 31
31.312500000000 17.765625000000 7.391998291016 76 76 76
31.328125000000 18.109375000000 8.433990478516 36 36 36
31.359375000000 18.062500000000 7.434997558594 107 107 107
31.343750000000 18.421875000000 8.614990234375 127 127 127
31.375000000000 18.421875000000 8.552993774414 148 148 148
31.359375000000 18.421875000000 8.485992431641 111 111 111
31.359375000000 18.421875000000 8.419998168945 154 154 154
31.375000000000 18.390625000000 8.360000610352 146 146 146
31.359375000000 18.406250000000 8.293991088867 143 143 143
31.359375000000 18.406250000000 8.229995727539 145 145 145
31.359375000000 18.406250000000 8.166000366211 147 147 147
31.359375000000 18.406250000000 8.099990844727 136 136 136
31.375000000000 18.390625000000 8.039993286133 140 140 140
31.375000000000 18.390625000000 7.979995727539 123 123 123
31.359375000000 18.390625000000 7.914001464844 107 107 107
31.375000000000 18.375000000000 7.854995727539 96 96 96
31.375000000000 18.390625000000 7.789993286133 90 90 90
31.375000000000 18.375000000000 7.729995727539 85 85 85
31.375000000000 18.390625000000 7.664001464844 75 75 75
31.406250000000 18.359375000000 7.610992431641 30 30 30
31.328125000000 18.390625000000 7.468002319336 44 44 44
31.359375000000 18.359375000000 7.416000366211 100 100 100
31.515625000000 18.578125000000 6.642990112305 46 46 46
31.515625000000 18.562500000000 6.582000732422 95 95 95
31.500000000000 18.562500000000 6.518997192383 95 95 95
31.500000000000 18.562500000000 6.457000732422 99 99 99
31.500000000000 18.562500000000 6.397994995117 96 96 96
31.500000000000 18.562500000000 6.337997436523 134 134 134
31.484375000000 18.562500000000 6.276000976563 148 148 148
31.500000000000 18.562500000000 6.216995239258 159 159 159
31.484375000000 18.562500000000 6.155990600586 165 165 165
31.484375000000 18.578125000000 6.095001220703 168 168 168
31.484375000000 18.562500000000 6.035995483398 169 169 169
31.484375000000 18.562500000000 5.975997924805 168 168 168
31.484375000000 18.562500000000 5.916992187500 170 170 170
31.484375000000 18.578125000000 5.856002807617 170 170 170
31.484375000000 18.546875000000 5.797988891602 167 167 167
31.468750000000 18.546875000000 5.737991333008 162 162 162
31.484375000000 18.546875000000 5.679000854492 181 181 181
31.500000000000 18.546875000000 5.619995117188 185 185 185
31.484375000000 18.546875000000 5.559997558594 187 187 187
31.484375000000 18.546875000000 5.500991821289 188 188 188
31.484375000000 18.546875000000 5.442001342773 185 185 185
31.484375000000 18.531250000000 5.382995605469 185 185 185
31.484375000000 18.531250000000 5.322998046875 183 183 183
31.484375000000 18.531250000000 5.263992309570 186 186 186
31.500000000000 18.531250000000 5.205001831055 186 186 186
31.500000000000 18.531250000000 5.145996093750 174 174 174
31.500000000000 18.531250000000 5.086990356445 175 175 175
31.500000000000 18.515625000000 5.027999877930 162 162 162
31.500000000000 18.515625000000 4.968002319336 158 158 158
31.515625000000 18.515625000000 4.908996582031 143 143 143
31.515625000000 18.515625000000 4.849990844727 132 132 132
31.515625000000 18.515625000000 4.789993286133 117 117 117
31.531250000000 18.500000000000 4.729995727539 118 118 118
31.515625000000 18.500000000000 4.670989990234 78 78 78
31.515625000000 18.500000000000 4.611999511719 14 14 14
31.687500000000 18.671875000000 3.901992797852 13 13 13
31.687500000000 18.671875000000 3.840988159180 60 60 60
31.671875000000 18.671875000000 3.780990600586 84 84 84
31.671875000000 18.671875000000 3.718994140625 99 99 99
31.671875000000 18.671875000000 3.657989501953 98 98 98
31.656250000000 18.671875000000 3.597000122070 104 104 104
31.656250000000 18.671875000000 3.535995483398 113 113 113
31.656250000000 18.671875000000 3.474990844727 120 120 120
31.656250000000 18.671875000000 3.412002563477 133 133 133
31.656250000000 18.656250000000 3.348999023438 143 143 143
31.656250000000 18.671875000000 3.287994384766 145 145 145
31.656250000000 18.671875000000 3.226989746094 148 148 148
31.656250000000 18.671875000000 3.162994384766 161 161 161
31.656250000000 18.656250000000 3.099990844727 158 158 158
31.656250000000 18.671875000000 3.039001464844 162 162 162
31.656250000000 18.640625000000 2.975997924805 153 153 153
31.640625000000 18.640625000000 2.914001464844 145 145 145
31.640625000000 18.640625000000 2.849990844727 142 142 142
31.640625000000 18.640625000000 2.787002563477 145 145 145
31.656250000000 18.640625000000 2.722000122070 138 138 138
31.640625000000 18.656250000000 2.660995483398 141 141 141
31.640625000000 18.640625000000 2.595993041992 136 136 136
31.640625000000 18.640625000000 2.532989501953 134 134 134
31.531250000000 18.703125000000 2.498001098633 142 142 142
30.656250000000 14.546875000000 7.029998779297 96 96 96
30.687500000000 14.562500000000 7.093994140625 146 146 146
30.687500000000 14.562500000000 7.152999877930 162 162 162
30.734375000000 14.578125000000 7.218002319336 175 175 175
30.734375000000 14.578125000000 7.276992797852 27 27 27
30.687500000000 14.546875000000 7.320999145508 115 115 115
30.687500000000 14.546875000000 7.377990722656 19 19 19
30.734375000000 14.875000000000 7.013992309570 23 23 23
30.718750000000 14.859375000000 7.067993164063 163 163 163
30.750000000000 14.875000000000 7.127990722656 115 115 115
30.781250000000 14.875000000000 7.192993164063 155 155 155
30.796875000000 14.890625000000 7.252990722656 120 120 120
30.781250000000 14.875000000000 7.304000854492 69 69 69
30.765625000000 14.859375000000 7.356002807617 87 87 87
30.781250000000 15.218750000000 7.054992675781 152 152 152
30.812500000000 15.218750000000 7.117996215820 139 139 139
30.828125000000 15.234375000000 7.180999755859 153 153 153
30.843750000000 15.234375000000 7.240997314453 143 143 143
30.843750000000 15.234375000000 7.299987792969 28 28 28
30.812500000000 15.218750000000 7.349990844727 106 106 106
30.828125000000 15.531250000000 7.052001953125 45 45 45
30.875000000000 15.546875000000 7.291000366211 117 117 117
30.859375000000 15.515625000000 7.341995239258 130 130 130
30.890625000000 15.531250000000 7.404998779297 94 94 94
30.890625000000 15.875000000000 7.042999267578 68 68 68
30.906250000000 15.890625000000 7.101989746094 95 95 95
30.921875000000 15.890625000000 7.159988403320 66 66 66
30.937500000000 15.890625000000 7.223999023438 45 45 45
30.906250000000 15.859375000000 7.332000732422 99 99 99
30.921875000000 15.859375000000 7.390991210938 38 38 38
30.921875000000 15.859375000000 7.505996704102 58 58 58
30.968750000000 16.203125000000 7.078994750977 79 79 79
31.015625000000 16.203125000000 7.323989868164 11 11 11
30.968750000000 16.187500000000 7.367996215820 112 112 112
30.968750000000 16.171875000000 7.599990844727 10 10 10
31.000000000000 16.484375000000 7.097991943359 19 19 19
31.046875000000 16.500000000000 7.341995239258 76 76 76
31.031250000000 16.484375000000 7.395996093750 57 57 57
31.015625000000 16.453125000000 7.739990234375 65 65 65
31.062500000000 16.812500000000 7.076995849609 77 77 77
31.109375000000 16.843750000000 7.149002075195 22 22 22
31.109375000000 16.828125000000 7.207000732422 56 56 56
31.125000000000 16.843750000000 7.269989013672 70 70 70
31.125000000000 16.843750000000 7.330993652344 87 87 87
31.093750000000 16.812500000000 7.375991821289 119 119 119
31.062500000000 16.765625000000 7.838989257813 25 25 25
31.140625000000 17.140625000000 7.369995117188 116 116 116
31.093750000000 17.078125000000 8.006988525391 7 7 7
31.203125000000 17.484375000000 7.371994018555 82 82 82
31.203125000000 17.484375000000 7.430999755859 17 17 17
31.171875000000 17.421875000000 8.138000488281 30 30 30
31.250000000000 17.812500000000 7.409988403320 117 117 117
31.203125000000 17.734375000000 8.240997314453 20 20 20
31.562500000000 18.515625000000 2.864990234375 144 144 144
31.562500000000 18.531250000000 2.927993774414 150 150 150
31.562500000000 18.515625000000 2.985992431641 144 144 144
31.562500000000 18.515625000000 3.046997070313 151 151 151
31.562500000000 18.515625000000 3.106002807617 150 150 150
31.562500000000 18.500000000000 3.167999267578 146 146 146
31.562500000000 18.500000000000 3.225997924805 135 135 135
31.562500000000 18.500000000000 3.285995483398 146 146 146
31.578125000000 18.500000000000 3.345001220703 136 136 136
31.562500000000 18.484375000000 3.406997680664 124 124 124
31.578125000000 18.500000000000 3.463989257813 103 103 103
31.578125000000 18.500000000000 3.522994995117 105 105 105
31.593750000000 18.484375000000 3.580993652344 92 92 92
31.593750000000 18.484375000000 3.639999389648 79 79 79
31.593750000000 18.484375000000 3.697998046875 30 30 30
31.328125000000 18.125000000000 7.386993408203 15 15 15
31.296875000000 18.109375000000 7.438995361328 95 95 95
31.250000000000 18.031250000000 8.392990112305 19 19 19
31.421875000000 18.515625000000 6.373992919922 137 137 137
31.375000000000 18.500000000000 6.421997070313 187 187 187
31.375000000000 18.484375000000 6.477996826172 181 181 181
31.375000000000 18.484375000000 6.537002563477 177 177 177
31.375000000000 18.484375000000 6.593994140625 170 170 170
31.359375000000 18.468750000000 6.651000976563 166 166 166
31.359375000000 18.468750000000 6.707992553711 161 161 161
31.375000000000 18.468750000000 6.766998291016 161 161 161
31.359375000000 18.453125000000 6.823989868164 166 166 166
31.343750000000 18.437500000000 6.878997802734 148 148 148
31.343750000000 18.453125000000 6.936996459961 141 141 141
31.343750000000 18.437500000000 6.996994018555 144 144 144
31.343750000000 18.437500000000 7.054000854492 141 141 141
31.343750000000 18.421875000000 7.111999511719 149 149 149
31.343750000000 18.421875000000 7.171997070313 140 140 140
31.328125000000 18.421875000000 7.227996826172 146 146 146
31.343750000000 18.406250000000 7.287002563477 149 149 149
31.328125000000 18.421875000000 7.345001220703 149 149 149
31.312500000000 18.406250000000 7.397994995117 114 114 114
31.312500000000 18.406250000000 7.459991455078 102 102 102
31.328125000000 18.390625000000 7.521987915039 156 156 156
31.343750000000 18.390625000000 7.583999633789 150 150 150
31.312500000000 18.390625000000 7.639999389648 141 141 141
31.343750000000 18.390625000000 7.703994750977 147 147 147
31.312500000000 18.359375000000 7.759002685547 139 139 139
31.312500000000 18.359375000000 7.819992065430 147 147 147
31.312500000000 18.359375000000 7.880996704102 142 142 142
31.312500000000 18.359375000000 7.940994262695 142 142 142
31.312500000000 18.343750000000 8.000000000000 145 145 145
31.312500000000 18.343750000000 8.061996459961 142 142 142
31.312500000000 18.343750000000 8.123001098633 147 147 147
31.328125000000 18.343750000000 8.185989379883 150 150 150
31.328125000000 18.343750000000 8.248001098633 154 154 154
31.312500000000 18.328125000000 8.307998657227 154 154 154
31.312500000000 18.328125000000 8.368988037109 164 164 164
31.312500000000 18.328125000000 8.431991577148 148 148 148
31.281250000000 18.328125000000 8.483001708984 125 125 125
31.312500000000 18.328125000000 8.559997558594 170 170 170
31.296875000000 18.312500000000 8.617996215820 96 96 96
31.500000000000 18.515625000000 5.998992919922 161 161 161
31.484375000000 18.453125000000 6.341995239258 160 160 160
31.437500000000 18.437500000000 6.392990112305 189 189 189
31.421875000000 18.421875000000 6.448989868164 200 200 200
31.421875000000 18.421875000000 6.506988525391 199 199 199
31.437500000000 18.421875000000 6.565994262695 201 201 201
31.421875000000 18.406250000000 6.623992919922 194 194 194
31.437500000000 18.406250000000 6.682998657227 194 194 194
31.437500000000 18.406250000000 6.740997314453 198 198 198
31.437500000000 18.406250000000 6.799987792969 192 192 192
31.437500000000 18.390625000000 6.858001708984 185 185 185
31.406250000000 18.375000000000 6.914001464844 165 165 165
31.421875000000 18.375000000000 6.973999023438 165 165 165
31.421875000000 18.375000000000 7.033996582031 156 156 156
31.421875000000 18.375000000000 7.089996337891 148 148 148
31.421875000000 18.359375000000 7.149993896484 145 145 145
31.421875000000 18.359375000000 7.209991455078 144 144 144
31.421875000000 18.359375000000 7.268997192383 143 143 143
31.437500000000 18.359375000000 7.332000732422 146 146 146
31.406250000000 18.343750000000 7.386993408203 118 118 118
31.375000000000 18.312500000000 7.431991577148 103 103 103
31.421875000000 18.343750000000 7.509002685547 104 104 104
31.437500000000 18.328125000000 7.572998046875 96 96 96
31.437500000000 18.343750000000 7.631988525391 87 87 87
31.437500000000 18.328125000000 7.692993164063 84 84 84
31.437500000000 18.328125000000 7.752990722656 76 76 76
31.421875000000 18.328125000000 7.812988281250 68 68 68
31.437500000000 18.328125000000 7.875000000000 69 69 69
31.437500000000 18.328125000000 7.937988281250 62 62 62
31.437500000000 18.312500000000 8.001998901367 43 43 43
31.437500000000 18.296875000000 8.060989379883 38 38 38
31.437500000000 18.296875000000 8.123992919922 29 29 29
31.437500000000 18.296875000000 8.187988281250 25 25 25
31.437500000000 18.296875000000 8.250000000000 29 29 29
31.437500000000 18.281250000000 8.312988281250 27 27 27
31.437500000000 18.281250000000 8.373992919922 25 25 25
31.406250000000 18.296875000000 8.429992675781 80 80 80
31.375000000000 18.250000000000 8.476989746094 35 35 35
31.328125000000 18.000000000000 7.401000976563 102 102 102
31.281250000000 17.890625000000 8.354995727539 17 17 17
31.250000000000 17.609375000000 7.401992797852 119 119 119
31.218750000000 17.546875000000 8.171997070313 27 27 27
31.187500000000 17.234375000000 7.394989013672 110 110 110
31.156250000000 17.171875000000 8.037994384766 26 26 26
31.109375000000 16.890625000000 7.106994628906 49 49 49
31.109375000000 16.890625000000 7.166000366211 16 16 16
31.125000000000 16.890625000000 7.345993041992 102 102 102
31.125000000000 16.875000000000 7.405990600586 81 81 81
31.109375000000 16.828125000000 7.871994018555 37 37 37
31.046875000000 16.531250000000 7.071990966797 85 85 85
31.078125000000 16.531250000000 7.367996215820 119 119 119
31.046875000000 16.484375000000 7.768997192383 21 21 21
31.000000000000 16.203125000000 7.041992187500 33 33 33
31.015625000000 16.203125000000 7.332992553711 105 105 105
31.000000000000 16.187500000000 7.388000488281 30 30 30
31.031250000000 16.171875000000 7.623001098633 65 65 65
30.937500000000 15.843750000000 7.054000854492 87 87 87
30.937500000000 15.859375000000 7.115997314453 92 92 92
30.968750000000 15.859375000000 7.179000854492 100 100 100
30.968750000000 15.859375000000 7.235992431641 89 89 89
31.000000000000 15.859375000000 7.299987792969 72 72 72
30.937500000000 15.828125000000 7.343994140625 113 113 113
30.968750000000 15.843750000000 7.407989501953 11 11 11
30.953125000000 15.828125000000 7.519989013672 22 22 22
30.843750000000 15.453125000000 7.048995971680 104 104 104
30.859375000000 15.468750000000 7.110000610352 84 84 84
30.875000000000 15.484375000000 7.171997070313 62 62 62
30.890625000000 15.484375000000 7.231994628906 22 22 22
30.890625000000 15.484375000000 7.345993041992 107 107 107
30.765625000000 15.078125000000 7.046997070313 140 140 140
30.812500000000 15.078125000000 7.111999511719 163 163 163
30.828125000000 15.093750000000 7.175994873047 149 149 149
30.843750000000 15.093750000000 7.235992431641 165 165 165
30.828125000000 15.078125000000 7.341995239258 115 115 115
30.734375000000 14.718750000000 7.057998657227 159 159 159
30.750000000000 14.718750000000 7.118988037109 124 124 124
30.781250000000 14.750000000000 7.183990478516 111 111 111
30.781250000000 14.750000000000 7.240997314453 146 146 146
30.781250000000 14.734375000000 7.297988891602 46 46 46
30.750000000000 14.703125000000 7.345001220703 100 100 100
30.687500000000 14.375000000000 7.076995849609 180 180 180
30.718750000000 14.390625000000 7.142990112305 153 153 153
30.734375000000 14.390625000000 7.203994750977 134 134 134
30.750000000000 14.390625000000 7.266998291016 33 33 33
30.718750000000 14.375000000000 7.310989379883 114 114 114
31.484375000000 18.593750000000 6.337997436523 19 19 19
31.484375000000 18.593750000000 6.284988403320 44 44 44
31.484375000000 18.593750000000 6.235000610352 69 69 69
31.500000000000 18.578125000000 6.183990478516 91 91 91
31.484375000000 18.593750000000 6.130996704102 98 98 98
31.484375000000 18.593750000000 6.078002929688 100 100 100
31.484375000000 18.593750000000 6.026000976563 104 104 104
31.484375000000 18.578125000000 5.975997924805 108 108 108
31.484375000000 18.593750000000 5.920989990234 110 110 110
31.484375000000 18.578125000000 5.871994018555 115 115 115
31.484375000000 18.593750000000 5.819992065430 114 114 114
31.484375000000 18.578125000000 5.768997192383 102 102 102
31.484375000000 18.578125000000 5.718002319336 111 111 111
31.484375000000 18.593750000000 5.666000366211 129 129 129
31.500000000000 18.593750000000 5.615997314453 127 127 127
31.500000000000 18.593750000000 5.565994262695 131 131 131
31.500000000000 18.593750000000 5.513992309570 129 129 129
31.500000000000 18.593750000000 5.462997436523 118 118 118
31.500000000000 18.593750000000 5.412002563477 127 127 127
31.500000000000 18.593750000000 5.360992431641 137 137 137
31.515625000000 18.593750000000 5.310989379883 149 149 149
31.500000000000 18.593750000000 5.259002685547 150 150 150
31.515625000000 18.593750000000 5.207992553711 162 162 162
31.515625000000 18.593750000000 5.156997680664 170 170 170
31.515625000000 18.593750000000 5.106002807617 162 162 162
31.515625000000 18.593750000000 5.055999755859 172 172 172
31.531250000000 18.593750000000 5.004989624023 166 166 166
31.531250000000 18.578125000000 4.955001831055 181 181 181
31.531250000000 18.578125000000 4.903991699219 170 170 170
31.531250000000 18.593750000000 4.851989746094 177 177 177
31.531250000000 18.578125000000 4.802001953125 182 182 182
31.531250000000 18.593750000000 4.750991821289 180 180 180
31.546875000000 18.609375000000 4.699996948242 173 173 173
31.562500000000 18.593750000000 4.649002075195 174 174 174
31.531250000000 18.609375000000 4.597991943359 180 180 180
31.546875000000 18.609375000000 4.546997070313 183 183 183
31.562500000000 18.593750000000 4.496002197266 173 173 173
31.562500000000 18.593750000000 4.444992065430 166 166 166
31.562500000000 18.593750000000 4.393997192383 173 173 173
31.562500000000 18.593750000000 4.343002319336 168 168 168
31.546875000000 18.609375000000 4.291992187500 166 166 166
31.562500000000 18.593750000000 4.239990234375 171 171 171
31.562500000000 18.593750000000 4.188995361328 169 169 169
31.562500000000 18.593750000000 4.138000488281 171 171 171
31.562500000000 18.593750000000 4.086990356445 179 179 179
31.562500000000 18.593750000000 4.035995483398 160 160 160
31.562500000000 18.593750000000 3.983993530273 158 158 158
31.562500000000 18.593750000000 3.931991577148 164 164 164
31.562500000000 18.593750000000 3.880996704102 165 165 165
31.578125000000 18.593750000000 3.828994750977 158 158 158
31.562500000000 18.593750000000 3.777999877930 157 157 157
31.562500000000 18.593750000000 3.725997924805 153 153 153
31.578125000000 18.609375000000 3.673995971680 157 157 157
31.578125000000 18.609375000000 3.621994018555 164 164 164
31.593750000000 18.609375000000 3.569000244141 164 164 164
31.593750000000 18.609375000000 3.515991210938 165 165 165
31.593750000000 18.609375000000 3.464996337891 164 164 164
31.593750000000 18.609375000000 3.412994384766 153 153 153
31.593750000000 18.609375000000 3.360992431641 155 155 155
31.593750000000 18.593750000000 3.306991577148 164 164 164
31.578125000000 18.609375000000 3.256988525391 156 156 156
31.593750000000 18.593750000000 3.200988769531 146 146 146
31.593750000000 18.609375000000 3.149993896484 151 151 151
31.593750000000 18.593750000000 3.095001220703 145 145 145
31.593750000000 18.593750000000 3.042999267578 147 147 147
31.609375000000 18.593750000000 2.988998413086 149 149 149
31.625000000000 18.609375000000 2.447998046875 117 117 117
31.343750000000 18.234375000000 8.427001953125 72 72 72
31.375000000000 18.250000000000 7.458999633789 50 50 50
31.390625000000 18.250000000000 7.407989501953 109 109 109
31.250000000000 17.890625000000 8.343002319336 12 12 12
31.328125000000 17.890625000000 7.401992797852 136 136 136
31.218750000000 17.578125000000 8.184997558594 68 68 68
31.265625000000 17.578125000000 7.412002563477 117 117 117
31.296875000000 17.578125000000 7.368988037109 38 38 38
31.171875000000 17.250000000000 8.037994384766 67 67 67
31.218750000000 17.265625000000 7.384002685547 137 137 137
31.140625000000 16.921875000000 7.897994995117 14 14 14
31.125000000000 16.921875000000 7.399002075195 61 61 61
31.156250000000 16.937500000000 7.356994628906 106 106 106
31.093750000000 16.625000000000 7.798995971680 73 73 73
31.093750000000 16.609375000000 7.365997314453 132 132 132
31.078125000000 16.625000000000 7.090988159180 79 79 79
31.031250000000 16.265625000000 7.687988281250 21 21 21
31.031250000000 16.265625000000 7.362991333008 129 129 129
31.031250000000 16.265625000000 7.091995239258 61 61 61
30.968750000000 15.921875000000 7.520996093750 75 75 75
30.968750000000 15.921875000000 7.358993530273 123 123 123
31.015625000000 15.921875000000 7.317001342773 32 32 32
30.968750000000 15.937500000000 7.090988159180 20 20 20
30.968750000000 15.937500000000 7.039001464844 41 41 41
30.937500000000 15.593750000000 7.427001953125 43 43 43
30.937500000000 15.609375000000 7.376998901367 87 87 87
30.921875000000 15.593750000000 7.317993164063 120 120 120
30.968750000000 15.593750000000 7.277999877930 40 40 40
30.875000000000 15.609375000000 7.044998168945 105 105 105
30.859375000000 15.281250000000 7.345001220703 103 103 103
30.890625000000 15.281250000000 7.304000854492 65 65 65
30.906250000000 15.281250000000 7.251998901367 119 119 119
30.890625000000 15.281250000000 7.195999145508 110 110 110
30.875000000000 15.281250000000 7.140991210938 162 162 162
30.843750000000 15.281250000000 7.078994750977 181 181 181
30.843750000000 15.281250000000 7.021987915039 106 106 106
30.843750000000 14.984375000000 7.377990722656 9 9 9
30.828125000000 14.984375000000 7.321990966797 127 127 127
30.843750000000 14.968750000000 7.276992797852 11 11 11
30.843750000000 14.968750000000 7.227996826172 183 183 183
30.828125000000 14.984375000000 7.166992187500 76 76 76
30.812500000000 14.968750000000 7.108993530273 170 170 170
30.796875000000 14.984375000000 7.052001953125 164 164 164
30.781250000000 14.640625000000 7.332992553711 135 135 135
30.796875000000 14.640625000000 7.236999511719 172 172 172
30.781250000000 14.640625000000 7.179000854492 162 162 162
30.750000000000 14.640625000000 7.121002197266 134 134 134
30.734375000000 14.640625000000 7.061996459961 168 168 168
30.734375000000 14.640625000000 7.011001586914 9 9 9
31.718750000000 18.671875000000 3.626998901367 28 28 28
31.703125000000 18.671875000000 3.565002441406 69 69 69
31.718750000000 18.656250000000 3.502990722656 85 85 85
31.687500000000 18.671875000000 3.442993164063 108 108 108
31.687500000000 18.671875000000 3.380996704102 114 114 114
31.687500000000 18.671875000000 3.319000244141 117 117 117
31.687500000000 18.671875000000 3.255996704102 109 109 109
31.687500000000 18.671875000000 3.194000244141 113 113 113
31.687500000000 18.671875000000 3.131988525391 127 127 127
31.687500000000 18.671875000000 3.069000244141 136 136 136
31.687500000000 18.656250000000 3.005996704102 151 151 151
31.687500000000 18.656250000000 2.942001342773 164 164 164
31.687500000000 18.656250000000 2.877990722656 164 164 164
31.687500000000 18.656250000000 2.815002441406 159 159 159
31.687500000000 18.656250000000 2.751998901367 149 149 149
31.671875000000 18.656250000000 2.690994262695 146 146 146
31.671875000000 18.640625000000 2.625000000000 139 139 139
31.656250000000 18.656250000000 2.563995361328 145 145 145
31.656250000000 18.671875000000 2.503997802734 136 136 136
31.593750000000 18.703125000000 2.457992553711 145 145 145
31.562500000000 18.578125000000 6.442993164063 21 21 21
31.562500000000 18.578125000000 6.380996704102 61 61 61
31.531250000000 18.578125000000 6.317993164063 100 100 100
31.531250000000 18.578125000000 6.257995605469 108 108 108
31.531250000000 18.578125000000 6.196990966797 121 121 121
31.531250000000 18.578125000000 6.136993408203 134 134 134
31.531250000000 18.578125000000 6.076995849609 164 164 164
31.531250000000 18.578125000000 6.015991210938 164 164 164
31.515625000000 18.578125000000 5.955993652344 165 165 165
31.515625000000 18.578125000000 5.895996093750 170 170 170
31.515625000000 18.578125000000 5.835998535156 168 168 168
31.515625000000 18.578125000000 5.776992797852 159 159 159
31.531250000000 18.578125000000 5.716995239258 163 163 163
31.515625000000 18.578125000000 5.656997680664 172 172 172
31.515625000000 18.546875000000 5.597991943359 181 181 181
31.515625000000 18.562500000000 5.537994384766 184 184 184
31.500000000000 18.562500000000 5.477996826172 181 181 181
31.515625000000 18.562500000000 5.418991088867 179 179 179
31.515625000000 18.546875000000 5.360000610352 184 184 184
31.515625000000 18.546875000000 5.300994873047 185 185 185
31.500000000000 18.546875000000 5.240997314453 186 186 186
31.515625000000 18.546875000000 5.181991577148 186 186 186
31.531250000000 18.531250000000 5.123001098633 180 180 180
31.531250000000 18.546875000000 5.062988281250 186 186 186
31.531250000000 18.531250000000 5.003997802734 181 181 181
31.531250000000 18.515625000000 4.944000244141 171 171 171
31.531250000000 18.515625000000 4.884994506836 154 154 154
31.546875000000 18.515625000000 4.824996948242 147 147 147
31.531250000000 18.515625000000 4.765991210938 137 137 137
31.546875000000 18.484375000000 4.705993652344 138 138 138
31.546875000000 18.500000000000 4.645996093750 103 103 103
31.578125000000 18.484375000000 4.584991455078 78 78 78
31.562500000000 18.484375000000 4.526000976563 20 20 20
31.406250000000 18.453125000000 8.625991821289 48 48 48
31.437500000000 18.453125000000 8.567993164063 133 133 133
31.437500000000 18.421875000000 8.506988525391 125 125 125
31.421875000000 18.453125000000 8.432998657227 160 160 160
31.421875000000 18.437500000000 8.369995117188 147 147 147
31.406250000000 18.437500000000 8.302993774414 141 141 141
31.406250000000 18.437500000000 8.236999511719 148 148 148
31.406250000000 18.437500000000 8.171997070313 148 148 148
31.421875000000 18.437500000000 8.110992431641 145 145 145
31.390625000000 18.453125000000 8.041000366211 144 144 144
31.421875000000 18.437500000000 7.983001708984 148 148 148
31.406250000000 18.421875000000 7.916992187500 146 146 146
31.406250000000 18.421875000000 7.856994628906 142 142 142
31.406250000000 18.421875000000 7.793991088867 130 130 130
31.390625000000 18.421875000000 7.727996826172 144 144 144
31.406250000000 18.421875000000 7.668991088867 130 130 130
31.406250000000 18.421875000000 7.603988647461 121 121 121
31.406250000000 18.406250000000 7.544998168945 100 100 100
31.406250000000 18.406250000000 7.481994628906 105 105 105
31.390625000000 18.406250000000 7.416992187500 101 101 101
31.406250000000 18.390625000000 7.361999511719 95 95 95
31.406250000000 18.390625000000 7.299987792969 55 55 55
31.328125000000 18.156250000000 8.440994262695 73 73 73
31.390625000000 18.093750000000 7.450988769531 50 50 50
31.390625000000 18.062500000000 7.392990112305 50 50 50
31.296875000000 17.828125000000 8.323989868164 19 19 19
31.343750000000 17.765625000000 7.403991699219 113 113 113
31.250000000000 17.484375000000 8.139999389648 25 25 25
31.281250000000 17.453125000000 7.403991699219 119 119 119
31.203125000000 17.187500000000 8.016998291016 57 57 57
31.218750000000 17.140625000000 7.407989501953 89 89 89
31.218750000000 17.125000000000 7.348999023438 16 16 16
31.156250000000 16.890625000000 7.910995483398 52 52 52
31.156250000000 16.859375000000 7.364990234375 112 112 112
31.187500000000 16.828125000000 7.317993164063 30 30 30
31.171875000000 16.843750000000 7.251998901367 48 48 48
31.171875000000 16.843750000000 7.190002441406 72 72 72
31.140625000000 16.875000000000 7.123001098633 88 88 88
31.140625000000 16.875000000000 7.060989379883 36 36 36
31.109375000000 16.593750000000 7.761001586914 9 9 9
31.109375000000 16.578125000000 7.396987915039 53 53 53
31.125000000000 16.578125000000 7.341995239258 85 85 85
31.093750000000 16.562500000000 7.097000122070 58 58 58
31.062500000000 16.296875000000 7.653991699219 58 58 58
31.078125000000 16.265625000000 7.358993530273 118 118 118
31.062500000000 16.265625000000 7.058990478516 61 61 61
31.015625000000 15.953125000000 7.539993286133 64 64 64
31.015625000000 15.953125000000 7.360992431641 116 116 116
31.000000000000 15.953125000000 7.058990478516 70 70 70
30.968750000000 15.609375000000 7.422988891602 68 68 68
30.968750000000 15.609375000000 7.360000610352 108 108 108
30.984375000000 15.609375000000 7.307998657227 84 84 84
30.921875000000 15.625000000000 7.054000854492 88 88 88
30.906250000000 15.312500000000 7.369995117188 39 39 39
30.906250000000 15.312500000000 7.315994262695 90 90 90
30.937500000000 15.296875000000 7.263992309570 98 98 98
30.921875000000 15.296875000000 7.199996948242 140 140 140
30.906250000000 15.312500000000 7.138992309570 150 150 150
30.875000000000 15.328125000000 7.070999145508 171 171 171
30.875000000000 15.328125000000 7.013992309570 17 17 17
30.859375000000 15.015625000000 7.347000122070 108 108 108
30.875000000000 15.015625000000 7.291000366211 11 11 11
30.875000000000 15.000000000000 7.236999511719 169 169 169
30.859375000000 15.031250000000 7.169998168945 69 69 69
30.843750000000 15.031250000000 7.106002807617 149 149 149
30.812500000000 15.046875000000 7.042999267578 136 136 136
30.812500000000 14.750000000000 7.373992919922 27 27 27
30.812500000000 14.750000000000 7.315994262695 99 99 99
30.828125000000 14.734375000000 7.263992309570 98 98 98
30.828125000000 14.734375000000 7.203994750977 136 136 136
30.796875000000 14.734375000000 7.138992309570 118 118 118
30.781250000000 14.765625000000 7.074996948242 173 173 173
30.781250000000 14.750000000000 7.018997192383 23 23 23
30.765625000000 14.421875000000 7.326995849609 116 116 116
30.781250000000 14.406250000000 7.276992797852 20 20 20
30.781250000000 14.406250000000 7.215988159180 144 144 144
30.750000000000 14.437500000000 7.149993896484 160 160 160
30.734375000000 14.437500000000 7.086990356445 174 174 174
30.734375000000 14.437500000000 7.029998779297 55 55 55
30.000000000000 9.718750000000 2.231002807617 167 167 167
30.000000000000 9.718750000000 2.278991699219 177 177 177
30.031250000000 9.734375000000 2.509994506836 163 163 163
30.000000000000 9.718750000000 2.559997558594 185 185 185
30.000000000000 9.718750000000 2.608001708984 182 182 182
30.031250000000 9.734375000000 2.649993896484 178 178 178
30.031250000000 9.734375000000 2.695999145508 183 183 183
30.015625000000 9.718750000000 2.744995117188 182 182 182
30.031250000000 9.734375000000 2.787994384766 179 179 179
30.015625000000 9.718750000000 2.836990356445 175 175 175
30.000000000000 9.718750000000 2.882995605469 186 186 186
30.000000000000 9.718750000000 2.929000854492 184 184 184
30.000000000000 9.718750000000 2.973999023438 184 184 184
30.000000000000 9.718750000000 3.019989013672 182 182 182
30.000000000000 9.718750000000 3.065994262695 183 183 183
30.000000000000 9.718750000000 3.110000610352 179 179 179
30.015625000000 9.718750000000 3.153991699219 180 180 180
30.000000000000 9.718750000000 3.201995849609 181 181 181
30.000000000000 9.718750000000 3.244995117188 188 188 188
30.015625000000 9.718750000000 3.289993286133 185 185 185
30.000000000000 9.718750000000 3.336990356445 183 183 183
30.000000000000 9.718750000000 3.380996704102 185 185 185
30.015625000000 9.718750000000 3.422988891602 187 187 187
30.000000000000 9.718750000000 3.468994140625 196 196 196
30.000000000000 9.718750000000 3.513992309570 192 192 192
30.000000000000 9.718750000000 3.557998657227 191 191 191
30.000000000000 9.718750000000 3.602996826172 190 190 190
30.000000000000 9.718750000000 3.645996093750 189 189 189
30.000000000000 9.718750000000 3.690994262695 195 195 195
30.000000000000 9.718750000000 3.735992431641 192 192 192
29.984375000000 9.718750000000 3.779998779297 194 194 194
30.000000000000 9.718750000000 3.822998046875 194 194 194
30.000000000000 9.718750000000 3.866989135742 198 198 198
30.000000000000 9.718750000000 3.910995483398 198 198 198
30.000000000000 9.718750000000 3.955001831055 197 197 197
30.000000000000 9.718750000000 3.998001098633 198 198 198
30.000000000000 9.718750000000 4.041992187500 198 198 198
30.000000000000 9.718750000000 4.085998535156 198 198 198
30.000000000000 9.718750000000 4.128997802734 198 198 198
