23.078125000000 21.062500000000 8.162002563477 189 189 189
23.062500000000 21.062500000000 8.159988403320 221 221 221
23.093750000000 21.125000000000 9.529998779297 91 91 91
23.062500000000 21.140625000000 9.531997680664 74 74 74
23.093750000000 21.375000000000 8.171997070313 177 177 177
23.062500000000 21.390625000000 8.158996582031 222 222 222
23.093750000000 21.437500000000 9.535995483398 90 90 90
23.078125000000 21.453125000000 9.527999877930 63 63 63
23.109375000000 21.687500000000 8.181991577148 149 149 149
23.078125000000 21.703125000000 8.162002563477 236 236 236
23.062500000000 21.703125000000 8.168991088867 73 73 73
23.093750000000 21.750000000000 9.546997070313 93 93 93
23.078125000000 21.765625000000 9.557998657227 60 60 60
23.109375000000 22.000000000000 8.183990478516 121 121 121
23.093750000000 22.000000000000 8.164993286133 236 236 236
23.078125000000 22.015625000000 8.194992065430 82 82 82
23.109375000000 22.046875000000 9.556991577148 88 88 88
23.125000000000 22.312500000000 8.181991577148 182 182 182
23.093750000000 22.328125000000 8.166992187500 245 245 245
23.078125000000 22.328125000000 8.194000244141 68 68 68
23.109375000000 22.375000000000 9.572998046875 82 82 82
23.546875000000 22.421875000000 9.554000854492 101 101 101
23.125000000000 22.640625000000 8.175994873047 210 210 210
23.109375000000 22.640625000000 8.168991088867 251 251 251
23.109375000000 22.703125000000 9.588989257813 106 106 106
23.546875000000 22.734375000000 9.565002441406 112 112 112
23.531250000000 22.750000000000 9.561996459961 87 87 87
23.125000000000 22.953125000000 8.181991577148 234 234 234
23.109375000000 22.953125000000 8.177001953125 252 252 252
23.140625000000 22.984375000000 9.600997924805 75 75 75
23.109375000000 23.000000000000 9.593002319336 112 112 112
23.531250000000 23.046875000000 9.574996948242 101 101 101
23.500000000000 23.078125000000 9.582992553711 109 109 109
23.125000000000 23.250000000000 8.187988281250 214 214 214
23.109375000000 23.250000000000 8.179992675781 252 252 252
23.093750000000 23.265625000000 8.208999633789 46 46 46
23.140625000000 23.296875000000 9.610000610352 74 74 74
23.125000000000 23.328125000000 9.611999511719 110 110 110
23.515625000000 23.390625000000 9.589996337891 97 97 97
23.484375000000 23.390625000000 9.597000122070 102 102 102
23.140625000000 23.562500000000 8.186996459961 207 207 207
23.125000000000 23.578125000000 8.180999755859 236 236 236
23.156250000000 23.609375000000 9.613998413086 88 88 88
23.125000000000 23.640625000000 9.631988525391 96 96 96
23.500000000000 23.718750000000 9.608993530273 84 84 84
23.468750000000 23.734375000000 9.588989257813 107 107 107
23.156250000000 23.890625000000 8.208999633789 183 183 183
23.125000000000 23.890625000000 8.194000244141 224 224 224
23.156250000000 23.953125000000 9.625991821289 101 101 101
23.125000000000 23.968750000000 9.638992309570 75 75 75
23.468750000000 24.062500000000 9.617996215820 83 83 83
23.453125000000 24.078125000000 9.615997314453 114 114 114
23.156250000000 24.203125000000 8.224990844727 151 151 151
23.125000000000 24.218750000000 8.208999633789 210 210 210
23.156250000000 24.265625000000 9.645996093750 98 98 98
23.125000000000 24.265625000000 9.646987915039 36 36 36
23.468750000000 24.375000000000 9.638000488281 109 109 109
23.437500000000 24.390625000000 9.638000488281 34 34 34
23.156250000000 24.484375000000 8.207000732422 211 211 211
23.156250000000 24.515625000000 8.199996948242 227 227 227
23.156250000000 24.562500000000 9.658996582031 89 89 89
23.437500000000 24.687500000000 9.649993896484 106 106 106
23.156250000000 24.812500000000 8.216995239258 207 207 207
23.140625000000 24.828125000000 8.212997436523 215 215 215
23.187500000000 24.859375000000 9.669998168945 44 44 44
23.156250000000 24.890625000000 9.664001464844 104 104 104
23.421875000000 25.031250000000 9.664993286133 94 94 94
23.390625000000 25.046875000000 9.672988891602 98 98 98
23.171875000000 25.140625000000 8.233001708984 112 112 112
23.156250000000 25.140625000000 8.226989746094 197 197 197
23.156250000000 25.203125000000 9.688995361328 99 99 99
23.406250000000 25.390625000000 9.668991088867 84 84 84
23.375000000000 25.390625000000 9.683990478516 113 113 113
23.156250000000 25.453125000000 8.231994628906 172 172 172
23.187500000000 25.500000000000 9.705001831055 44 44 44
23.171875000000 25.515625000000 9.700988769531 108 108 108
23.390625000000 25.703125000000 9.684997558594 83 83 83
23.359375000000 25.703125000000 9.688995361328 121 121 121
23.171875000000 25.765625000000 8.239990234375 172 172 172
23.156250000000 25.781250000000 8.241989135742 110 110 110
23.203125000000 25.828125000000 9.700988769531 56 56 56
23.187500000000 25.828125000000 9.710998535156 104 104 104
23.375000000000 26.015625000000 9.705001831055 86 86 86
23.343750000000 26.031250000000 9.710998535156 128 128 128
23.187500000000 26.078125000000 8.236999511719 190 190 190
23.156250000000 26.078125000000 8.237991333008 169 169 169
23.203125000000 26.125000000000 9.725997924805 75 75 75
23.187500000000 26.140625000000 9.709991455078 100 100 100
23.343750000000 26.359375000000 9.725997924805 91 91 91
23.328125000000 26.359375000000 9.718002319336 112 112 112
23.187500000000 26.390625000000 8.236999511719 187 187 187
23.171875000000 26.406250000000 8.237991333008 188 188 188
23.218750000000 26.437500000000 9.739990234375 97 97 97
23.187500000000 26.468750000000 9.729995727539 78 78 78
23.343750000000 26.687500000000 9.735992431641 84 84 84
23.312500000000 26.703125000000 9.739990234375 114 114 114
23.203125000000 26.718750000000 8.250991821289 153 153 153
23.187500000000 26.734375000000 8.250991821289 176 176 176
23.218750000000 26.765625000000 9.764999389648 106 106 106
23.187500000000 26.765625000000 9.748992919922 67 67 67
23.296875000000 27.046875000000 9.796997070313 113 113 113
23.187500000000 27.031250000000 8.255996704102 152 152 152
23.234375000000 27.078125000000 9.761993408203 95 95 95
23.203125000000 27.093750000000 9.763992309570 83 83 83
23.203125000000 27.343750000000 8.255996704102 174 174 174
23.187500000000 27.359375000000 8.263000488281 166 166 166
23.250000000000 27.406250000000 9.774993896484 28 28 28
23.218750000000 27.421875000000 9.769989013672 95 95 95
23.312500000000 27.625000000000 8.866989135742 73 73 73
23.281250000000 27.640625000000 8.867996215820 62 62 62
23.218750000000 27.671875000000 8.266998291016 162 162 162
23.203125000000 27.671875000000 8.261993408203 172 172 172
23.250000000000 27.703125000000 9.783996582031 139 139 139
23.218750000000 27.718750000000 9.789993286133 101 101 101
23.328125000000 27.921875000000 8.780990600586 85 85 85
23.234375000000 27.968750000000 8.313995361328 131 131 131
23.218750000000 27.968750000000 8.267990112305 161 161 161
23.250000000000 28.015625000000 9.753997802734 153 153 153
23.234375000000 28.031250000000 9.764999389648 116 116 116
23.250000000000 28.609375000000 8.287002563477 198 198 198
23.218750000000 28.609375000000 8.274993896484 127 127 127
23.250000000000 28.671875000000 9.807998657227 58 58 58
23.281250000000 28.656250000000 9.852996826172 144 144 144
23.281250000000 28.921875000000 8.277999877930 193 193 193
23.265625000000 28.921875000000 8.339996337891 181 181 181
23.296875000000 28.953125000000 9.797988891602 88 88 88
23.406250000000 29.203125000000 9.807998657227 97 97 97
23.312500000000 29.187500000000 8.281997680664 182 182 182
23.328125000000 29.250000000000 9.789993286133 101 101 101
23.453125000000 29.484375000000 9.782989501953 111 111 111
23.343750000000 29.500000000000 8.276992797852 165 165 165
23.328125000000 29.500000000000 8.274002075195 204 204 204
23.390625000000 29.531250000000 9.784988403320 82 82 82
23.359375000000 29.562500000000 9.787002563477 104 104 104
23.515625000000 29.796875000000 9.764999389648 109 109 109
23.484375000000 29.796875000000 9.756988525391 49 49 49
23.375000000000 29.812500000000 8.266998291016 208 208 208
23.359375000000 29.812500000000 8.281997680664 152 152 152
23.421875000000 29.859375000000 9.768997192383 104 104 104
23.406250000000 29.875000000000 9.771987915039 76 76 76
23.562500000000 30.078125000000 9.766998291016 109 109 109
23.546875000000 30.078125000000 9.766998291016 46 46 46
23.421875000000 30.109375000000 8.277999877930 54 54 54
23.406250000000 30.125000000000 8.269989013672 187 187 187
23.437500000000 30.140625000000 9.766998291016 113 113 113
23.421875000000 30.171875000000 9.765991210938 59 59 59
23.625000000000 30.359375000000 9.757995605469 86 86 86
23.593750000000 30.375000000000 9.755996704102 114 114 114
23.453125000000 30.390625000000 8.267990112305 157 157 157
23.421875000000 30.390625000000 8.261001586914 212 212 212
23.484375000000 30.453125000000 9.751998901367 108 108 108
23.453125000000 30.453125000000 9.761001586914 79 79 79
23.656250000000 30.656250000000 9.763992309570 134 134 134
23.468750000000 30.687500000000 8.259002685547 210 210 210
23.468750000000 30.703125000000 8.255996704102 230 230 230
23.515625000000 30.734375000000 9.757995605469 92 92 92
23.500000000000 30.765625000000 9.746994018555 110 110 110
23.718750000000 30.937500000000 9.733993530273 116 116 116
23.500000000000 31.000000000000 8.254989624023 228 228 228
23.500000000000 31.015625000000 8.252990722656 217 217 217
23.546875000000 31.046875000000 9.731994628906 81 81 81
23.531250000000 31.062500000000 9.731994628906 108 108 108
23.765625000000 31.234375000000 9.738998413086 115 115 115
23.531250000000 31.312500000000 8.263000488281 210 210 210
23.515625000000 31.328125000000 8.276000976563 106 106 106
23.578125000000 31.343750000000 9.743988037109 89 89 89
23.546875000000 31.359375000000 9.735000610352 108 108 108
23.812500000000 31.515625000000 9.731994628906 116 116 116
23.578125000000 31.593750000000 8.272994995117 174 174 174
23.562500000000 31.609375000000 8.259994506836 238 238 238
23.546875000000 31.625000000000 8.276000976563 62 62 62
23.609375000000 31.656250000000 9.723999023438 102 102 102
23.593750000000 31.671875000000 9.720001220703 91 91 91
23.875000000000 31.796875000000 9.715988159180 101 101 101
23.609375000000 31.890625000000 8.246002197266 252 252 252
23.593750000000 31.921875000000 8.250000000000 252 252 252
23.640625000000 31.953125000000 9.718994140625 101 101 101
22.953125000000 14.625000000000 9.351989746094 108 108 108
22.953125000000 14.921875000000 9.354995727539 105 105 105
22.968750000000 14.984375000000 8.093002319336 114 114 114
22.953125000000 15.234375000000 9.351989746094 107 107 107
22.968750000000 15.250000000000 9.362991333008 31 31 31
22.968750000000 15.296875000000 8.090988159180 87 87 87
22.953125000000 15.546875000000 9.361999511719 43 43 43
22.968750000000 15.546875000000 9.371994018555 107 107 107
22.968750000000 15.609375000000 8.097991943359 142 142 142
22.968750000000 15.843750000000 9.384994506836 99 99 99
22.968750000000 15.906250000000 8.099990844727 113 113 113
22.968750000000 16.140625000000 9.389999389648 105 105 105
22.968750000000 16.218750000000 8.106994628906 120 120 120
23.000000000000 16.218750000000 8.100997924805 57 57 57
22.968750000000 16.453125000000 9.388000488281 91 91 91
23.000000000000 16.453125000000 9.388000488281 70 70 70
22.984375000000 16.515625000000 8.106002807617 113 113 113
23.000000000000 16.531250000000 8.097991943359 96 96 96
22.968750000000 16.750000000000 9.410995483398 29 29 29
23.000000000000 16.781250000000 9.390991210938 100 100 100
23.000000000000 16.796875000000 8.108993530273 116 116 116
23.000000000000 16.812500000000 8.108001708984 118 118 118
23.015625000000 17.062500000000 9.404998779297 114 114 114
23.000000000000 17.125000000000 8.118988037109 104 104 104
23.015625000000 17.140625000000 8.114990234375 135 135 135
23.015625000000 17.375000000000 9.410995483398 104 104 104
23.000000000000 17.421875000000 8.100997924805 52 52 52
23.015625000000 17.437500000000 8.115997314453 153 153 153
23.000000000000 17.656250000000 9.412002563477 100 100 100
23.031250000000 17.687500000000 9.417999267578 37 37 37
23.000000000000 17.734375000000 8.121002197266 45 45 45
23.031250000000 17.734375000000 8.119995117188 146 146 146
23.015625000000 17.984375000000 9.427993774414 76 76 76
23.031250000000 17.984375000000 9.424987792969 87 87 87
23.015625000000 18.031250000000 8.121994018555 37 37 37
23.031250000000 18.031250000000 8.121994018555 158 158 158
23.015625000000 18.281250000000 9.437988281250 69 69 69
23.031250000000 18.265625000000 9.440002441406 98 98 98
23.015625000000 18.328125000000 8.128997802734 81 81 81
23.031250000000 18.343750000000 8.131988525391 148 148 148
23.015625000000 18.578125000000 9.449996948242 30 30 30
23.046875000000 18.593750000000 9.435989379883 112 112 112
23.031250000000 18.640625000000 8.134994506836 100 100 100
23.031250000000 18.640625000000 8.136001586914 147 147 147
23.046875000000 18.875000000000 9.447998046875 105 105 105
23.031250000000 18.937500000000 8.149993896484 132 132 132
23.046875000000 18.953125000000 8.131988525391 146 146 146
23.062500000000 19.187500000000 9.462997436523 104 104 104
23.031250000000 19.234375000000 8.136993408203 109 109 109
23.062500000000 19.250000000000 8.138992309570 164 164 164
23.062500000000 19.500000000000 9.472000122070 108 108 108
23.046875000000 19.546875000000 8.153991699219 154 154 154
23.062500000000 19.546875000000 8.145996093750 138 138 138
23.062500000000 19.796875000000 9.481994628906 101 101 101
23.046875000000 19.843750000000 8.156997680664 152 152 152
23.062500000000 19.859375000000 8.155990600586 144 144 144
23.062500000000 20.093750000000 9.509002685547 100 100 100
23.062500000000 20.171875000000 8.169998168945 164 164 164
23.078125000000 20.171875000000 8.146987915039 60 60 60
23.078125000000 20.390625000000 9.501998901367 95 95 95
23.078125000000 20.468750000000 8.167999267578 160 160 160
23.078125000000 20.718750000000 9.513000488281 101 101 101
23.078125000000 20.750000000000 8.171997070313 153 153 153
23.093750000000 21.000000000000 9.533996582031 103 103 103
23.078125000000 21.078125000000 8.177993774414 171 171 171
23.093750000000 21.296875000000 9.535995483398 87 87 87
23.109375000000 21.328125000000 9.534988403320 71 71 71
23.093750000000 21.375000000000 8.175994873047 177 177 177
23.093750000000 21.609375000000 9.547988891602 88 88 88
23.125000000000 21.640625000000 9.548995971680 82 82 82
23.093750000000 21.671875000000 8.180999755859 188 188 188
23.093750000000 21.906250000000 9.567993164063 80 80 80
23.125000000000 21.921875000000 9.556991577148 90 90 90
23.093750000000 21.984375000000 8.192001342773 47 47 47
23.093750000000 21.984375000000 8.177993774414 197 197 197
23.109375000000 22.203125000000 9.580001831055 74 74 74
23.140625000000 22.234375000000 9.562988281250 101 101 101
23.093750000000 22.265625000000 8.218002319336 97 97 97
23.109375000000 22.281250000000 8.183990478516 202 202 202
23.125000000000 22.531250000000 9.567001342773 111 111 111
23.093750000000 22.578125000000 8.207992553711 41 41 41
23.125000000000 22.578125000000 8.190994262695 200 200 200
23.125000000000 22.828125000000 9.598999023438 95 95 95
23.125000000000 22.906250000000 8.190002441406 200 200 200
23.546875000000 23.062500000000 9.569000244141 121 121 121
23.125000000000 23.140625000000 9.602996826172 97 97 97
23.125000000000 23.203125000000 8.194992065430 209 209 209
23.156250000000 23.218750000000 8.208999633789 64 64 64
23.515625000000 23.328125000000 9.595993041992 89 89 89
23.125000000000 23.437500000000 9.623001098633 92 92 92
23.156250000000 23.453125000000 9.623992919922 33 33 33
23.125000000000 23.484375000000 8.220993041992 31 31 31
23.125000000000 23.500000000000 8.198989868164 211 211 211
23.140625000000 23.515625000000 8.209991455078 59 59 59
23.500000000000 23.625000000000 9.595993041992 101 101 101
23.140625000000 23.734375000000 9.623001098633 99 99 99
23.156250000000 23.734375000000 9.629989624023 47 47 47
23.125000000000 23.796875000000 8.227996826172 73 73 73
23.140625000000 23.796875000000 8.210998535156 215 215 215
23.156250000000 23.812500000000 8.212997436523 38 38 38
23.484375000000 23.921875000000 9.623992919922 106 106 106
23.156250000000 24.031250000000 9.644989013672 50 50 50
23.171875000000 24.046875000000 9.649002075195 110 110 110
23.140625000000 24.109375000000 8.215988159180 208 208 208
23.171875000000 24.125000000000 8.223999023438 67 67 67
23.468750000000 24.203125000000 9.641998291016 49 49 49
23.484375000000 24.218750000000 9.626998901367 90 90 90
23.171875000000 24.359375000000 9.651992797852 106 106 106
23.125000000000 24.406250000000 8.222000122070 66 66 66
23.156250000000 24.421875000000 8.220001220703 221 221 221
23.171875000000 24.421875000000 8.215988159180 67 67 67
23.468750000000 24.515625000000 9.632995605469 129 129 129
23.171875000000 24.640625000000 9.662002563477 89 89 89
23.140625000000 24.703125000000 8.231002807617 47 47 47
23.156250000000 24.718750000000 8.222000122070 233 233 233
23.171875000000 24.718750000000 8.235992431641 112 112 112
23.437500000000 24.796875000000 9.654998779297 97 97 97
23.171875000000 24.953125000000 9.685989379883 94 94 94
23.156250000000 25.000000000000 8.248001098633 73 73 73
23.171875000000 25.015625000000 8.228988647461 235 235 235
23.187500000000 25.015625000000 8.229995727539 105 105 105
23.421875000000 25.093750000000 9.672988891602 105 105 105
23.187500000000 25.250000000000 9.699996948242 93 93 93
23.156250000000 25.296875000000 8.244995117188 102 102 102
23.171875000000 25.312500000000 8.228988647461 243 243 243
23.187500000000 25.328125000000 8.238998413086 60 60 60
23.406250000000 25.390625000000 9.684997558594 112 112 112
23.187500000000 25.562500000000 9.692001342773 91 91 91
23.171875000000 25.609375000000 8.242996215820 251 251 251
23.187500000000 25.640625000000 8.228988647461 252 252 252
23.375000000000 25.656250000000 9.687988281250 111 111 111
23.187500000000 25.859375000000 9.710998535156 93 93 93
23.171875000000 25.921875000000 8.233001708984 252 252 252
23.187500000000 25.921875000000 8.241989135742 252 252 252
23.359375000000 25.937500000000 9.696990966797 119 119 119
23.390625000000 25.968750000000 9.705993652344 21 21 21
23.187500000000 26.171875000000 9.722991943359 93 93 93
23.218750000000 26.171875000000 9.731002807617 51 51 51
23.171875000000 26.218750000000 8.241989135742 252 252 252
23.187500000000 26.218750000000 8.236999511719 252 252 252
23.343750000000 26.234375000000 9.718002319336 83 83 83
23.359375000000 26.234375000000 9.711990356445 95 95 95
23.203125000000 26.468750000000 9.736999511719 65 65 65
23.218750000000 26.453125000000 9.740997314453 102 102 102
23.187500000000 26.531250000000 8.237991333008 252 252 252
23.203125000000 26.546875000000 8.250000000000 236 236 236
23.343750000000 26.531250000000 9.728988647461 119 119 119
23.203125000000 26.750000000000 9.748001098633 56 56 56
23.234375000000 26.781250000000 9.736999511719 103 103 103
23.171875000000 26.812500000000 8.264999389648 58 58 58
23.187500000000 26.828125000000 8.241989135742 252 252 252
23.203125000000 26.843750000000 8.261001586914 138 138 138
23.328125000000 26.828125000000 9.756988525391 113 113 113
23.218750000000 27.078125000000 9.766998291016 75 75 75
23.234375000000 27.078125000000 9.768997192383 74 74 74
23.187500000000 27.140625000000 8.282989501953 166 166 166
23.203125000000 27.140625000000 8.257995605469 252 252 252
23.312500000000 27.125000000000 9.815994262695 120 120 120
23.218750000000 27.375000000000 9.774002075195 93 93 93
23.250000000000 27.390625000000 9.776000976563 41 41 41
23.203125000000 27.437500000000 8.266998291016 252 252 252
23.218750000000 27.453125000000 8.261993408203 252 252 252
23.234375000000 27.671875000000 9.793991088867 98 98 98
23.250000000000 27.687500000000 9.785995483398 144 144 144
23.218750000000 27.718750000000 8.269989013672 252 252 252
23.234375000000 27.734375000000 8.287994384766 193 193 193
23.281250000000 27.750000000000 8.642990112305 73 73 73
23.234375000000 27.953125000000 9.778991699219 81 81 81
23.250000000000 27.968750000000 9.768997192383 146 146 146
23.218750000000 28.046875000000 8.282989501953 228 228 228
23.250000000000 28.046875000000 8.287994384766 109 109 109
23.281250000000 28.593750000000 9.800994873047 138 138 138
23.250000000000 28.656250000000 8.292999267578 129 129 129
23.250000000000 28.671875000000 8.291992187500 210 210 210
23.296875000000 28.609375000000 9.851989746094 149 149 149
23.312500000000 28.921875000000 9.799987792969 89 89 89
23.343750000000 28.906250000000 9.836990356445 75 75 75
23.281250000000 28.968750000000 8.282989501953 184 184 184
23.343750000000 29.203125000000 9.807998657227 93 93 93
23.312500000000 29.265625000000 8.277999877930 191 191 191
23.343750000000 29.281250000000 8.339996337891 161 161 161
23.375000000000 29.515625000000 9.792999267578 104 104 104
23.406250000000 29.546875000000 9.780990600586 45 45 45
23.359375000000 29.609375000000 8.280990600586 181 181 181
23.359375000000 29.593750000000 8.276000976563 191 191 191
23.468750000000 29.593750000000 9.774993896484 115 115 115
23.406250000000 29.859375000000 9.787002563477 73 73 73
23.437500000000 29.875000000000 9.776000976563 93 93 93
23.390625000000 29.906250000000 8.284988403320 199 199 199
23.406250000000 29.921875000000 8.289993286133 43 43 43
23.531250000000 29.921875000000 9.768997192383 109 109 109
23.437500000000 30.171875000000 9.763000488281 52 52 52
23.453125000000 30.171875000000 9.765991210938 109 109 109
23.421875000000 30.234375000000 8.280990600586 217 217 217
23.437500000000 30.234375000000 8.270996093750 206 206 206
23.593750000000 30.250000000000 9.769989013672 96 96 96
23.609375000000 30.265625000000 9.756988525391 85 85 85
23.468750000000 30.484375000000 9.771987915039 63 63 63
23.500000000000 30.500000000000 9.763992309570 107 107 107
23.453125000000 30.546875000000 8.269989013672 205 205 205
23.468750000000 30.562500000000 8.274002075195 232 232 232
23.640625000000 30.562500000000 9.755996704102 89 89 89
23.656250000000 30.578125000000 9.756988525391 99 99 99
23.500000000000 30.796875000000 9.746002197266 93 93 93
23.531250000000 30.812500000000 9.746002197266 74 74 74
23.468750000000 30.843750000000 8.276992797852 177 177 177
23.500000000000 30.859375000000 8.276992797852 250 250 250
23.703125000000 30.890625000000 9.742996215820 99 99 99
23.734375000000 30.906250000000 9.753997802734 94 94 94
23.531250000000 31.093750000000 9.748992919922 96 96 96
23.562500000000 31.125000000000 9.742996215820 71 71 71
23.515625000000 31.156250000000 8.289001464844 39 39 39
23.531250000000 31.171875000000 8.274993896484 234 234 234
23.546875000000 31.171875000000 8.263000488281 124 124 124
23.750000000000 31.218750000000 9.743988037109 77 77 77
23.781250000000 31.234375000000 9.735000610352 100 100 100
23.562500000000 31.421875000000 9.731994628906 68 68 68
23.593750000000 31.453125000000 9.731994628906 97 97 97
23.562500000000 31.500000000000 8.267990112305 252 252 252
23.578125000000 31.515625000000 8.265991210938 239 239 239
23.843750000000 31.562500000000 9.725997924805 119 119 119
23.593750000000 31.750000000000 9.726989746094 43 43 43
23.625000000000 31.765625000000 9.718994140625 115 115 115
23.578125000000 31.812500000000 8.269989013672 252 252 252
23.593750000000 31.796875000000 8.270996093750 252 252 252
23.609375000000 31.812500000000 8.263000488281 49 49 49
23.906250000000 31.906250000000 9.714996337891 115 115 115
23.609375000000 31.703125000000 9.761993408203 35 35 35
23.640625000000 31.718750000000 9.750991821289 111 111 111
23.593750000000 31.750000000000 8.319000244141 121 121 121
23.593750000000 31.765625000000 8.298995971680 252 252 252
23.625000000000 31.781250000000 8.291000366211 43 43 43
23.875000000000 31.843750000000 9.764999389648 29 29 29
23.906250000000 31.859375000000 9.737991333008 116 116 116
23.578125000000 31.359375000000 9.763992309570 79 79 79
23.593750000000 31.375000000000 9.753997802734 88 88 88
23.562500000000 31.421875000000 8.295989990234 245 245 245
23.578125000000 31.437500000000 8.291000366211 235 235 235
23.828125000000 31.484375000000 9.750000000000 109 109 109
23.546875000000 31.046875000000 9.767990112305 95 95 95
23.578125000000 31.062500000000 9.778991699219 26 26 26
23.531250000000 31.093750000000 8.298995971680 249 249 249
23.562500000000 31.109375000000 8.302001953125 138 138 138
23.765625000000 31.140625000000 9.755996704102 113 113 113
23.531250000000 30.703125000000 9.764999389648 96 96 96
23.484375000000 30.765625000000 8.322998046875 81 81 81
23.500000000000 30.765625000000 8.293991088867 252 252 252
23.515625000000 30.781250000000 8.295989990234 124 124 124
23.687500000000 30.781250000000 9.774993896484 42 42 42
23.718750000000 30.796875000000 9.770996093750 122 122 122
23.484375000000 30.359375000000 9.781997680664 96 96 96
23.515625000000 30.390625000000 9.789993286133 34 34 34
23.453125000000 30.421875000000 8.298995971680 157 157 157
23.468750000000 30.437500000000 8.287994384766 252 252 252
23.484375000000 30.453125000000 8.287994384766 52 52 52
23.625000000000 30.453125000000 9.778991699219 68 68 68
23.656250000000 30.453125000000 9.761001586914 108 108 108
23.437500000000 30.031250000000 9.789001464844 95 95 95
23.421875000000 30.093750000000 8.302001953125 229 229 229
23.437500000000 30.109375000000 8.283996582031 224 224 224
23.562500000000 30.093750000000 9.783996582031 100 100 100
23.593750000000 30.109375000000 9.785995483398 64 64 64
23.406250000000 29.703125000000 9.798995971680 99 99 99
23.390625000000 29.765625000000 8.289993286133 204 204 204
23.515625000000 29.765625000000 9.865997314453 97 97 97
23.375000000000 29.375000000000 9.804000854492 111 111 111
23.343750000000 29.421875000000 8.300994873047 207 207 207
23.359375000000 29.437500000000 8.287994384766 205 205 205
23.328125000000 29.015625000000 9.832992553711 71 71 71
23.343750000000 29.046875000000 9.812988281250 97 97 97
23.296875000000 29.078125000000 8.323989868164 167 167 167
23.312500000000 29.093750000000 8.306991577148 211 211 211
23.296875000000 28.687500000000 9.830001831055 101 101 101
23.312500000000 28.703125000000 9.821990966797 126 126 126
23.281250000000 28.750000000000 8.295989990234 188 188 188
23.281250000000 28.765625000000 8.311996459961 84 84 84
23.265625000000 28.046875000000 9.769989013672 154 154 154
23.234375000000 28.109375000000 8.289993286133 252 252 252
23.250000000000 28.109375000000 8.291992187500 252 252 252
23.234375000000 27.703125000000 9.794998168945 33 33 33
23.250000000000 27.734375000000 9.796997070313 131 131 131
23.218750000000 27.796875000000 8.308990478516 175 175 175
23.234375000000 27.796875000000 8.278991699219 252 252 252
23.250000000000 27.796875000000 8.321990966797 94 94 94
23.281250000000 27.750000000000 9.837997436523 155 155 155
23.234375000000 27.406250000000 9.792999267578 77 77 77
23.250000000000 27.421875000000 9.774993896484 88 88 88
23.203125000000 27.453125000000 8.291000366211 133 133 133
23.218750000000 27.468750000000 8.274993896484 252 252 252
23.234375000000 27.484375000000 8.279998779297 87 87 87
23.234375000000 27.078125000000 9.774002075195 86 86 86
23.203125000000 27.140625000000 8.291992187500 106 106 106
23.218750000000 27.156250000000 8.279998779297 252 252 252
23.328125000000 27.140625000000 9.830993652344 110 110 110
23.234375000000 26.765625000000 9.766998291016 95 95 95
23.187500000000 26.812500000000 8.291992187500 79 79 79
23.203125000000 26.828125000000 8.261993408203 252 252 252
23.218750000000 26.828125000000 8.289001464844 169 169 169
23.343750000000 26.828125000000 9.763992309570 97 97 97
23.218750000000 26.453125000000 9.746994018555 87 87 87
23.250000000000 26.453125000000 9.740997314453 61 61 61
23.203125000000 26.500000000000 8.263992309570 252 252 252
23.218750000000 26.515625000000 8.251998901367 252 252 252
23.359375000000 26.515625000000 9.750991821289 127 127 127
23.203125000000 26.125000000000 9.735000610352 68 68 68
23.218750000000 26.156250000000 9.733001708984 105 105 105
23.187500000000 26.187500000000 8.270996093750 179 179 179
23.187500000000 26.203125000000 8.251998901367 252 252 252
23.375000000000 26.203125000000 9.735000610352 111 111 111
23.187500000000 25.796875000000 9.718994140625 93 93 93
23.218750000000 25.828125000000 9.718002319336 64 64 64
23.171875000000 25.859375000000 8.280990600586 147 147 147
23.187500000000 25.875000000000 8.248992919922 252 252 252
23.406250000000 25.906250000000 9.722991943359 123 123 123
23.203125000000 25.484375000000 9.707000732422 90 90 90
23.171875000000 25.546875000000 8.250000000000 181 181 181
23.187500000000 25.562500000000 8.252990722656 252 252 252
23.406250000000 25.609375000000 9.722991943359 106 106 106
23.421875000000 25.609375000000 9.699996948242 69 69 69
23.203125000000 25.171875000000 9.711990356445 102 102 102
23.156250000000 25.218750000000 8.241989135742 201 201 201
23.171875000000 25.218750000000 8.246002197266 252 252 252
23.421875000000 25.296875000000 9.694000244141 117 117 117
23.187500000000 24.859375000000 9.687988281250 102 102 102
23.156250000000 24.906250000000 8.255996704102 98 98 98
23.171875000000 24.921875000000 8.239990234375 230 230 230
23.437500000000 24.984375000000 9.685989379883 121 121 121
23.187500000000 24.531250000000 9.668991088867 89 89 89
23.156250000000 24.578125000000 8.236999511719 214 214 214
23.171875000000 24.593750000000 8.238998413086 96 96 96
23.453125000000 24.671875000000 9.674987792969 98 98 98
23.468750000000 24.671875000000 9.688995361328 30 30 30
23.156250000000 24.218750000000 9.662002563477 92 92 92
23.156250000000 24.265625000000 8.239990234375 210 210 210
23.171875000000 24.265625000000 8.222991943359 198 198 198
23.468750000000 24.359375000000 9.672988891602 35 35 35
23.468750000000 24.359375000000 9.660995483398 100 100 100
23.156250000000 23.890625000000 9.653991699219 93 93 93
23.140625000000 23.953125000000 8.231002807617 213 213 213
23.156250000000 23.953125000000 8.229995727539 210 210 210
23.484375000000 24.062500000000 9.662994384766 94 94 94
23.140625000000 23.546875000000 9.645996093750 53 53 53
23.156250000000 23.578125000000 9.634002685547 111 111 111
23.125000000000 23.625000000000 8.215988159180 206 206 206
23.156250000000 23.640625000000 8.214996337891 204 204 204
23.500000000000 23.750000000000 9.636001586914 98 98 98
23.140625000000 23.234375000000 9.618988037109 92 92 92
23.156250000000 23.250000000000 9.614990234375 73 73 73
23.140625000000 23.296875000000 8.215988159180 195 195 195
23.156250000000 23.312500000000 8.215988159180 202 202 202
23.515625000000 23.437500000000 9.619995117188 98 98 98
23.140625000000 22.921875000000 9.613998413086 88 88 88
23.156250000000 22.953125000000 9.613998413086 77 77 77
23.125000000000 22.984375000000 8.235992431641 88 88 88
23.140625000000 22.984375000000 8.212997436523 208 208 208
23.546875000000 23.125000000000 9.610000610352 100 100 100
23.125000000000 22.609375000000 9.599990844727 66 66 66
23.156250000000 22.609375000000 9.610000610352 106 106 106
23.125000000000 22.671875000000 8.207992553711 183 183 183
23.125000000000 22.281250000000 9.597000122070 76 76 76
23.140625000000 22.296875000000 9.590988159180 100 100 100
23.109375000000 22.328125000000 8.208999633789 175 175 175
23.140625000000 22.343750000000 8.213989257813 48 48 48
23.109375000000 21.953125000000 9.576995849609 102 102 102
23.140625000000 21.984375000000 9.576995849609 41 41 41
23.109375000000 22.015625000000 8.205993652344 170 170 170
23.125000000000 22.031250000000 8.211990356445 36 36 36
23.109375000000 21.640625000000 9.567001342773 94 94 94
23.109375000000 21.703125000000 8.205993652344 180 180 180
23.109375000000 21.312500000000 9.548995971680 107 107 107
23.093750000000 21.375000000000 8.197998046875 180 180 180
23.093750000000 21.000000000000 9.530990600586 110 110 110
23.093750000000 21.046875000000 8.185989379883 176 176 176
23.093750000000 20.687500000000 9.528991699219 94 94 94
23.078125000000 20.750000000000 8.186996459961 163 163 163
23.109375000000 20.734375000000 8.203994750977 51 51 51
23.093750000000 20.359375000000 9.511001586914 105 105 105
23.062500000000 20.421875000000 8.179000854492 156 156 156
23.062500000000 20.015625000000 9.507995605469 96 96 96
23.093750000000 20.031250000000 9.509002685547 73 73 73
23.078125000000 20.093750000000 8.174987792969 153 153 153
23.062500000000 19.718750000000 9.500000000000 98 98 98
23.062500000000 19.750000000000 8.172988891602 87 87 87
23.062500000000 19.765625000000 8.173995971680 166 166 166
23.078125000000 19.390625000000 9.478988647461 110 110 110
23.046875000000 19.437500000000 8.171997070313 131 131 131
23.062500000000 19.453125000000 8.158996582031 158 158 158
23.062500000000 19.046875000000 9.476989746094 107 107 107
23.046875000000 19.109375000000 8.166000366211 88 88 88
23.062500000000 19.125000000000 8.158996582031 162 162 162
23.062500000000 18.750000000000 9.468994140625 108 108 108
23.031250000000 18.781250000000 8.164001464844 53 53 53
23.046875000000 18.796875000000 8.149993896484 162 162 162
23.031250000000 18.421875000000 9.459991455078 80 80 80
23.046875000000 18.421875000000 9.445999145508 80 80 80
23.031250000000 18.468750000000 8.149002075195 118 118 118
23.046875000000 18.484375000000 8.149002075195 154 154 154
23.031250000000 18.093750000000 9.457000732422 101 101 101
23.031250000000 18.156250000000 8.136993408203 142 142 142
23.046875000000 18.171875000000 8.134994506836 49 49 49
23.015625000000 17.765625000000 9.442993164063 38 38 38
23.046875000000 17.765625000000 9.437988281250 104 104 104
23.031250000000 17.828125000000 8.132995605469 134 134 134
23.015625000000 17.437500000000 9.427993774414 106 106 106
23.000000000000 17.515625000000 8.142990112305 46 46 46
23.031250000000 17.515625000000 8.138992309570 155 155 155
23.015625000000 17.109375000000 9.420989990234 101 101 101
23.000000000000 17.171875000000 8.138992309570 85 85 85
23.015625000000 17.187500000000 8.121002197266 150 150 150
23.000000000000 16.796875000000 9.410995483398 110 110 110
23.000000000000 16.859375000000 8.132995605469 122 122 122
23.015625000000 16.859375000000 8.125991821289 139 139 139
23.015625000000 16.484375000000 9.401992797852 111 111 111
23.000000000000 16.531250000000 8.116989135742 131 131 131
23.000000000000 16.531250000000 8.123001098633 61 61 61
22.968750000000 16.140625000000 9.393997192383 106 106 106
23.015625000000 16.171875000000 9.410995483398 36 36 36
22.984375000000 16.203125000000 8.125000000000 139 139 139
22.984375000000 15.828125000000 9.381988525391 108 108 108
22.968750000000 15.875000000000 8.113998413086 96 96 96
22.984375000000 15.890625000000 8.110000610352 148 148 148
22.984375000000 15.515625000000 9.371994018555 107 107 107
22.968750000000 15.546875000000 8.108993530273 114 114 114
22.984375000000 15.562500000000 8.115997314453 138 138 138
22.953125000000 15.171875000000 9.373992919922 58 58 58
22.968750000000 15.187500000000 9.363998413086 99 99 99
22.953125000000 15.234375000000 8.117996215820 119 119 119
22.984375000000 15.234375000000 8.100997924805 135 135 135
22.937500000000 14.843750000000 9.373001098633 67 67 67
22.968750000000 14.875000000000 9.363998413086 95 95 95
22.953125000000 14.921875000000 8.098999023438 105 105 105
22.968750000000 14.921875000000 8.110000610352 137 137 137
22.953125000000 14.593750000000 8.100997924805 125 125 125
22.968750000000 14.609375000000 8.100997924805 79 79 79
27.671875000000 31.859375000000 10.670989990234 133 133 133
27.625000000000 31.546875000000 10.683990478516 133 133 133
27.078125000000 31.812500000000 9.098999023438 164 164 164
27.656250000000 31.484375000000 9.724990844727 60 60 60
27.593750000000 31.234375000000 10.709991455078 109 109 109
27.062500000000 31.484375000000 9.117996215820 163 163 163
27.609375000000 31.156250000000 9.736999511719 88 88 88
26.093750000000 31.890625000000 10.654998779297 21 21 21
26.109375000000 31.859375000000 10.601989746094 168 168 168
27.562500000000 30.906250000000 10.714996337891 137 137 137
27.000000000000 31.187500000000 9.146987915039 102 102 102
27.062500000000 31.156250000000 9.164993286133 165 165 165
27.578125000000 30.843750000000 9.737991333008 44 44 44
26.046875000000 31.593750000000 10.623992919922 80 80 80
26.062500000000 31.578125000000 10.608001708984 165 165 165
27.531250000000 30.609375000000 10.718994140625 144 144 144
26.968750000000 30.875000000000 9.149993896484 144 144 144
27.531250000000 30.546875000000 9.783996582031 125 125 125
26.046875000000 31.265625000000 10.621994018555 176 176 176
27.500000000000 30.296875000000 10.727996826172 127 127 127
26.937500000000 30.578125000000 9.151000976563 148 148 148
27.500000000000 30.250000000000 9.781997680664 110 110 110
27.531250000000 30.234375000000 9.759002685547 35 35 35
26.000000000000 30.937500000000 10.623992919922 184 184 184
27.453125000000 29.984375000000 10.748001098633 62 62 62
27.484375000000 29.968750000000 10.718994140625 86 86 86
26.906250000000 30.265625000000 9.168991088867 145 145 145
27.453125000000 29.921875000000 9.792999267578 56 56 56
27.468750000000 29.921875000000 9.761993408203 111 111 111
23.906250000000 31.937500000000 9.733993530273 138 138 138
25.953125000000 30.625000000000 10.630996704102 168 168 168
25.968750000000 30.609375000000 10.611999511719 104 104 104
27.437500000000 29.640625000000 10.733993530273 130 130 130
26.859375000000 29.921875000000 9.190002441406 144 144 144
27.437500000000 29.578125000000 9.791000366211 146 146 146
23.843750000000 31.625000000000 9.725997924805 129 129 129
25.906250000000 30.296875000000 10.645996093750 147 147 147
25.937500000000 30.281250000000 10.618988037109 106 106 106
27.406250000000 29.328125000000 10.750000000000 143 143 143
26.843750000000 29.609375000000 9.198989868164 148 148 148
27.406250000000 29.281250000000 9.799987792969 137 137 137
23.593750000000 31.718750000000 8.375000000000 177 177 177
23.781250000000 31.343750000000 9.764999389648 31 31 31
23.781250000000 31.328125000000 9.755996704102 130 130 130
25.890625000000 29.984375000000 10.652999877930 182 182 182
25.937500000000 29.953125000000 10.664001464844 27 27 27
27.359375000000 29.046875000000 10.799987792969 30 30 30
27.375000000000 29.015625000000 10.750000000000 109 109 109
26.781250000000 29.312500000000 9.226989746094 91 91 91
26.812500000000 29.312500000000 9.205993652344 86 86 86
27.343750000000 28.984375000000 9.812988281250 67 67 67
27.359375000000 28.968750000000 9.796997070313 94 94 94
23.593750000000 31.468750000000 9.764999389648 91 91 91
23.718750000000 31.046875000000 9.778991699219 65 65 65
23.750000000000 31.015625000000 9.768997192383 110 110 110
25.859375000000 29.671875000000 10.641998291016 184 184 184
27.312500000000 28.734375000000 10.787994384766 78 78 78
27.343750000000 28.703125000000 10.763992309570 71 71 71
26.765625000000 29.000000000000 9.235000610352 148 148 148
27.312500000000 28.671875000000 9.823989868164 111 111 111
27.343750000000 28.656250000000 9.804992675781 26 26 26
23.671875000000 30.734375000000 9.776000976563 27 27 27
23.687500000000 30.734375000000 9.774002075195 130 130 130
25.828125000000 29.359375000000 10.656997680664 174 174 174
27.281250000000 28.406250000000 10.806991577148 77 77 77
27.312500000000 28.390625000000 10.774993896484 90 90 90
26.734375000000 28.671875000000 9.240997314453 141 141 141
27.281250000000 28.375000000000 9.843002319336 150 150 150
27.312500000000 28.343750000000 9.823989868164 30 30 30
23.625000000000 30.421875000000 9.767990112305 123 123 123
25.781250000000 29.046875000000 10.670989990234 154 154 154
25.812500000000 29.015625000000 10.659988403320 87 87 87
26.703125000000 28.359375000000 9.261001586914 133 133 133
23.562500000000 30.109375000000 9.776992797852 104 104 104
25.750000000000 28.734375000000 10.674987792969 130 130 130
25.765625000000 28.703125000000 10.662002563477 115 115 115
23.500000000000 29.812500000000 9.774993896484 85 85 85
25.718750000000 28.406250000000 10.690994262695 164 164 164
25.750000000000 28.390625000000 10.679000854492 78 78 78
27.250000000000 27.406250000000 10.757995605469 153 153 153
26.718750000000 27.671875000000 9.138992309570 181 181 181
26.687500000000 27.671875000000 9.074996948242 187 187 187
26.718750000000 27.656250000000 9.244995117188 135 135 135
26.718750000000 27.656250000000 9.190002441406 145 145 145
25.781250000000 27.984375000000 9.944000244141 57 57 57
27.218750000000 27.109375000000 10.766998291016 21 21 21
27.250000000000 27.093750000000 10.733001708984 132 132 132
26.640625000000 27.390625000000 9.229995727539 150 150 150
27.234375000000 27.031250000000 9.778991699219 137 137 137
25.671875000000 27.765625000000 10.655990600586 148 148 148
25.703125000000 27.750000000000 10.636993408203 136 136 136
25.718750000000 27.734375000000 10.593994140625 76 76 76
25.687500000000 27.750000000000 10.468002319336 82 82 82
25.718750000000 27.734375000000 10.442001342773 64 64 64
27.218750000000 26.765625000000 10.740997314453 81 81 81
27.250000000000 26.750000000000 10.718994140625 89 89 89
26.640625000000 27.062500000000 9.210998535156 152 152 152
27.218750000000 26.718750000000 9.782989501953 46 46 46
27.250000000000 26.703125000000 9.759994506836 117 117 117
25.671875000000 27.437500000000 10.658996582031 118 118 118
25.703125000000 27.421875000000 10.632995605469 157 157 157
27.203125000000 26.421875000000 10.718994140625 23 23 23
27.234375000000 26.421875000000 10.692001342773 124 124 124
26.625000000000 26.734375000000 9.190994262695 80 80 80
26.656250000000 26.718750000000 9.175994873047 114 114 114
27.234375000000 26.359375000000 9.750000000000 148 148 148
25.687500000000 27.078125000000 10.636993408203 178 178 178
27.218750000000 26.078125000000 10.690994262695 147 147 147
26.640625000000 26.375000000000 9.169998168945 158 158 158
27.234375000000 26.031250000000 9.743988037109 123 123 123
27.250000000000 26.000000000000 9.722991943359 22 22 22
25.671875000000 26.750000000000 10.618988037109 175 175 175
25.687500000000 26.734375000000 10.600997924805 16 16 16
27.218750000000 25.750000000000 10.679000854492 141 141 141
26.625000000000 26.046875000000 9.156997680664 109 109 109
26.656250000000 26.031250000000 9.141998291016 101 101 101
27.218750000000 25.687500000000 9.736999511719 82 82 82
27.218750000000 25.671875000000 9.700988769531 88 88 88
25.656250000000 26.421875000000 10.610000610352 178 178 178
27.203125000000 25.421875000000 10.660995483398 148 148 148
26.609375000000 25.703125000000 9.143997192383 122 122 122
26.625000000000 25.703125000000 9.119995117188 80 80 80
27.203125000000 25.375000000000 9.712997436523 120 120 120
27.234375000000 25.343750000000 9.696990966797 22 22 22
25.640625000000 26.109375000000 10.598999023438 98 98 98
25.671875000000 26.078125000000 10.595993041992 167 167 167
27.187500000000 25.109375000000 10.659988403320 36 36 36
27.203125000000 25.109375000000 10.621994018555 114 114 114
26.609375000000 25.406250000000 9.118988037109 153 153 153
27.218750000000 25.046875000000 9.690002441406 145 145 145
25.640625000000 25.765625000000 10.595001220703 142 142 142
25.671875000000 25.765625000000 10.576995849609 120 120 120
27.187500000000 24.765625000000 10.640991210938 88 88 88
27.218750000000 24.750000000000 10.621002197266 74 74 74
26.609375000000 25.062500000000 9.098999023438 155 155 155
27.203125000000 24.703125000000 9.662002563477 140 140 140
25.625000000000 25.437500000000 10.567993164063 114 114 114
25.656250000000 25.421875000000 10.558990478516 144 144 144
27.156250000000 24.437500000000 10.611999511719 41 41 41
27.187500000000 24.421875000000 10.584991455078 117 117 117
26.593750000000 24.734375000000 9.083999633789 109 109 109
26.609375000000 24.718750000000 9.065002441406 93 93 93
27.203125000000 24.390625000000 9.656997680664 149 149 149
23.328125000000 26.890625000000 9.763992309570 110 110 110
23.343750000000 26.546875000000 9.740997314453 91 91 91
23.359375000000 26.515625000000 9.748992919922 96 96 96
25.625000000000 25.109375000000 10.570999145508 20 20 20
25.640625000000 25.078125000000 10.550994873047 170 170 170
27.187500000000 24.078125000000 10.587997436523 148 148 148
26.593750000000 24.390625000000 9.054992675781 156 156 156
27.187500000000 24.031250000000 9.642990112305 126 126 126
27.218750000000 24.015625000000 9.631988525391 28 28 28
23.343750000000 26.171875000000 9.722000122070 56 56 56
23.375000000000 26.171875000000 9.725997924805 127 127 127
25.640625000000 24.750000000000 10.546997070313 173 173 173
27.171875000000 23.750000000000 10.567001342773 145 145 145
26.593750000000 24.046875000000 9.042999267578 155 155 155
27.171875000000 23.703125000000 9.636993408203 123 123 123
27.203125000000 23.687500000000 9.606994628906 51 51 51
23.375000000000 25.843750000000 9.722991943359 79 79 79
23.406250000000 25.828125000000 9.703994750977 119 119 119
25.609375000000 24.437500000000 10.539001464844 140 140 140
25.640625000000 24.421875000000 10.532989501953 122 122 122
27.156250000000 23.437500000000 10.572998046875 82 82 82
27.187500000000 23.421875000000 10.550994873047 86 86 86
26.562500000000 23.734375000000 9.044998168945 28 28 28
26.593750000000 23.734375000000 9.022994995117 148 148 148
27.171875000000 23.390625000000 9.606002807617 150 150 150
23.406250000000 25.500000000000 9.696990966797 111 111 111
23.406250000000 25.468750000000 9.690994262695 96 96 96
25.625000000000 24.093750000000 10.529998779297 179 179 179
27.156250000000 23.125000000000 10.544998168945 146 146 146
26.562500000000 23.421875000000 9.022994995117 104 104 104
26.593750000000 23.406250000000 9.000991821289 102 102 102
27.156250000000 23.078125000000 9.612991333008 75 75 75
27.171875000000 23.046875000000 9.583999633789 96 96 96
23.406250000000 25.125000000000 9.669998168945 97 97 97
23.437500000000 25.125000000000 9.677001953125 111 111 111
25.609375000000 23.765625000000 10.505996704102 170 170 170
27.156250000000 22.781250000000 10.529998779297 143 143 143
26.562500000000 23.093750000000 9.000991821289 108 108 108
26.578125000000 23.078125000000 8.976989746094 102 102 102
27.156250000000 22.734375000000 9.589996337891 99 99 99
27.171875000000 22.734375000000 9.563995361328 72 72 72
23.453125000000 24.796875000000 9.668991088867 141 141 141
25.593750000000 23.437500000000 10.501998901367 179 179 179
27.156250000000 22.453125000000 10.517990112305 148 148 148
26.578125000000 22.750000000000 8.972991943359 153 153 153
27.171875000000 22.406250000000 9.552993774414 128 128 128
23.468750000000 24.421875000000 9.649993896484 121 121 121
25.593750000000 23.109375000000 10.496994018555 145 145 145
25.625000000000 23.078125000000 10.479995727539 107 107 107
27.140625000000 22.109375000000 10.511993408203 96 96 96
27.171875000000 22.109375000000 10.485992431641 57 57 57
26.562500000000 22.406250000000 8.970993041992 119 119 119
26.578125000000 22.390625000000 8.947998046875 76 76 76
27.156250000000 22.046875000000 9.554000854492 147 147 147
23.156250000000 24.562500000000 8.291992187500 113 113 113
23.156250000000 24.218750000000 8.251998901367 107 107 107
23.468750000000 24.093750000000 9.639999389648 111 111 111
23.500000000000 24.078125000000 9.641998291016 77 77 77
25.593750000000 22.781250000000 10.491989135742 156 156 156
25.609375000000 22.750000000000 10.472000122070 97 97 97
27.125000000000 21.781250000000 10.485000610352 111 111 111
27.156250000000 21.765625000000 10.481002807617 19 19 19
26.562500000000 22.078125000000 8.961990356445 110 110 110
26.562500000000 22.062500000000 8.944992065430 92 92 92
27.125000000000 21.718750000000 9.533996582031 147 147 147
23.156250000000 23.906250000000 8.227996826172 131 131 131
23.500000000000 23.734375000000 9.634994506836 116 116 116
25.593750000000 22.437500000000 10.466995239258 179 179 179
27.125000000000 21.453125000000 10.465988159180 145 145 145
26.546875000000 21.734375000000 8.933990478516 156 156 156
27.125000000000 21.421875000000 9.550994873047 85 85 85
27.140625000000 21.390625000000 9.516998291016 91 91 91
23.156250000000 23.562500000000 8.210998535156 130 130 130
23.515625000000 23.390625000000 9.610992431641 112 112 112
