25.507781982422 12.545633316040 2.639999389648 164 164 164
25.507781982422 12.545633316040 2.665000915527 165 165 165
25.492156982422 12.545669555664 2.681999206543 146 146 146
25.429656982422 12.545812606812 2.688003540039 88 88 88
24.460979461670 12.579277038574 2.474998474121 159 159 159
24.445354461670 12.579313278198 2.503997802734 164 164 164
24.445354461670 12.579313278198 2.533004760742 165 165 165
24.445354461670 12.579313278198 2.559997558594 167 167 167
24.445354461670 12.579313278198 2.589004516602 169 169 169
24.460979461670 12.579277038574 2.619003295898 168 168 168
24.445354461670 12.579313278198 2.647003173828 168 168 168
24.398479461670 12.579420089722 2.665000915527 123 123 123
24.414104461670 12.579383850098 2.433998107910 131 131 131
25.524120330811 12.858097076416 2.471000671387 161 161 161
25.524120330811 12.858097076416 2.493003845215 169 169 169
25.524120330811 12.858097076416 2.515998840332 167 167 167
25.524120330811 12.858097076416 2.540000915527 169 169 169
25.508495330811 12.858131408691 2.561004638672 164 164 164
25.508495330811 12.858131408691 2.581001281738 169 169 169
25.508495330811 12.858131408691 2.606002807617 168 168 168
25.524120330811 12.858097076416 2.630004882813 167 167 167
25.524120330811 12.858097076416 2.652999877930 165 165 165
25.508495330811 12.858131408691 2.674003601074 159 159 159
25.477281570435 12.873828887939 2.687004089355 135 135 135
24.446069717407 12.891811370850 2.455001831055 117 117 117
24.508569717407 12.891668319702 2.500000000000 166 166 166
24.508569717407 12.891668319702 2.527999877930 169 169 169
24.508569717407 12.891668319702 2.555999755859 171 171 171
24.492944717407 12.891704559326 2.583999633789 172 172 172
24.508569717407 12.891668319702 2.612998962402 176 176 176
24.492944717407 12.891704559326 2.638999938965 160 160 160
24.446069717407 12.891811370850 2.659004211426 88 88 88
25.149871826172 13.187078475952 1.997001647949 110 110 110
25.165496826172 13.187042236328 2.028999328613 187 187 187
25.149871826172 13.187078475952 2.052001953125 185 185 185
25.149871826172 13.187078475952 2.077003479004 185 185 185
25.149871826172 13.187078475952 2.105003356934 186 186 186
25.165496826172 13.187042236328 2.133003234863 183 183 183
25.149871826172 13.187078475952 2.158004760742 184 184 184
25.149871826172 13.187078475952 2.180000305176 184 184 184
25.149871826172 13.187078475952 2.209999084473 184 184 184
25.149871826172 13.187078475952 2.236000061035 183 183 183
25.149871826172 13.187078475952 2.263000488281 182 182 182
25.149871826172 13.187078475952 2.288002014160 185 185 185
25.149871826172 13.187078475952 2.314002990723 182 182 182
25.149871826172 13.187078475952 2.340003967285 182 182 182
25.165496826172 13.187042236328 2.367004394531 184 184 184
25.149871826172 13.187078475952 2.390998840332 186 186 186
25.149871826172 13.187078475952 2.416000366211 184 184 184
25.290496826172 13.186758041382 2.481002807617 159 159 159
25.306121826172 13.186721801758 2.510002136230 163 163 163
25.306121826172 13.186721801758 2.537002563477 161 161 161
25.306121826172 13.186721801758 2.557998657227 159 159 159
25.306121826172 13.186721801758 2.583000183105 155 155 155
25.306121826172 13.186721801758 2.608001708984 158 158 158
25.306121826172 13.186721801758 2.631004333496 158 158 158
25.306121826172 13.186721801758 2.655998229980 151 151 151
25.149871826172 13.187078475952 2.638999938965 186 186 186
25.149871826172 13.187078475952 2.664001464844 189 189 189
25.149871826172 13.187078475952 2.690002441406 184 184 184
25.149871826172 13.187078475952 2.713005065918 186 186 186
25.102996826172 13.187185287476 2.729003906250 153 153 153
24.978031158447 13.203096389771 2.727005004883 131 131 131
24.868656158447 13.203346252441 2.727005004883 129 129 129
25.150621414185 13.515201568604 2.007003784180 152 152 152
25.150621414185 13.515201568604 2.034004211426 181 181 181
25.150621414185 13.515201568604 2.061004638672 183 183 183
25.166246414185 13.515165328979 2.090003967285 186 186 186
25.166246414185 13.515165328979 2.114997863770 183 183 183
25.166246414185 13.515165328979 2.142997741699 182 182 182
25.166246414185 13.515165328979 2.169998168945 180 180 180
25.150621414185 13.515201568604 2.193000793457 178 178 178
25.150621414185 13.515201568604 2.220001220703 181 181 181
25.150621414185 13.515201568604 2.246002197266 180 180 180
25.166246414185 13.515165328979 2.275001525879 177 177 177
25.166246414185 13.515165328979 2.301002502441 178 178 178
25.150621414185 13.515201568604 2.323997497559 180 180 180
25.150621414185 13.515201568604 2.348999023438 181 181 181
25.150621414185 13.515201568604 2.374000549316 182 182 182
25.150621414185 13.515201568604 2.400001525879 179 179 179
25.166246414185 13.515165328979 2.427001953125 179 179 179
25.166246414185 13.515165328979 2.459999084473 182 182 182
25.275621414185 13.514915466309 2.513000488281 161 161 161
25.275585174561 13.499290466309 2.537002563477 174 174 174
25.275621414185 13.514915466309 2.563003540039 170 170 170
25.275621414185 13.514915466309 2.585998535156 176 176 176
25.275585174561 13.499290466309 2.610000610352 177 177 177
25.275585174561 13.499290466309 2.634002685547 169 169 169
25.275621414185 13.514915466309 2.661003112793 164 164 164
25.181871414185 13.515130996704 2.661003112793 172 172 172
25.150621414185 13.515201568604 2.675003051758 180 180 180
25.166246414185 13.515165328979 2.701004028320 178 178 178
25.134996414185 13.515237808228 2.721000671387 172 172 172
25.088121414185 13.515344619751 2.734001159668 123 123 123
24.947496414185 13.515666961670 2.730003356934 118 118 118
24.838159561157 13.531541824341 2.731002807617 101 101 101
25.260711669922 13.827451705933 2.498001098633 50 50 50
25.260711669922 13.827451705933 2.522003173828 164 164 164
25.260711669922 13.827451705933 2.545997619629 168 168 168
25.260711669922 13.827451705933 2.569999694824 168 168 168
25.260711669922 13.827451705933 2.593002319336 166 166 166
25.260711669922 13.827451705933 2.618003845215 172 172 172
25.260711669922 13.827451705933 2.640998840332 168 168 168
25.276336669922 13.827415466309 2.667999267578 168 168 168
25.213836669922 13.827558517456 2.679000854492 130 130 130
24.651372909546 13.844469070435 2.571998596191 161 161 161
24.651372909546 13.844469070435 2.597999572754 168 168 168
24.651372909546 13.844469070435 2.625999450684 165 165 165
24.651372909546 13.844469070435 2.654998779297 168 168 168
24.635747909546 13.844505310059 2.678001403809 77 77 77
24.635747909546 13.844505310059 2.540000915527 138 138 138
25.245836257935 14.155611038208 2.527999877930 206 206 206
25.245836257935 14.155611038208 2.550003051758 221 221 221
25.245836257935 14.155611038208 2.576004028320 222 222 222
25.245836257935 14.155611038208 2.597000122070 220 220 220
25.245836257935 14.155611038208 2.622001647949 222 222 222
25.245836257935 14.155611038208 2.646003723145 223 223 223
25.230211257935 14.155645370483 2.668998718262 223 223 223
24.667749404907 14.172557830811 2.559997558594 223 223 223
24.652124404907 14.172592163086 2.583999633789 219 219 219
24.667749404907 14.172557830811 2.611999511719 224 224 224
24.683374404907 14.172521591187 2.644004821777 197 197 197
24.667749404907 14.172557830811 2.668998718262 184 184 184
25.246551513672 14.468111038208 2.536003112793 206 206 206
25.230926513672 14.468145370483 2.558998107910 221 221 221
25.230926513672 14.468145370483 2.583000183105 221 221 221
25.230926513672 14.468145370483 2.607002258301 222 222 222
25.215301513672 14.468181610107 2.628997802734 224 224 224
25.215301513672 14.468181610107 2.651000976563 228 228 228
25.184051513672 14.468254089355 2.669998168945 231 231 231
24.699712753296 14.484985351563 2.579002380371 221 221 221
24.684087753296 14.485021591187 2.604003906250 224 224 224
24.684087753296 14.485021591187 2.633003234863 213 213 213
24.699712753296 14.484985351563 2.661003112793 214 214 214
24.637212753296 14.485128402710 2.678001403809 36 36 36
25.216051101685 14.796306610107 2.541999816895 206 206 206
25.216051101685 14.796306610107 2.563003540039 219 219 219
25.216051101685 14.796306610107 2.590003967285 222 222 222
25.216051101685 14.796306610107 2.612998962402 225 225 225
25.216051101685 14.796306610107 2.638000488281 224 224 224
25.216051101685 14.796306610107 2.663002014160 220 220 220
25.184801101685 14.796379089355 2.679000854492 227 227 227
24.716089248657 14.813076019287 2.597999572754 218 218 218
24.716089248657 14.813076019287 2.625000000000 221 221 221
24.731714248657 14.813039779663 2.652999877930 194 194 194
24.716089248657 14.813076019287 2.680000305176 197 197 197
25.201139450073 15.108840942383 2.548004150391 193 193 193
25.201139450073 15.108840942383 2.570999145508 220 220 220
25.201139450073 15.108840942383 2.595001220703 219 219 219
25.201139450073 15.108840942383 2.619003295898 221 221 221
25.201139450073 15.108840942383 2.644004821777 222 222 222
25.185514450073 15.108877182007 2.666999816895 226 226 226
25.154264450073 15.108947753906 2.682998657227 227 227 227
24.748052597046 15.125501632690 2.613998413086 225 225 225
24.748052597046 15.125501632690 2.641998291016 218 218 218
24.748052597046 15.125501632690 2.667999267578 211 211 211
24.732427597046 15.125537872314 2.694000244141 111 111 111
25.186265945435 15.437002182007 2.550003051758 181 181 181
25.186265945435 15.437002182007 2.575004577637 211 211 211
25.186265945435 15.437002182007 2.599998474121 210 210 210
25.186265945435 15.437002182007 2.625000000000 204 204 204
25.186265945435 15.437002182007 2.651000976563 199 199 199
25.155015945435 15.437072753906 2.672004699707 214 214 214
25.108140945435 15.437179565430 2.686004638672 223 223 223
24.780054092407 15.453556060791 2.633003234863 224 224 224
24.795679092407 15.453519821167 2.661003112793 201 201 201
24.795679092407 15.453519821167 2.688003540039 210 210 210
25.140104293823 15.749607086182 2.552001953125 166 166 166
25.155729293823 15.749570846558 2.580001831055 216 216 216
25.155729293823 15.749570846558 2.605003356934 198 198 198
25.155729293823 15.749570846558 2.632003784180 190 190 190
25.140104293823 15.749607086182 2.652000427246 216 216 216
25.140104293823 15.749607086182 2.677001953125 214 214 214
25.077604293823 15.749750137329 2.687004089355 225 225 225
24.812017440796 15.765981674194 2.651000976563 218 218 218
24.827642440796 15.765945434570 2.678001403809 212 212 212
24.812017440796 15.765981674194 2.702003479004 132 132 132
25.109605789185 16.077804565430 2.556999206543 173 173 173
25.125230789185 16.077766418457 2.584999084473 215 215 215
25.125230789185 16.077766418457 2.611000061035 208 208 208
25.125230789185 16.077766418457 2.635002136230 180 180 180
25.109605789185 16.077804565430 2.656997680664 223 223 223
25.125230789185 16.077766418457 2.683998107910 218 218 218
25.031480789185 16.077981948853 2.688003540039 215 215 215
24.844018936157 16.094036102295 2.672004699707 196 196 196
24.844018936157 16.094036102295 2.698997497559 206 206 206
25.110319137573 16.390302658081 2.566001892090 183 183 183
25.110319137573 16.390302658081 2.591003417969 218 218 218
25.110319137573 16.390302658081 2.619003295898 207 207 207
25.110319137573 16.390302658081 2.644004821777 197 197 197
25.110319137573 16.390302658081 2.668998718262 218 218 218
25.094730377197 16.405963897705 2.690002441406 221 221 221
24.938480377197 16.406320571899 2.679000854492 210 210 210
24.875980377197 16.406463623047 2.692001342773 214 214 214
24.829107284546 16.406570434570 2.711997985840 44 44 44
25.079820632935 16.718498229980 2.570999145508 180 180 180
25.095445632935 16.718461990356 2.598999023438 218 218 218
25.095445632935 16.718461990356 2.624000549316 205 205 205
25.079820632935 16.718498229980 2.648002624512 198 198 198
25.079820632935 16.718498229980 2.673004150391 223 223 223
25.064195632935 16.718532562256 2.694999694824 226 226 226
24.923570632935 16.718854904175 2.690002441406 190 190 190
24.892356872559 16.734550476074 2.709999084473 198 198 198
25.064945220947 17.046657562256 2.578002929688 193 193 193
25.080570220947 17.046621322632 2.605003356934 203 203 203
25.064945220947 17.046657562256 2.627998352051 216 216 216
25.064945220947 17.046657562256 2.652000427246 221 221 221
25.080570220947 17.046621322632 2.680999755859 207 207 207
25.080570220947 17.046621322632 2.707000732422 216 216 216
25.002445220947 17.046800613403 2.714004516602 185 185 185
24.893070220947 17.047050476074 2.722000122070 77 77 77
25.065660476685 17.359157562256 2.584999084473 206 206 206
25.034410476685 17.359228134155 2.609001159668 220 220 220
25.034410476685 17.359228134155 2.635002136230 223 223 223
25.065660476685 17.359157562256 2.662002563477 222 222 222
25.065660476685 17.359157562256 2.688003540039 219 219 219
25.065660476685 17.359157562256 2.713005065918 208 208 208
24.940660476685 17.359443664551 2.716003417969 176 176 176
25.003910064697 17.687423706055 2.586997985840 150 150 150
25.003910064697 17.687423706055 2.611999511719 219 219 219
25.003910064697 17.687423706055 2.638000488281 220 220 220
24.988285064697 17.687458038330 2.662002563477 227 227 227
24.988285064697 17.687458038330 2.687004089355 225 225 225
25.003910064697 17.687423706055 2.715003967285 209 209 209
25.004625320435 17.999923706055 2.599998474121 190 190 190
25.004625320435 17.999923706055 2.624000549316 224 224 224
25.004625320435 17.999923706055 2.651000976563 221 221 221
25.004625320435 17.999923706055 2.676002502441 222 222 222
24.989000320435 17.999958038330 2.701004028320 222 222 222
24.989000320435 17.999958038330 2.727005004883 179 179 179
25.005374908447 18.328046798706 2.613998413086 210 210 210
25.005374908447 18.328046798706 2.639999389648 219 219 219
25.005374908447 18.328046798706 2.666000366211 218 218 218
25.005374908447 18.328046798706 2.692001342773 220 220 220
25.005374908447 18.328046798706 2.718002319336 218 218 218
24.974124908447 18.328117370605 2.736999511719 73 73 73
25.006126403809 18.656171798706 2.599998474121 65 65 65
25.021715164185 18.640510559082 2.628997802734 216 216 216
25.006090164185 18.640546798706 2.652999877930 216 216 216
25.021715164185 18.640510559082 2.681999206543 217 217 217
25.021715164185 18.640510559082 2.708000183105 217 217 217
25.021715164185 18.640510559082 2.733001708984 206 206 206
25.006839752197 18.968669891357 2.612998962402 137 137 137
25.006839752197 18.968669891357 2.639999389648 215 215 215
25.022464752197 18.968635559082 2.666000366211 218 218 218
25.022464752197 18.968635559082 2.693000793457 219 219 219
25.022464752197 18.968635559082 2.719001770020 221 221 221
25.022464752197 18.968635559082 2.746002197266 168 168 168
25.023180007935 19.281133651733 2.625999450684 167 167 167
25.023180007935 19.281133651733 2.651000976563 216 216 216
25.023180007935 19.281133651733 2.679000854492 216 216 216
25.023180007935 19.281133651733 2.704002380371 219 219 219
25.023180007935 19.281133651733 2.729003906250 219 219 219
25.007555007935 19.281169891357 2.750999450684 129 129 129
25.007232666016 19.140544891357 2.734001159668 186 186 186
25.007232666016 19.140544891357 2.706001281738 209 209 209
25.007232666016 19.140544891357 2.675003051758 210 210 210
25.007232666016 19.140544891357 2.645004272461 209 209 209
25.007232666016 19.140544891357 2.614997863770 145 145 145
24.975303649902 18.843742370605 2.736999511719 67 67 67
25.006483078003 18.812419891357 2.716003417969 210 210 210
25.006483078003 18.812419891357 2.687004089355 209 209 209
25.006483078003 18.812419891357 2.656997680664 209 209 209
25.006483078003 18.812419891357 2.626998901367 206 206 206
24.990106582642 18.484333038330 2.727005004883 165 165 165
25.005731582642 18.484296798706 2.700004577637 212 212 212
24.990106582642 18.484333038330 2.668998718262 210 210 210
25.005731582642 18.484296798706 2.638999938965 209 209 209
25.005731582642 18.484296798706 2.610000610352 194 194 194
25.004981994629 18.156173706055 2.715003967285 202 202 202
25.004981994629 18.156173706055 2.684997558594 211 211 211
25.004981994629 18.156173706055 2.654998779297 209 209 209
25.004981994629 18.156173706055 2.625000000000 210 210 210
25.020606994629 18.156135559082 2.596000671387 165 165 165
24.973016738892 17.843746185303 2.722999572754 100 100 100
25.004232406616 17.828048706055 2.701004028320 209 209 209
25.004232406616 17.828048706055 2.669998168945 210 210 210
25.004232406616 17.828048706055 2.639999389648 211 211 211
25.004232406616 17.828048706055 2.610000610352 208 208 208
25.004232406616 17.828048706055 2.579002380371 124 124 124
24.972267150879 17.515621185303 2.708999633789 175 175 175
25.003480911255 17.499923706055 2.687004089355 212 212 212
25.003480911255 17.499923706055 2.655998229980 211 211 211
24.987855911255 17.499959945679 2.624000549316 211 211 211
25.003480911255 17.499923706055 2.595001220703 208 208 208
25.002731323242 17.171800613403 2.878997802734 112 112 112
25.049535751343 17.140441894531 2.858001708984 146 146 146
25.065160751343 17.140407562256 2.832000732422 169 169 169
25.065160751343 17.140407562256 2.803001403809 169 169 169
25.049535751343 17.140441894531 2.771003723145 169 169 169
25.065160751343 17.140407562256 2.744003295898 167 167 167
25.049535751343 17.140441894531 2.710998535156 157 157 157
25.049535751343 17.140441894531 2.683998107910 215 215 215
25.065124511719 17.124782562256 2.655998229980 204 204 204
25.065124511719 17.124782562256 2.626998901367 212 212 212
25.049535751343 17.140441894531 2.595001220703 208 208 208
25.065124511719 17.124782562256 2.567001342773 157 157 157
24.892784118652 16.922050476074 2.714004516602 36 36 36
24.908374786377 16.906391143799 2.688003540039 203 203 203
25.033195495605 16.827980041504 2.693000793457 204 204 204
25.079998016357 16.796623229980 2.676002502441 210 210 210
25.079998016357 16.796623229980 2.648002624512 179 179 179
25.079998016357 16.796623229980 2.619003295898 170 170 170
25.079998016357 16.796623229980 2.588005065918 212 212 212
25.064373016357 16.796657562256 2.555000305176 104 104 104
24.876409530640 16.593961715698 2.697998046875 183 183 183
24.876373291016 16.578336715698 2.668998718262 184 184 184
25.047998428345 16.468570709229 2.687004089355 207 207 207
25.094837188721 16.452838897705 2.669998168945 213 213 213
25.094837188721 16.452838897705 2.639999389648 190 190 190
25.079212188721 16.452873229980 2.610000610352 194 194 194
25.094837188721 16.452838897705 2.582000732422 211 211 211
25.079212188721 16.452873229980 2.550003051758 117 117 117
24.844411849976 16.265909194946 2.680000305176 211 211 211
24.844411849976 16.265909194946 2.648002624512 209 209 209
25.094087600708 16.124713897705 2.686004638672 208 208 208
25.125301361084 16.109016418457 2.666000366211 210 210 210
25.125301361084 16.109016418457 2.635002136230 175 175 175
25.125301361084 16.109016418457 2.608001708984 179 179 179
25.125301361084 16.109016418457 2.577003479004 209 209 209
25.109676361084 16.109054565430 2.543998718262 148 148 148
24.812482833862 15.969106674194 2.686004638672 187 187 187
24.812482833862 15.969106674194 2.655998229980 195 195 195
24.812446594238 15.953481674194 2.625999450684 217 217 217
25.124515533447 15.765268325806 2.681999206543 211 211 211
25.140140533447 15.765232086182 2.660003662109 209 209 209
25.155729293823 15.749570846558 2.633003234863 188 188 188
25.140104293823 15.749607086182 2.603004455566 187 187 187
25.140104293823 15.749607086182 2.572998046875 211 211 211
25.140140533447 15.765232086182 2.541000366211 148 148 148
24.780517578125 15.656679153442 2.691001892090 130 130 130
24.796142578125 15.656642913818 2.664001464844 202 202 202
24.796142578125 15.656642913818 2.633003234863 217 217 217
24.811731338501 15.640981674194 2.606002807617 217 217 217
25.170604705811 15.421411514282 2.679000854492 212 212 212
25.170568466187 15.405786514282 2.652999877930 200 200 200
25.186193466187 15.405752182007 2.625999450684 207 207 207
25.170604705811 15.421411514282 2.595001220703 208 208 208
25.170604705811 15.421411514282 2.565002441406 212 212 212
25.170568466187 15.405786514282 2.537002563477 145 145 145
24.764177322388 15.344215393066 2.670997619629 208 208 208
24.764177322388 15.344215393066 2.640998840332 204 204 204
24.764177322388 15.344215393066 2.608001708984 216 216 216
24.795356750488 15.312894821167 2.585998535156 218 218 218
25.185443878174 15.077627182007 2.673004150391 213 213 213
25.185443878174 15.077627182007 2.644004821777 206 206 206
25.185443878174 15.077627182007 2.613998413086 213 213 213
25.185443878174 15.077627182007 2.588005065918 194 194 194
25.185443878174 15.077627182007 2.556999206543 215 215 215
25.201068878174 15.077590942383 2.530998229980 150 150 150
24.732213973999 15.031787872314 2.677001953125 161 161 161
24.747838973999 15.031751632690 2.650001525879 181 181 181
24.732177734375 15.016162872314 2.617004394531 146 146 146
24.763427734375 15.016090393066 2.593002319336 123 123 123
24.747838973999 15.031751632690 2.555000305176 198 198 198
25.200283050537 14.733842849731 2.663002014160 214 214 214
25.200283050537 14.733842849731 2.637001037598 213 213 213
25.200283050537 14.733842849731 2.610000610352 214 214 214
25.200283050537 14.733842849731 2.580001831055 213 213 213
25.215908050537 14.733806610107 2.553001403809 215 215 215
25.215908050537 14.733806610107 2.525001525879 159 159 159
24.700248718262 14.719360351563 2.656997680664 210 210 210
24.700248718262 14.719360351563 2.625000000000 205 205 205
24.715873718262 14.719326019287 2.595001220703 214 214 214
24.715873718262 14.719326019287 2.562004089355 216 216 216
24.700248718262 14.719360351563 2.527999877930 201 201 201
25.230747222900 14.390020370483 2.659004211426 213 213 213
25.230747222900 14.390020370483 2.631004333496 212 212 212
25.230747222900 14.390020370483 2.603004455566 214 214 214
25.246372222900 14.389986038208 2.576004028320 214 214 214
25.246372222900 14.389986038208 2.547004699707 213 213 213
25.230747222900 14.390020370483 2.515998840332 171 171 171
24.668285369873 14.406932830811 2.665000915527 156 156 156
24.683874130249 14.391271591187 2.635002136230 190 190 190
24.683874130249 14.391271591187 2.606002807617 216 216 216
24.683874130249 14.391271591187 2.570999145508 216 216 216
24.683874130249 14.391271591187 2.540000915527 217 217 217
24.668285369873 14.406932830811 2.500999450684 169 169 169
25.245586395264 14.046237945557 2.649002075195 215 215 215
25.245620727539 14.061862945557 2.620002746582 214 214 214
25.245586395264 14.046237945557 2.594001770020 214 214 214
25.245586395264 14.046237945557 2.566001892090 214 214 214
25.245586395264 14.046237945557 2.538002014160 213 213 213
25.245586395264 14.046237945557 2.509002685547 183 183 183
24.651908874512 14.078844070435 2.648002624512 207 207 207
24.651908874512 14.078844070435 2.616004943848 208 208 208
24.667533874512 14.078809738159 2.585998535156 184 184 184
24.651908874512 14.078844070435 2.552001953125 200 200 200
24.651908874512 14.078844070435 2.520004272461 206 206 206
25.244834899902 13.718112945557 2.667999267578 143 143 143
25.244834899902 13.718112945557 2.641998291016 151 151 151
25.244834899902 13.718112945557 2.612998962402 150 150 150
25.244834899902 13.718112945557 2.583999633789 150 150 150
25.244834899902 13.718112945557 2.556999206543 152 152 152
25.276084899902 13.718040466309 2.529998779297 150 150 150
25.276050567627 13.702415466309 2.503997802734 132 132 132
24.619945526123 13.766416549683 2.656997680664 125 125 125
24.651159286499 13.750719070435 2.631004333496 149 149 149
25.088048934937 13.484094619751 2.722000122070 144 144 144
25.134889602661 13.468362808228 2.702003479004 173 173 173
25.150478363037 13.452701568604 2.678001403809 174 174 174
25.166103363037 13.452665328979 2.652999877930 171 171 171
25.259710311890 13.389953613281 2.654998779297 145 145 145
25.275299072266 13.374292373657 2.632003784180 154 154 154
25.275299072266 13.374292373657 2.605003356934 152 152 152
25.275299072266 13.374292373657 2.576004028320 154 154 154
25.275299072266 13.374292373657 2.549003601074 153 153 153
25.275299072266 13.374292373657 2.521003723145 155 155 155
25.259710311890 13.389953613281 2.486999511719 150 150 150
25.166103363037 13.452665328979 2.418998718262 172 172 172
25.150478363037 13.452701568604 2.386001586914 175 175 175
25.166103363037 13.452665328979 2.359001159668 169 169 169
25.166103363037 13.452665328979 2.328002929688 174 174 174
25.150478363037 13.452701568604 2.295997619629 176 176 176
25.150478363037 13.452701568604 2.267997741699 176 176 176
25.150478363037 13.452701568604 2.237998962402 176 176 176
25.166103363037 13.452665328979 2.209999084473 175 175 175
25.166103363037 13.452665328979 2.178001403809 173 173 173
25.166103363037 13.452665328979 2.148002624512 178 178 178
25.166103363037 13.452665328979 2.118003845215 172 172 172
25.166103363037 13.452665328979 2.088005065918 161 161 161
25.166067123413 13.437040328979 2.057998657227 156 156 156
25.166103363037 13.452665328979 2.025001525879 170 170 170
25.166067123413 13.437040328979 1.996002197266 141 141 141
24.775266647339 13.359811782837 2.709999084473 164 164 164
24.915674209595 13.265739440918 2.716003417969 139 139 139
25.040531158447 13.202953338623 2.718002319336 137 137 137
25.118513107300 13.140275955200 2.710998535156 175 175 175
25.134138107300 13.140239715576 2.686004638672 182 182 182
25.134103775024 13.124614715576 2.659004211426 187 187 187
25.134103775024 13.124614715576 2.628997802734 185 185 185
25.149763107300 13.140203475952 2.602005004883 188 188 188
25.305763244629 13.030471801758 2.631004333496 158 158 158
25.368192672729 12.999078750610 2.620002746582 156 156 156
25.368192672729 12.999078750610 2.591003417969 156 156 156
25.368192672729 12.999078750610 2.564002990723 157 157 157
25.368192672729 12.999078750610 2.534004211426 155 155 155
25.368192672729 12.999078750610 2.507003784180 154 154 154
25.368192672729 12.999078750610 2.480003356934 140 140 140
25.180942535400 13.108882904053 2.381004333496 187 187 187
25.149728775024 13.124578475952 2.340003967285 184 184 184
25.149728775024 13.124578475952 2.311004638672 185 185 185
25.149728775024 13.124578475952 2.279998779297 186 186 186
25.149728775024 13.124578475952 2.251998901367 183 183 183
25.149728775024 13.124578475952 2.222000122070 185 185 185
25.149728775024 13.124578475952 2.191001892090 184 184 184
25.149728775024 13.124578475952 2.163002014160 184 184 184
25.149728775024 13.124578475952 2.127998352051 184 184 184
25.149728775024 13.124578475952 2.100997924805 184 184 184
25.149728775024 13.124578475952 2.066001892090 183 183 183
25.149728775024 13.124578475952 2.039001464844 186 186 186
25.149728775024 13.124578475952 2.007003784180 189 189 189
25.024906158447 13.202989578247 1.918998718262 124 124 124
24.946853637695 13.234418869019 1.847999572754 112 112 112
24.962478637695 13.234382629395 1.818000793457 117 117 117
24.931262969971 13.250078201294 1.780998229980 117 117 117
24.931262969971 13.250078201294 1.743003845215 121 121 121
24.931262969971 13.250078201294 1.710998535156 124 124 124
24.931262969971 13.250078201294 1.673004150391 119 119 119
24.556051254272 13.157186508179 2.636001586914 161 161 161
24.556051254272 13.157186508179 2.606002807617 163 163 163
24.556051254272 13.157186508179 2.570999145508 165 165 165
24.556051254272 13.157186508179 2.538002014160 163 163 163
24.556051254272 13.157186508179 2.505004882813 163 163 163
24.431230545044 13.235597610474 2.437004089355 16 16 16
25.414209365845 12.623973846436 2.678001403809 113 113 113
25.492263793945 12.592544555664 2.672004699707 145 145 145
25.507852554321 12.576883316040 2.652999877930 159 159 159
25.507816314697 12.561258316040 2.626998901367 159 159 159
25.507852554321 12.576883316040 2.599998474121 160 160 160
25.523477554321 12.576848983765 2.576004028320 156 156 156
25.507852554321 12.576883316040 2.545997619629 157 157 157
25.507816314697 12.561258316040 2.520004272461 162 162 162
25.507816314697 12.561258316040 2.494003295898 167 167 167
25.507852554321 12.576883316040 2.466003417969 178 178 178
25.507816314697 12.561258316040 2.440002441406 165 165 165
24.461658477783 12.876150131226 2.633003234863 106 106 106
24.492872238159 12.860454559326 2.605003356934 146 146 146
24.508497238159 12.860418319702 2.572998046875 148 148 148
24.508497238159 12.860418319702 2.541000366211 149 149 149
24.492908477783 12.876079559326 2.503997802734 146 146 146
24.492872238159 12.860454559326 2.472999572754 149 149 149
24.367300033569 12.610742568970 2.658004760742 70 70 70
24.429693222046 12.563724517822 2.644004821777 139 139 139
24.460943222046 12.563652038574 2.611999511719 149 149 149
24.460943222046 12.563652038574 2.580001831055 148 148 148
24.460943222046 12.563652038574 2.545997619629 145 145 145
24.460943222046 12.563652038574 2.513000488281 145 145 145
24.460943222046 12.563652038574 2.479003906250 147 147 147
24.460943222046 12.563652038574 2.445999145508 142 142 142
24.460943222046 12.563652038574 2.414001464844 66 66 66
25.038518905640 19.156097412109 2.626998901367 210 210 210
25.038518905640 19.156097412109 2.660003662109 214 214 214
25.038518905640 19.156097412109 2.688003540039 214 214 214
25.038518905640 19.156097412109 2.718002319336 212 212 212
25.022857666016 19.140508651733 2.743003845215 67 67 67
25.037769317627 18.827974319458 2.612998962402 199 199 199
25.037803649902 18.843599319458 2.644004821777 216 216 216
25.037803649902 18.843599319458 2.674003601074 212 212 212
25.037769317627 18.827974319458 2.703002929688 214 214 214
25.022144317627 18.828010559082 2.729003906250 155 155 155
25.021392822266 18.499885559082 2.597999572754 173 173 173
25.021429061890 18.515510559082 2.628997802734 215 215 215
25.037054061890 18.515476226807 2.660003662109 217 217 217
25.021392822266 18.499885559082 2.688003540039 212 212 212
25.021392822266 18.499885559082 2.717002868652 198 198 198
25.020643234253 18.171760559082 2.576004028320 60 60 60
25.036304473877 18.187351226807 2.611999511719 217 217 217
25.036304473877 18.187351226807 2.641998291016 215 215 215
25.036304473877 18.187351226807 2.672004699707 214 214 214
25.036304473877 18.187351226807 2.701004028320 214 214 214
25.005018234253 18.171798706055 2.728004455566 111 111 111
25.035552978516 17.859226226807 2.594001770020 212 212 212
25.035552978516 17.859226226807 2.624000549316 217 217 217
25.035552978516 17.859226226807 2.653999328613 216 216 216
25.035552978516 17.859226226807 2.686004638672 216 216 216
25.019891738892 17.843637466431 2.711997985840 187 187 187
25.034803390503 17.531103134155 2.579002380371 184 184 184
25.019178390503 17.531139373779 2.606002807617 214 214 214
25.019178390503 17.531139373779 2.638000488281 217 217 217
25.034839630127 17.546728134155 2.670997619629 216 216 216
25.019178390503 17.531139373779 2.696998596191 212 212 212
25.080999374390 17.234119415283 2.580001831055 218 218 218
25.080999374390 17.234119415283 2.610000610352 219 219 219
25.080999374390 17.234119415283 2.640998840332 218 218 218
25.096624374390 17.234085083008 2.673004150391 204 204 204
25.080999374390 17.234119415283 2.700004577637 190 190 190
25.096660614014 17.249710083008 2.735000610352 168 168 168
25.096624374390 17.234085083008 2.762001037598 170 170 170
25.096624374390 17.234085083008 2.791000366211 171 171 171
25.096660614014 17.249710083008 2.820999145508 172 172 172
25.096660614014 17.249710083008 2.848999023438 163 163 163
25.080999374390 17.234119415283 2.874000549316 127 127 127
25.018428802490 17.203014373779 2.889999389648 40 40 40
25.095909118652 16.921585083008 2.572998046875 211 211 211
25.095909118652 16.921585083008 2.603004455566 212 212 212
25.095909118652 16.921585083008 2.628997802734 197 197 197
25.095909118652 16.921585083008 2.660003662109 219 219 219
25.095909118652 16.921585083008 2.688003540039 216 216 216
24.939445495605 16.828193664551 2.674003601074 189 189 189
24.892534255981 16.812675476074 2.693000793457 187 187 187
25.110820770264 16.609050750732 2.563003540039 194 194 194
25.110820770264 16.609050750732 2.591003417969 217 217 217
25.110820770264 16.609050750732 2.620002746582 176 176 176
25.110820770264 16.609050750732 2.649002075195 214 214 214
25.110820770264 16.609050750732 2.677001953125 217 217 217
24.969980239868 16.515623092651 2.667999267578 214 214 214
24.891784667969 16.484552383423 2.677001953125 206 206 206
24.860498428345 16.468997955322 2.700004577637 28 28 28
25.125730514526 16.296516418457 2.550003051758 172 172 172
25.125730514526 16.296516418457 2.579002380371 218 218 218
25.125730514526 16.296516418457 2.606002807617 209 209 209
25.141355514526 16.296482086182 2.640998840332 200 200 200
25.141355514526 16.296482086182 2.669998168945 216 216 216
25.078784942627 16.265373229980 2.682998657227 219 219 219
24.859748840332 16.140872955322 2.652000427246 199 199 199
24.859748840332 16.140872955322 2.682998657227 203 203 203
25.140640258789 15.983982086182 2.540000915527 158 158 158
25.156265258789 15.983945846558 2.570999145508 218 218 218
25.140640258789 15.983982086182 2.597999572754 187 187 187
25.156265258789 15.983945846558 2.627998352051 180 180 180
25.156265258789 15.983945846558 2.658004760742 219 219 219
25.124980926514 15.968392372131 2.680999755859 217 217 217
24.827749252319 15.812820434570 2.626998901367 215 215 215
24.827749252319 15.812820434570 2.659004211426 191 191 191
24.827749252319 15.812820434570 2.690002441406 167 167 167
25.171176910400 15.671409606934 2.536003112793 151 151 151
25.171213150024 15.687034606934 2.566001892090 217 217 217
25.186838150024 15.687000274658 2.597000122070 200 200 200
25.186838150024 15.687000274658 2.625000000000 196 196 196
25.171176910400 15.671409606934 2.651000976563 218 218 218
25.171176910400 15.671409606934 2.678001403809 217 217 217
24.811338424683 15.469108581543 2.603004455566 218 218 218
24.811338424683 15.469108581543 2.632003784180 217 217 217
24.811338424683 15.469108581543 2.664001464844 207 207 207
24.795679092407 15.453519821167 2.690002441406 21 21 21
25.186086654663 15.358877182007 2.526000976563 146 146 146
25.201711654663 15.358840942383 2.557998657227 220 220 220
25.201711654663 15.358840942383 2.586997985840 219 219 219
25.186086654663 15.358877182007 2.612998962402 219 219 219
25.186086654663 15.358877182007 2.642997741699 219 219 219
25.186086654663 15.358877182007 2.670997619629 219 219 219
24.794927597046 15.125394821167 2.582000732422 218 218 218
24.779266357422 15.109806060791 2.608001708984 219 219 219
24.763641357422 15.109840393066 2.638000488281 197 197 197
24.763641357422 15.109840393066 2.668998718262 197 197 197
25.216623306274 15.046304702759 2.522003173828 142 142 142
25.200998306274 15.046340942383 2.549003601074 220 220 220
25.216623306274 15.046304702759 2.578002929688 220 220 220
25.216623306274 15.046304702759 2.606002807617 218 218 218
25.200998306274 15.046340942383 2.633003234863 220 220 220
25.200998306274 15.046340942383 2.662002563477 218 218 218
24.731641769409 14.781789779663 2.550003051758 212 212 212
24.731641769409 14.781789779663 2.583999633789 217 217 217
24.731641769409 14.781789779663 2.613998413086 215 215 215
24.731641769409 14.781789779663 2.646003723145 200 200 200
24.715980529785 14.766201019287 2.672004699707 103 103 103
25.231533050537 14.733770370483 2.512001037598 124 124 124
25.231533050537 14.733770370483 2.540000915527 219 219 219
25.231533050537 14.733770370483 2.570999145508 218 218 218
25.231533050537 14.733770370483 2.597999572754 217 217 217
25.231533050537 14.733770370483 2.625000000000 218 218 218
25.215908050537 14.733806610107 2.652999877930 219 219 219
24.715230941772 14.438076019287 2.526000976563 199 199 199
24.715230941772 14.438076019287 2.558998107910 218 218 218
24.715230941772 14.438076019287 2.590003967285 217 217 217
24.715230941772 14.438076019287 2.622001647949 202 202 202
24.715230941772 14.438076019287 2.652999877930 200 200 200
25.262067794800 14.421199798584 2.502998352051 82 82 82
25.262067794800 14.421199798584 2.531997680664 218 218 218
25.262067794800 14.421199798584 2.561004638672 218 218 218
25.262067794800 14.421199798584 2.588005065918 218 218 218
25.262067794800 14.421199798584 2.617004394531 217 217 217
25.262067794800 14.421199798584 2.647003173828 219 219 219
25.199497222900 14.390092849731 2.656997680664 243 243 243
24.698856353760 14.109987258911 2.537002563477 216 216 216
24.683195114136 14.094398498535 2.568000793457 218 218 218
24.683195114136 14.094398498535 2.598999023438 216 216 216
24.683195114136 14.094398498535 2.631004333496 196 196 196
24.683195114136 14.094398498535 2.663002014160 122 122 122
25.276979446411 14.108665466309 2.524002075195 218 218 218
25.276979446411 14.108665466309 2.551002502441 217 217 217
25.261354446411 14.108701705933 2.578002929688 218 218 218
25.261354446411 14.108701705933 2.607002258301 218 218 218
25.261354446411 14.108701705933 2.635002136230 218 218 218
25.261318206787 14.093076705933 2.661003112793 208 208 208
24.682479858398 13.781898498535 2.516998291016 145 145 145
24.682479858398 13.781898498535 2.550003051758 125 125 125
24.666820526123 13.766309738159 2.579002380371 149 149 149
24.666820526123 13.766309738159 2.611999511719 145 145 145
24.666820526123 13.766309738159 2.642997741699 143 143 143
24.791248321533 13.516023635864 1.917999267578 247 247 247
24.932050704956 13.593826293945 2.013000488281 152 152 152
24.932050704956 13.593826293945 2.045997619629 151 151 151
24.932050704956 13.593826293945 2.077003479004 146 146 146
24.932050704956 13.593826293945 2.107002258301 146 146 146
24.932050704956 13.593826293945 2.138999938965 146 146 146
24.916425704956 13.593862533569 2.166999816895 148 148 148
24.916425704956 13.593862533569 2.197998046875 148 148 148
24.916425704956 13.593862533569 2.229003906250 146 146 146
24.900764465332 13.578273773193 2.259002685547 143 143 143
24.900764465332 13.578273773193 2.290000915527 144 144 144
24.900764465332 13.578273773193 2.318000793457 148 148 148
25.198032379150 13.749469757080 2.455001831055 157 157 157
25.291889190674 13.796131134033 2.513999938965 155 155 155
25.291889190674 13.796131134033 2.542999267578 149 149 149
25.291889190674 13.796131134033 2.570999145508 155 155 155
25.276227951050 13.780540466309 2.596000671387 158 158 158
25.291889190674 13.796131134033 2.625999450684 148 148 148
25.291889190674 13.796131134033 2.653999328613 156 156 156
24.963335037231 13.609380722046 2.583999633789 142 142 142
24.853816986084 13.547130584717 2.585998535156 151 151 151
24.853816986084 13.547130584717 2.618003845215 144 144 144
24.853816986084 13.547130584717 2.648002624512 147 147 147
24.853816986084 13.547130584717 2.678001403809 148 148 148
24.838193893433 13.547166824341 2.705001831055 144 144 144
25.103389739990 13.359060287476 1.679000854492 123 123 123
25.103389739990 13.359060287476 1.711997985840 123 123 123
25.103389739990 13.359060287476 1.744003295898 134 134 134
25.087764739990 13.359096527100 1.775001525879 131 131 131
25.087728500366 13.343471527100 1.805999755859 134 134 134
25.087764739990 13.359096527100 1.840003967285 135 135 135
25.087728500366 13.343471527100 1.870002746582 140 140 140
25.087728500366 13.343471527100 1.902999877930 149 149 149
25.103389739990 13.359060287476 1.940002441406 157 157 157
25.181621551514 13.405757904053 2.012001037598 168 168 168
25.165996551514 13.405792236328 2.039001464844 172 172 172
25.181621551514 13.405757904053 2.075004577637 143 143 143
25.165996551514 13.405792236328 2.099998474121 187 187 187
25.165996551514 13.405792236328 2.127998352051 182 182 182
25.181621551514 13.405757904053 2.164001464844 170 170 170
25.165996551514 13.405792236328 2.189002990723 170 170 170
25.181621551514 13.405757904053 2.223999023438 179 179 179
25.165996551514 13.405792236328 2.251998901367 188 188 188
25.165996551514 13.405792236328 2.280998229980 194 194 194
25.165996551514 13.405792236328 2.311004638672 190 190 190
25.165996551514 13.405792236328 2.341003417969 191 191 191
25.165996551514 13.405792236328 2.370002746582 188 188 188
25.165996551514 13.405792236328 2.400001525879 164 164 164
25.181655883789 13.421380996704 2.440002441406 176 176 176
25.291173934937 13.483631134033 2.503997802734 149 149 149
25.291139602661 13.468006134033 2.530998229980 156 156 156
25.291139602661 13.468006134033 2.558998107910 157 157 157
25.291173934937 13.483631134033 2.588005065918 158 158 158
25.291139602661 13.468006134033 2.613998413086 157 157 157
25.291139602661 13.468006134033 2.642997741699 159 159 159
25.181621551514 13.405757904053 2.636001586914 178 178 178
25.165996551514 13.405792236328 2.660003662109 184 184 184
25.165996551514 13.405792236328 2.688003540039 185 185 185
25.150335311890 13.390203475952 2.710998535156 174 174 174
25.072103500366 13.343507766724 2.716003417969 128 128 128
24.931299209595 13.265703201294 2.711997985840 142 142 142
24.837408065796 13.203418731689 2.714004516602 134 134 134
25.337335586548 13.171024322510 2.479003906250 144 144 144
25.321674346924 13.155435562134 2.502998352051 173 173 173
25.337335586548 13.171024322510 2.531997680664 177 177 177
25.321674346924 13.155435562134 2.557998657227 177 177 177
25.337335586548 13.171024322510 2.588005065918 173 173 173
25.337335586548 13.171024322510 2.614997863770 170 170 170
25.337335586548 13.171024322510 2.646003723145 148 148 148
24.476854324341 12.688615798950 2.414001464844 89 89 89
24.523801803589 12.719757080078 2.457000732422 143 143 143
24.523801803589 12.719757080078 2.491004943848 149 149 149
24.523801803589 12.719757080078 2.527000427246 150 150 150
24.523801803589 12.719757080078 2.555999755859 146 146 146
24.508176803589 12.719793319702 2.588005065918 150 150 150
24.508140563965 12.704168319702 2.619003295898 135 135 135
24.461229324341 12.688650131226 2.641998291016 144 144 144
24.414283752441 12.657508850098 2.660003662109 55 55 55
25.414817810059 12.889596939087 2.466003417969 97 97 97
25.383531570435 12.874042510986 2.483001708984 151 151 151
25.383531570435 12.874042510986 2.508003234863 157 157 157
25.383531570435 12.874042510986 2.537002563477 158 158 158
25.383531570435 12.874042510986 2.563003540039 155 155 155
25.383531570435 12.874042510986 2.591003417969 158 158 158
25.383531570435 12.874042510986 2.621002197266 151 151 151
25.414817810059 12.889596939087 2.655998229980 62 62 62
25.523584365845 12.623723983765 2.440002441406 173 173 173
25.523620605469 12.639348983765 2.468002319336 176 176 176
25.523620605469 12.639348983765 2.496002197266 167 167 167
25.523584365845 12.623723983765 2.520004272461 169 169 169
25.523620605469 12.639348983765 2.549003601074 170 170 170
25.523584365845 12.623723983765 2.572998046875 167 167 167
25.523584365845 12.623723983765 2.598999023438 166 166 166
25.523584365845 12.623723983765 2.625000000000 167 167 167
25.523584365845 12.623723983765 2.652000427246 165 165 165
25.492298126221 12.608169555664 2.666999816895 136 136 136
25.445352554321 12.577026367188 2.678001403809 53 53 53
25.038625717163 19.202972412109 2.736999511719 195 195 195
25.007339477539 19.187419891357 2.709999084473 219 219 219
25.007339477539 19.187419891357 2.683998107910 217 217 217
25.038625717163 19.202972412109 2.659004211426 218 218 218
25.007339477539 19.187419891357 2.633003234863 216 216 216
24.991001129150 18.874956130981 2.738998413086 83 83 83
25.022251129150 18.874885559082 2.721000671387 217 217 217
25.022251129150 18.874885559082 2.695999145508 218 218 218
25.037876129150 18.874849319458 2.670997619629 213 213 213
25.022251129150 18.874885559082 2.642997741699 219 219 219
25.022251129150 18.874885559082 2.617004394531 200 200 200
25.021499633789 18.546760559082 2.731002807617 177 177 177
25.021499633789 18.546760559082 2.705001831055 219 219 219
25.021499633789 18.546760559082 2.679000854492 219 219 219
25.021499633789 18.546760559082 2.653999328613 218 218 218
25.005874633789 18.546796798706 2.625000000000 219 219 219
25.021499633789 18.546760559082 2.603004455566 162 162 162
25.005125045776 18.218673706055 2.715003967285 211 211 211
25.005125045776 18.218673706055 2.690002441406 221 221 221
25.020750045776 18.218635559082 2.665000915527 218 218 218
25.005125045776 18.218673706055 2.636001586914 224 224 224
25.020750045776 18.218635559082 2.612998962402 216 216 216
25.020750045776 18.218635559082 2.586997985840 75 75 75
24.973125457764 17.890621185303 2.723999023438 114 114 114
25.004375457764 17.890548706055 2.703002929688 222 222 222
25.004375457764 17.890548706055 2.679000854492 218 218 218
25.004375457764 17.890548706055 2.651000976563 221 221 221
25.004375457764 17.890548706055 2.625999450684 221 221 221
25.004375457764 17.890548706055 2.600997924805 219 219 219
24.987998962402 17.562459945679 2.714004516602 182 182 182
24.987998962402 17.562459945679 2.689002990723 223 223 223
24.987998962402 17.562459945679 2.663002014160 220 220 220
25.003623962402 17.562423706055 2.638999938965 218 218 218
25.003623962402 17.562423706055 2.611999511719 218 218 218
25.003623962402 17.562423706055 2.585998535156 205 205 205
25.034124374390 17.234228134155 2.885002136230 92 92 92
25.080999374390 17.234119415283 2.869003295898 159 159 159
25.096624374390 17.234085083008 2.847000122070 184 184 184
25.080999374390 17.234119415283 2.819999694824 181 181 181
25.080999374390 17.234119415283 2.792999267578 181 181 181
25.096624374390 17.234085083008 2.770004272461 183 183 183
25.080999374390 17.234119415283 2.743003845215 181 181 181
25.080999374390 17.234119415283 2.717002868652 175 175 175
25.065374374390 17.234157562256 2.690002441406 207 207 207
25.065374374390 17.234157562256 2.662002563477 215 215 215
25.065374374390 17.234157562256 2.637001037598 219 219 219
25.065374374390 17.234157562256 2.611999511719 222 222 222
25.065374374390 17.234157562256 2.588005065918 220 220 220
25.065374374390 17.234157562256 2.559997558594 89 89 89
24.908374786377 16.906391143799 2.692001342773 217 217 217
25.064659118652 16.921657562256 2.700004577637 208 208 208
25.080249786377 16.905996322632 2.677001953125 219 219 219
25.095874786377 16.905960083008 2.654998779297 199 199 199
25.064624786377 16.906032562256 2.625000000000 166 166 166
25.080249786377 16.905996322632 2.602005004883 219 219 219
25.080249786377 16.905996322632 2.576004028320 209 209 209
24.891998291016 16.578300476074 2.701004028320 182 182 182
24.891998291016 16.578300476074 2.674003601074 194 194 194
25.079498291016 16.577873229980 2.689002990723 217 217 217
25.095123291016 16.577836990356 2.667999267578 216 216 216
25.095123291016 16.577836990356 2.642997741699 196 196 196
25.095123291016 16.577836990356 2.619003295898 209 209 209
25.095123291016 16.577836990356 2.591003417969 221 221 221
25.079498291016 16.577873229980 2.564002990723 214 214 214
24.828786849976 16.265945434570 2.701004028320 82 82 82
24.860034942627 16.265872955322 2.680000305176 213 213 213
24.875659942627 16.265838623047 2.659004211426 211 211 211
25.110034942627 16.265302658081 2.683998107910 220 220 220
25.125659942627 16.265266418457 2.662002563477 204 204 204
25.110034942627 16.265302658081 2.635002136230 191 191 191
25.110034942627 16.265302658081 2.611000061035 195 195 195
25.110034942627 16.265302658081 2.584999084473 221 221 221
25.110034942627 16.265302658081 2.559997558594 201 201 201
24.828035354614 15.937821388245 2.689002990723 205 205 205
24.828035354614 15.937821388245 2.662002563477 196 196 196
24.890499114990 15.922053337097 2.651000976563 224 224 224
25.140499114990 15.921482086182 2.677001953125 222 222 222
25.156124114990 15.921445846558 2.655998229980 219 219 219
25.156124114990 15.921445846558 2.631004333496 189 189 189
25.156124114990 15.921445846558 2.606002807617 181 181 181
25.156124114990 15.921445846558 2.581001281738 216 216 216
25.140499114990 15.921482086182 2.552001953125 205 205 205
24.796035766602 15.609767913818 2.693000793457 124 124 124
24.796035766602 15.609767913818 2.667999267578 214 214 214
24.796035766602 15.609767913818 2.639999389648 217 217 217
24.967908859253 15.609375000000 2.652000427246 222 222 222
25.171033859253 15.608909606934 2.672004699707 219 219 219
