34.291244506836 21.423053741455 55.054000854492 177 177 177
34.293060302734 21.415454864502 55.108993530273 177 177 177
34.293060302734 21.415454864502 55.164001464844 178 178 178
34.294876098633 21.407855987549 55.218002319336 179 179 179
34.294876098633 21.407855987549 55.272003173828 184 184 184
34.294876098633 21.407855987549 55.324996948242 180 180 180
34.294876098633 21.407855987549 55.378997802734 181 181 181
34.266304016113 21.392990112305 55.434005737305 184 184 184
34.296695709229 21.400259017944 55.485992431641 182 182 182
34.296695709229 21.400259017944 55.539001464844 181 181 181
34.296695709229 21.400259017944 55.591003417969 180 180 180
34.266304016113 21.392990112305 55.647003173828 177 177 177
34.298511505127 21.392660140991 55.697006225586 179 179 179
34.298511505127 21.392660140991 55.750000000000 181 181 181
34.283317565918 21.389026641846 55.804000854492 174 174 174
34.283317565918 21.389026641846 55.856002807617 169 169 169
34.298511505127 21.392660140991 55.906997680664 168 168 168
34.298511505127 21.392660140991 55.958999633789 163 163 163
34.283317565918 21.389026641846 56.011993408203 161 161 161
34.283317565918 21.389026641846 56.065002441406 153 153 153
34.283317565918 21.389026641846 56.115997314453 149 149 149
34.283317565918 21.389026641846 56.167999267578 150 150 150
34.283317565918 21.389026641846 56.220001220703 144 144 144
34.300327301025 21.385063171387 56.270004272461 133 133 133
34.283317565918 21.389026641846 56.322998046875 139 139 139
34.311893463135 21.403894424438 56.373001098633 147 147 147
34.298511505127 21.392660140991 56.425003051758 160 160 160
34.311893463135 21.403894424438 56.477005004883 174 174 174
34.327091217041 21.407527923584 56.527999877930 180 180 180
34.327091217041 21.407527923584 56.580001831055 181 181 181
34.325271606445 21.415124893188 56.630996704102 184 184 184
34.327091217041 21.407527923584 56.682998657227 188 188 188
34.325271606445 21.415124893188 56.735000610352 186 186 186
34.327091217041 21.407527923584 56.785995483398 187 187 187
34.327091217041 21.407527923584 56.837997436523 183 183 183
34.325271606445 21.415124893188 56.889999389648 190 190 190
34.325271606445 21.415124893188 56.942001342773 196 196 196
34.328907012939 21.399929046631 56.992996215820 206 206 206
34.328907012939 21.399929046631 57.044998168945 214 214 214
34.328907012939 21.399929046631 57.095993041992 221 221 221
34.315525054932 21.388696670532 57.147994995117 229 229 229
34.315525054932 21.388696670532 57.199996948242 240 240 240
34.315525054932 21.388696670532 57.250991821289 246 246 246
34.317344665527 21.381097793579 57.302993774414 232 232 232
34.317344665527 21.381097793579 57.354003906250 192 192 192
34.317344665527 21.381097793579 57.406005859375 172 172 172
34.317344665527 21.381097793579 57.457000732422 152 152 152
34.302146911621 21.377464294434 57.509002685547 135 135 135
34.302146911621 21.377464294434 57.559997558594 132 132 132
34.303962707520 21.369865417480 57.611999511719 160 160 160
34.303962707520 21.369865417480 57.662994384766 177 177 177
34.303962707520 21.369865417480 57.714996337891 165 165 165
34.305778503418 21.362268447876 57.766998291016 174 174 174
34.305778503418 21.362268447876 57.817993164063 158 158 158
34.303962707520 21.369865417480 57.871002197266 165 165 165
34.307598114014 21.354669570923 57.921997070313 73 73 73
34.349872589111 21.782485961914 57.442001342773 128 128 128
34.349872589111 21.782485961914 57.494995117188 127 127 127
34.336498260498 21.771253585815 57.546997070313 136 136 136
34.338314056396 21.763654708862 57.598999023438 128 128 128
34.323116302490 21.760021209717 57.649993896484 131 131 131
34.311553955078 21.741191864014 57.805999755859 50 50 50
34.313369750977 21.733592987061 57.858001708984 125 125 125
34.315185546875 21.725994110107 57.910003662109 118 118 118
34.313369750977 21.733592987061 57.962997436523 129 129 129
34.299991607666 21.722358703613 58.013000488281 120 120 120
34.216598510742 20.794708251953 58.063995361328 117 117 117
34.216598510742 20.794708251953 58.013000488281 183 183 183
34.218414306641 20.787109375000 57.501998901367 144 144 144
34.210151672363 21.090379714966 58.050003051758 220 220 220
34.211967468262 21.082780838013 58.000000000000 227 227 227
34.211967468262 21.082780838013 57.947006225586 221 221 221
34.213783264160 21.075183868408 57.895996093750 211 211 211
34.213783264160 21.075183868408 57.843994140625 179 179 179
34.230796813965 21.071218490601 57.690002441406 97 97 97
34.213783264160 21.075183868408 57.636993408203 220 220 220
34.213783264160 21.075183868408 57.587005615234 205 205 205
34.230796813965 21.071218490601 57.535995483398 212 212 212
34.232612609863 21.063619613647 57.483993530273 225 225 225
34.251445770264 21.052059173584 57.434005737305 184 184 184
34.084606170654 21.413797378540 58.119003295898 178 178 178
34.086421966553 21.406198501587 58.067993164063 172 172 172
34.086421966553 21.406198501587 58.016006469727 162 162 162
34.103435516357 21.402236938477 57.966003417969 153 153 153
34.103435516357 21.402236938477 57.916000366211 149 149 149
34.139282226563 21.386711120605 57.869003295898 183 183 183
34.142913818359 21.371513366699 57.819000244141 194 194 194
34.175125122070 21.371185302734 57.768997192383 192 192 192
34.175125122070 21.371185302734 57.716995239258 194 194 194
34.176940917969 21.363586425781 57.666992187500 196 196 196
34.193954467773 21.359622955322 57.615997314453 196 196 196
34.124084472656 21.383075714111 57.559005737305 97 97 97
34.124084472656 21.383075714111 57.507003784180 72 72 72
34.124084472656 21.383075714111 57.457000732422 65 65 65
34.110702514648 21.371843338013 57.406005859375 45 45 45
34.142913818359 21.371513366699 57.354995727539 26 26 26
34.142913818359 21.371513366699 57.304000854492 4 4 4
34.240364074707 21.635803222656 58.016006469727 23 23 23
34.223350524902 21.639768600464 57.960998535156 217 217 217
34.240364074707 21.635803222656 57.910003662109 224 224 224
34.240364074707 21.635803222656 57.858001708984 220 220 220
34.240364074707 21.635803222656 57.804992675781 226 226 226
34.242179870605 21.628206253052 57.753997802734 211 211 211
34.243995666504 21.620607376099 57.701004028320 224 224 224
34.243995666504 21.620607376099 57.649002075195 229 229 229
34.261013031006 21.616643905640 57.597991943359 224 224 224
34.261013031006 21.616643905640 57.544998168945 218 218 218
34.337493896484 21.498376846313 55.257003784180 18 18 18
34.337493896484 21.498376846313 55.201004028320 51 51 51
34.354507446289 21.494411468506 55.143997192383 88 88 88
34.371517181396 21.490449905396 55.085998535156 119 119 119
34.341125488281 21.483180999756 55.033004760742 124 124 124
34.373336791992 21.482851028442 54.972991943359 134 134 134
34.341125488281 21.483180999756 54.921005249023 130 130 130
34.409183502197 21.467325210571 54.854003906250 227 227 227
34.410999298096 21.459726333618 54.794998168945 207 207 207
34.409183502197 21.467325210571 54.744003295898 189 189 189
34.428012847900 21.455762863159 54.679992675781 173 173 173
34.252746582031 21.919912338257 58.156997680664 159 159 159
34.237548828125 21.916278839111 58.102996826172 224 224 224
34.237548828125 21.916278839111 58.048995971680 227 227 227
34.237548828125 21.916278839111 57.996994018555 227 227 227
34.239364624023 21.908681869507 57.944000244141 226 226 226
34.273391723633 21.900753021240 57.895004272461 105 105 105
34.275207519531 21.893156051636 57.576004028320 212 212 212
34.275207519531 21.893156051636 57.522994995117 229 229 229
34.278842926025 21.877958297729 57.470993041992 225 225 225
34.277027130127 21.885557174683 57.416992187500 229 229 229
34.278842926025 21.877958297729 57.365005493164 195 195 195
34.252441406250 20.779182434082 57.449996948242 58 58 58
34.252441406250 20.779182434082 57.492996215820 146 146 146
34.252441406250 20.779182434082 57.985992431641 152 152 152
34.252441406250 20.779182434082 58.029998779297 82 82 82
34.270935058594 21.104917526245 57.434005737305 152 152 152
34.270935058594 21.104917526245 57.479003906250 200 200 200
34.286132812500 21.108551025391 57.524002075195 201 201 201
34.272750854492 21.097318649292 57.567001342773 210 210 210
34.272750854492 21.097318649292 57.611999511719 214 214 214
34.270935058594 21.104917526245 57.658004760742 203 203 203
34.270935058594 21.104917526245 57.794006347656 175 175 175
34.270935058594 21.104917526245 57.837997436523 211 211 211
34.270935058594 21.104917526245 57.884002685547 203 203 203
34.270935058594 21.104917526245 57.929000854492 216 216 216
34.270935058594 21.104917526245 57.973999023438 220 220 220
34.270935058594 21.104917526245 58.020004272461 207 207 207
34.266304016113 21.392990112305 54.671997070313 151 151 151
34.266304016113 21.392990112305 54.722000122070 150 150 150
34.266304016113 21.392990112305 54.770004272461 153 153 153
34.266304016113 21.392990112305 54.817993164063 150 150 150
34.266304016113 21.392990112305 54.863998413086 149 149 149
34.266304016113 21.392990112305 54.912002563477 150 150 150
34.266304016113 21.392990112305 54.960006713867 151 151 151
34.266304016113 21.392990112305 55.009002685547 151 151 151
34.264484405518 21.400587081909 55.057006835938 150 150 150
34.264484405518 21.400587081909 55.104003906250 150 150 150
34.264484405518 21.400587081909 55.149993896484 151 151 151
34.264484405518 21.400587081909 55.199005126953 152 152 152
34.232276916504 21.400918960571 55.246002197266 160 160 160
34.264484405518 21.400587081909 55.291992187500 157 157 157
34.264484405518 21.400587081909 55.337997436523 160 160 160
34.264484405518 21.400587081909 55.384002685547 163 163 163
34.264484405518 21.400587081909 55.429992675781 162 162 162
34.232276916504 21.400918960571 55.477005004883 158 158 158
34.232276916504 21.400918960571 55.524002075195 164 164 164
34.234092712402 21.393320083618 55.570999145508 167 167 167
34.234092712402 21.393320083618 55.617004394531 165 165 165
34.234092712402 21.393320083618 55.662002563477 166 166 166
34.232276916504 21.400918960571 55.708999633789 171 171 171
34.232276916504 21.400918960571 55.753005981445 165 165 165
34.232276916504 21.400918960571 55.798995971680 170 170 170
34.232276916504 21.400918960571 55.845001220703 174 174 174
34.232276916504 21.400918960571 55.891006469727 176 176 176
34.232276916504 21.400918960571 55.936004638672 176 176 176
34.201881408691 21.393648147583 55.981002807617 172 172 172
34.200065612793 21.401247024536 56.026000976563 180 180 180
34.200065612793 21.401247024536 56.070999145508 178 178 178
34.200065612793 21.401247024536 56.115997314453 181 181 181
34.201881408691 21.393648147583 56.160995483398 179 179 179
34.201881408691 21.393648147583 56.205993652344 181 181 181
34.200065612793 21.401247024536 56.250000000000 183 183 183
34.201881408691 21.393648147583 56.294998168945 185 185 185
34.200065612793 21.401247024536 56.339996337891 187 187 187
34.200065612793 21.401247024536 56.384002685547 191 191 191
34.201881408691 21.393648147583 56.429992675781 191 191 191
34.200065612793 21.401247024536 56.473999023438 194 194 194
34.200065612793 21.401247024536 56.518005371094 200 200 200
34.200065612793 21.401247024536 56.563003540039 201 201 201
34.169673919678 21.393980026245 56.608001708984 201 201 201
34.169673919678 21.393980026245 56.651992797852 205 205 205
34.169673919678 21.393980026245 56.695999145508 210 210 210
34.169673919678 21.393980026245 56.740997314453 215 215 215
34.169673919678 21.393980026245 56.785003662109 224 224 224
34.169673919678 21.393980026245 56.828994750977 224 224 224
34.167854309082 21.401576995850 56.873001098633 233 233 233
34.169673919678 21.393980026245 56.917999267578 239 239 239
34.169673919678 21.393980026245 56.962005615234 252 252 252
34.167854309082 21.401576995850 57.007003784180 26 26 26
34.169673919678 21.393980026245 57.050994873047 34 34 34
34.169673919678 21.393980026245 57.095001220703 34 34 34
34.169673919678 21.393980026245 57.139999389648 24 24 24
34.167854309082 21.401576995850 57.184005737305 9 9 9
34.167854309082 21.401576995850 57.227996826172 248 248 248
34.137462615967 21.394308090210 57.272003173828 239 239 239
34.154476165771 21.390344619751 57.315994262695 236 236 236
34.137462615967 21.394308090210 57.360992431641 231 231 231
34.137462615967 21.394308090210 57.404998779297 227 227 227
34.139282226563 21.386711120605 57.447998046875 224 224 224
34.137462615967 21.394308090210 57.492996215820 221 221 221
34.139282226563 21.386711120605 57.537002563477 217 217 217
34.137462615967 21.394308090210 57.582000732422 215 215 215
34.137462615967 21.394308090210 57.625991821289 212 212 212
34.137462615967 21.394308090210 57.671005249023 207 207 207
34.137462615967 21.394308090210 57.714996337891 206 206 206
34.137462615967 21.394308090210 57.759002685547 206 206 206
34.137462615967 21.394308090210 57.804000854492 202 202 202
34.137462615967 21.394308090210 57.850006103516 202 202 202
34.137462615967 21.394308090210 57.893997192383 198 198 198
34.137462615967 21.394308090210 57.940002441406 198 198 198
34.137462615967 21.394308090210 57.985000610352 196 196 196
34.105251312256 21.394638061523 58.029006958008 196 196 196
34.105251312256 21.394638061523 58.074005126953 194 194 194
34.105251312256 21.394638061523 58.117004394531 148 148 148
34.307918548584 21.756387710571 57.401000976563 116 116 116
34.309734344482 21.748788833618 57.445999145508 217 217 217
34.307918548584 21.756387710571 57.492004394531 219 219 219
34.309734344482 21.748788833618 57.537994384766 215 215 215
34.292724609375 21.752752304077 57.582992553711 219 219 219
34.292724609375 21.752752304077 57.628997802734 208 208 208
34.309734344482 21.748788833618 57.675994873047 13 13 13
34.277526855469 21.749118804932 57.811004638672 194 194 194
34.277526855469 21.749118804932 57.858001708984 208 208 208
34.277526855469 21.749118804932 57.902999877930 199 199 199
34.277526855469 21.749118804932 57.949996948242 210 210 210
34.277526855469 21.749118804932 57.996002197266 205 205 205
34.277526855469 21.749118804932 58.041992187500 134 134 134
34.262489318848 21.946342468262 58.067001342773 209 209 209
34.266124725342 21.931146621704 58.013992309570 225 225 225
34.266124725342 21.931146621704 57.962005615234 224 224 224
34.266124725342 21.931146621704 57.908996582031 227 227 227
34.267940521240 21.923547744751 57.856002807617 211 211 211
34.303787231445 21.908021926880 57.593994140625 208 208 208
34.303787231445 21.908021926880 57.541000366211 225 225 225
34.303787231445 21.908021926880 57.488006591797 221 221 221
34.307422637939 21.892824172974 57.434997558594 226 226 226
34.307422637939 21.892824172974 57.382995605469 193 193 193
34.265304565430 21.665866851807 57.925003051758 191 191 191
34.265304565430 21.665866851807 57.871994018555 218 218 218
34.265304565430 21.665866851807 57.819000244141 218 218 218
34.267124176025 21.658269882202 57.768005371094 227 227 227
34.267124176025 21.658269882202 57.714996337891 217 217 217
34.268939971924 21.650671005249 57.664001464844 222 222 222
34.270759582520 21.643072128296 57.610992431641 224 224 224
34.270759582520 21.643072128296 57.559005737305 218 218 218
34.270759582520 21.643072128296 57.507003784180 12 12 12
34.313869476318 21.597154617310 56.722991943359 19 19 19
34.313869476318 21.597154617310 56.669998168945 94 94 94
34.281661987305 21.597482681274 56.617996215820 129 129 129
34.281661987305 21.597482681274 56.565994262695 138 138 138
34.300487518311 21.585920333862 56.513000488281 144 144 144
34.317504882813 21.581956863403 56.460006713867 152 152 152
34.300487518311 21.585920333862 56.406997680664 149 149 149
34.319320678711 21.574359893799 56.354003906250 151 151 151
34.302307128906 21.578321456909 56.302001953125 125 125 125
34.302307128906 21.578321456909 56.250000000000 119 119 119
34.287113189697 21.574687957764 56.199005126953 134 134 134
34.287113189697 21.574687957764 56.145004272461 155 155 155
34.288928985596 21.567090988159 56.091995239258 165 165 165
34.288928985596 21.567090988159 56.039001464844 169 169 169
34.290744781494 21.559492111206 55.985992431641 173 173 173
34.288928985596 21.567090988159 55.934997558594 174 174 174
34.288928985596 21.567090988159 55.882003784180 169 169 169
34.256717681885 21.567419052124 55.830001831055 165 165 165
34.254898071289 21.575017929077 55.779006958008 154 154 154
34.222690582275 21.575347900391 55.729003906250 146 146 146
34.222690582275 21.575347900391 55.675003051758 148 148 148
34.224506378174 21.567749023438 55.621994018555 158 158 158
34.224506378174 21.567749023438 55.569992065430 163 163 163
34.224506378174 21.567749023438 55.514999389648 171 171 171
34.226325988770 21.560150146484 55.462005615234 177 177 177
34.226325988770 21.560150146484 55.408996582031 178 178 178
34.243339538574 21.556188583374 55.352996826172 180 180 180
34.243339538574 21.556188583374 55.298995971680 180 180 180
34.245155334473 21.548589706421 55.246002197266 181 181 181
34.245155334473 21.548589706421 55.192001342773 181 181 181
34.245155334473 21.548589706421 55.138000488281 181 181 181
34.248790740967 21.533393859863 55.080993652344 179 179 179
34.248790740967 21.533393859863 55.026992797852 180 180 180
34.231777191162 21.537355422974 54.972991943359 179 179 179
34.250610351563 21.525794982910 54.916992187500 178 178 178
34.250610351563 21.525794982910 54.860992431641 173 173 173
34.250610351563 21.525794982910 54.804992675781 173 173 173
34.269435882568 21.514232635498 54.748001098633 168 168 168
34.237228393555 21.514560699463 54.697006225586 162 162 162
34.264484405518 21.400587081909 57.938995361328 67 67 67
34.264484405518 21.400587081909 57.886993408203 220 220 220
34.264484405518 21.400587081909 57.833999633789 225 225 225
34.264484405518 21.400587081909 57.781997680664 223 223 223
34.266304016113 21.392990112305 57.729995727539 218 218 218
34.234092712402 21.393320083618 57.677993774414 214 214 214
34.266304016113 21.392990112305 57.625991821289 207 207 207
34.266304016113 21.392990112305 57.574005126953 212 212 212
34.252922058105 21.381757736206 57.522003173828 149 149 149
34.229637145996 21.143238067627 58.057006835938 207 207 207
34.229637145996 21.143238067627 58.005004882813 227 227 227
34.229637145996 21.143238067627 57.953002929688 217 217 217
34.231456756592 21.135639190674 57.901992797852 215 215 215
34.231456756592 21.135639190674 57.850006103516 207 207 207
34.250286102295 21.124076843262 57.643997192383 65 65 65
34.233272552490 21.128042221069 57.591995239258 218 218 218
34.250286102295 21.124076843262 57.541000366211 214 214 214
34.250286102295 21.124076843262 57.490005493164 218 218 218
34.250286102295 21.124076843262 57.438995361328 227 227 227
34.270935058594 21.104917526245 57.388000488281 197 197 197
34.227001190186 20.885557174683 58.018997192383 54 54 54
34.244014739990 20.881591796875 57.970001220703 8 8 8
34.268100738525 22.124406814575 57.940002441406 18 18 18
34.285114288330 22.120443344116 57.994003295898 73 73 73
34.289745330811 21.832368850708 57.438995361328 129 129 129
34.291564941406 21.824771881104 57.490997314453 127 127 127
34.291564941406 21.824771881104 57.544006347656 134 134 134
34.293380737305 21.817173004150 57.595993041992 127 127 127
34.295196533203 21.809574127197 57.647994995117 117 117 117
34.285453796387 21.783143997192 57.750991821289 17 17 17
34.283638000488 21.790742874146 57.804000854492 125 125 125
34.285453796387 21.783143997192 57.856002807617 122 122 122
34.270256042480 21.779510498047 57.906997680664 120 120 120
34.268440246582 21.787109375000 57.960006713867 125 125 125
34.270256042480 21.779510498047 58.011993408203 11 11 11
34.340625762939 21.619619369507 54.744995117188 181 181 181
34.313869476318 21.597154617310 54.863998413086 201 201 201
34.300487518311 21.585920333862 54.921005249023 191 191 191
34.288928985596 21.567090988159 54.981002807617 186 186 186
34.275547027588 21.555856704712 55.039001464844 170 170 170
34.248790740967 21.533393859863 55.097991943359 144 144 144
34.250610351563 21.525794982910 55.154006958008 140 140 140
34.237228393555 21.514560699463 55.210006713867 146 146 146
34.237228393555 21.514560699463 55.261993408203 154 154 154
34.237228393555 21.514560699463 55.317993164063 154 154 154
34.239044189453 21.506963729858 55.371994018555 158 158 158
34.239044189453 21.506963729858 55.425994873047 167 167 167
34.240863800049 21.499364852905 55.479995727539 171 171 171
34.240863800049 21.499364852905 55.533004760742 172 172 172
34.242679595947 21.491765975952 55.585998535156 178 178 178
34.242679595947 21.491765975952 55.638992309570 182 182 182
34.227481842041 21.488132476807 55.692001342773 182 182 182
34.244495391846 21.484169006348 55.744003295898 181 181 181
34.244495391846 21.484169006348 55.796997070313 183 183 183
34.244495391846 21.484169006348 55.850006103516 183 183 183
34.231117248535 21.472936630249 55.902999877930 183 183 183
34.231117248535 21.472936630249 55.955001831055 189 189 189
34.231117248535 21.472936630249 56.007003784180 184 184 184
34.217739105225 21.461702346802 56.059005737305 183 183 183
34.217739105225 21.461702346802 56.110992431641 182 182 182
34.217739105225 21.461702346802 56.162994384766 177 177 177
34.217739105225 21.461702346802 56.214996337891 173 173 173
34.217739105225 21.461702346802 56.266998291016 166 166 166
34.217739105225 21.461702346802 56.317993164063 165 165 165
34.219554901123 21.454107284546 56.369995117188 156 156 156
34.217739105225 21.461702346802 56.421005249023 154 154 154
34.217739105225 21.461702346802 56.472991943359 143 143 143
34.249946594238 21.461374282837 56.524002075195 137 137 137
34.248130798340 21.468971252441 56.574996948242 144 144 144
34.248130798340 21.468971252441 56.625991821289 157 157 157
34.276706695557 21.483839035034 56.677993774414 175 175 175
34.274887084961 21.491437911987 56.729003906250 183 183 183
34.274887084961 21.491437911987 56.781005859375 187 187 187
34.274887084961 21.491437911987 56.832000732422 194 194 194
34.274887084961 21.491437911987 56.884002685547 190 190 190
34.291904449463 21.487474441528 56.936004638672 187 187 187
34.291904449463 21.487474441528 56.988006591797 189 189 189
34.291904449463 21.487474441528 57.039001464844 199 199 199
34.291904449463 21.487474441528 57.091003417969 210 210 210
34.291904449463 21.487474441528 57.143005371094 226 226 226
34.278522491455 21.476240158081 57.194000244141 244 244 244
34.291904449463 21.487474441528 57.246002197266 8 8 8
34.280338287354 21.468643188477 57.296997070313 247 247 247
34.280338287354 21.468643188477 57.348999023438 219 219 219
34.282157897949 21.461044311523 57.399993896484 189 189 189
34.280338287354 21.468643188477 57.453002929688 157 157 157
34.283973693848 21.453445434570 57.503997802734 137 137 137
34.283973693848 21.453445434570 57.555999755859 134 134 134
34.283973693848 21.453445434570 57.606994628906 165 165 165
34.270599365234 21.442214965820 57.658004760742 171 171 171
34.270599365234 21.442214965820 57.710006713867 162 162 162
34.255401611328 21.438579559326 57.761001586914 165 165 165
34.270599365234 21.442214965820 57.813995361328 159 159 159
34.270599365234 21.442214965820 57.865997314453 151 151 151
34.269115447998 21.112516403198 57.410995483398 129 129 129
34.269115447998 21.112516403198 57.462005615234 166 166 166
34.270935058594 21.104917526245 57.513000488281 172 172 172
34.272750854492 21.097318649292 57.563003540039 181 181 181
34.259372711182 21.086086273193 57.613998413086 96 96 96
34.259372711182 21.086086273193 57.871994018555 128 128 128
34.259372711182 21.086086273193 57.923004150391 170 170 170
34.247810363770 21.067255020142 57.972991943359 173 173 173
34.261192321777 21.078487396240 58.024993896484 126 126 126
34.247810363770 21.067255020142 58.076004028320 138 138 138
34.249626159668 21.059658050537 58.126998901367 18 18 18
34.301971435547 21.915620803833 57.358001708984 205 205 205
34.303787231445 21.908021926880 57.404006958008 220 220 220
34.301971435547 21.915620803833 57.449005126953 215 215 215
34.303787231445 21.908021926880 57.496002197266 218 218 218
34.301971435547 21.915620803833 57.541000366211 215 215 215
34.271575927734 21.908351898193 57.587005615234 137 137 137
34.271575927734 21.908351898193 57.817001342773 177 177 177
34.273391723633 21.900753021240 57.863006591797 210 210 210
34.256381988525 21.904716491699 57.908996582031 206 206 206
34.256381988525 21.904716491699 57.955001831055 205 205 205
34.256381988525 21.904716491699 58.000991821289 199 199 199
34.256381988525 21.904716491699 58.046997070313 152 152 152
34.249446868896 21.597812652588 57.511993408203 89 89 89
34.279842376709 21.605081558228 57.559005737305 204 204 204
34.279842376709 21.605081558228 57.604995727539 202 202 202
34.279842376709 21.605081558228 57.649993896484 193 193 193
34.249446868896 21.597812652588 57.694992065430 195 195 195
34.249446868896 21.597812652588 57.738998413086 195 195 195
34.249446868896 21.597812652588 57.783996582031 194 194 194
34.249446868896 21.597812652588 57.830993652344 192 192 192
34.247631072998 21.605411529541 57.876998901367 177 177 177
34.127876281738 21.568738937378 57.904998779297 25 25 25
34.127876281738 21.568738937378 57.949996948242 27 27 27
34.127876281738 21.568738937378 57.994995117188 29 29 29
34.127876281738 21.568738937378 58.039001464844 33 33 33
34.127876281738 21.568738937378 58.083999633789 21 21 21
34.257717132568 21.294542312622 57.486999511719 198 198 198
34.257717132568 21.294542312622 57.531997680664 192 192 192
34.257717132568 21.294542312622 57.576004028320 206 206 206
34.257717132568 21.294542312622 57.621002197266 205 205 205
34.242519378662 21.290908813477 57.666000366211 199 199 199
34.257717132568 21.294542312622 57.712997436523 193 193 193
34.257717132568 21.294542312622 57.757003784180 213 213 213
34.257717132568 21.294542312622 57.804000854492 214 214 214
34.257717132568 21.294542312622 57.848999023438 218 218 218
34.257717132568 21.294542312622 57.893997192383 218 218 218
34.242519378662 21.290908813477 57.938995361328 205 205 205
34.265983581543 20.991273880005 57.322998046875 193 193 193
34.265983581543 20.991273880005 57.367996215820 215 215 215
34.248966217041 20.995237350464 57.410995483398 210 210 210
34.248966217041 20.995237350464 57.455993652344 198 198 198
34.235591888428 20.984004974365 57.500000000000 203 203 203
34.265983581543 20.991273880005 57.546997070313 145 145 145
34.235591888428 20.984004974365 57.904006958008 202 202 202
34.235591888428 20.984004974365 57.949996948242 209 209 209
34.235591888428 20.984004974365 57.994995117188 215 215 215
34.235591888428 20.984004974365 58.039993286133 223 223 223
34.235591888428 20.984004974365 58.085006713867 224 224 224
34.235591888428 20.984004974365 58.130004882813 181 181 181
34.211967468262 21.082780838013 58.152999877930 193 193 193
34.242359161377 21.090049743652 58.110000610352 225 225 225
34.211967468262 21.082780838013 58.061996459961 226 226 226
34.242359161377 21.090049743652 58.018997192383 214 214 214
34.242359161377 21.090049743652 57.973999023438 206 206 206
34.240543365479 21.097648620605 57.929000854492 195 195 195
34.240543365479 21.097648620605 57.656005859375 119 119 119
34.240543365479 21.097648620605 57.610992431641 206 206 206
34.242359161377 21.090049743652 57.565994262695 199 199 199
34.240543365479 21.097648620605 57.522003173828 207 207 207
34.240543365479 21.097648620605 57.477005004883 217 217 217
34.240543365479 21.097648620605 57.432006835938 205 205 205
34.214103698730 21.476900100708 58.156005859375 133 133 133
34.215923309326 21.469301223755 58.108993530273 157 157 157
34.231117248535 21.472936630249 58.065002441406 156 156 156
34.231117248535 21.472936630249 58.018005371094 160 160 160
34.231117248535 21.472936630249 57.972991943359 161 161 161
34.231117248535 21.472936630249 57.927993774414 198 198 198
34.244495391846 21.484169006348 57.882003784180 210 210 210
34.231117248535 21.472936630249 57.835998535156 202 202 202
34.244495391846 21.484169006348 57.789993286133 206 206 206
34.244495391846 21.484169006348 57.744995117188 203 203 203
34.244495391846 21.484169006348 57.699005126953 205 205 205
34.244495391846 21.484169006348 57.654006958008 205 205 205
34.246315002441 21.476570129395 57.608993530273 176 176 176
34.244495391846 21.484169006348 57.561996459961 162 162 162
34.246315002441 21.476570129395 57.516998291016 158 158 158
34.244495391846 21.484169006348 57.472000122070 169 169 169
34.246315002441 21.476570129395 57.427001953125 171 171 171
34.244495391846 21.484169006348 57.380996704102 175 175 175
34.244495391846 21.484169006348 57.337005615234 174 174 174
34.246315002441 21.476570129395 57.291000366211 177 177 177
34.244495391846 21.484169006348 57.246002197266 182 182 182
34.246315002441 21.476570129395 57.201004028320 195 195 195
34.244495391846 21.484169006348 57.156005859375 212 212 212
34.244495391846 21.484169006348 57.110992431641 200 200 200
34.244495391846 21.484169006348 57.065994262695 188 188 188
34.244495391846 21.484169006348 57.020996093750 177 177 177
34.244495391846 21.484169006348 56.975006103516 178 178 178
34.244495391846 21.484169006348 56.929992675781 170 170 170
34.244495391846 21.484169006348 56.884994506836 170 170 170
34.274887084961 21.491437911987 56.839996337891 166 166 166
34.274887084961 21.491437911987 56.794998168945 165 165 165
34.274887084961 21.491437911987 56.750000000000 167 167 167
34.274887084961 21.491437911987 56.705001831055 165 165 165
34.274887084961 21.491437911987 56.658996582031 167 167 167
34.274887084961 21.491437911987 56.613998413086 163 163 163
34.274887084961 21.491437911987 56.569000244141 167 167 167
34.274887084961 21.491437911987 56.524002075195 166 166 166
34.274887084961 21.491437911987 56.479003906250 167 167 167
34.273071289063 21.499034881592 56.432998657227 170 170 170
34.274887084961 21.491437911987 56.388000488281 165 165 165
34.273071289063 21.499034881592 56.341995239258 164 164 164
34.274887084961 21.491437911987 56.296997070313 159 159 159
34.290084838867 21.495073318481 56.250991821289 161 161 161
34.274887084961 21.491437911987 56.205993652344 160 160 160
34.273071289063 21.499034881592 56.160003662109 160 160 160
34.273071289063 21.499034881592 56.115005493164 160 160 160
34.274887084961 21.491437911987 56.069992065430 160 160 160
34.303466796875 21.506303787231 56.022994995117 159 159 159
34.290084838867 21.495073318481 55.977005004883 156 156 156
34.273071289063 21.499034881592 55.932006835938 155 155 155
34.273071289063 21.499034881592 55.886001586914 153 153 153
34.303466796875 21.506303787231 55.839004516602 155 155 155
34.273071289063 21.499034881592 55.794006347656 151 151 151
34.273071289063 21.499034881592 55.748001098633 154 154 154
34.303466796875 21.506303787231 55.701004028320 151 151 151
34.273071289063 21.499034881592 55.656997680664 152 152 152
34.303466796875 21.506303787231 55.608993530273 152 152 152
34.273071289063 21.499034881592 55.563995361328 151 151 151
34.271255493164 21.506633758545 55.516998291016 152 152 152
34.271255493164 21.506633758545 55.470001220703 143 143 143
34.273071289063 21.499034881592 55.423995971680 144 144 144
34.303466796875 21.506303787231 55.373992919922 149 149 149
34.303466796875 21.506303787231 55.328002929688 150 150 150
34.303466796875 21.506303787231 55.281997680664 145 145 145
34.271255493164 21.506633758545 55.235992431641 141 141 141
34.271255493164 21.506633758545 55.188995361328 138 138 138
34.303466796875 21.506303787231 55.139999389648 144 144 144
34.303466796875 21.506303787231 55.093002319336 144 144 144
34.303466796875 21.506303787231 55.044006347656 135 135 135
34.271255493164 21.506633758545 54.998992919922 135 135 135
34.303466796875 21.506303787231 54.949996948242 138 138 138
34.303466796875 21.506303787231 54.899993896484 135 135 135
34.303466796875 21.506303787231 54.852996826172 134 134 134
34.303466796875 21.506303787231 54.804992675781 131 131 131
34.273071289063 21.499034881592 54.761993408203 133 133 133
34.257877349854 21.495401382446 54.718994140625 147 147 147
34.242679595947 21.491765975952 54.673004150391 142 142 142
34.028114318848 21.448484420776 54.684005737305 175 175 175
34.250267028809 21.863092422485 58.069000244141 183 183 183
34.250267028809 21.863092422485 58.022003173828 205 205 205
34.250267028809 21.863092422485 57.975006103516 206 206 206
34.250267028809 21.863092422485 57.929000854492 203 203 203
34.250267028809 21.863092422485 57.882003784180 207 207 207
34.263648986816 21.874322891235 57.837005615234 143 143 143
34.278842926025 21.877958297729 57.699996948242 136 136 136
34.278842926025 21.877958297729 57.652999877930 218 218 218
34.280658721924 21.870361328125 57.606002807617 218 218 218
34.278842926025 21.877958297729 57.561004638672 217 217 217
34.311054229736 21.877630233765 57.514999389648 220 220 220
34.311054229736 21.877630233765 57.468994140625 207 207 207
34.309238433838 21.885225296021 57.425003051758 42 42 42
34.235591888428 20.984004974365 58.197006225586 98 98 98
34.235591888428 20.984004974365 58.143005371094 183 183 183
34.222209930420 20.972770690918 58.091995239258 200 200 200
34.239223480225 20.968809127808 58.039993286133 202 202 202
34.241043090820 20.961210250854 57.990005493164 107 107 107
34.242858886719 20.953611373901 57.574996948242 164 164 164
34.242858886719 20.953611373901 57.522994995117 196 196 196
34.241043090820 20.961210250854 57.470001220703 185 185 185
34.244674682617 20.946014404297 57.419006347656 131 131 131
34.240703582764 21.298507690430 58.069000244141 17 17 17
34.257717132568 21.294542312622 58.016998291016 199 199 199
34.240703582764 21.298507690430 57.962997436523 202 202 202
34.240703582764 21.298507690430 57.910995483398 198 198 198
34.240703582764 21.298507690430 57.858001708984 198 198 198
34.257717132568 21.294542312622 57.805999755859 153 153 153
34.242519378662 21.290908813477 57.753005981445 167 167 167
34.259532928467 21.286943435669 57.701004028320 185 185 185
34.259532928467 21.286943435669 57.649002075195 198 198 198
34.242519378662 21.290908813477 57.595993041992 182 182 182
34.259532928467 21.286943435669 57.544006347656 194 194 194
34.278362274170 21.275382995605 57.494003295898 11 11 11
34.242179870605 21.628206253052 57.942001342773 176 176 176
34.242179870605 21.628206253052 57.888992309570 200 200 200
34.242179870605 21.628206253052 57.835006713867 194 194 194
34.274391174316 21.627876281738 57.783004760742 199 199 199
34.242179870605 21.628206253052 57.729995727539 199 199 199
34.274391174316 21.627876281738 57.677001953125 206 206 206
34.274391174316 21.627876281738 57.625000000000 189 189 189
34.274391174316 21.627876281738 57.518997192383 19 19 19
34.274391174316 21.627876281738 57.464996337891 77 77 77
34.274391174316 21.627876281738 57.412994384766 127 127 127
34.261013031006 21.616643905640 57.360000610352 169 169 169
34.278026580811 21.612680435181 57.307998657227 176 176 176
34.278026580811 21.612680435181 57.255004882813 169 169 169
34.278026580811 21.612680435181 57.201995849609 167 167 167
34.278026580811 21.612680435181 57.149993896484 166 166 166
34.278026580811 21.612680435181 57.097000122070 162 162 162
34.281661987305 21.597482681274 57.044006347656 162 162 162
34.279842376709 21.605081558228 56.990997314453 162 162 162
34.281661987305 21.597482681274 56.938003540039 156 156 156
34.281661987305 21.597482681274 56.884994506836 147 147 147
34.281661987305 21.597482681274 56.832992553711 150 150 150
34.279842376709 21.605081558228 56.779998779297 133 133 133
34.279842376709 21.605081558228 56.727005004883 127 127 127
34.283477783203 21.589885711670 56.673995971680 134 134 134
34.266464233398 21.593847274780 56.621002197266 144 144 144
34.266464233398 21.593847274780 56.567993164063 146 146 146
34.283477783203 21.589885711670 56.513992309570 159 159 159
34.283477783203 21.589885711670 56.462005615234 159 159 159
34.266464233398 21.593847274780 56.410003662109 156 156 156
34.285293579102 21.582286834717 56.354995727539 158 158 158
34.268280029297 21.586252212524 56.302993774414 156 156 156
34.251266479492 21.590213775635 56.250991821289 156 156 156
34.268280029297 21.586252212524 56.197006225586 154 154 154
34.251266479492 21.590213775635 56.145004272461 151 151 151
34.251266479492 21.590213775635 56.091995239258 154 154 154
34.251266479492 21.590213775635 56.039001464844 150 150 150
34.253082275391 21.582616806030 55.985992431641 143 143 143
34.236072540283 21.586580276489 55.934005737305 133 133 133
34.219055175781 21.590543746948 55.882003784180 135 135 135
34.219055175781 21.590543746948 55.828994750977 138 138 138
34.219055175781 21.590543746948 55.774002075195 146 146 146
34.236072540283 21.586580276489 55.720001220703 143 143 143
34.236072540283 21.586580276489 55.666000366211 145 145 145
34.220874786377 21.582944869995 55.613998413086 155 155 155
34.254898071289 21.575017929077 55.555999755859 156 156 156
34.237888336182 21.578983306885 55.503005981445 155 155 155
34.237888336182 21.578983306885 55.449996948242 156 156 156
34.237888336182 21.578983306885 55.395996093750 157 157 157
34.237888336182 21.578983306885 55.341003417969 160 160 160
34.254898071289 21.575017929077 55.285003662109 160 160 160
34.222690582275 21.575347900391 55.231994628906 157 157 157
34.254898071289 21.575017929077 55.175994873047 166 166 166
34.254898071289 21.575017929077 55.121002197266 156 156 156
34.254898071289 21.575017929077 55.065002441406 154 154 154
34.254898071289 21.575017929077 55.009994506836 158 158 158
34.256717681885 21.567419052124 54.953994750977 161 161 161
34.256717681885 21.567419052124 54.897003173828 157 157 157
34.256717681885 21.567419052124 54.843002319336 160 160 160
34.256717681885 21.567419052124 54.787002563477 158 158 158
34.256717681885 21.567419052124 54.729995727539 157 157 157
34.256717681885 21.567419052124 54.673995971680 157 157 157
34.257038116455 21.969137191772 58.138992309570 174 174 174
34.255218505859 21.976736068726 58.082992553711 197 197 197
34.257038116455 21.969137191772 58.029998779297 199 199 199
34.257038116455 21.969137191772 57.977005004883 209 209 209
34.257038116455 21.969137191772 57.923004150391 191 191 191
34.292884826660 21.953611373901 57.658004760742 110 110 110
34.292884826660 21.953611373901 57.604003906250 200 200 200
34.292884826660 21.953611373901 57.550994873047 207 207 207
34.309894561768 21.949647903442 57.498001098633 207 207 207
34.292884826660 21.953611373901 57.444000244141 199 199 199
34.294700622559 21.946012496948 57.391006469727 58 58 58
34.260692596436 21.214925765991 57.514999389648 153 153 153
34.258872985840 21.222524642944 57.565994262695 176 176 176
34.260692596436 21.214925765991 57.617004394531 179 179 179
34.247310638428 21.203695297241 57.667999267578 181 181 181
34.260692596436 21.214925765991 57.718994140625 50 50 50
34.247310638428 21.203695297241 57.871994018555 144 144 144
34.249126434326 21.196096420288 57.921997070313 186 186 186
34.250946044922 21.188497543335 57.972991943359 171 171 171
34.250946044922 21.188497543335 58.024993896484 135 135 135
34.252761840820 21.180898666382 58.074996948242 136 136 136
34.154636383057 21.591203689575 57.139999389648 22 22 22
34.144893646240 21.564773559570 57.190002441406 46 46 46
34.146709442139 21.557176589966 57.240005493164 59 59 59
34.144893646240 21.564773559570 57.291000366211 72 72 72
34.133327484131 21.545944213867 57.341003417969 85 85 85
34.133327484131 21.545944213867 57.391998291016 85 85 85
34.131511688232 21.553543090820 57.442001342773 96 96 96
34.131511688232 21.553543090820 57.492004394531 110 110 110
34.133327484131 21.545944213867 57.544006347656 130 130 130
34.133327484131 21.545944213867 57.593994140625 136 136 136
34.135147094727 21.538345336914 57.643997192383 151 151 151
34.135147094727 21.538345336914 57.694992065430 151 151 151
34.136962890625 21.530748367310 57.744995117188 164 164 164
34.121765136719 21.527112960815 57.794998168945 176 176 176
34.123580932617 21.519514083862 57.845001220703 190 190 190
34.123580932617 21.519514083862 57.895996093750 194 194 194
34.110206604004 21.508281707764 57.945999145508 194 194 194
34.123580932617 21.519514083862 57.998001098633 195 195 195
34.110206604004 21.508281707764 58.048004150391 200 200 200
34.110206604004 21.508281707764 58.098999023438 197 197 197
34.110206604004 21.508281707764 58.149993896484 170 170 170
34.325252532959 22.154140472412 57.494003295898 87 87 87
34.288749694824 22.105245590210 57.964004516602 41 41 41
34.290565490723 22.097646713257 58.016006469727 183 183 183
34.273551940918 22.101612091064 58.067993164063 137 137 137
34.290565490723 22.097646713257 58.121994018555 109 109 109
34.263809204102 22.075181961060 58.171005249023 56 56 56
34.286273956299 22.048423767090 57.358993530273 14 14 14
34.299652099609 22.059656143188 57.412002563477 112 112 112
34.288089752197 22.040826797485 57.464004516602 129 129 129
34.288089752197 22.040826797485 57.516006469727 135 135 135
34.251586914063 21.991931915283 57.932998657227 125 125 125
34.251586914063 21.991931915283 57.985992431641 198 198 198
34.253402709961 21.984334945679 58.037994384766 141 141 141
34.253402709961 21.984334945679 58.091003417969 128 128 128
34.253402709961 21.984334945679 58.143997192383 78 78 78
34.165538787842 21.545614242554 56.759994506836 12 12 12
34.135147094727 21.538345336914 56.811004638672 32 32 32
34.138778686523 21.523149490356 56.861999511719 59 59 59
34.138778686523 21.523149490356 56.912994384766 67 67 67
34.140598297119 21.515550613403 56.964004516602 76 76 76
34.140598297119 21.515550613403 57.013992309570 92 92 92
34.127216339111 21.504318237305 57.065002441406 110 110 110
34.127216339111 21.504318237305 57.115997314453 125 125 125
34.113842010498 21.493085861206 57.166000366211 131 131 131
34.113842010498 21.493085861206 57.216995239258 151 151 151
34.113842010498 21.493085861206 57.266998291016 175 175 175
34.117473602295 21.477890014648 57.317993164063 197 197 197
34.115657806396 21.485486984253 57.369003295898 203 203 203
34.117473602295 21.477890014648 57.419006347656 212 212 212
34.117473602295 21.477890014648 57.470001220703 221 221 221
34.119293212891 21.470291137695 57.520004272461 226 226 226
34.119293212891 21.470291137695 57.569992065430 232 232 232
34.121109008789 21.462692260742 57.621002197266 233 233 233
34.107727050781 21.451459884644 57.671005249023 227 227 227
34.107727050781 21.451459884644 57.722000122070 222 222 222
34.107727050781 21.451459884644 57.772994995117 216 216 216
34.107727050781 21.451459884644 57.824005126953 220 220 220
34.107727050781 21.451459884644 57.875000000000 216 216 216
34.109546661377 21.443861007690 57.925003051758 212 212 212
34.109546661377 21.443861007690 57.975997924805 212 212 212
34.109546661377 21.443861007690 58.026992797852 205 205 205
34.094348907471 21.440227508545 58.078002929688 199 199 199
34.126560211182 21.439897537231 58.130004882813 153 153 153
34.224185943604 21.166032791138 57.445999145508 41 41 41
34.254577636719 21.173299789429 57.496994018555 175 175 175
34.224185943604 21.166032791138 57.548004150391 156 156 156
34.224185943604 21.166032791138 57.598999023438 187 187 187
34.241203308105 21.162067413330 57.649993896484 156 156 156
34.243019104004 21.154470443726 57.854995727539 147 147 147
34.229637145996 21.143238067627 57.904998779297 191 191 191
34.231456756592 21.135639190674 57.955993652344 168 168 168
34.233272552490 21.128042221069 58.005996704102 135 135 135
34.231456756592 21.135639190674 58.057006835938 130 130 130
34.248611450195 22.071548461914 58.119003295898 152 152 152
34.233413696289 22.067914962769 58.069000244141 183 183 183
34.248611450195 22.071548461914 58.024002075195 215 215 215
34.246795654297 22.079147338867 57.977996826172 202 202 202
34.280822753906 22.071218490601 57.511993408203 200 200 200
34.280822753906 22.071218490601 57.464996337891 217 217 217
34.280822753906 22.071218490601 57.419006347656 183 183 183
34.224006652832 21.704187393188 57.983001708984 183 183 183
34.224006652832 21.704187393188 57.936996459961 209 209 209
34.225826263428 21.696590423584 57.889999389648 205 205 205
34.224006652832 21.704187393188 57.845001220703 205 205 205
34.256221771240 21.703859329224 57.798995971680 210 210 210
34.256221771240 21.703859329224 57.753005981445 179 179 179
34.256221771240 21.703859329224 57.707992553711 217 217 217
34.256221771240 21.703859329224 57.662002563477 220 220 220
34.254402160645 21.711456298828 57.615005493164 213 213 213
34.256221771240 21.703859329224 57.569992065430 217 217 217
34.256221771240 21.703859329224 57.522994995117 206 206 206
34.286613464355 21.711128234863 57.479003906250 50 50 50
34.214599609375 21.340463638306 57.944992065430 203 203 203
34.227981567383 21.351694107056 57.901000976563 225 225 225
34.214599609375 21.340463638306 57.854003906250 218 218 218
34.227981567383 21.351694107056 57.807998657227 218 218 218
34.214599609375 21.340463638306 57.761001586914 204 204 204
34.214599609375 21.340463638306 57.716003417969 209 209 209
34.214599609375 21.340463638306 57.669998168945 203 203 203
34.214599609375 21.340463638306 57.623992919922 202 202 202
34.244995117188 21.347730636597 57.580001831055 209 209 209
34.244995117188 21.347730636597 57.535003662109 85 85 85
34.188182830811 20.980699539185 58.180999755859 141 141 141
34.205196380615 20.976736068726 58.136001586914 224 224 224
34.203376770020 20.984334945679 58.093002319336 227 227 227
34.205196380615 20.976736068726 58.046005249023 216 216 216
34.205196380615 20.976736068726 58.000000000000 213 213 213
34.222209930420 20.972770690918 57.955001831055 213 213 213
34.237407684326 20.976406097412 57.914001464844 40 40 40
34.222209930420 20.972770690918 57.593002319336 74 74 74
34.205196380615 20.976736068726 57.546997070313 209 209 209
34.224025726318 20.965173721313 57.503005981445 195 195 195
34.222209930420 20.972770690918 57.457992553711 203 203 203
34.222209930420 20.972770690918 57.412994384766 216 216 216
34.222209930420 20.972770690918 57.369003295898 204 204 204
34.224025726318 20.965173721313 57.322998046875 58 58 58
34.242500305176 22.029924392700 58.138992309570 184 184 184
34.242500305176 22.029924392700 58.085998535156 203 203 203
34.242500305176 22.029924392700 58.031005859375 202 202 202
34.244316101074 22.022325515747 57.979003906250 203 203 203
34.244316101074 22.022325515747 57.925003051758 167 167 167
34.281982421875 21.999200820923 57.550003051758 183 183 183
34.249767303467 21.999530792236 57.494995117188 206 206 206
34.283798217773 21.991601943970 57.442001342773 201 201 201
34.283798217773 21.991601943970 57.388992309570 206 206 206
34.285614013672 21.984003067017 57.335006713867 164 164 164
34.224006652832 21.704187393188 57.996002197266 131 131 131
34.256221771240 21.703859329224 57.942993164063 198 198 198
34.224006652832 21.704187393188 57.888992309570 200 200 200
34.225826263428 21.696590423584 57.835006713867 198 198 198
34.242839813232 21.692625045776 57.783004760742 197 197 197
34.259853363037 21.688661575317 57.731002807617 193 193 193
34.259853363037 21.688661575317 57.677993774414 201 201 201
34.259853363037 21.688661575317 57.623992919922 203 203 203
34.259853363037 21.688661575317 57.570999145508 204 204 204
34.259853363037 21.688661575317 57.516998291016 144 144 144
34.332702636719 21.585590362549 55.304992675781 14 14 14
34.351528167725 21.574029922485 55.248001098633 46 46 46
34.351528167725 21.574029922485 55.190002441406 69 69 69
34.528938293457 21.503997802734 55.097991943359 53 53 53
34.460880279541 21.519853591919 54.998992919922 13 13 13
34.426853179932 21.527780532837 54.947006225586 0 0 0
34.426853179932 21.527780532837 54.891998291016 225 225 225
34.426853179932 21.527780532837 54.835006713867 214 214 214
34.426853179932 21.527780532837 54.781005859375 188 188 188
34.426853179932 21.527780532837 54.722000122070 173 173 173
34.339969635010 21.555198669434 54.682998657227 187 187 187
34.237728118896 21.378122329712 57.955001831055 115 115 115
34.220714569092 21.382087707520 57.901000976563 198 198 198
34.237728118896 21.378122329712 57.848999023438 202 202 202
