20.250000000000 18.375000000000 5.444000244141 13 13 13
20.312500000000 18.375000000000 5.367004394531 175 175 175
20.312500000000 18.375000000000 5.286010742188 167 167 167
20.250000000000 18.375000000000 4.799011230469 184 184 184
20.250000000000 18.375000000000 4.720001220703 169 169 169
20.312500000000 18.562500000000 5.371002197266 181 181 181
20.312500000000 18.562500000000 5.289001464844 183 183 183
20.312500000000 18.562500000000 5.207000732422 170 170 170
20.250000000000 18.562500000000 4.881011962891 196 196 196
20.312500000000 18.562500000000 4.802001953125 187 187 187
20.312500000000 18.562500000000 4.721984863281 180 180 180
20.312500000000 18.625000000000 5.292999267578 183 183 183
20.312500000000 18.625000000000 5.209991455078 193 193 193
20.312500000000 18.625000000000 5.128997802734 172 172 172
20.312500000000 18.625000000000 4.966003417969 188 188 188
20.312500000000 18.625000000000 4.884002685547 186 186 186
20.312500000000 18.625000000000 4.803985595703 194 194 194
20.375000000000 18.562500000000 4.407989501953 13 13 13
20.375000000000 18.562500000000 4.326995849609 20 20 20
20.375000000000 18.562500000000 4.244995117188 18 18 18
20.125000000000 18.875000000000 5.656982421875 39 39 39
20.312500000000 18.812500000000 5.626007080078 88 88 88
20.125000000000 18.875000000000 5.503997802734 75 75 75
20.187500000000 18.812500000000 5.355987548828 125 125 125
20.312500000000 18.750000000000 5.212982177734 180 180 180
20.312500000000 18.812500000000 5.131011962891 182 182 182
20.312500000000 18.812500000000 5.048004150391 192 192 192
20.312500000000 18.812500000000 4.967010498047 189 189 189
20.312500000000 18.812500000000 4.885986328125 187 187 187
20.437500000000 18.687500000000 4.489990234375 19 19 19
20.437500000000 18.687500000000 4.407989501953 21 21 21
20.375000000000 18.750000000000 4.325988769531 23 23 23
20.375000000000 18.750000000000 4.244995117188 44 44 44
20.437500000000 18.687500000000 4.162994384766 28 28 28
20.437500000000 18.687500000000 4.082000732422 16 16 16
20.437500000000 18.687500000000 4.000000000000 19 19 19
20.125000000000 19.000000000000 5.667999267578 139 139 139
20.187500000000 19.000000000000 5.593994140625 130 130 130
20.125000000000 19.000000000000 5.506011962891 110 110 110
20.250000000000 19.000000000000 5.438995361328 105 105 105
20.250000000000 19.000000000000 5.361999511719 87 87 87
20.250000000000 19.000000000000 5.279998779297 76 76 76
20.250000000000 18.937500000000 5.201995849609 87 87 87
20.250000000000 18.937500000000 5.121002197266 91 91 91
20.250000000000 18.937500000000 5.041992187500 78 78 78
20.250000000000 19.000000000000 4.958007812500 116 116 116
20.250000000000 18.937500000000 4.881011962891 90 90 90
20.250000000000 18.937500000000 4.800994873047 94 94 94
20.250000000000 18.937500000000 4.721008300781 90 90 90
20.250000000000 18.937500000000 4.640991210938 94 94 94
20.250000000000 18.937500000000 4.561004638672 95 95 95
20.250000000000 18.937500000000 4.481994628906 95 95 95
20.250000000000 18.937500000000 4.402984619141 106 106 106
20.250000000000 18.937500000000 4.322998046875 117 117 117
20.250000000000 18.937500000000 4.243988037109 107 107 107
20.250000000000 18.937500000000 4.164001464844 129 129 129
20.250000000000 18.937500000000 4.083984375000 127 127 127
20.250000000000 18.937500000000 4.003997802734 141 141 141
20.250000000000 18.937500000000 3.924987792969 136 136 136
20.250000000000 18.937500000000 3.845001220703 143 143 143
20.250000000000 18.937500000000 3.764984130859 149 149 149
20.250000000000 18.937500000000 3.684997558594 126 126 126
20.250000000000 18.937500000000 3.604003906250 137 137 137
20.250000000000 18.937500000000 3.523010253906 130 130 130
20.250000000000 18.937500000000 3.442993164063 128 128 128
20.312500000000 18.937500000000 3.360992431641 128 128 128
20.312500000000 18.937500000000 3.279998779297 132 132 132
20.312500000000 19.000000000000 3.199005126953 128 128 128
20.312500000000 19.000000000000 3.115997314453 133 133 133
20.312500000000 19.000000000000 3.032989501953 140 140 140
20.312500000000 19.000000000000 2.950988769531 141 141 141
20.312500000000 19.000000000000 2.868011474609 151 151 151
20.312500000000 19.000000000000 2.785003662109 147 147 147
20.187500000000 19.187500000000 5.596984863281 113 113 113
20.437500000000 19.062500000000 5.561004638672 37 37 37
20.312500000000 19.062500000000 5.213989257813 182 182 182
20.312500000000 19.062500000000 5.131988525391 182 182 182
20.312500000000 19.062500000000 5.050994873047 182 182 182
20.375000000000 19.062500000000 4.971008300781 186 186 186
20.375000000000 19.062500000000 4.889007568359 166 166 166
20.500000000000 19.000000000000 4.490997314453 20 20 20
20.500000000000 19.000000000000 4.407989501953 29 29 29
20.437500000000 19.062500000000 4.324981689453 36 36 36
20.375000000000 19.062500000000 4.243011474609 65 65 65
20.437500000000 19.062500000000 4.161010742188 109 109 109
20.437500000000 19.062500000000 4.079986572266 158 158 158
20.437500000000 19.000000000000 3.997009277344 101 101 101
20.437500000000 19.062500000000 3.915985107422 63 63 63
20.437500000000 19.000000000000 3.832000732422 65 65 65
20.312500000000 19.250000000000 5.296997070313 184 184 184
20.312500000000 19.250000000000 5.213989257813 181 181 181
20.312500000000 19.250000000000 5.132995605469 181 181 181
20.312500000000 19.250000000000 4.971008300781 180 180 180
20.312500000000 19.250000000000 4.889984130859 184 184 184
20.312500000000 19.250000000000 4.807983398438 175 175 175
20.500000000000 19.187500000000 4.490997314453 16 16 16
20.500000000000 19.125000000000 4.407989501953 22 22 22
20.437500000000 19.187500000000 4.324005126953 26 26 26
20.500000000000 19.187500000000 4.242004394531 42 42 42
20.437500000000 19.187500000000 4.160003662109 52 52 52
20.437500000000 19.187500000000 4.078002929688 38 38 38
20.437500000000 19.187500000000 3.996002197266 30 30 30
20.312500000000 19.312500000000 5.381988525391 184 184 184
20.312500000000 19.312500000000 5.298004150391 178 178 178
20.312500000000 19.312500000000 5.217010498047 181 181 181
20.312500000000 19.312500000000 4.889984130859 181 181 181
20.312500000000 19.312500000000 4.807983398438 188 188 188
20.312500000000 19.312500000000 4.725982666016 169 169 169
20.500000000000 19.250000000000 4.406982421875 16 16 16
20.500000000000 19.250000000000 4.324005126953 215 215 215
20.500000000000 19.250000000000 4.240997314453 31 31 31
20.375000000000 19.500000000000 5.467987060547 147 147 147
20.375000000000 19.500000000000 5.384002685547 187 187 187
20.375000000000 19.500000000000 5.300994873047 204 204 204
20.375000000000 19.500000000000 4.807983398438 213 213 213
20.375000000000 19.500000000000 4.726989746094 186 186 186
20.375000000000 19.500000000000 4.644989013672 98 98 98
20.312500000000 18.375000000000 4.776000976563 136 136 136
20.312500000000 18.375000000000 5.343994140625 161 161 161
20.312500000000 18.375000000000 5.424011230469 40 40 40
20.500000000000 18.625000000000 4.382995605469 22 22 22
20.312500000000 18.562500000000 4.696990966797 143 143 143
20.312500000000 18.562500000000 4.777984619141 157 157 157
20.312500000000 18.562500000000 4.856994628906 195 195 195
20.312500000000 18.562500000000 4.936004638672 18 18 18
20.312500000000 18.562500000000 5.182983398438 76 76 76
20.375000000000 18.562500000000 5.266998291016 193 193 193
20.312500000000 18.562500000000 5.347991943359 163 163 163
20.312500000000 18.562500000000 5.428009033203 89 89 89
20.437500000000 18.687500000000 4.136993408203 21 21 21
20.437500000000 18.687500000000 4.217987060547 29 29 29
20.375000000000 18.750000000000 4.299011230469 21 21 21
20.437500000000 18.687500000000 4.381011962891 25 25 25
20.312500000000 18.625000000000 4.777008056641 114 114 114
20.312500000000 18.625000000000 4.859008789063 187 187 187
20.312500000000 18.625000000000 4.938995361328 197 197 197
20.375000000000 18.687500000000 5.022003173828 79 79 79
20.375000000000 18.687500000000 5.105010986328 116 116 116
20.375000000000 18.687500000000 5.184997558594 196 196 196
20.375000000000 18.687500000000 5.268005371094 162 162 162
20.375000000000 18.687500000000 5.348999023438 51 51 51
20.500000000000 18.937500000000 3.971984863281 28 28 28
20.500000000000 18.937500000000 4.053009033203 27 27 27
20.437500000000 18.875000000000 4.135009765625 101 101 101
20.375000000000 18.812500000000 4.217010498047 94 94 94
20.500000000000 18.937500000000 4.299011230469 34 34 34
20.500000000000 18.937500000000 4.462005615234 22 22 22
20.312500000000 18.812500000000 4.856994628906 60 60 60
20.312500000000 18.812500000000 4.937988281250 195 195 195
20.375000000000 18.875000000000 5.019989013672 196 196 196
20.375000000000 18.812500000000 5.105010986328 161 161 161
20.375000000000 18.812500000000 5.187011718750 168 168 168
20.375000000000 18.875000000000 5.264984130859 22 22 22
20.312500000000 18.812500000000 5.510009765625 34 34 34
20.500000000000 18.937500000000 5.623992919922 76 76 76
20.250000000000 18.937500000000 2.104003906250 118 118 118
20.250000000000 18.937500000000 2.191009521484 117 117 117
20.250000000000 18.875000000000 2.687988281250 124 124 124
20.250000000000 18.875000000000 2.770996093750 123 123 123
20.250000000000 18.875000000000 2.851989746094 123 123 123
20.250000000000 18.875000000000 2.936004638672 120 120 120
20.250000000000 18.937500000000 3.014984130859 118 118 118
20.250000000000 18.937500000000 3.096008300781 115 115 115
20.250000000000 18.937500000000 3.177001953125 123 123 123
20.250000000000 18.937500000000 3.256011962891 116 116 116
20.250000000000 18.937500000000 3.337005615234 125 125 125
20.250000000000 18.937500000000 3.416992187500 128 128 128
20.250000000000 18.937500000000 3.497985839844 124 124 124
20.250000000000 18.937500000000 3.576995849609 128 128 128
20.250000000000 18.937500000000 3.656982421875 129 129 129
20.250000000000 18.937500000000 3.736999511719 135 135 135
20.250000000000 18.937500000000 3.816986083984 121 121 121
20.250000000000 18.937500000000 3.897003173828 125 125 125
20.250000000000 18.937500000000 3.975982666016 119 119 119
20.250000000000 18.937500000000 4.054992675781 121 121 121
20.250000000000 18.937500000000 4.135009765625 130 130 130
20.250000000000 18.937500000000 4.214996337891 122 122 122
20.250000000000 18.937500000000 4.294006347656 134 134 134
20.250000000000 18.937500000000 4.372985839844 122 122 122
20.250000000000 18.937500000000 4.453002929688 122 122 122
20.250000000000 18.937500000000 4.532989501953 122 122 122
20.250000000000 18.937500000000 4.611999511719 120 120 120
20.250000000000 18.937500000000 4.691986083984 118 118 118
20.250000000000 18.937500000000 4.770996093750 104 104 104
20.250000000000 18.937500000000 4.850982666016 112 112 112
20.250000000000 18.937500000000 4.930999755859 114 114 114
20.250000000000 18.937500000000 5.006011962891 179 179 179
20.250000000000 18.937500000000 5.092010498047 113 113 113
20.250000000000 18.937500000000 5.173004150391 109 109 109
20.250000000000 18.875000000000 5.248992919922 138 138 138
20.250000000000 18.937500000000 5.324981689453 192 192 192
20.312500000000 18.937500000000 5.423004150391 127 127 127
20.187500000000 18.875000000000 5.479003906250 100 100 100
20.250000000000 18.937500000000 5.566009521484 132 132 132
20.125000000000 18.812500000000 5.626007080078 108 108 108
20.500000000000 19.250000000000 4.296997070313 171 171 171
20.500000000000 19.250000000000 4.380004882813 73 73 73
20.375000000000 19.187500000000 4.860992431641 160 160 160
20.312500000000 19.125000000000 4.942993164063 174 174 174
20.375000000000 19.187500000000 5.024993896484 169 169 169
20.312500000000 19.187500000000 5.105010986328 162 162 162
20.312500000000 19.187500000000 5.184997558594 157 157 157
20.312500000000 19.187500000000 5.268005371094 141 141 141
20.187500000000 19.062500000000 5.480010986328 85 85 85
20.312500000000 19.187500000000 5.589996337891 94 94 94
20.125000000000 19.000000000000 5.613983154297 107 107 107
20.375000000000 19.312500000000 4.779998779297 161 161 161
20.375000000000 19.312500000000 4.861999511719 167 167 167
20.375000000000 19.312500000000 4.944000244141 164 164 164
20.312500000000 19.250000000000 5.187011718750 153 153 153
20.375000000000 19.312500000000 5.272003173828 157 157 157
20.375000000000 19.312500000000 5.354003906250 150 150 150
20.375000000000 19.437500000000 4.700988769531 161 161 161
20.375000000000 19.437500000000 4.782989501953 176 176 176
20.375000000000 19.437500000000 4.863983154297 163 163 163
20.375000000000 19.437500000000 5.273010253906 190 190 190
20.375000000000 19.437500000000 5.356994628906 177 177 177
20.375000000000 19.437500000000 5.441009521484 176 176 176
20.312500000000 18.375000000000 5.307983398438 214 214 214
20.312500000000 18.375000000000 4.809997558594 181 181 181
20.250000000000 18.312500000000 4.738006591797 97 97 97
20.312500000000 18.562500000000 5.458984375000 71 71 71
20.312500000000 18.562500000000 5.385009765625 233 233 233
20.312500000000 18.500000000000 5.316009521484 241 241 241
20.312500000000 18.562500000000 5.239990234375 237 237 237
20.312500000000 18.562500000000 4.882995605469 237 237 237
20.312500000000 18.562500000000 4.809997558594 212 212 212
20.312500000000 18.562500000000 4.740997314453 246 246 246
20.312500000000 18.562500000000 4.669982910156 227 227 227
20.375000000000 18.625000000000 5.315002441406 237 237 237
20.375000000000 18.625000000000 5.242004394531 231 231 231
20.312500000000 18.625000000000 5.169006347656 226 226 226
20.312500000000 18.625000000000 4.951995849609 238 238 238
20.312500000000 18.625000000000 4.881988525391 217 217 217
20.312500000000 18.625000000000 4.812988281250 231 231 231
20.312500000000 18.625000000000 4.739990234375 194 194 194
20.437500000000 18.625000000000 4.399993896484 29 29 29
20.437500000000 18.625000000000 4.329986572266 35 35 35
20.437500000000 18.625000000000 4.259002685547 34 34 34
20.437500000000 18.625000000000 4.188995361328 39 39 39
20.312500000000 18.812500000000 5.596984863281 60 60 60
20.312500000000 18.750000000000 5.240997314453 234 234 234
20.375000000000 18.750000000000 5.170989990234 243 243 243
20.375000000000 18.750000000000 5.100006103516 254 254 254
20.312500000000 18.750000000000 5.024993896484 229 229 229
20.312500000000 18.750000000000 4.953002929688 235 235 235
20.312500000000 18.750000000000 4.882995605469 214 214 214
20.312500000000 18.750000000000 4.812011718750 68 68 68
20.500000000000 18.812500000000 4.471008300781 29 29 29
20.500000000000 18.812500000000 4.401000976563 40 40 40
20.375000000000 18.750000000000 4.325988769531 57 57 57
20.375000000000 18.750000000000 4.256011962891 78 78 78
20.437500000000 18.812500000000 4.187011718750 141 141 141
20.500000000000 18.812500000000 4.117004394531 39 39 39
20.437500000000 18.812500000000 4.045989990234 39 39 39
20.437500000000 18.812500000000 3.975982666016 29 29 29
20.437500000000 18.812500000000 3.904998779297 41 41 41
20.125000000000 18.875000000000 5.618988037109 89 89 89
20.250000000000 18.937500000000 5.574981689453 135 135 135
20.187500000000 18.937500000000 5.493988037109 103 103 103
20.250000000000 18.875000000000 5.437011718750 130 130 130
20.250000000000 18.937500000000 5.361999511719 169 169 169
20.250000000000 18.937500000000 5.300994873047 157 157 157
20.312500000000 18.937500000000 5.234985351563 164 164 164
20.312500000000 18.937500000000 5.165985107422 157 157 157
20.250000000000 18.875000000000 5.079986572266 188 188 188
20.250000000000 18.875000000000 5.009002685547 177 177 177
20.250000000000 18.875000000000 4.938995361328 190 190 190
20.312500000000 18.937500000000 4.881011962891 154 154 154
20.312500000000 18.937500000000 4.809997558594 166 166 166
20.312500000000 18.937500000000 4.738983154297 160 160 160
20.312500000000 18.937500000000 4.669006347656 172 172 172
20.312500000000 18.937500000000 4.598999023438 182 182 182
20.312500000000 18.937500000000 4.528991699219 175 175 175
20.312500000000 18.937500000000 4.459991455078 182 182 182
20.312500000000 18.937500000000 4.389984130859 175 175 175
20.312500000000 18.937500000000 4.320983886719 189 189 189
20.312500000000 18.937500000000 4.251007080078 178 178 178
20.312500000000 18.937500000000 4.182006835938 174 174 174
20.312500000000 18.937500000000 4.113006591797 189 189 189
20.312500000000 18.937500000000 4.042999267578 184 184 184
20.312500000000 18.937500000000 3.973999023438 174 174 174
20.312500000000 18.937500000000 3.904998779297 177 177 177
20.312500000000 18.937500000000 3.835998535156 180 180 180
20.312500000000 18.937500000000 3.766998291016 186 186 186
20.312500000000 18.937500000000 3.697998046875 185 185 185
20.312500000000 18.937500000000 3.628997802734 175 175 175
20.312500000000 18.937500000000 3.559997558594 178 178 178
20.312500000000 18.937500000000 3.489990234375 185 185 185
20.312500000000 18.937500000000 3.420989990234 177 177 177
20.312500000000 18.937500000000 3.351989746094 176 176 176
20.312500000000 18.937500000000 3.281982421875 189 189 189
20.312500000000 18.937500000000 3.213989257813 171 171 171
20.312500000000 18.937500000000 3.140991210938 165 165 165
20.312500000000 18.937500000000 3.071990966797 160 160 160
20.312500000000 18.937500000000 3.001983642578 154 154 154
20.250000000000 18.937500000000 2.932006835938 139 139 139
20.250000000000 18.937500000000 2.863983154297 129 129 129
20.312500000000 18.937500000000 2.278991699219 134 134 134
20.250000000000 18.937500000000 2.207000732422 145 145 145
20.250000000000 18.937500000000 2.135009765625 147 147 147
20.250000000000 18.937500000000 2.058990478516 154 154 154
20.312500000000 18.937500000000 2.781982421875 91 91 91
20.125000000000 19.062500000000 5.627990722656 127 127 127
20.375000000000 19.125000000000 5.626007080078 105 105 105
20.187500000000 19.062500000000 5.497985839844 114 114 114
20.250000000000 19.062500000000 5.438995361328 54 54 54
20.375000000000 19.062500000000 5.247009277344 128 128 128
20.375000000000 19.062500000000 5.173004150391 236 236 236
20.375000000000 19.062500000000 5.104003906250 252 252 252
20.375000000000 19.062500000000 5.029998779297 239 239 239
20.375000000000 19.062500000000 4.958984375000 249 249 249
20.375000000000 19.062500000000 4.886993408203 237 237 237
20.437500000000 19.062500000000 4.475982666016 35 35 35
20.437500000000 19.062500000000 4.402984619141 37 37 37
20.437500000000 19.125000000000 4.329986572266 43 43 43
20.437500000000 19.125000000000 4.257995605469 62 62 62
20.437500000000 19.062500000000 4.187988281250 74 74 74
20.312500000000 19.062500000000 4.113983154297 157 157 157
20.437500000000 19.062500000000 4.045989990234 147 147 147
20.437500000000 19.062500000000 3.975006103516 67 67 67
20.437500000000 19.062500000000 3.903991699219 49 49 49
20.312500000000 19.250000000000 5.320007324219 189 189 189
20.312500000000 19.250000000000 5.250000000000 234 234 234
20.312500000000 19.250000000000 5.178009033203 242 242 242
20.312500000000 19.250000000000 5.104003906250 226 226 226
20.375000000000 19.250000000000 5.035003662109 65 65 65
20.312500000000 19.250000000000 4.960998535156 235 235 235
20.312500000000 19.250000000000 4.889984130859 247 247 247
20.375000000000 19.250000000000 4.819000244141 253 253 253
20.500000000000 19.250000000000 4.406005859375 31 31 31
20.500000000000 19.250000000000 4.333984375000 221 221 221
20.500000000000 19.250000000000 4.261993408203 218 218 218
20.500000000000 19.250000000000 4.191009521484 36 36 36
20.437500000000 19.187500000000 4.117004394531 76 76 76
20.312500000000 19.312500000000 5.398986816406 216 216 216
20.375000000000 19.375000000000 5.328002929688 233 233 233
20.375000000000 19.375000000000 5.252990722656 233 233 233
20.375000000000 19.375000000000 5.180999755859 211 211 211
20.375000000000 19.375000000000 4.893981933594 243 243 243
20.375000000000 19.375000000000 4.821990966797 254 254 254
20.375000000000 19.375000000000 4.751007080078 255 255 255
20.375000000000 19.375000000000 4.679992675781 126 126 126
20.375000000000 19.562500000000 5.404998779297 220 220 220
20.375000000000 19.562500000000 5.330993652344 218 218 218
20.375000000000 19.562500000000 5.256988525391 169 169 169
20.375000000000 19.562500000000 4.825988769531 242 242 242
20.375000000000 19.562500000000 4.753997802734 236 236 236
20.375000000000 19.562500000000 4.682006835938 223 223 223
20.375000000000 19.562500000000 5.454010009766 231 231 231
20.375000000000 19.562500000000 5.377990722656 226 226 226
20.375000000000 19.562500000000 5.304992675781 221 221 221
20.375000000000 19.562500000000 5.233001708984 155 155 155
20.375000000000 19.562500000000 4.871002197266 192 192 192
20.375000000000 19.562500000000 4.803009033203 244 244 244
20.375000000000 19.562500000000 4.730987548828 255 255 255
20.375000000000 19.562500000000 4.658996582031 238 238 238
20.312500000000 19.312500000000 5.372985839844 226 226 226
20.375000000000 19.375000000000 5.302001953125 237 237 237
20.312500000000 19.312500000000 5.227996826172 239 239 239
20.312500000000 19.312500000000 5.152984619141 196 196 196
20.375000000000 19.375000000000 4.941009521484 237 237 237
20.375000000000 19.375000000000 4.869995117188 255 255 255
20.375000000000 19.375000000000 4.798004150391 255 255 255
20.375000000000 19.375000000000 4.727996826172 251 251 251
20.250000000000 19.250000000000 5.576995849609 46 46 46
20.312500000000 19.250000000000 5.295989990234 218 218 218
20.312500000000 19.250000000000 5.225006103516 246 246 246
20.312500000000 19.250000000000 5.151000976563 246 246 246
20.312500000000 19.250000000000 5.078002929688 219 219 219
20.375000000000 19.250000000000 5.010986328125 247 247 247
20.375000000000 19.250000000000 4.937988281250 255 255 255
20.375000000000 19.250000000000 4.865997314453 253 253 253
20.312500000000 19.250000000000 4.792999267578 188 188 188
20.500000000000 19.250000000000 4.454010009766 33 33 33
20.500000000000 19.250000000000 4.382995605469 34 34 34
20.500000000000 19.250000000000 4.309997558594 178 178 178
20.500000000000 19.250000000000 4.238006591797 86 86 86
20.437500000000 19.187500000000 4.165985107422 73 73 73
20.437500000000 19.187500000000 4.093994140625 82 82 82
20.437500000000 19.187500000000 4.023986816406 46 46 46
20.125000000000 19.062500000000 5.589996337891 142 142 142
20.250000000000 19.062500000000 5.557006835938 121 121 121
20.250000000000 19.062500000000 5.481994628906 124 124 124
20.312500000000 19.125000000000 5.424987792969 72 72 72
20.312500000000 19.062500000000 5.217010498047 194 194 194
20.375000000000 19.062500000000 5.148986816406 246 246 246
20.375000000000 19.062500000000 5.076995849609 252 252 252
20.375000000000 19.062500000000 5.003997802734 239 239 239
20.375000000000 19.062500000000 4.934997558594 253 253 253
20.375000000000 19.062500000000 4.863983154297 79 79 79
20.437500000000 19.062500000000 4.450988769531 33 33 33
20.437500000000 19.062500000000 4.378997802734 53 53 53
20.312500000000 19.062500000000 4.298004150391 173 173 173
20.375000000000 19.062500000000 4.230010986328 167 167 167
20.312500000000 19.062500000000 4.160003662109 188 188 188
20.375000000000 19.062500000000 4.092010498047 194 194 194
20.437500000000 19.062500000000 4.023010253906 164 164 164
20.437500000000 19.062500000000 3.951995849609 137 137 137
20.437500000000 19.062500000000 3.881011962891 170 170 170
20.187500000000 18.937500000000 5.691986083984 50 50 50
20.062500000000 18.937500000000 5.583984375000 125 125 125
20.250000000000 18.937500000000 5.549011230469 137 137 137
20.187500000000 18.937500000000 5.466003417969 118 118 118
20.312500000000 18.937500000000 5.421997070313 180 180 180
20.250000000000 18.937500000000 5.332000732422 212 212 212
20.250000000000 18.937500000000 5.272003173828 170 170 170
20.312500000000 18.937500000000 5.210998535156 129 129 129
20.375000000000 18.937500000000 5.143981933594 215 215 215
20.312500000000 18.937500000000 5.070007324219 213 213 213
20.312500000000 18.937500000000 4.994995117188 214 214 214
20.312500000000 18.937500000000 4.927001953125 207 207 207
20.312500000000 18.937500000000 4.855010986328 118 118 118
20.312500000000 18.937500000000 4.786010742188 128 128 128
20.312500000000 18.937500000000 4.714996337891 126 126 126
20.312500000000 18.937500000000 4.645996093750 135 135 135
20.312500000000 18.937500000000 4.574981689453 130 130 130
20.312500000000 18.937500000000 4.506011962891 129 129 129
20.312500000000 18.937500000000 4.437011718750 143 143 143
20.312500000000 18.937500000000 4.367004394531 137 137 137
20.312500000000 18.937500000000 4.296997070313 183 183 183
20.312500000000 18.937500000000 4.227996826172 143 143 143
20.312500000000 18.937500000000 4.158996582031 162 162 162
20.312500000000 18.937500000000 4.089996337891 173 173 173
20.312500000000 18.937500000000 4.020996093750 149 149 149
20.312500000000 18.937500000000 3.951995849609 147 147 147
20.312500000000 18.937500000000 3.882995605469 146 146 146
20.375000000000 18.937500000000 3.812988281250 155 155 155
20.312500000000 18.937500000000 3.743988037109 147 147 147
20.312500000000 18.937500000000 3.674987792969 144 144 144
20.312500000000 18.937500000000 3.605987548828 145 145 145
20.312500000000 18.937500000000 3.536010742188 163 163 163
20.312500000000 18.937500000000 3.467010498047 155 155 155
20.312500000000 18.937500000000 3.398010253906 152 152 152
20.312500000000 18.937500000000 3.328002929688 152 152 152
20.312500000000 18.937500000000 3.257995605469 157 157 157
20.312500000000 18.937500000000 3.187988281250 161 161 161
20.312500000000 18.937500000000 3.117004394531 168 168 168
20.312500000000 18.937500000000 3.045989990234 173 173 173
20.312500000000 18.937500000000 2.976989746094 176 176 176
20.312500000000 18.937500000000 2.906005859375 177 177 177
20.312500000000 18.937500000000 2.834991455078 172 172 172
20.312500000000 18.937500000000 2.255004882813 168 168 168
20.312500000000 18.937500000000 2.179992675781 168 168 168
20.312500000000 18.937500000000 2.108001708984 161 161 161
20.312500000000 18.937500000000 2.325988769531 123 123 123
20.312500000000 18.750000000000 5.583007812500 75 75 75
20.312500000000 18.750000000000 5.286987304688 149 149 149
20.375000000000 18.750000000000 5.217010498047 255 255 255
20.312500000000 18.750000000000 5.143981933594 237 237 237
20.312500000000 18.750000000000 5.071990966797 243 243 243
20.312500000000 18.812500000000 4.997009277344 220 220 220
20.312500000000 18.750000000000 4.928009033203 240 240 240
20.312500000000 18.750000000000 4.855987548828 232 232 232
20.437500000000 18.812500000000 4.445007324219 29 29 29
20.437500000000 18.812500000000 4.373992919922 103 103 103
20.375000000000 18.812500000000 4.300994873047 57 57 57
20.437500000000 18.812500000000 4.230987548828 61 61 61
20.437500000000 18.812500000000 4.161987304688 50 50 50
20.437500000000 18.812500000000 4.092010498047 38 38 38
20.437500000000 18.812500000000 4.020996093750 38 38 38
20.500000000000 18.812500000000 3.950988769531 35 35 35
20.312500000000 18.625000000000 5.355010986328 209 209 209
20.312500000000 18.625000000000 5.285003662109 244 244 244
20.312500000000 18.625000000000 5.212982177734 219 219 219
20.312500000000 18.625000000000 5.140991210938 243 243 243
20.312500000000 18.625000000000 4.924987792969 238 238 238
20.312500000000 18.625000000000 4.852996826172 239 239 239
20.312500000000 18.625000000000 4.783996582031 255 255 255
20.312500000000 18.625000000000 4.713989257813 21 21 21
20.437500000000 18.625000000000 4.372009277344 38 38 38
20.437500000000 18.625000000000 4.300994873047 37 37 37
20.437500000000 18.625000000000 4.231994628906 36 36 36
20.312500000000 18.562500000000 5.423004150391 217 217 217
20.312500000000 18.562500000000 5.354003906250 235 235 235
20.312500000000 18.562500000000 5.281005859375 240 240 240
20.312500000000 18.562500000000 5.208984375000 217 217 217
20.312500000000 18.562500000000 4.852996826172 255 255 255
20.312500000000 18.562500000000 4.781005859375 225 225 225
20.312500000000 18.562500000000 4.712005615234 255 255 255
20.312500000000 18.562500000000 4.640991210938 188 188 188
20.312500000000 18.375000000000 5.348999023438 40 40 40
20.312500000000 18.375000000000 5.276000976563 139 139 139
20.250000000000 18.375000000000 4.777008056641 184 184 184
20.375000000000 19.562500000000 4.674987792969 85 85 85
20.375000000000 19.562500000000 4.757995605469 183 183 183
20.375000000000 19.562500000000 4.839996337891 152 152 152
20.375000000000 19.562500000000 5.328002929688 198 198 198
20.375000000000 19.562500000000 5.412994384766 143 143 143
20.375000000000 19.375000000000 4.756011962891 164 164 164
20.375000000000 19.375000000000 4.837982177734 163 163 163
20.375000000000 19.375000000000 4.919982910156 154 154 154
20.312500000000 19.437500000000 5.160003662109 16 16 16
20.375000000000 19.375000000000 5.247009277344 154 154 154
20.375000000000 19.375000000000 5.329010009766 160 160 160
20.375000000000 19.375000000000 5.411010742188 124 124 124
20.187500000000 19.187500000000 2.024993896484 166 166 166
20.375000000000 19.250000000000 4.837005615234 163 163 163
20.375000000000 19.250000000000 4.919006347656 164 164 164
20.375000000000 19.250000000000 5.000000000000 167 167 167
20.312500000000 19.250000000000 5.076995849609 45 45 45
20.375000000000 19.250000000000 5.162994384766 154 154 154
20.375000000000 19.250000000000 5.244995117188 158 158 158
20.375000000000 19.250000000000 5.324981689453 112 112 112
20.062500000000 19.062500000000 5.592987060547 101 101 101
20.187500000000 19.000000000000 3.565002441406 22 22 22
20.187500000000 19.000000000000 3.641998291016 34 34 34
20.187500000000 19.000000000000 3.721008300781 44 44 44
20.187500000000 19.000000000000 3.800994873047 55 55 55
20.187500000000 19.000000000000 3.878997802734 60 60 60
20.187500000000 19.000000000000 3.957000732422 65 65 65
20.250000000000 19.062500000000 4.035003662109 74 74 74
20.250000000000 19.062500000000 4.113006591797 114 114 114
20.250000000000 19.062500000000 4.191986083984 120 120 120
20.250000000000 19.062500000000 4.270996093750 109 109 109
20.250000000000 19.062500000000 4.350006103516 98 98 98
20.250000000000 19.062500000000 4.428009033203 83 83 83
20.187500000000 19.000000000000 4.506011962891 83 83 83
20.187500000000 19.000000000000 4.584991455078 81 81 81
20.187500000000 19.000000000000 4.664001464844 83 83 83
20.250000000000 19.062500000000 4.743988037109 80 80 80
20.187500000000 19.000000000000 4.821990966797 68 68 68
20.312500000000 19.125000000000 4.911010742188 159 159 159
20.250000000000 19.062500000000 4.988006591797 161 161 161
20.312500000000 19.062500000000 5.074005126953 152 152 152
20.250000000000 19.062500000000 5.148010253906 169 169 169
20.250000000000 19.062500000000 5.231994628906 133 133 133
20.187500000000 19.000000000000 5.299011230469 61 61 61
20.187500000000 19.000000000000 5.381988525391 40 40 40
20.125000000000 18.937500000000 5.449005126953 100 100 100
20.125000000000 18.937500000000 5.527984619141 106 106 106
20.062500000000 18.937500000000 5.593994140625 130 130 130
20.125000000000 18.937500000000 5.691986083984 115 115 115
20.250000000000 18.875000000000 2.067993164063 121 121 121
20.250000000000 18.937500000000 2.152008056641 135 135 135
20.312500000000 18.937500000000 2.734985351563 153 153 153
20.312500000000 18.937500000000 2.819000244141 147 147 147
20.312500000000 18.937500000000 2.901000976563 151 151 151
20.312500000000 18.937500000000 2.984008789063 151 151 151
20.312500000000 18.937500000000 3.063995361328 153 153 153
20.312500000000 18.937500000000 3.148010253906 148 148 148
20.312500000000 18.937500000000 3.229003906250 129 129 129
20.312500000000 18.937500000000 3.308990478516 121 121 121
20.312500000000 18.937500000000 3.389984130859 118 118 118
20.312500000000 18.937500000000 3.470001220703 120 120 120
20.312500000000 18.937500000000 3.552001953125 123 123 123
20.312500000000 18.937500000000 3.632995605469 116 116 116
20.312500000000 18.937500000000 3.713989257813 116 116 116
20.312500000000 18.937500000000 3.791992187500 114 114 114
20.312500000000 18.937500000000 3.871002197266 117 117 117
20.312500000000 18.937500000000 3.951995849609 109 109 109
20.312500000000 18.937500000000 4.031982421875 110 110 110
20.312500000000 18.937500000000 4.111999511719 129 129 129
20.312500000000 18.937500000000 4.191986083984 116 116 116
20.312500000000 18.937500000000 4.272003173828 127 127 127
20.312500000000 18.937500000000 4.350982666016 115 115 115
20.312500000000 18.937500000000 4.430999755859 109 109 109
20.312500000000 18.937500000000 4.510986328125 104 104 104
20.312500000000 18.937500000000 4.591003417969 110 110 110
20.312500000000 18.937500000000 4.670989990234 97 97 97
20.312500000000 18.937500000000 4.751007080078 97 97 97
20.312500000000 18.937500000000 4.832000732422 93 93 93
20.312500000000 18.937500000000 4.912994384766 122 122 122
20.312500000000 18.937500000000 4.993988037109 143 143 143
20.312500000000 18.937500000000 5.075988769531 143 143 143
20.312500000000 18.937500000000 5.156982421875 144 144 144
20.312500000000 18.937500000000 5.234985351563 109 109 109
20.250000000000 18.875000000000 5.309997558594 104 104 104
20.250000000000 18.875000000000 5.385986328125 125 125 125
20.187500000000 18.812500000000 5.462005615234 99 99 99
20.250000000000 18.875000000000 5.553009033203 103 103 103
20.125000000000 18.812500000000 5.608001708984 103 103 103
20.437500000000 18.875000000000 3.947998046875 19 19 19
20.437500000000 18.875000000000 4.028991699219 28 28 28
20.437500000000 18.875000000000 4.110992431641 21 21 21
20.437500000000 18.875000000000 4.191986083984 49 49 49
20.375000000000 18.812500000000 4.273010253906 17 17 17
20.375000000000 18.812500000000 4.354003906250 19 19 19
20.437500000000 18.875000000000 4.437011718750 22 22 22
20.312500000000 18.812500000000 4.830993652344 114 114 114
20.312500000000 18.812500000000 4.912994384766 187 187 187
20.312500000000 18.812500000000 4.993988037109 199 199 199
20.312500000000 18.812500000000 5.075988769531 161 161 161
20.312500000000 18.812500000000 5.156982421875 188 188 188
20.312500000000 18.750000000000 5.239990234375 168 168 168
20.437500000000 18.875000000000 5.592987060547 52 52 52
20.437500000000 18.687500000000 4.191986083984 23 23 23
20.437500000000 18.687500000000 4.273010253906 22 22 22
20.437500000000 18.687500000000 4.434997558594 16 16 16
20.312500000000 18.625000000000 4.748992919922 139 139 139
20.312500000000 18.625000000000 4.829010009766 198 198 198
20.312500000000 18.625000000000 4.908996582031 193 193 193
20.312500000000 18.625000000000 4.988983154297 30 30 30
20.312500000000 18.625000000000 5.156005859375 159 159 159
20.312500000000 18.625000000000 5.234985351563 196 196 196
20.312500000000 18.625000000000 5.316986083984 169 169 169
20.250000000000 18.437500000000 4.666992187500 147 147 147
20.312500000000 18.562500000000 4.747985839844 160 160 160
20.312500000000 18.562500000000 4.826995849609 193 193 193
20.312500000000 18.562500000000 5.230987548828 135 135 135
20.312500000000 18.562500000000 5.313995361328 170 170 170
20.312500000000 18.562500000000 5.395996093750 166 166 166
20.250000000000 18.437500000000 5.472991943359 35 35 35
20.375000000000 19.562500000000 5.446990966797 106 106 106
20.375000000000 19.562500000000 5.364990234375 199 199 199
20.375000000000 19.562500000000 5.281982421875 168 168 168
20.375000000000 19.562500000000 4.872985839844 20 20 20
20.375000000000 19.562500000000 4.790985107422 217 217 217
20.375000000000 19.562500000000 4.708984375000 173 173 173
20.312500000000 19.437500000000 5.440002441406 34 34 34
20.312500000000 19.437500000000 5.360992431641 196 196 196
20.312500000000 19.437500000000 5.277984619141 204 204 204
20.375000000000 19.375000000000 5.196990966797 166 166 166
20.375000000000 19.375000000000 4.869995117188 187 187 187
20.375000000000 19.375000000000 4.789001464844 187 187 187
20.375000000000 19.375000000000 4.707000732422 172 172 172
20.500000000000 19.312500000000 4.304992675781 193 193 193
20.312500000000 19.250000000000 5.355987548828 82 82 82
20.312500000000 19.250000000000 5.277008056641 187 187 187
20.312500000000 19.250000000000 5.194000244141 185 185 185
20.375000000000 19.250000000000 5.113006591797 155 155 155
20.375000000000 19.250000000000 4.949981689453 180 180 180
20.312500000000 19.250000000000 4.868011474609 183 183 183
20.312500000000 19.250000000000 4.786010742188 176 176 176
20.500000000000 19.187500000000 4.470001220703 17 17 17
20.500000000000 19.187500000000 4.386993408203 19 19 19
20.500000000000 19.187500000000 4.303985595703 27 27 27
20.500000000000 19.187500000000 4.221984863281 22 22 22
20.437500000000 19.187500000000 4.139984130859 39 39 39
20.437500000000 19.187500000000 4.057983398438 36 36 36
20.250000000000 19.187500000000 5.593994140625 88 88 88
20.312500000000 19.187500000000 5.273010253906 102 102 102
20.312500000000 19.187500000000 5.191986083984 187 187 187
20.312500000000 19.187500000000 5.109985351563 189 189 189
20.312500000000 19.187500000000 5.029998779297 179 179 179
20.312500000000 19.187500000000 4.947998046875 182 182 182
20.312500000000 19.187500000000 4.867004394531 174 174 174
20.437500000000 19.062500000000 4.467987060547 17 17 17
20.437500000000 19.062500000000 4.385986328125 27 27 27
20.437500000000 19.062500000000 4.303985595703 29 29 29
20.437500000000 19.062500000000 4.221984863281 31 31 31
20.437500000000 19.062500000000 4.139984130859 63 63 63
20.437500000000 19.125000000000 4.057983398438 93 93 93
20.437500000000 19.062500000000 3.975982666016 137 137 137
20.437500000000 19.062500000000 3.893005371094 123 123 123
20.125000000000 19.125000000000 5.643005371094 139 139 139
20.250000000000 19.062500000000 5.575988769531 123 123 123
20.250000000000 19.062500000000 5.500000000000 141 141 141
20.312500000000 19.000000000000 5.432006835938 137 137 137
20.312500000000 19.000000000000 5.346984863281 98 98 98
20.312500000000 19.000000000000 5.268981933594 90 90 90
20.312500000000 19.000000000000 5.187011718750 99 99 99
20.312500000000 19.000000000000 5.105987548828 100 100 100
20.312500000000 19.000000000000 5.024993896484 97 97 97
20.312500000000 19.000000000000 4.944000244141 117 117 117
20.312500000000 19.000000000000 4.861999511719 114 114 114
20.312500000000 19.000000000000 4.782989501953 122 122 122
20.312500000000 19.000000000000 4.701995849609 122 122 122
20.312500000000 19.000000000000 4.622009277344 120 120 120
20.312500000000 19.000000000000 4.541992187500 127 127 127
20.312500000000 19.000000000000 4.462005615234 127 127 127
20.312500000000 19.000000000000 4.381988525391 129 129 129
20.312500000000 19.000000000000 4.302001953125 142 142 142
20.312500000000 19.000000000000 4.221984863281 128 128 128
20.312500000000 19.000000000000 4.141998291016 140 140 140
20.312500000000 19.000000000000 4.062011718750 139 139 139
20.312500000000 19.000000000000 3.981994628906 134 134 134
20.312500000000 19.000000000000 3.902008056641 137 137 137
20.312500000000 19.000000000000 3.821990966797 138 138 138
20.312500000000 19.000000000000 3.740997314453 139 139 139
20.312500000000 19.000000000000 3.661010742188 126 126 126
20.312500000000 19.000000000000 3.579986572266 142 142 142
20.312500000000 19.000000000000 3.500000000000 146 146 146
20.312500000000 19.000000000000 3.419006347656 151 151 151
20.312500000000 19.000000000000 3.337982177734 148 148 148
20.312500000000 19.000000000000 3.256988525391 153 153 153
20.312500000000 19.000000000000 3.174987792969 147 147 147
20.312500000000 19.000000000000 3.096008300781 123 123 123
20.312500000000 19.000000000000 3.009002685547 115 115 115
20.312500000000 19.000000000000 2.929992675781 120 120 120
20.312500000000 19.000000000000 2.846984863281 106 106 106
20.312500000000 19.000000000000 2.506011962891 99 99 99
20.125000000000 19.000000000000 5.623992919922 107 107 107
20.250000000000 18.937500000000 5.572998046875 103 103 103
20.187500000000 18.937500000000 5.488006591797 121 121 121
20.250000000000 18.937500000000 5.415008544922 86 86 86
20.250000000000 18.937500000000 5.329986572266 171 171 171
20.250000000000 18.937500000000 5.251983642578 95 95 95
20.375000000000 18.875000000000 5.188995361328 182 182 182
20.312500000000 18.875000000000 5.104003906250 184 184 184
20.250000000000 18.875000000000 5.015991210938 212 212 212
20.312500000000 18.875000000000 4.941986083984 199 199 199
20.312500000000 18.875000000000 4.863006591797 112 112 112
20.437500000000 18.812500000000 4.466003417969 18 18 18
20.437500000000 18.812500000000 4.385009765625 48 48 48
20.312500000000 18.875000000000 4.300994873047 79 79 79
20.375000000000 18.875000000000 4.221008300781 119 119 119
20.312500000000 18.875000000000 4.140991210938 109 109 109
20.437500000000 18.812500000000 4.057983398438 24 24 24
20.437500000000 18.812500000000 3.976989746094 18 18 18
20.437500000000 18.812500000000 3.894989013672 16 16 16
20.250000000000 18.750000000000 5.583984375000 29 29 29
20.312500000000 18.687500000000 5.268981933594 185 185 185
20.312500000000 18.687500000000 5.187011718750 195 195 195
20.312500000000 18.687500000000 5.104003906250 181 181 181
20.312500000000 18.687500000000 5.023010253906 163 163 163
20.312500000000 18.687500000000 4.941009521484 207 207 207
20.312500000000 18.687500000000 4.860992431641 188 188 188
20.312500000000 18.687500000000 4.781005859375 81 81 81
20.437500000000 18.625000000000 4.384002685547 20 20 20
20.437500000000 18.625000000000 4.302001953125 21 21 21
20.437500000000 18.625000000000 4.221008300781 18 18 18
20.437500000000 18.625000000000 4.139984130859 15 15 15
20.312500000000 18.625000000000 5.345001220703 179 179 179
20.312500000000 18.625000000000 5.264007568359 197 197 197
20.312500000000 18.625000000000 5.180999755859 182 182 182
20.312500000000 18.625000000000 4.937988281250 174 174 174
20.312500000000 18.625000000000 4.856994628906 197 197 197
20.312500000000 18.625000000000 4.777984619141 188 188 188
20.312500000000 18.625000000000 4.697998046875 51 51 51
20.312500000000 18.437500000000 5.425994873047 182 182 182
20.312500000000 18.437500000000 5.342987060547 186 186 186
20.250000000000 18.437500000000 5.260009765625 176 176 176
20.250000000000 18.437500000000 4.855987548828 179 179 179
20.250000000000 18.437500000000 4.774993896484 196 196 196
20.250000000000 18.437500000000 4.695007324219 186 186 186
