26.561111450195 17.680088043213 3.749000549316 136 136 136
26.576320648193 17.683664321899 3.708999633789 171 171 171
26.561111450195 17.680088043213 3.669998168945 174 174 174
26.542324066162 17.691720962524 3.632003784180 132 132 132
26.666679382324 17.640710830688 3.588005065918 94 94 94
26.651470184326 17.637134552002 3.549003601074 96 96 96
26.681890487671 17.644289016724 3.509002685547 100 100 100
26.651470184326 17.637134552002 3.469001770020 95 95 95
26.651470184326 17.637134552002 3.430000305176 95 95 95
26.647893905640 17.652343750000 3.389999389648 61 61 61
26.406337738037 17.723945617676 3.020004272461 19 19 19
26.421546936035 17.727523803711 2.980003356934 25 25 25
26.387548446655 17.735576629639 2.945999145508 41 41 41
26.406337738037 17.723945617676 2.904998779297 55 55 55
26.406337738037 17.723945617676 2.864997863770 65 65 65
26.406337738037 17.723945617676 2.826004028320 67 67 67
26.391124725342 17.720367431641 2.789001464844 75 75 75
26.391124725342 17.720367431641 2.750000000000 75 75 75
26.391124725342 17.720367431641 2.710998535156 84 84 84
26.387548446655 17.735576629639 2.674003601074 86 86 86
26.372339248657 17.732000350952 2.636001586914 88 88 88
26.372339248657 17.732000350952 2.596000671387 94 94 94
26.387548446655 17.735576629639 2.555999755859 96 96 96
26.357128143311 17.728424072266 2.519004821777 96 96 96
26.391124725342 17.720367431641 2.475997924805 100 100 100
26.391124725342 17.720367431641 2.433998107910 119 119 119
26.561111450195 17.680088043213 2.356002807617 27 27 27
26.535200119019 17.995019912720 5.368003845215 108 108 108
26.674764633179 17.947586059570 5.359001159668 133 133 133
26.712339401245 17.924320220947 5.328002929688 98 98 98
26.572774887085 17.971754074097 4.886001586914 212 212 212
26.576351165771 17.956544876099 4.846000671387 219 219 219
26.572774887085 17.971754074097 4.805000305176 215 215 215
26.572774887085 17.971754074097 4.764999389648 218 218 218
26.572774887085 17.971754074097 4.724998474121 215 215 215
26.572774887085 17.971754074097 4.683998107910 212 212 212
26.572774887085 17.971754074097 4.644004821777 213 213 213
26.576351165771 17.956544876099 4.604003906250 211 211 211
26.576351165771 17.956544876099 4.565002441406 211 211 211
26.576351165771 17.956544876099 4.524002075195 206 206 206
26.576351165771 17.956544876099 4.484001159668 174 174 174
26.712339401245 17.924320220947 4.011001586914 93 93 93
26.697130203247 17.920743942261 3.970001220703 92 92 92
26.697130203247 17.920743942261 3.929000854492 99 99 99
26.681919097900 17.917167663574 3.888999938965 95 95 95
26.644344329834 17.940433502197 3.847999572754 96 96 96
26.644344329834 17.940433502197 3.807998657227 106 106 106
26.659555435181 17.944009780884 3.767997741699 100 100 100
26.697130203247 17.920743942261 3.728004455566 117 117 117
26.663131713867 17.928798675537 3.688003540039 182 182 182
26.678340911865 17.932376861572 3.647003173828 170 170 170
26.663131713867 17.928798675537 3.607002258301 162 162 162
26.663131713867 17.928798675537 3.567001342773 121 121 121
26.659555435181 17.944009780884 3.527000427246 91 91 91
26.663131713867 17.928798675537 3.486999511719 124 124 124
26.678340911865 17.932376861572 3.445999145508 83 83 83
26.681919097900 17.917167663574 3.404998779297 97 97 97
26.599647521973 18.266998291016 5.088005065918 16 16 16
26.584438323975 18.263420104980 5.043998718262 213 213 213
26.584438323975 18.263420104980 5.002998352051 214 214 214
26.584438323975 18.263420104980 4.960998535156 217 217 217
26.599647521973 18.266998291016 4.922004699707 226 226 226
26.584438323975 18.263420104980 4.878997802734 219 219 219
26.584438323975 18.263420104980 4.839004516602 186 186 186
26.599647521973 18.266998291016 4.554000854492 147 147 147
26.599647521973 18.266998291016 4.513999938965 207 207 207
26.584438323975 18.263420104980 4.472000122070 212 212 212
26.584438323975 18.263420104980 4.431999206543 209 209 209
26.584438323975 18.263420104980 4.391998291016 211 211 211
26.584438323975 18.263420104980 4.350997924805 208 208 208
26.599647521973 18.266998291016 4.311004638672 165 165 165
26.539588928223 17.225589752197 4.281997680664 57 57 57
26.524379730225 17.222013473511 4.314002990723 180 180 180
26.539588928223 17.225589752197 4.347999572754 206 206 206
26.539588928223 17.225589752197 4.382003784180 205 205 205
26.524379730225 17.222013473511 4.415000915527 213 213 213
26.539588928223 17.225589752197 4.450004577637 201 201 201
26.539588928223 17.225589752197 4.484001159668 190 190 190
26.566432952881 17.247955322266 4.902000427246 194 194 194
26.551221847534 17.244379043579 4.934997558594 216 216 216
26.551221847534 17.244379043579 4.970001220703 217 217 217
26.566432952881 17.247955322266 5.008003234863 204 204 204
26.566432952881 17.247955322266 5.043998718262 211 211 211
26.566432952881 17.247955322266 5.078002929688 181 181 181
26.551221847534 17.244379043579 5.111000061035 113 113 113
26.665779113770 17.576293945313 3.468002319336 74 74 74
26.665779113770 17.576293945313 3.501998901367 92 92 92
26.665779113770 17.576293945313 3.536003112793 92 92 92
26.665779113770 17.576293945313 3.569999694824 96 96 96
26.665779113770 17.576293945313 3.604003906250 96 96 96
26.680988311768 17.579870223999 3.638999938965 96 96 96
26.665779113770 17.576293945313 3.673004150391 95 95 95
26.665779113770 17.576293945313 3.707000732422 95 95 95
26.665779113770 17.576293945313 3.741004943848 94 94 94
26.620147705078 17.565563201904 3.774002075195 95 95 95
26.620147705078 17.565563201904 3.807998657227 92 92 92
26.631782531738 17.584348678589 3.842002868652 92 92 92
26.631782531738 17.584348678589 3.876998901367 94 94 94
26.680988311768 17.579870223999 3.913002014160 90 90 90
26.680988311768 17.579870223999 3.946998596191 94 94 94
26.680988311768 17.579870223999 3.982002258301 91 91 91
26.665779113770 17.576293945313 4.015998840332 70 70 70
26.540519714355 17.562885284424 4.445999145508 193 193 193
26.555732727051 17.566463470459 4.482002258301 195 195 195
26.540519714355 17.562885284424 4.515998840332 206 206 206
26.540519714355 17.562885284424 4.549003601074 199 199 199
26.555732727051 17.566463470459 4.585998535156 215 215 215
26.555732727051 17.566463470459 4.620002746582 202 202 202
26.555732727051 17.566463470459 4.653999328613 202 202 202
26.570941925049 17.570039749146 4.693000793457 161 161 161
26.555732727051 17.566463470459 4.725997924805 206 206 206
26.570941925049 17.570039749146 4.762001037598 208 208 208
26.570941925049 17.570039749146 4.797004699707 206 206 206
26.570941925049 17.570039749146 4.832000732422 206 206 206
26.570941925049 17.570039749146 4.868003845215 205 205 205
26.570941925049 17.570039749146 4.902999877930 206 206 206
26.582574844360 17.588829040527 4.942001342773 97 97 97
26.597784042358 17.592405319214 5.309997558594 83 83 83
26.521734237671 17.574520111084 5.321998596191 30 30 30
26.491344451904 17.840244293213 1.682998657227 184 184 184
26.491344451904 17.840244293213 1.721000671387 186 186 186
26.476133346558 17.836666107178 1.763000488281 203 203 203
26.476133346558 17.836666107178 1.834999084473 232 232 232
26.491344451904 17.840244293213 1.869003295898 234 234 234
26.381298065186 17.830415725708 2.425003051758 62 62 62
26.381298065186 17.830415725708 2.459999084473 58 58 58
26.381298065186 17.830415725708 2.494003295898 55 55 55
26.366085052490 17.826839447021 2.528999328613 56 56 56
26.381298065186 17.830415725708 2.561004638672 56 56 56
26.396507263184 17.833992004395 2.593002319336 55 55 55
26.381298065186 17.830415725708 2.626998901367 58 58 58
26.396507263184 17.833992004395 2.661003112793 46 46 46
26.381298065186 17.830415725708 2.695999145508 43 43 43
26.381298065186 17.830415725708 2.730003356934 45 45 45
26.396507263184 17.833992004395 2.762001037598 44 44 44
26.396507263184 17.833992004395 2.794998168945 34 34 34
26.396507263184 17.833992004395 2.828002929688 35 35 35
26.411716461182 17.837570190430 2.860000610352 32 32 32
26.396507263184 17.833992004395 2.894004821777 29 29 29
26.396507263184 17.833992004395 2.928001403809 29 29 29
26.396507263184 17.833992004395 2.960998535156 21 21 21
26.411716461182 17.837570190430 2.993003845215 20 20 20
26.396507263184 17.833992004395 3.027999877930 24 24 24
26.426925659180 17.841146469116 3.058998107910 21 21 21
26.655075073242 17.894802093506 3.384002685547 85 85 85
26.670288085938 17.898380279541 3.417999267578 83 83 83
26.655075073242 17.894802093506 3.453002929688 83 83 83
26.639865875244 17.891225814819 3.486999511719 83 83 83
26.575448989868 17.892127990723 3.522003173828 115 115 115
26.514610290527 17.877819061279 3.556999206543 173 173 173
26.548606872559 17.869762420654 3.590003967285 145 145 145
26.529819488525 17.881395339966 3.624000549316 173 173 173
26.529819488525 17.881395339966 3.658004760742 170 170 170
26.545028686523 17.884971618652 3.692001342773 159 159 159
26.545028686523 17.884971618652 3.725997924805 138 138 138
26.545028686523 17.884971618652 3.760002136230 157 157 157
26.545028686523 17.884971618652 3.792999267578 169 169 169
26.529819488525 17.881395339966 3.827003479004 131 131 131
26.666709899902 17.913589477539 3.868003845215 96 96 96
26.681919097900 17.917167663574 3.902999877930 92 92 92
26.681919097900 17.917167663574 3.938003540039 93 93 93
26.681919097900 17.917167663574 3.972999572754 87 87 87
26.681919097900 17.917167663574 4.008003234863 78 78 78
26.605869293213 17.899280548096 4.487998962402 29 29 29
26.571872711182 17.907337188721 4.516998291016 203 203 203
26.560239791870 17.888549804688 4.551002502441 208 208 208
26.571872711182 17.907337188721 4.585998535156 210 210 210
26.571872711182 17.907337188721 4.621002197266 204 204 204
26.560239791870 17.888549804688 4.654998779297 198 198 198
26.560239791870 17.888549804688 4.690002441406 201 201 201
26.560239791870 17.888549804688 4.725997924805 198 198 198
26.571872711182 17.907337188721 4.762001037598 200 200 200
26.571872711182 17.907337188721 4.799003601074 200 200 200
26.571872711182 17.907337188721 4.833000183105 194 194 194
26.571872711182 17.907337188721 4.868003845215 109 109 109
26.480613708496 17.885873794556 5.166999816895 74 74 74
26.419773101807 17.871564865112 5.189002990723 110 110 110
26.416194915771 17.886775970459 5.224998474121 139 139 139
26.587081909180 17.910913467407 5.308998107910 145 145 145
26.632713317871 17.921644210815 5.361999511719 157 157 157
26.556663513184 17.903759002686 5.373001098633 148 148 148
26.355354309082 17.872467041016 5.354003906250 85 85 85
26.576379776001 18.229423522949 4.303001403809 166 166 166
26.576379776001 18.229423522949 4.336997985840 208 208 208
26.576379776001 18.229423522949 4.374000549316 214 214 214
26.576379776001 18.229423522949 4.408004760742 208 208 208
26.591590881348 18.232999801636 4.444000244141 211 211 211
26.576379776001 18.229423522949 4.479003906250 211 211 211
26.576379776001 18.229423522949 4.513999938965 207 207 207
26.606800079346 18.236576080322 4.553001403809 76 76 76
26.603223800659 18.251789093018 4.804000854492 101 101 101
26.576379776001 18.229423522949 4.834999084473 193 193 193
26.588014602661 18.248210906982 4.872001647949 213 213 213
26.588014602661 18.248210906982 4.909004211426 212 212 212
26.588014602661 18.248210906982 4.944999694824 197 197 197
26.588014602661 18.248210906982 4.982002258301 197 197 197
26.588014602661 18.248210906982 5.017997741699 197 197 197
26.588014602661 18.248210906982 5.054000854492 119 119 119
26.603223800659 18.251789093018 5.064002990723 211 211 211
26.603223800659 18.251789093018 5.024002075195 218 218 218
26.603223800659 18.251789093018 4.983001708984 216 216 216
26.603223800659 18.251789093018 4.941001892090 225 225 225
26.603223800659 18.251789093018 4.900001525879 214 214 214
26.603223800659 18.251789093018 4.859001159668 201 201 201
26.622011184692 18.240154266357 4.576004028320 200 200 200
26.606800079346 18.236576080322 4.534004211426 211 211 211
26.606800079346 18.236576080322 4.493003845215 210 210 210
26.606800079346 18.236576080322 4.452003479004 211 211 211
26.606800079346 18.236576080322 4.413002014160 215 215 215
26.606800079346 18.236576080322 4.371002197266 205 205 205
26.467205047607 18.011131286621 5.416000366211 20 20 20
26.610349655151 17.948488235474 5.409004211426 130 130 130
26.712339401245 17.924320220947 5.388000488281 137 137 137
26.746337890625 17.916265487671 5.354003906250 54 54 54
26.587984085083 17.975330352783 5.276000976563 48 48 48
26.591560363770 17.960121154785 4.951004028320 18 18 18
26.591560363770 17.960121154785 4.908004760742 213 213 213
26.576351165771 17.956544876099 4.867004394531 218 218 218
26.576351165771 17.956544876099 4.827003479004 215 215 215
26.576351165771 17.956544876099 4.786003112793 220 220 220
26.576351165771 17.956544876099 4.746002197266 214 214 214
26.591560363770 17.960121154785 4.706001281738 215 215 215
26.591560363770 17.960121154785 4.666999816895 212 212 212
26.591560363770 17.960121154785 4.626998901367 215 215 215
26.591560363770 17.960121154785 4.586997985840 212 212 212
26.591560363770 17.960121154785 4.547004699707 204 204 204
26.704284667969 17.890323638916 4.031997680664 90 90 90
26.704284667969 17.890323638916 3.992004394531 96 96 96
26.704284667969 17.890323638916 3.951004028320 93 93 93
26.700706481934 17.905534744263 3.911003112793 95 95 95
26.681919097900 17.917167663574 3.870002746582 97 97 97
26.685497283936 17.901958465576 3.830001831055 99 99 99
26.704284667969 17.890323638916 3.790000915527 98 98 98
26.704284667969 17.890323638916 3.749000549316 111 111 111
26.704284667969 17.890323638916 3.708999633789 97 97 97
26.685497283936 17.901958465576 3.668998718262 190 190 190
26.685497283936 17.901958465576 3.628997802734 145 145 145
26.704284667969 17.890323638916 3.588005065918 102 102 102
26.704284667969 17.890323638916 3.548004150391 97 97 97
26.704284667969 17.890323638916 3.507003784180 150 150 150
26.685497283936 17.901958465576 3.468002319336 131 131 131
26.704284667969 17.890323638916 3.426002502441 103 103 103
26.685497283936 17.901958465576 3.387001037598 48 48 48
26.368762969971 17.747209548950 5.392997741699 100 100 100
26.610319137573 17.675609588623 5.412002563477 146 146 146
26.647893905640 17.652343750000 5.380004882813 153 153 153
26.436756134033 17.731100082397 5.287002563477 129 129 129
26.436756134033 17.731100082397 5.250000000000 109 109 109
26.489540100098 17.711410522461 5.221000671387 19 19 19
26.489540100098 17.711410522461 5.180000305176 132 132 132
26.470752716064 17.723043441772 5.136001586914 138 138 138
26.579898834229 17.668455123901 4.916999816895 204 204 204
26.579898834229 17.668455123901 4.876998901367 208 208 208
26.595108032227 17.672031402588 4.838005065918 204 204 204
26.579898834229 17.668455123901 4.797004699707 209 209 209
26.579898834229 17.668455123901 4.756004333496 217 217 217
26.576320648193 17.683664321899 4.716003417969 220 220 220
26.579898834229 17.668455123901 4.677001953125 219 219 219
26.561111450195 17.680088043213 4.636001586914 215 215 215
26.576320648193 17.683664321899 4.596000671387 207 207 207
26.576320648193 17.683664321899 4.556999206543 215 215 215
26.561111450195 17.680088043213 4.515998840332 77 77 77
26.704254150391 17.617444992065 4.051002502441 89 89 89
26.704254150391 17.617444992065 4.010002136230 96 96 96
26.704254150391 17.617444992065 3.971000671387 97 97 97
26.685466766357 17.629077911377 3.930000305176 106 106 106
26.651470184326 17.637134552002 3.889999389648 96 96 96
26.651470184326 17.637134552002 3.850997924805 100 100 100
26.651470184326 17.637134552002 3.811004638672 105 105 105
26.670257568359 17.625499725342 3.771003723145 117 117 117
26.685466766357 17.629077911377 3.732002258301 176 176 176
26.689044952393 17.613868713379 3.692001342773 91 91 91
26.689044952393 17.613868713379 3.652000427246 91 91 91
26.689044952393 17.613868713379 3.611999511719 99 99 99
26.689044952393 17.613868713379 3.571998596191 99 99 99
26.689044952393 17.613868713379 3.531997680664 96 96 96
26.689044952393 17.613868713379 3.492004394531 86 86 86
26.673833847046 17.610290527344 3.453002929688 40 40 40
26.598655700684 17.383943557739 5.125999450684 40 40 40
26.564659118652 17.391998291016 5.083999633789 205 205 205
26.598655700684 17.383943557739 5.044998168945 213 213 213
26.598655700684 17.383943557739 5.005004882813 209 209 209
26.583446502686 17.380367279053 4.965003967285 220 220 220
26.598655700684 17.383943557739 4.926002502441 218 218 218
26.564659118652 17.391998291016 4.885002136230 205 205 205
26.564659118652 17.391998291016 4.608001708984 182 182 182
26.549448013306 17.388422012329 4.568000793457 219 219 219
26.549448013306 17.388422012329 4.528999328613 226 226 226
26.549448013306 17.388422012329 4.488998413086 216 216 216
26.549448013306 17.388422012329 4.450004577637 220 220 220
26.549448013306 17.388422012329 4.412002563477 214 214 214
26.568237304688 17.376789093018 4.373001098633 179 179 179
26.616661071777 18.399410247803 4.399002075195 116 116 116
26.620239257813 18.384199142456 4.439002990723 149 149 149
26.620239257813 18.384199142456 4.479003906250 148 148 148
26.620239257813 18.384199142456 4.966003417969 147 147 147
26.620239257813 18.384199142456 5.007003784180 177 177 177
26.620239257813 18.384199142456 5.048004150391 121 121 121
26.620239257813 18.384199142456 5.088005065918 56 56 56
26.453769683838 17.863510131836 1.696998596191 173 173 173
26.438558578491 17.859933853149 1.741004943848 171 171 171
26.438558578491 17.859933853149 1.780998229980 177 177 177
26.438558578491 17.859933853149 1.822998046875 190 190 190
26.438558578491 17.859933853149 1.864997863770 192 192 192
26.442134857178 17.844724655151 1.906997680664 201 201 201
26.730255126953 18.121149063110 3.776000976563 74 74 74
26.730255126953 18.121149063110 3.817001342773 71 71 71
26.718624114990 18.102363586426 3.857002258301 74 74 74
26.730255126953 18.121149063110 3.897003173828 73 73 73
26.730255126953 18.121149063110 3.937004089355 79 79 79
26.611249923706 18.012905120850 4.527999877930 160 160 160
26.626459121704 18.016483306885 4.568000793457 158 158 158
26.611249923706 18.012905120850 4.607002258301 161 161 161
26.611249923706 18.012905120850 4.647003173828 156 156 156
26.626459121704 18.016483306885 4.688003540039 162 162 162
26.638093948364 18.035270690918 4.731002807617 192 192 192
26.614826202393 17.997695922852 4.764999389648 145 145 145
26.611249923706 18.012905120850 4.805999755859 154 154 154
26.599617004395 17.994119644165 4.845001220703 145 145 145
26.611249923706 18.012905120850 4.886001586914 147 147 147
26.611249923706 18.012905120850 4.927001953125 147 147 147
26.626459121704 18.016483306885 4.970001220703 101 101 101
26.480613708496 17.885873794556 5.258003234863 174 174 174
26.438558578491 17.859933853149 5.285003662109 136 136 136
26.584407806396 17.990541458130 5.369003295898 175 175 175
26.584407806396 17.990541458130 5.411003112793 145 145 145
26.426925659180 17.841146469116 5.400001525879 129 129 129
26.480613708496 17.885873794556 5.456001281738 160 160 160
26.724843978882 17.734645843506 3.359001159668 31 31 31
26.724843978882 17.734645843506 3.398002624512 71 71 71
26.709634780884 17.731069564819 3.439002990723 77 77 77
26.709634780884 17.731069564819 3.479003906250 83 83 83
26.709634780884 17.731069564819 3.519004821777 89 89 89
26.698001861572 17.712280273438 3.558998107910 81 81 81
26.709634780884 17.731069564819 3.597999572754 78 78 78
26.709634780884 17.731069564819 3.637001037598 86 86 86
26.709634780884 17.731069564819 3.677001953125 110 110 110
26.698001861572 17.712280273438 3.717002868652 114 114 114
26.709634780884 17.731069564819 3.756004333496 74 74 74
26.724843978882 17.734645843506 3.794998168945 75 75 75
26.698001861572 17.712280273438 3.834999084473 76 76 76
26.698001861572 17.712280273438 3.874000549316 77 77 77
26.724843978882 17.734645843506 3.914001464844 71 71 71
26.724843978882 17.734645843506 3.954002380371 72 72 72
26.736478805542 17.753433227539 3.994003295898 71 71 71
26.724843978882 17.734645843506 4.033004760742 68 68 68
26.575420379639 17.619249343872 4.533004760742 149 149 149
26.575420379639 17.619249343872 4.571998596191 194 194 194
26.590629577637 17.622825622559 4.611000061035 187 187 187
26.590629577637 17.622825622559 4.650001525879 185 185 185
26.575420379639 17.619249343872 4.689002990723 183 183 183
26.590629577637 17.622825622559 4.729003906250 143 143 143
26.590629577637 17.622825622559 4.770004272461 157 157 157
26.602262496948 17.641613006592 4.811004638672 158 158 158
26.602262496948 17.641613006592 4.849998474121 159 159 159
26.602262496948 17.641613006592 4.890998840332 155 155 155
26.602262496948 17.641613006592 4.929000854492 156 156 156
26.763320922852 17.775798797607 5.375999450684 125 125 125
26.671159744263 17.689918518066 5.391998291016 111 111 111
26.570009231567 17.232744216919 4.388000488281 121 121 121
26.570009231567 17.232744216919 4.426002502441 150 150 150
26.570009231567 17.232744216919 4.465003967285 186 186 186
26.570009231567 17.232744216919 4.501998901367 148 148 148
26.585218429565 17.236322402954 4.542999267578 26 26 26
26.612062454224 17.258686065674 4.934997558594 50 50 50
26.600429534912 17.239898681641 4.971000671387 166 166 166
26.600429534912 17.239898681641 5.011001586914 193 193 193
26.600429534912 17.239898681641 5.052001953125 169 169 169
26.596853256226 17.255109786987 5.092002868652 153 153 153
26.612062454224 17.258686065674 5.134002685547 112 112 112
26.601449966431 18.395832061768 4.403999328613 183 183 183
26.616661071777 18.399410247803 4.440002441406 201 201 201
26.616661071777 18.399410247803 4.475997924805 167 167 167
26.616661071777 18.399410247803 4.944000244141 185 185 185
26.601449966431 18.395832061768 4.979003906250 201 201 201
26.601449966431 18.395832061768 5.015998840332 181 181 181
26.616661071777 18.399410247803 5.055000305176 77 77 77
26.688201904297 18.095209121704 3.684997558594 75 75 75
26.718624114990 18.102363586426 3.721000671387 102 102 102
26.718624114990 18.102363586426 3.756004333496 92 92 92
26.718624114990 18.102363586426 3.791000366211 89 89 89
26.718624114990 18.102363586426 3.826004028320 92 92 92
26.749042510986 18.109516143799 3.861000061035 90 90 90
26.718624114990 18.102363586426 3.897003173828 92 92 92
26.718624114990 18.102363586426 3.930999755859 92 92 92
26.718624114990 18.102363586426 3.966003417969 91 91 91
26.718624114990 18.102363586426 4.001998901367 18 18 18
26.596942901611 18.073745727539 4.445999145508 198 198 198
26.596942901611 18.073745727539 4.480003356934 209 209 209
26.596942901611 18.073745727539 4.514999389648 208 208 208
26.596942901611 18.073745727539 4.551002502441 211 211 211
26.596942901611 18.073745727539 4.585998535156 211 211 211
26.596942901611 18.073745727539 4.622001647949 211 211 211
26.596942901611 18.073745727539 4.655998229980 198 198 198
26.581733703613 18.070169448853 4.761001586914 196 196 196
26.581733703613 18.070169448853 4.795997619629 202 202 202
26.596942901611 18.073745727539 4.833000183105 200 200 200
26.596942901611 18.073745727539 4.870002746582 197 197 197
26.596942901611 18.073745727539 4.906997680664 202 202 202
26.596942901611 18.073745727539 4.941001892090 198 198 198
26.596942901611 18.073745727539 4.978004455566 170 170 170
26.436756134033 17.731100082397 1.680999755859 122 122 122
26.485963821411 17.726619720459 1.703002929688 183 183 183
26.455543518066 17.719465255737 1.750000000000 155 155 155
26.455543518066 17.719465255737 1.784004211426 160 160 160
26.455543518066 17.719465255737 1.820999145508 162 162 162
26.455543518066 17.719465255737 1.857002258301 162 162 162
26.455543518066 17.719465255737 1.891998291016 163 163 163
26.455543518066 17.719465255737 1.928001403809 169 169 169
26.467174530029 17.738254547119 1.961997985840 169 169 169
26.455543518066 17.719465255737 2.000000000000 166 166 166
26.485963821411 17.726619720459 2.450004577637 167 167 167
26.485963821411 17.726619720459 2.485000610352 167 167 167
26.501173019409 17.730197906494 2.517997741699 168 168 168
26.501173019409 17.730197906494 2.553001403809 166 166 166
26.501173019409 17.730197906494 2.588005065918 164 164 164
26.501173019409 17.730197906494 2.620002746582 166 166 166
26.501173019409 17.730197906494 2.654998779297 164 164 164
26.501173019409 17.730197906494 2.688003540039 163 163 163
26.501173019409 17.730197906494 2.722999572754 162 162 162
26.501173019409 17.730197906494 2.757003784180 165 165 165
26.501173019409 17.730197906494 2.791000366211 163 163 163
26.501173019409 17.730197906494 2.825004577637 164 164 164
26.516384124756 17.733774185181 2.858001708984 167 167 167
26.516384124756 17.733774185181 2.891998291016 167 167 167
26.516384124756 17.733774185181 2.926002502441 170 170 170
26.516384124756 17.733774185181 2.958999633789 173 173 173
26.516384124756 17.733774185181 2.993003845215 175 175 175
26.516384124756 17.733774185181 3.027000427246 181 181 181
26.531593322754 17.737350463867 3.059997558594 181 181 181
26.531593322754 17.737350463867 3.094001770020 185 185 185
26.531593322754 17.737350463867 3.127998352051 185 185 185
26.531593322754 17.737350463867 3.161003112793 188 188 188
26.531593322754 17.737350463867 3.194999694824 192 192 192
26.516384124756 17.733774185181 3.229003906250 195 195 195
26.531593322754 17.737350463867 3.262001037598 196 196 196
26.531593322754 17.737350463867 3.295997619629 201 201 201
26.531593322754 17.737350463867 3.329002380371 204 204 204
26.531593322754 17.737350463867 3.362998962402 207 207 207
26.531593322754 17.737350463867 3.396003723145 210 210 210
26.531593322754 17.737350463867 3.430000305176 221 221 221
26.531593322754 17.737350463867 3.463005065918 218 218 218
26.531593322754 17.737350463867 3.497001647949 210 210 210
26.531593322754 17.737350463867 3.529998779297 203 203 203
26.546804428101 17.740928649902 3.564002990723 201 201 201
26.531593322754 17.737350463867 3.597999572754 193 193 193
26.546804428101 17.740928649902 3.631004333496 201 201 201
26.546804428101 17.740928649902 3.665000915527 204 204 204
26.546804428101 17.740928649902 3.697998046875 193 193 193
26.546804428101 17.740928649902 3.732002258301 185 185 185
26.546804428101 17.740928649902 3.765998840332 185 185 185
26.546804428101 17.740928649902 3.800003051758 183 183 183
26.531593322754 17.737350463867 3.833000183105 193 193 193
26.546804428101 17.740928649902 3.867004394531 181 181 181
26.546804428101 17.740928649902 3.901000976563 178 178 178
26.562013626099 17.744504928589 3.934997558594 174 174 174
26.562013626099 17.744504928589 3.969001770020 177 177 177
26.546804428101 17.740928649902 4.001998901367 174 174 174
26.546804428101 17.740928649902 4.036003112793 173 173 173
26.562013626099 17.744504928589 4.070999145508 170 170 170
26.546804428101 17.740928649902 4.104003906250 167 167 167
26.546804428101 17.740928649902 4.137001037598 165 165 165
26.546804428101 17.740928649902 4.172004699707 161 161 161
26.562013626099 17.744504928589 4.207000732422 164 164 164
26.562013626099 17.744504928589 4.239997863770 156 156 156
26.546804428101 17.740928649902 4.274002075195 156 156 156
26.562013626099 17.744504928589 4.308998107910 158 158 158
26.562013626099 17.744504928589 4.343002319336 157 157 157
26.562013626099 17.744504928589 4.378997802734 155 155 155
26.562013626099 17.744504928589 4.411003112793 150 150 150
26.562013626099 17.744504928589 4.445999145508 150 150 150
26.562013626099 17.744504928589 4.482002258301 149 149 149
26.562013626099 17.744504928589 4.515998840332 150 150 150
26.577222824097 17.748081207275 4.552001953125 174 174 174
26.577222824097 17.748081207275 4.586997985840 195 195 195
26.577222824097 17.748081207275 4.621002197266 198 198 198
26.577222824097 17.748081207275 4.655998229980 196 196 196
26.577222824097 17.748081207275 4.691001892090 197 197 197
26.577222824097 17.748081207275 4.727005004883 192 192 192
26.562013626099 17.744504928589 4.760002136230 188 188 188
26.577222824097 17.748081207275 4.799003601074 194 194 194
26.577222824097 17.748081207275 4.833999633789 196 196 196
26.577222824097 17.748081207275 4.869003295898 168 168 168
26.577222824097 17.748081207275 4.903999328613 123 123 123
26.577222824097 17.748081207275 4.940002441406 123 123 123
26.577222824097 17.748081207275 4.974998474121 120 120 120
26.577222824097 17.748081207275 5.010002136230 126 126 126
26.577222824097 17.748081207275 5.044998168945 118 118 118
26.531593322754 17.737350463867 5.069999694824 149 149 149
26.485963821411 17.726619720459 5.094001770020 172 172 172
26.470752716064 17.723043441772 5.125999450684 184 184 184
26.501173019409 17.730197906494 5.167999267578 158 158 158
26.485963821411 17.726619720459 5.203002929688 116 116 116
26.470752716064 17.723043441772 5.230003356934 124 124 124
26.455543518066 17.719465255737 5.262001037598 147 147 147
26.501173019409 17.730197906494 5.315002441406 136 136 136
26.546804428101 17.740928649902 5.361999511719 155 155 155
26.470752716064 17.723043441772 5.375000000000 152 152 152
26.409914016724 17.708734512329 5.395004272461 79 79 79
26.682762145996 17.435825347900 3.752998352051 60 60 60
26.697973251343 17.439403533936 3.787002563477 90 90 90
26.682762145996 17.435825347900 3.820999145508 91 91 91
26.682762145996 17.435825347900 3.855003356934 91 91 91
26.697973251343 17.439403533936 3.889999389648 91 91 91
26.697973251343 17.439403533936 3.924003601074 83 83 83
26.682762145996 17.435825347900 3.958000183105 49 49 49
26.561082839966 17.407209396362 4.387001037598 187 187 187
26.561082839966 17.407209396362 4.420997619629 206 206 206
26.561082839966 17.407209396362 4.456001281738 208 208 208
26.561082839966 17.407209396362 4.488998413086 207 207 207
26.561082839966 17.407209396362 4.524002075195 206 206 206
26.561082839966 17.407209396362 4.557998657227 206 206 206
26.561082839966 17.407209396362 4.592002868652 204 204 204
26.591503143311 17.414363861084 4.631004333496 39 39 39
26.591503143311 17.414363861084 4.838005065918 192 192 192
26.576292037964 17.410785675049 4.873001098633 213 213 213
26.591503143311 17.414363861084 4.909004211426 198 198 198
26.576292037964 17.410785675049 4.943000793457 210 210 210
26.576292037964 17.410785675049 4.979003906250 209 209 209
26.591503143311 17.414363861084 5.014999389648 205 205 205
26.591503143311 17.414363861084 5.053001403809 195 195 195
26.606712341309 17.417940139771 5.098999023438 91 91 91
26.587924957275 17.429573059082 5.055999755859 189 189 189
26.587924957275 17.429573059082 5.015998840332 195 195 195
26.587924957275 17.429573059082 4.975997924805 191 191 191
26.587924957275 17.429573059082 4.936004638672 205 205 205
26.603134155273 17.433149337769 4.897003173828 211 211 211
26.603134155273 17.433149337769 4.857002258301 185 185 185
26.584348678589 17.444784164429 4.618003845215 147 147 147
26.569137573242 17.441207885742 4.578002929688 207 207 207
26.584348678589 17.444784164429 4.540000915527 204 204 204
26.569137573242 17.441207885742 4.500000000000 206 206 206
26.569137573242 17.441207885742 4.460998535156 205 205 205
26.569137573242 17.441207885742 4.422004699707 203 203 203
26.584348678589 17.444784164429 4.384002685547 168 168 168
26.392028808594 17.784784317017 5.408004760742 69 69 69
26.478809356689 17.757040023804 5.386001586914 140 140 140
26.648794174194 17.716760635376 5.387001037598 148 148 148
26.512805938721 17.748985290527 5.314002990723 133 133 133
26.444812774658 17.765094757080 5.260002136230 122 122 122
26.475231170654 17.772249221802 5.222000122070 100 100 100
26.494018554688 17.760616302490 5.189002990723 114 114 114
26.494018554688 17.760616302490 5.147003173828 170 170 170
26.494018554688 17.760616302490 5.107002258301 162 162 162
26.528015136719 17.752561569214 5.072998046875 83 83 83
26.614797592163 17.724815368652 4.930000305176 17 17 17
26.580799102783 17.732872009277 4.886001586914 190 190 190
26.614797592163 17.724815368652 4.847999572754 194 194 194
26.596010208130 17.736450195313 4.806999206543 194 194 194
26.580799102783 17.732872009277 4.764999389648 197 197 197
26.580799102783 17.732872009277 4.724998474121 201 201 201
26.580799102783 17.732872009277 4.686004638672 207 207 207
26.580799102783 17.732872009277 4.645004272461 204 204 204
26.580799102783 17.732872009277 4.606002807617 202 202 202
26.580799102783 17.732872009277 4.565002441406 202 202 202
26.562013626099 17.744504928589 4.525001525879 71 71 71
26.441234588623 17.780305862427 4.165000915527 19 19 19
26.441234588623 17.780305862427 4.125999450684 40 40 40
26.444812774658 17.765094757080 4.088005065918 52 52 52
26.494018554688 17.760616302490 4.051002502441 84 84 84
26.509229660034 17.764194488525 4.013000488281 108 108 108
26.494018554688 17.760616302490 3.973999023438 107 107 107
26.505653381348 17.779403686523 3.934997558594 112 112 112
26.475231170654 17.772249221802 3.896003723145 116 116 116
26.494018554688 17.760616302490 3.858001708984 133 133 133
26.505653381348 17.779403686523 3.819999694824 153 153 153
26.494018554688 17.760616302490 3.780998229980 153 153 153
26.490440368652 17.775825500488 3.743003845215 151 151 151
26.475231170654 17.772249221802 3.704002380371 160 160 160
26.475231170654 17.772249221802 3.666000366211 145 145 145
26.441234588623 17.780305862427 3.627998352051 141 141 141
26.441234588623 17.780305862427 3.590003967285 142 142 142
26.441234588623 17.780305862427 3.552001953125 142 142 142
26.441234588623 17.780305862427 3.513000488281 144 144 144
26.426023483276 17.776729583740 3.474998474121 144 144 144
26.426023483276 17.776729583740 3.437004089355 142 142 142
26.426023483276 17.776729583740 3.399002075195 137 137 137
26.422447204590 17.791938781738 3.361000061035 140 140 140
26.426023483276 17.776729583740 3.321998596191 145 145 145
26.407238006592 17.788360595703 3.285003662109 145 145 145
26.422447204590 17.791938781738 3.246002197266 153 153 153
26.407238006592 17.788360595703 3.208000183105 150 150 150
26.422447204590 17.791938781738 3.168998718262 155 155 155
26.407238006592 17.788360595703 3.131004333496 153 153 153
26.407238006592 17.788360595703 3.093002319336 156 156 156
26.422447204590 17.791938781738 3.054000854492 160 160 160
26.407238006592 17.788360595703 3.015998840332 160 160 160
26.403659820557 17.803573608398 2.978004455566 163 163 163
26.403659820557 17.803573608398 2.939002990723 166 166 166
26.403659820557 17.803573608398 2.900001525879 165 165 165
26.407238006592 17.788360595703 2.861000061035 168 168 168
26.403659820557 17.803573608398 2.822998046875 167 167 167
26.422447204590 17.791938781738 2.780998229980 167 167 167
26.403659820557 17.803573608398 2.744003295898 170 170 170
26.403659820557 17.803573608398 2.706001281738 170 170 170
26.403659820557 17.803573608398 2.666000366211 170 170 170
26.403659820557 17.803573608398 2.627998352051 171 171 171
26.403659820557 17.803573608398 2.589004516602 173 173 173
26.388450622559 17.799995422363 2.550003051758 173 173 173
26.403659820557 17.803573608398 2.510002136230 172 172 172
26.388450622559 17.799995422363 2.472000122070 176 176 176
26.388450622559 17.799995422363 2.432998657227 176 176 176
26.505680084229 18.052284240723 5.388000488281 31 31 31
26.679244995117 17.996793746948 5.387001037598 120 120 120
26.732028961182 17.977104187012 5.357002258301 106 106 106
26.611249923706 18.012905120850 4.916999816895 193 193 193
26.611249923706 18.012905120850 4.875999450684 202 202 202
26.611249923706 18.012905120850 4.836997985840 202 202 202
26.611249923706 18.012905120850 4.794998168945 203 203 203
26.611249923706 18.012905120850 4.755004882813 204 204 204
26.611249923706 18.012905120850 4.715003967285 194 194 194
26.626459121704 18.016483306885 4.676002502441 195 195 195
26.611249923706 18.012905120850 4.634002685547 193 193 193
26.611249923706 18.012905120850 4.594001770020 195 195 195
26.611249923706 18.012905120850 4.554000854492 196 196 196
26.611249923706 18.012905120850 4.513999938965 196 196 196
26.607673645020 18.028116226196 4.472999572754 51 51 51
26.747240066528 17.980682373047 4.040000915527 69 69 69
26.732028961182 17.977104187012 3.999000549316 89 89 89
26.747240066528 17.980682373047 3.958999633789 94 94 94
26.698030471802 17.985160827637 3.917999267578 97 97 97
26.679244995117 17.996793746948 3.876998901367 87 87 87
26.679244995117 17.996793746948 3.836997985840 134 134 134
26.679244995117 17.996793746948 3.797004699707 103 103 103
26.698030471802 17.985160827637 3.757003784180 105 105 105
26.713241577148 17.988739013672 3.716003417969 150 150 150
26.698030471802 17.985160827637 3.676002502441 144 144 144
26.694454193115 18.000370025635 3.636001586914 92 92 92
26.675666809082 18.012004852295 3.596000671387 36 36 36
26.660457611084 18.008426666260 3.555999755859 37 37 37
26.679244995117 17.996793746948 3.514999389648 144 144 144
26.713241577148 17.988739013672 3.472999572754 78 78 78
26.713241577148 17.988739013672 3.432998657227 17 17 17
26.619335174561 18.319780349731 5.076004028320 196 196 196
26.607704162598 18.300994873047 5.033004760742 200 200 200
26.619335174561 18.319780349731 4.992004394531 200 200 200
26.619335174561 18.319780349731 4.951004028320 208 208 208
26.604125976563 18.316204071045 4.909004211426 208 208 208
26.604125976563 18.316204071045 4.868003845215 176 176 176
26.619335174561 18.319780349731 4.542999267578 178 178 178
26.619335174561 18.319780349731 4.501998901367 194 194 194
26.619335174561 18.319780349731 4.461997985840 195 195 195
26.619335174561 18.319780349731 4.420997619629 196 196 196
26.619335174561 18.319780349731 4.381004333496 199 199 199
26.604125976563 18.316204071045 4.339004516602 193 193 193
26.638122558594 18.308149337769 4.301002502441 67 67 67
26.659524917603 17.671129226685 3.414001464844 76 76 76
26.659524917603 17.671129226685 3.454002380371 73 73 73
26.674736022949 17.674707412720 3.493003845215 74 74 74
26.674736022949 17.674707412720 3.533004760742 77 77 77
26.659524917603 17.671129226685 3.571998596191 82 82 82
26.674736022949 17.674707412720 3.611000061035 79 79 79
26.674736022949 17.674707412720 3.651000976563 79 79 79
26.659524917603 17.671129226685 3.690002441406 148 148 148
26.659524917603 17.671129226685 3.730003356934 154 154 154
26.636259078979 17.633556365967 3.770004272461 106 106 106
26.636259078979 17.633556365967 3.808998107910 76 76 76
26.636259078979 17.633556365967 3.847999572754 72 72 72
26.636259078979 17.633556365967 3.887001037598 71 71 71
26.674736022949 17.674707412720 3.927001953125 74 74 74
26.689945220947 17.678283691406 3.967002868652 76 76 76
26.689945220947 17.678283691406 4.006004333496 74 74 74
26.674736022949 17.674707412720 4.044998168945 41 41 41
26.544097900391 17.547676086426 4.463005065918 134 134 134
26.555732727051 17.566463470459 4.502998352051 180 180 180
26.555732727051 17.566463470459 4.541999816895 168 168 168
26.555732727051 17.566463470459 4.581001281738 186 186 186
26.555732727051 17.566463470459 4.621002197266 186 186 186
26.555732727051 17.566463470459 4.660003662109 148 148 148
26.570941925049 17.570039749146 4.701004028320 21 21 21
26.582574844360 17.588829040527 4.741004943848 78 78 78
26.570941925049 17.570039749146 4.778999328613 164 164 164
26.570941925049 17.570039749146 4.817001342773 195 195 195
26.570941925049 17.570039749146 4.857002258301 180 180 180
26.570941925049 17.570039749146 4.898002624512 153 153 153
26.582574844360 17.588829040527 4.939002990723 159 159 159
26.570941925049 17.570039749146 4.975997924805 108 108 108
26.713211059570 17.715858459473 5.341003417969 29 29 29
26.349973678589 17.758844375610 1.691001892090 177 177 177
26.349973678589 17.758844375610 1.733001708984 176 176 176
26.349973678589 17.758844375610 1.774002075195 178 178 178
26.349973678589 17.758844375610 1.814002990723 178 178 178
26.349973678589 17.758844375610 1.856002807617 176 176 176
26.349973678589 17.758844375610 1.899002075195 180 180 180
26.349973678589 17.758844375610 1.937004089355 180 180 180
26.361608505249 17.777629852295 2.413002014160 188 188 188
26.365184783936 17.762420654297 2.455001831055 188 188 188
26.361608505249 17.777629852295 2.493003845215 188 188 188
26.361608505249 17.777629852295 2.530998229980 189 189 189
26.361608505249 17.777629852295 2.570999145508 187 187 187
26.361608505249 17.777629852295 2.610000610352 187 187 187
26.361608505249 17.777629852295 2.649002075195 189 189 189
26.376817703247 17.781208038330 2.686004638672 188 188 188
26.361608505249 17.777629852295 2.725997924805 189 189 189
26.376817703247 17.781208038330 2.763999938965 189 189 189
26.376817703247 17.781208038330 2.802001953125 190 190 190
26.376817703247 17.781208038330 2.841003417969 187 187 187
26.376817703247 17.781208038330 2.878997802734 187 187 187
26.376817703247 17.781208038330 2.916999816895 189 189 189
26.376817703247 17.781208038330 2.955001831055 190 190 190
26.376817703247 17.781208038330 2.994003295898 188 188 188
26.376817703247 17.781208038330 3.031997680664 187 187 187
26.376817703247 17.781208038330 3.069999694824 187 187 187
26.376817703247 17.781208038330 3.108001708984 192 192 192
26.376817703247 17.781208038330 3.146003723145 191 191 191
26.376817703247 17.781208038330 3.184997558594 189 189 189
26.376817703247 17.781208038330 3.222000122070 187 187 187
26.388450622559 17.799995422363 3.260002136230 189 189 189
26.388450622559 17.799995422363 3.298004150391 192 192 192
26.388450622559 17.799995422363 3.335998535156 192 192 192
26.388450622559 17.799995422363 3.374000549316 195 195 195
26.388450622559 17.799995422363 3.411003112793 194 194 194
26.388450622559 17.799995422363 3.448997497559 196 196 196
26.388450622559 17.799995422363 3.486999511719 198 198 198
26.388450622559 17.799995422363 3.525001525879 197 197 197
26.388450622559 17.799995422363 3.563003540039 203 203 203
26.388450622559 17.799995422363 3.600997924805 207 207 207
26.388450622559 17.799995422363 3.638999938965 223 223 223
26.388450622559 17.799995422363 3.676002502441 218 218 218
26.388450622559 17.799995422363 3.714004516602 198 198 198
26.388450622559 17.799995422363 3.751998901367 192 192 192
26.403659820557 17.803573608398 3.789001464844 187 187 187
26.403659820557 17.803573608398 3.827003479004 189 189 189
26.403659820557 17.803573608398 3.864997863770 186 186 186
26.403659820557 17.803573608398 3.902999877930 185 185 185
26.403659820557 17.803573608398 3.941001892090 178 178 178
26.403659820557 17.803573608398 3.979003906250 174 174 174
26.388450622559 17.799995422363 4.015998840332 173 173 173
26.403659820557 17.803573608398 4.054000854492 175 175 175
26.403659820557 17.803573608398 4.092002868652 173 173 173
26.415292739868 17.822359085083 4.131004333496 169 169 169
26.403659820557 17.803573608398 4.167999267578 169 169 169
26.418869018555 17.807149887085 4.207000732422 170 170 170
26.418869018555 17.807149887085 4.245002746582 162 162 162
26.403659820557 17.803573608398 4.281997680664 161 161 161
26.415292739868 17.822359085083 4.320999145508 164 164 164
26.403659820557 17.803573608398 4.358001708984 162 162 162
26.415292739868 17.822359085083 4.397003173828 162 162 162
26.403659820557 17.803573608398 4.434997558594 159 159 159
26.415292739868 17.822359085083 4.473999023438 160 160 160
26.430503845215 17.825935363770 4.513000488281 156 156 156
26.403659820557 17.803573608398 4.549003601074 155 155 155
26.415292739868 17.822359085083 4.588005065918 152 152 152
26.415292739868 17.822359085083 4.627998352051 155 155 155
26.415292739868 17.822359085083 4.666000366211 153 153 153
26.415292739868 17.822359085083 4.704002380371 152 152 152
26.430503845215 17.825935363770 4.745002746582 149 149 149
26.430503845215 17.825935363770 4.784004211426 150 150 150
26.430503845215 17.825935363770 4.821998596191 149 149 149
26.426925659180 17.841146469116 4.862998962402 146 146 146
26.430503845215 17.825935363770 4.900001525879 143 143 143
26.442134857178 17.844724655151 4.941001892090 146 146 146
26.430503845215 17.825935363770 4.979003906250 146 146 146
26.442134857178 17.844724655151 5.020004272461 138 138 138
26.430503845215 17.825935363770 5.055999755859 137 137 137
26.442134857178 17.844724655151 5.098999023438 138 138 138
26.442134857178 17.844724655151 5.138999938965 137 137 137
26.403659820557 17.803573608398 5.208999633789 117 117 117
26.415292739868 17.822359085083 5.250999450684 135 135 135
26.403659820557 17.803573608398 5.286003112793 129 129 129
26.426925659180 17.841146469116 5.335998535156 119 119 119
26.403659820557 17.803573608398 5.366004943848 135 135 135
26.361608505249 17.777629852295 5.392997741699 87 87 87
26.388450622559 17.799995422363 1.961997985840 157 157 157
26.403659820557 17.803573608398 2.361999511719 162 162 162
26.593395233154 18.361835479736 4.281997680664 53 53 53
26.593395233154 18.361835479736 4.321998596191 138 138 138
26.593395233154 18.361835479736 4.362998962402 153 153 153
26.593395233154 18.361835479736 4.402000427246 155 155 155
26.593395233154 18.361835479736 4.443000793457 150 150 150
26.593395233154 18.361835479736 4.482002258301 152 152 152
26.578184127808 18.358257293701 4.522003173828 45 45 45
26.593395233154 18.361835479736 4.886001586914 87 87 87
26.593395233154 18.361835479736 4.927001953125 179 179 179
26.593395233154 18.361835479736 4.968002319336 195 195 195
26.593395233154 18.361835479736 5.011001586914 159 159 159
26.605026245117 18.380620956421 5.054000854492 148 148 148
26.593395233154 18.361835479736 5.092002868652 137 137 137
26.585218429565 17.236322402954 5.083000183105 28 28 28
26.566432952881 17.247955322266 5.043998718262 177 177 177
26.566432952881 17.247955322266 5.010002136230 207 207 207
26.566432952881 17.247955322266 4.972999572754 199 199 199
26.566432952881 17.247955322266 4.940002441406 137 137 137
26.566432952881 17.247955322266 4.524002075195 24 24 24
26.551221847534 17.244379043579 4.486999511719 204 204 204
26.551221847534 17.244379043579 4.454002380371 212 212 212
26.551221847534 17.244379043579 4.418998718262 209 209 209
26.551221847534 17.244379043579 4.386001586914 172 172 172
26.551221847534 17.244379043579 4.353004455566 109 109 109
26.582574844360 17.588829040527 4.978004455566 177 177 177
26.582574844360 17.588829040527 4.941001892090 203 203 203
26.582574844360 17.588829040527 4.908004760742 207 207 207
26.582574844360 17.588829040527 4.872001647949 202 202 202
26.582574844360 17.588829040527 4.835998535156 204 204 204
26.582574844360 17.588829040527 4.801002502441 214 214 214
26.582574844360 17.588829040527 4.765998840332 200 200 200
26.582574844360 17.588829040527 4.730003356934 90 90 90
26.567363739014 17.585250854492 4.694999694824 172 172 172
26.567363739014 17.585250854492 4.658004760742 200 200 200
26.567363739014 17.585250854492 4.624000549316 203 203 203
26.552154541016 17.581674575806 4.588005065918 205 205 205
26.552154541016 17.581674575806 4.553001403809 193 193 193
26.567363739014 17.585250854492 4.521003723145 197 197 197
26.567363739014 17.585250854492 4.485000610352 204 204 204
26.567363739014 17.585250854492 4.451004028320 115 115 115
26.689044952393 17.613868713379 4.052001953125 29 29 29
26.689044952393 17.613868713379 4.017997741699 85 85 85
26.704254150391 17.617444992065 3.984001159668 89 89 89
26.689044952393 17.613868713379 3.948997497559 89 89 89
26.673833847046 17.610290527344 3.914001464844 95 95 95
26.643413543701 17.603137969971 3.877998352051 85 85 85
26.624626159668 17.614768981934 3.843002319336 85 85 85
26.643413543701 17.603137969971 3.808998107910 93 93 93
26.673833847046 17.610290527344 3.776000976563 95 95 95
26.689044952393 17.613868713379 3.742004394531 99 99 99
26.704254150391 17.617444992065 3.708000183105 94 94 94
26.689044952393 17.613868713379 3.674003601074 85 85 85
26.685466766357 17.629077911377 3.638999938965 95 95 95
26.689044952393 17.613868713379 3.605003356934 85 85 85
26.689044952393 17.613868713379 3.570999145508 90 90 90
26.689044952393 17.613868713379 3.536003112793 92 92 92
26.673833847046 17.610290527344 3.501998901367 84 84 84
26.685466766357 17.629077911377 3.467002868652 49 49 49
26.419773101807 17.871564865112 5.442001342773 56 56 56
