24.660425186157 8.699321746826 62.686996459961 30 30 30
24.694658279419 8.706304550171 62.724998474121 30 30 30
24.728893280029 8.713287353516 62.761001586914 30 30 30
24.728893280029 8.713287353516 62.804000854492 30 30 30
24.587903976440 8.670266151428 62.875999450684 121 121 121
24.591958999634 8.685356140137 62.914001464844 96 96 96
24.587903976440 8.670266151428 62.958999633789 31 31 31
24.786323547363 8.746397018433 63.806999206543 33 33 33
24.767181396484 8.735360145569 63.848999023438 83 83 83
24.767181396484 8.735360145569 63.891998291016 124 124 124
24.732946395874 8.728377342224 63.933998107910 55 55 55
24.767181396484 8.735360145569 63.974998474121 84 84 84
24.767181396484 8.735360145569 64.015998840332 124 124 124
24.767181396484 8.735360145569 64.056999206543 146 146 146
24.786323547363 8.746397018433 64.097999572754 139 139 139
24.767181396484 8.735360145569 64.139999389648 116 116 116
24.752090454102 8.739414215088 64.181999206543 80 80 80
24.752090454102 8.739414215088 64.222999572754 76 76 76
24.767181396484 8.735360145569 64.264999389648 77 77 77
24.820558547974 8.753379821777 64.306999206543 82 82 82
24.820558547974 8.753379821777 64.347999572754 84 84 84
24.805469512939 8.757432937622 64.389999389648 83 83 83
24.668533325195 8.729501724243 64.921997070313 141 141 141
24.668533325195 8.729501724243 64.962997436523 206 206 206
24.702766418457 8.736484527588 65.004997253418 211 211 211
24.668533325195 8.729501724243 65.045997619629 209 209 209
24.702766418457 8.736484527588 65.088996887207 214 214 214
24.668533325195 8.729501724243 65.128997802734 201 201 201
24.702766418457 8.736484527588 65.172996520996 103 103 103
24.702766418457 8.736484527588 65.214996337891 206 206 206
24.702766418457 8.736484527588 65.255996704102 224 224 224
24.702766418457 8.736484527588 65.297996520996 219 219 219
24.702766418457 8.736484527588 65.338996887207 227 227 227
24.687677383423 8.740537643433 65.380996704102 225 225 225
24.668533325195 8.729501724243 65.421997070313 200 200 200
24.673030853271 8.987156867981 64.809997558594 193 193 193
24.692174911499 8.998193740845 64.850997924805 185 185 185
24.692174911499 8.998193740845 64.891998291016 208 208 208
24.692174911499 8.998193740845 64.932998657227 209 209 209
24.692174911499 8.998193740845 64.973999023438 217 217 217
24.692174911499 8.998193740845 65.014999389648 189 189 189
24.696228027344 9.013282775879 65.344001770020 87 87 87
24.696228027344 9.013282775879 65.384994506836 216 216 216
24.677083969116 9.002246856689 65.425994873047 232 232 232
24.677083969116 9.002246856689 65.466995239258 226 226 226
24.677083969116 9.002246856689 65.507995605469 229 229 229
24.677083969116 9.002246856689 65.549995422363 220 220 220
24.657941818237 8.991210937500 65.589996337891 212 212 212
24.744455337524 7.867802143097 65.416999816895 34 34 34
24.744455337524 7.867802143097 65.374000549316 83 83 83
24.773275375366 8.215996742249 65.430999755859 48 48 48
24.743093490601 8.224103927612 65.382995605469 154 154 154
24.758184432983 8.220050811768 65.340995788574 156 156 156
24.758184432983 8.220050811768 65.297996520996 153 153 153
24.743093490601 8.224103927612 65.252998352051 149 149 149
24.743093490601 8.224103927612 65.208999633789 149 149 149
24.743093490601 8.224103927612 65.080001831055 134 134 134
24.743093490601 8.224103927612 65.037994384766 160 160 160
24.743093490601 8.224103927612 64.994995117188 162 162 162
24.743093490601 8.224103927612 64.951995849609 158 158 158
24.743093490601 8.224103927612 64.908996582031 158 158 158
24.743093490601 8.224103927612 64.865997314453 136 136 136
24.730699539185 8.599550247192 65.344001770020 76 76 76
24.756824493408 8.576353073120 65.305000305176 154 154 154
24.756824493408 8.576353073120 65.262001037598 158 158 158
24.756824493408 8.576353073120 65.217994689941 142 142 142
24.749841690063 8.610586166382 65.173995971680 149 149 149
24.760879516602 8.591443061829 65.131996154785 150 150 150
24.749841690063 8.610586166382 65.088996887207 143 143 143
24.730699539185 8.599550247192 65.045997619629 147 147 147
24.734752655029 8.614640235901 65.002998352051 123 123 123
24.846239089966 8.487617492676 64.377998352051 62 62 62
24.846239089966 8.487617492676 64.334999084473 149 149 149
24.846239089966 8.487617492676 64.291999816895 93 93 93
24.846239089966 8.487617492676 64.250000000000 93 93 93
24.678443908691 8.645944595337 64.207000732422 180 180 180
24.704570770264 8.622747421265 64.166000366211 160 160 160
24.689481735229 8.626800537109 64.124000549316 143 143 143
24.689481735229 8.626800537109 64.083000183105 169 169 169
24.682497024536 8.661034584045 64.041999816895 174 174 174
24.809078216553 8.529958724976 63.994995117188 163 163 163
24.809078216553 8.529958724976 63.952995300293 85 85 85
24.831150054932 8.491670608521 63.907997131348 60 60 60
24.835205078125 8.506761550903 63.866996765137 62 62 62
24.809078216553 8.529958724976 63.825996398926 130 130 130
24.809078216553 8.529958724976 63.782997131348 97 97 97
24.835205078125 8.506761550903 63.738998413086 57 57 57
24.711317062378 9.009229660034 65.590995788574 144 144 144
24.711317062378 9.009229660034 65.547996520996 191 191 191
24.711317062378 9.009229660034 65.507995605469 180 180 180
24.722354888916 8.990085601807 65.465995788574 159 159 159
24.722354888916 8.990085601807 65.424995422363 155 155 155
24.733390808105 8.970942497253 65.384994506836 147 147 147
24.733390808105 8.970942497253 65.344001770020 60 60 60
24.733390808105 8.970942497253 65.008995056152 136 136 136
24.733390808105 8.970942497253 64.967994689941 153 153 153
24.748481750488 8.966888427734 64.926994323730 146 146 146
24.733390808105 8.970942497253 64.883995056152 155 155 155
24.733390808105 8.970942497253 64.842994689941 128 128 128
24.718301773071 8.974996566772 64.800994873047 107 107 107
24.859970092773 8.839864730835 64.351997375488 67 67 67
24.844879150391 8.843919754028 64.309997558594 72 72 72
24.844879150391 8.843919754028 64.267997741699 69 69 69
24.859970092773 8.839864730835 64.224998474121 71 71 71
24.859970092773 8.839864730835 64.182998657227 79 79 79
24.859970092773 8.839864730835 64.140998840332 77 77 77
24.844879150391 8.843919754028 64.098999023438 121 121 121
24.844879150391 8.843919754028 64.056999206543 100 100 100
24.844879150391 8.843919754028 64.014999389648 76 76 76
24.732738494873 8.065095901489 64.748001098633 181 181 181
24.732738494873 8.065095901489 64.784996032715 213 213 213
24.717649459839 8.069149971008 64.820999145508 217 217 217
24.717649459839 8.069149971008 64.858001708984 210 210 210
24.732738494873 8.065095901489 64.896995544434 218 218 218
24.717649459839 8.069149971008 64.932998657227 206 206 206
24.732738494873 8.065095901489 64.972000122070 191 191 191
24.717649459839 8.069149971008 65.236999511719 106 106 106
24.717649459839 8.069149971008 65.275001525879 196 196 196
24.717649459839 8.069149971008 65.312995910645 201 201 201
24.717649459839 8.069149971008 65.350997924805 194 194 194
24.717649459839 8.069149971008 65.389999389648 199 199 199
24.717649459839 8.069149971008 65.428001403809 196 196 196
24.717649459839 8.069149971008 65.469001770020 168 168 168
24.790615081787 8.340770721436 63.878002166748 41 41 41
24.790615081787 8.340770721436 63.915000915527 80 80 80
24.805704116821 8.336716651917 63.950996398926 87 87 87
24.805704116821 8.336716651917 63.988002777100 85 85 85
24.805704116821 8.336716651917 64.025001525879 82 82 82
24.805704116821 8.336716651917 64.061996459961 88 88 88
24.805704116821 8.336716651917 64.098999023438 83 83 83
24.760435104370 8.348876953125 64.134994506836 97 97 97
24.760435104370 8.348876953125 64.170997619629 82 82 82
24.760435104370 8.348876953125 64.208000183105 81 81 81
24.760435104370 8.348876953125 64.245994567871 91 91 91
24.805704116821 8.336716651917 64.283996582031 83 83 83
24.820795059204 8.332662582397 64.321998596191 91 91 91
24.820795059204 8.332662582397 64.359001159668 86 86 86
24.820795059204 8.332662582397 64.395996093750 24 24 24
24.700075149536 8.365092277527 64.938995361328 177 177 177
24.719217300415 8.376129150391 64.976997375488 210 210 210
24.719217300415 8.376129150391 65.014999389648 216 216 216
24.719217300415 8.376129150391 65.051994323730 206 206 206
24.719217300415 8.376129150391 65.088996887207 207 207 207
24.704128265381 8.380182266235 65.124000549316 199 199 199
24.723270416260 8.391218185425 65.162994384766 205 205 205
24.723270416260 8.391218185425 65.200996398926 198 198 198
24.704128265381 8.380182266235 65.237998962402 206 206 206
24.723270416260 8.391218185425 65.277000427246 196 196 196
24.723270416260 8.391218185425 65.314994812012 170 170 170
24.497364044189 8.694587707520 62.379997253418 172 172 172
24.667409896851 8.665088653564 62.446998596191 230 230 230
24.667409896851 8.665088653564 62.484001159668 237 237 237
24.682497024536 8.661034584045 62.513999938965 5 5 5
24.591958999634 8.685356140137 62.574996948242 120 120 120
24.591958999634 8.685356140137 62.613002777100 121 121 121
24.622137069702 8.677248954773 62.645996093750 123 123 123
24.622137069702 8.677248954773 62.681999206543 127 127 127
24.607049942017 8.681303024292 62.756996154785 118 118 118
24.622137069702 8.677248954773 62.792999267578 106 106 106
24.591958999634 8.685356140137 62.833000183105 76 76 76
24.607049942017 8.681303024292 62.866996765137 64 64 64
24.607049942017 8.681303024292 62.903999328613 24 24 24
24.803220748901 8.628604888916 63.680999755859 26 26 26
24.803220748901 8.628604888916 63.716995239258 79 79 79
24.803220748901 8.628604888916 63.753002166748 87 87 87
24.803220748901 8.628604888916 63.790000915527 85 85 85
24.803220748901 8.628604888916 63.826995849609 88 88 88
24.803220748901 8.628604888916 63.863002777100 82 82 82
24.807273864746 8.643695831299 63.900001525879 90 90 90
24.792182922363 8.647748947144 63.935997009277 127 127 127
24.803220748901 8.628604888916 63.972003936768 101 101 101
24.731822967529 8.663963317871 64.008995056152 171 171 171
24.742860794067 8.644820213318 64.044998168945 150 150 150
24.773038864136 8.636713027954 64.081001281738 134 134 134
24.773038864136 8.636713027954 64.116996765137 119 119 119
24.792182922363 8.647748947144 64.153999328613 163 163 163
24.777093887329 8.651803016663 64.189994812012 166 166 166
24.796236038208 8.662839889526 64.226997375488 155 155 155
24.822362899780 8.639641761780 64.264999389648 120 120 120
24.807273864746 8.643695831299 64.300994873047 105 105 105
24.822362899780 8.639641761780 64.337997436523 91 91 91
24.837453842163 8.635587692261 64.375999450684 86 86 86
24.837453842163 8.635587692261 64.411994934082 18 18 18
24.690605163574 8.691214561462 64.945999145508 180 180 180
24.690605163574 8.691214561462 64.983001708984 192 192 192
24.690605163574 8.691214561462 65.019996643066 190 190 190
24.690605163574 8.691214561462 65.056999206543 194 194 194
24.720785140991 8.683107376099 65.095001220703 196 196 196
24.720785140991 8.683107376099 65.131996154785 187 187 187
24.720785140991 8.683107376099 65.169998168945 195 195 195
24.735876083374 8.679054260254 65.208999633789 208 208 208
24.720785140991 8.683107376099 65.245994567871 205 205 205
24.720785140991 8.683107376099 65.281997680664 209 209 209
24.720785140991 8.683107376099 65.319000244141 207 207 207
24.705696105957 8.687160491943 65.355995178223 198 198 198
24.705696105957 8.687160491943 65.391998291016 124 124 124
24.703210830688 8.979049682617 64.769996643066 101 101 101
24.703210830688 8.979049682617 64.806999206543 179 179 179
24.703210830688 8.979049682617 64.842994689941 181 181 181
24.703210830688 8.979049682617 64.878997802734 190 190 190
24.703210830688 8.979049682617 64.916000366211 186 186 186
24.703210830688 8.979049682617 64.952995300293 201 201 201
24.703210830688 8.979049682617 64.988998413086 192 192 192
24.707263946533 8.994139671326 65.354995727539 179 179 179
24.692174911499 8.998193740845 65.388000488281 205 205 205
24.692174911499 8.998193740845 65.425994873047 213 213 213
24.692174911499 8.998193740845 65.461997985840 203 203 203
24.692174911499 8.998193740845 65.500000000000 210 210 210
24.696228027344 9.013282775879 65.534996032715 207 207 207
24.677083969116 9.002246856689 65.570999145508 191 191 191
24.693298339844 9.062606811523 65.514999389648 103 103 103
24.682264328003 9.081750869751 65.469001770020 141 141 141
24.697351455688 9.077696800232 65.429000854492 93 93 93
24.704336166382 9.043462753296 64.974998474121 139 139 139
24.704336166382 9.043462753296 64.933998107910 189 189 189
24.704336166382 9.043462753296 64.892997741699 148 148 148
24.704336166382 9.043462753296 64.850997924805 139 139 139
24.704336166382 9.043462753296 64.809997558594 90 90 90
24.852987289429 8.874099731445 64.320999145508 26 26 26
24.837898254395 8.878152847290 64.278999328613 45 45 45
24.837898254395 8.878152847290 64.236999511719 56 56 56
24.837898254395 8.878152847290 64.194999694824 43 43 43
24.837898254395 8.878152847290 64.152999877930 72 72 72
24.837898254395 8.878152847290 64.111000061035 14 14 14
24.692853927612 8.820041656494 65.507995605469 105 105 105
24.688800811768 8.804951667786 65.467994689941 157 157 157
24.714927673340 8.781754493713 65.429000854492 157 157 157
24.718980789185 8.796844482422 65.386001586914 157 157 157
24.714927673340 8.781754493713 65.344001770020 163 163 163
24.718980789185 8.796844482422 65.300994873047 154 154 154
24.714927673340 8.781754493713 65.259994506836 129 129 129
24.714927673340 8.781754493713 65.133995056152 73 73 73
24.714927673340 8.781754493713 65.090995788574 152 152 152
24.699838638306 8.785808563232 65.047996520996 156 156 156
24.714927673340 8.781754493713 65.006996154785 152 152 152
24.699838638306 8.785808563232 64.964996337891 152 152 152
24.699838638306 8.785808563232 64.922996520996 142 142 142
24.692853927612 8.820041656494 64.878997802734 28 28 28
24.841506958008 8.650678634644 64.430000305176 50 50 50
24.841506958008 8.650678634644 64.388000488281 79 79 79
24.811326980591 8.658784866333 64.345001220703 89 89 89
24.811326980591 8.658784866333 64.303001403809 87 87 87
24.774164199829 8.701126098633 64.259994506836 59 59 59
24.789255142212 8.697072982788 64.217994689941 57 57 57
24.774164199829 8.701126098633 64.176994323730 92 92 92
24.785200119019 8.681982994080 64.133995056152 138 138 138
24.785200119019 8.681982994080 64.091995239258 185 185 185
24.785200119019 8.681982994080 64.049995422363 178 178 178
24.785200119019 8.681982994080 64.007995605469 114 114 114
24.789255142212 8.697072982788 63.965995788574 15 15 15
24.796236038208 8.662839889526 63.922996520996 34 34 34
24.785200119019 8.681982994080 63.880996704102 91 91 91
24.796236038208 8.662839889526 63.837997436523 64 64 64
24.796236038208 8.662839889526 63.794998168945 71 71 71
24.785200119019 8.681982994080 63.754997253418 23 23 23
24.718538284302 8.554280281067 65.333999633789 115 115 115
24.714485168457 8.539190292358 65.292999267578 158 158 158
24.718538284302 8.554280281067 65.248001098633 141 141 141
24.718538284302 8.554280281067 65.205001831055 147 147 147
24.718538284302 8.554280281067 65.161994934082 151 151 151
24.718538284302 8.554280281067 65.119995117188 149 149 149
24.718538284302 8.554280281067 65.077995300293 149 149 149
24.703447341919 8.558334350586 65.033996582031 136 136 136
24.703447341919 8.558334350586 64.991996765137 88 88 88
24.718538284302 8.554280281067 64.949996948242 94 94 94
24.703447341919 8.558334350586 64.906997680664 92 92 92
24.703447341919 8.558334350586 64.864997863770 96 96 96
24.688356399536 8.562387466431 64.821998596191 93 93 93
24.688356399536 8.562387466431 64.779998779297 93 93 93
24.703447341919 8.558334350586 64.738998413086 104 104 104
24.688356399536 8.562387466431 64.696998596191 106 106 106
24.688356399536 8.562387466431 64.654998779297 98 98 98
24.688356399536 8.562387466431 64.612998962402 101 101 101
24.688356399536 8.562387466431 64.570999145508 102 102 102
24.688356399536 8.562387466431 64.528999328613 105 105 105
24.688356399536 8.562387466431 64.487998962402 102 102 102
24.658176422119 8.570494651794 64.445999145508 98 98 98
24.688356399536 8.562387466431 64.404998779297 119 119 119
24.688356399536 8.562387466431 64.362998962402 120 120 120
24.725519180298 8.520046234131 64.321998596191 178 178 178
24.688356399536 8.562387466431 64.279998779297 127 127 127
24.636102676392 8.608781814575 64.237998962402 153 153 153
24.658176422119 8.570494651794 64.196998596191 165 165 165
24.688356399536 8.562387466431 64.154998779297 124 124 124
24.658176422119 8.570494651794 64.113998413086 122 122 122
24.636102676392 8.608781814575 64.072998046875 166 166 166
24.688356399536 8.562387466431 64.029998779297 168 168 168
24.658176422119 8.570494651794 63.988998413086 129 129 129
24.662229537964 8.585584640503 63.947998046875 118 118 118
24.647140502930 8.589637756348 63.906997680664 128 128 128
24.688356399536 8.562387466431 63.863002777100 161 161 161
24.647140502930 8.589637756348 63.824996948242 126 126 126
24.636102676392 8.608781814575 63.784000396729 132 132 132
24.636102676392 8.608781814575 63.742996215820 127 127 127
24.636102676392 8.608781814575 63.700996398926 133 133 133
24.636102676392 8.608781814575 63.659996032715 137 137 137
24.636102676392 8.608781814575 63.617996215820 134 134 134
24.621013641357 8.612834930420 63.577995300293 139 139 139
24.621013641357 8.612834930420 63.535995483398 144 144 144
24.621013641357 8.612834930420 63.492996215820 142 142 142
24.621013641357 8.612834930420 63.452995300293 142 142 142
24.621013641357 8.612834930420 63.410995483398 142 142 142
24.621013641357 8.612834930420 63.370994567871 145 145 145
24.621013641357 8.612834930420 63.327995300293 149 149 149
24.621013641357 8.612834930420 63.286994934082 144 144 144
24.621013641357 8.612834930420 63.245994567871 140 140 140
24.601869583130 8.601799011230 63.203994750977 145 145 145
24.601869583130 8.601799011230 63.161994934082 148 148 148
24.605922698975 8.616888999939 63.120994567871 148 148 148
24.605922698975 8.616888999939 63.078994750977 148 148 148
24.601869583130 8.601799011230 63.035995483398 145 145 145
24.605922698975 8.616888999939 62.994995117188 148 148 148
24.605922698975 8.616888999939 62.952995300293 150 150 150
24.605922698975 8.616888999939 62.909996032715 146 146 146
24.590833663940 8.620943069458 62.869995117188 145 145 145
24.590833663940 8.620943069458 62.826995849609 143 143 143
24.605922698975 8.616888999939 62.782997131348 143 143 143
24.575742721558 8.624996185303 62.743995666504 146 146 146
24.575742721558 8.624996185303 62.701995849609 144 144 144
24.575742721558 8.624996185303 62.656997680664 144 144 144
24.575742721558 8.624996185303 62.615997314453 141 141 141
24.575742721558 8.624996185303 62.569999694824 140 140 140
24.575742721558 8.624996185303 62.529998779297 144 144 144
24.575742721558 8.624996185303 62.483001708984 156 156 156
24.571689605713 8.609906196594 62.438995361328 164 164 164
24.571689605713 8.609906196594 62.394001007080 149 149 149
24.575742721558 8.624996185303 62.356994628906 147 147 147
24.575742721558 8.624996185303 62.313995361328 140 140 140
24.602550506592 8.423646926880 65.591995239258 15 15 15
24.722146987915 8.326805114746 65.361000061035 135 135 135
24.669895172119 8.373199462891 65.307998657227 159 159 159
24.691967010498 8.334912300110 65.270996093750 155 155 155
24.691967010498 8.334912300110 65.230995178223 151 151 151
24.707056045532 8.330858230591 65.188995361328 155 155 155
24.691967010498 8.334912300110 65.144996643066 157 157 157
24.691967010498 8.334912300110 65.101997375488 164 164 164
24.722146987915 8.326805114746 65.060997009277 160 160 160
24.718093872070 8.311714172363 65.019996643066 159 159 159
24.703002929688 8.315769195557 64.975997924805 156 156 156
24.718093872070 8.311714172363 64.933998107910 77 77 77
24.803453445435 8.207889556885 64.342994689941 44 44 44
24.818544387817 8.203836441040 64.299995422363 67 67 67
24.818544387817 8.203836441040 64.256996154785 66 66 66
24.803453445435 8.207889556885 64.212997436523 60 60 60
24.803453445435 8.207889556885 64.169998168945 62 62 62
24.814491271973 8.188745498657 64.126998901367 69 69 69
24.803453445435 8.207889556885 64.084999084473 66 66 66
24.721702575684 8.084239959717 65.480995178223 136 136 136
24.721702575684 8.084239959717 65.436996459961 152 152 152
24.717649459839 8.069149971008 65.394996643066 152 152 152
24.717649459839 8.069149971008 65.349998474121 149 149 149
24.702558517456 8.073204040527 65.305000305176 150 150 150
24.706611633301 8.088293075562 65.261001586914 97 97 97
24.732738494873 8.065095901489 65.048995971680 19 19 19
24.717649459839 8.069149971008 65.004997253418 153 153 153
24.717649459839 8.069149971008 64.960998535156 161 161 161
24.717649459839 8.069149971008 64.917999267578 159 159 159
24.717649459839 8.069149971008 64.875000000000 154 154 154
24.702558517456 8.073204040527 64.831001281738 153 153 153
24.732738494873 8.065095901489 64.789001464844 106 106 106
24.691078186035 7.849782466888 65.428001403809 40 40 40
24.691078186035 7.849782466888 65.382995605469 69 69 69
24.699157714844 8.963959693909 64.793998718262 93 93 93
24.680013656616 8.952922821045 64.833999633789 191 191 191
24.680013656616 8.952922821045 64.875000000000 195 195 195
24.699157714844 8.963959693909 64.916000366211 207 207 207
24.699157714844 8.963959693909 64.957000732422 217 217 217
24.699157714844 8.963959693909 64.998001098633 215 215 215
24.703210830688 8.979049682617 65.039001464844 153 153 153
24.684068679810 8.968013763428 65.368995666504 148 148 148
24.684068679810 8.968013763428 65.408996582031 225 225 225
24.684068679810 8.968013763428 65.450996398926 233 233 233
24.684068679810 8.968013763428 65.492996215820 225 225 225
24.684068679810 8.968013763428 65.532997131348 223 223 223
24.684068679810 8.968013763428 65.574996948242 220 220 220
24.664922714233 8.956976890564 65.615997314453 191 191 191
24.509525299072 8.739858627319 62.291000366211 222 222 222
24.806592941284 8.821846008301 64.080001831055 84 84 84
24.806592941284 8.821846008301 64.120994567871 111 111 111
24.821683883667 8.817792892456 64.161994934082 87 87 87
24.821683883667 8.817792892456 64.203994750977 84 84 84
24.821683883667 8.817792892456 64.245994567871 85 85 85
24.821683883667 8.817792892456 64.286994934082 84 84 84
24.821683883667 8.817792892456 64.328994750977 83 83 83
24.821683883667 8.817792892456 64.369995117188 75 75 75
24.684747695923 8.789861679077 64.901000976563 176 176 176
24.684747695923 8.789861679077 64.943000793457 206 206 206
24.684747695923 8.789861679077 64.984001159668 214 214 214
24.684747695923 8.789861679077 65.027000427246 215 215 215
24.684747695923 8.789861679077 65.067001342773 217 217 217
24.684747695923 8.789861679077 65.109001159668 208 208 208
24.718980789185 8.796844482422 65.277000427246 195 195 195
24.684747695923 8.789861679077 65.318000793457 227 227 227
24.684747695923 8.789861679077 65.360000610352 227 227 227
24.684747695923 8.789861679077 65.400001525879 228 228 228
24.684747695923 8.789861679077 65.443000793457 236 236 236
24.684747695923 8.789861679077 65.483001708984 226 226 226
24.684747695923 8.789861679077 65.523994445801 113 113 113
24.529348373413 8.572744369507 62.281997680664 133 133 133
24.514259338379 8.576797485352 62.325996398926 132 132 132
24.529348373413 8.572744369507 62.366996765137 130 130 130
24.514259338379 8.576797485352 62.411994934082 126 126 126
24.514259338379 8.576797485352 62.458000183105 127 127 127
24.495115280151 8.565761566162 62.503997802734 131 131 131
24.495115280151 8.565761566162 62.546997070313 136 136 136
24.495115280151 8.565761566162 62.587997436523 135 135 135
24.495115280151 8.565761566162 62.629997253418 132 132 132
24.495115280151 8.565761566162 62.673995971680 127 127 127
24.495115280151 8.565761566162 62.713996887207 122 122 122
24.514259338379 8.576797485352 62.754997253418 127 127 127
24.495115280151 8.565761566162 62.798995971680 121 121 121
24.514259338379 8.576797485352 62.838996887207 118 118 118
24.495115280151 8.565761566162 62.882995605469 123 123 123
24.495115280151 8.565761566162 62.922996520996 127 127 127
24.495115280151 8.565761566162 62.966995239258 138 138 138
24.495115280151 8.565761566162 63.005996704102 148 148 148
24.495115280151 8.565761566162 63.047996520996 149 149 149
24.514259338379 8.576797485352 63.087997436523 147 147 147
24.495115280151 8.565761566162 63.129997253418 143 143 143
24.514259338379 8.576797485352 63.168998718262 142 142 142
24.514259338379 8.576797485352 63.208999633789 138 138 138
24.529348373413 8.572744369507 63.248001098633 132 132 132
24.544439315796 8.568690299988 63.287994384766 131 131 131
24.563583374023 8.579726219177 63.325996398926 137 137 137
24.563583374023 8.579726219177 63.367996215820 140 140 140
24.582727432251 8.590763092041 63.406997680664 144 144 144
24.582727432251 8.590763092041 63.447998046875 149 149 149
24.582727432251 8.590763092041 63.489997863770 151 151 151
24.544439315796 8.568690299988 63.532997131348 150 150 150
24.563583374023 8.579726219177 63.572998046875 149 149 149
24.544439315796 8.568690299988 63.613998413086 145 145 145
24.582727432251 8.590763092041 63.652000427246 128 128 128
24.597816467285 8.586709022522 63.690994262695 121 121 121
24.636102676392 8.608781814575 63.728996276855 137 137 137
24.636102676392 8.608781814575 63.769996643066 132 132 132
24.636102676392 8.608781814575 63.810997009277 128 128 128
24.670337677002 8.615764617920 63.850997924805 128 128 128
24.670337677002 8.615764617920 63.890998840332 121 121 121
24.723714828491 8.633783340454 63.929000854492 90 90 90
24.773038864136 8.636713027954 63.969001770020 125 125 125
24.773038864136 8.636713027954 64.011001586914 120 120 120
24.636102676392 8.608781814575 64.056999206543 179 179 179
24.651193618774 8.604728698730 64.097000122070 179 179 179
24.689481735229 8.626800537109 64.137001037598 175 175 175
24.670337677002 8.615764617920 64.179000854492 171 171 171
24.636102676392 8.608781814575 64.220001220703 178 178 178
24.773038864136 8.636713027954 64.261001586914 82 82 82
24.796236038208 8.662839889526 64.301994323730 88 88 88
24.811326980591 8.658784866333 64.344001770020 92 92 92
24.811326980591 8.658784866333 64.386001586914 81 81 81
24.811326980591 8.658784866333 64.428001403809 59 59 59
24.689481735229 8.626800537109 65.004997253418 198 198 198
24.689481735229 8.626800537109 65.046997070313 206 206 206
24.689481735229 8.626800537109 65.088996887207 201 201 201
24.689481735229 8.626800537109 65.130996704102 209 209 209
24.689481735229 8.626800537109 65.172996520996 197 197 197
24.704570770264 8.622747421265 65.216995239258 199 199 199
24.704570770264 8.622747421265 65.257995605469 208 208 208
24.704570770264 8.622747421265 65.299995422363 221 221 221
24.704570770264 8.622747421265 65.341995239258 217 217 217
24.704570770264 8.622747421265 65.383995056152 209 209 209
24.704570770264 8.622747421265 65.428001403809 18 18 18
24.792863845825 8.469598770142 63.729995727539 47 47 47
24.792863845825 8.469598770142 63.771995544434 80 80 80
24.792863845825 8.469598770142 63.813995361328 81 81 81
24.792863845825 8.469598770142 63.855995178223 88 88 88
24.728448867798 8.470723152161 63.902000427246 152 152 152
24.728448867798 8.470723152161 63.943000793457 156 156 156
24.792863845825 8.469598770142 63.983001708984 92 92 92
24.640838623047 8.445720672607 64.029998779297 169 169 169
24.640838623047 8.445720672607 64.070999145508 170 170 170
24.640838623047 8.445720672607 64.112998962402 141 141 141
24.640838623047 8.445720672607 64.153999328613 150 150 150
24.621694564819 8.434683799744 64.194999694824 177 177 177
24.655927658081 8.441666603088 64.236000061035 143 143 143
24.792863845825 8.469598770142 64.277999877930 85 85 85
24.728448867798 8.470723152161 64.319999694824 93 93 93
24.728448867798 8.470723152161 64.361000061035 158 158 158
24.675071716309 8.452703475952 64.402000427246 121 121 121
24.655927658081 8.441666603088 64.443000793457 117 117 117
24.655927658081 8.441666603088 64.484001159668 122 122 122
24.655927658081 8.441666603088 64.526000976563 120 120 120
24.655927658081 8.441666603088 64.567001342773 121 121 121
24.655927658081 8.441666603088 64.608001708984 140 140 140
24.655927658081 8.441666603088 64.650001525879 144 144 144
24.655927658081 8.441666603088 64.690994262695 151 151 151
24.675071716309 8.452703475952 64.734001159668 160 160 160
24.655927658081 8.441666603088 64.775001525879 162 162 162
24.655927658081 8.441666603088 64.815994262695 164 164 164
24.655927658081 8.441666603088 64.858001708984 162 162 162
24.655927658081 8.441666603088 64.900001525879 160 160 160
24.655927658081 8.441666603088 64.942001342773 163 163 163
24.675071716309 8.452703475952 64.984001159668 159 159 159
24.655927658081 8.441666603088 65.025001525879 157 157 157
24.655927658081 8.441666603088 65.067001342773 155 155 155
24.655927658081 8.441666603088 65.109001159668 154 154 154
24.675071716309 8.452703475952 65.152999877930 152 152 152
24.675071716309 8.452703475952 65.194000244141 149 149 149
24.655927658081 8.441666603088 65.235000610352 143 143 143
24.655927658081 8.441666603088 65.276000976563 144 144 144
24.640838623047 8.445720672607 65.317001342773 136 136 136
24.640838623047 8.445720672607 65.358001708984 134 134 134
24.621694564819 8.434683799744 65.398994445801 134 134 134
24.617639541626 8.419593811035 65.438995361328 138 138 138
24.617639541626 8.419593811035 65.481994628906 135 135 135
24.617639541626 8.419593811035 65.523994445801 133 133 133
24.621694564819 8.434683799744 65.568000793457 134 134 134
24.621694564819 8.434683799744 65.611000061035 109 109 109
24.782506942749 8.310590744019 63.917999267578 61 61 61
24.797595977783 8.306536674500 63.959999084473 78 78 78
24.797595977783 8.306536674500 64.002998352051 85 85 85
24.782506942749 8.310590744019 64.044998168945 81 81 81
24.782506942749 8.310590744019 64.087997436523 81 81 81
24.797595977783 8.306536674500 64.129997253418 85 85 85
24.778453826904 8.295499801636 64.172996520996 97 97 97
24.759309768677 8.284463882446 64.214996337891 79 79 79
24.782506942749 8.310590744019 64.257995605469 84 84 84
24.797595977783 8.306536674500 64.299995422363 81 81 81
24.812686920166 8.302482604980 64.342994689941 83 83 83
24.797595977783 8.306536674500 64.384994506836 80 80 80
24.709985733032 8.281534194946 64.930000305176 168 168 168
24.709985733032 8.281534194946 64.972000122070 216 216 216
24.690841674805 8.270498275757 65.013999938965 218 218 218
24.690841674805 8.270498275757 65.056999206543 212 212 212
24.709985733032 8.281534194946 65.099998474121 223 223 223
24.709985733032 8.281534194946 65.141998291016 203 203 203
24.690841674805 8.270498275757 65.182998657227 215 215 215
24.690841674805 8.270498275757 65.226997375488 226 226 226
24.690841674805 8.270498275757 65.268997192383 217 217 217
24.690841674805 8.270498275757 65.311996459961 227 227 227
24.690841674805 8.270498275757 65.354995727539 216 216 216
24.709985733032 8.281534194946 65.397994995117 101 101 101
24.725755691528 8.099330902100 64.791000366211 35 35 35
24.691522598267 8.092347145081 64.833000183105 202 202 202
24.691522598267 8.092347145081 64.875000000000 228 228 228
24.691522598267 8.092347145081 64.917999267578 213 213 213
24.691522598267 8.092347145081 64.960998535156 232 232 232
24.725755691528 8.099330902100 65.002998352051 219 219 219
24.725755691528 8.099330902100 65.045997619629 201 201 201
24.725755691528 8.099330902100 65.261001586914 196 196 196
24.691522598267 8.092347145081 65.303001403809 220 220 220
24.691522598267 8.092347145081 65.345001220703 224 224 224
24.691522598267 8.092347145081 65.389999389648 225 225 225
24.691522598267 8.092347145081 65.432998657227 222 222 222
24.691522598267 8.092347145081 65.475997924805 188 188 188
24.692201614380 7.914196491241 64.776000976563 154 154 154
24.692201614380 7.914196491241 64.818000793457 207 207 207
24.692201614380 7.914196491241 64.861000061035 230 230 230
24.692201614380 7.914196491241 64.903999328613 210 210 210
24.692201614380 7.914196491241 64.946998596191 137 137 137
24.692201614380 7.914196491241 65.334999084473 137 137 137
24.692201614380 7.914196491241 65.377998352051 220 220 220
24.711347579956 7.925232887268 65.422996520996 223 223 223
24.692201614380 7.914196491241 65.465995788574 220 220 220
24.692201614380 7.914196491241 65.509994506836 229 229 229
24.692201614380 7.914196491241 65.551994323730 200 200 200
24.686317443848 9.096840858459 64.865997314453 104 104 104
24.686317443848 9.096840858459 64.902000427246 173 173 173
24.686317443848 9.096840858459 64.937995910645 181 181 181
24.667173385620 9.085803985596 65.446998596191 77 77 77
24.799610137939 8.856080055237 64.069000244141 16 16 16
24.829790115356 8.847972869873 64.104995727539 111 111 111
24.799610137939 8.856080055237 64.140998840332 98 98 98
24.814699172974 8.852025985718 64.178001403809 84 84 84
24.829790115356 8.847972869873 64.213996887207 84 84 84
24.799610137939 8.856080055237 64.250000000000 88 88 88
24.799610137939 8.856080055237 64.285995483398 87 87 87
24.829790115356 8.847972869873 64.322998046875 71 71 71
24.678888320923 8.888508796692 64.817001342773 72 72 72
24.682943344116 8.903598785400 64.851997375488 184 184 184
24.713121414185 8.895491600037 64.889999389648 186 186 186
24.682943344116 8.903598785400 64.924995422363 194 194 194
24.713121414185 8.895491600037 64.961997985840 193 193 193
24.678888320923 8.888508796692 64.998001098633 203 203 203
24.713121414185 8.895491600037 65.034996032715 192 192 192
24.724159240723 8.876348495483 65.074996948242 26 26 26
24.713121414185 8.895491600037 65.292999267578 22 22 22
24.682943344116 8.903598785400 65.327995300293 186 186 186
24.682943344116 8.903598785400 65.363998413086 205 205 205
24.682943344116 8.903598785400 65.401000976563 207 207 207
24.682943344116 8.903598785400 65.438995361328 202 202 202
24.682943344116 8.903598785400 65.474998474121 216 216 216
24.682943344116 8.903598785400 65.512001037598 205 205 205
24.663799285889 8.892562866211 65.546997070313 190 190 190
24.781147003174 8.666893005371 63.756996154785 48 48 48
24.796236038208 8.662839889526 63.793998718262 83 83 83
24.781147003174 8.666893005371 63.830001831055 90 90 90
24.811326980591 8.658784866333 63.865997314453 82 82 82
24.796236038208 8.662839889526 63.902999877930 82 82 82
24.766056060791 8.670946121216 63.939998626709 75 75 75
24.796236038208 8.662839889526 63.975997924805 95 95 95
24.781147003174 8.666893005371 64.012001037598 161 161 161
24.781147003174 8.666893005371 64.047996520996 166 166 166
24.781147003174 8.666893005371 64.084999084473 162 162 162
24.781147003174 8.666893005371 64.120994567871 147 147 147
24.781147003174 8.666893005371 64.156997680664 115 115 115
24.766056060791 8.670946121216 64.193000793457 94 94 94
24.766056060791 8.670946121216 64.229995727539 86 86 86
24.766056060791 8.670946121216 64.265998840332 81 81 81
24.811326980591 8.658784866333 64.304000854492 85 85 85
24.811326980591 8.658784866333 64.340995788574 98 98 98
24.811326980591 8.658784866333 64.377998352051 93 93 93
24.811326980591 8.658784866333 64.414001464844 79 79 79
24.660425186157 8.699321746826 64.908996582031 26 26 26
24.690605163574 8.691214561462 64.948997497559 189 189 189
24.690605163574 8.691214561462 64.986999511719 195 195 195
24.690605163574 8.691214561462 65.023994445801 188 188 188
24.690605163574 8.691214561462 65.059997558594 195 195 195
24.690605163574 8.691214561462 65.097000122070 194 194 194
24.690605163574 8.691214561462 65.131996154785 187 187 187
24.705696105957 8.687160491943 65.173995971680 156 156 156
24.705696105957 8.687160491943 65.209999084473 196 196 196
24.705696105957 8.687160491943 65.247001647949 210 210 210
24.705696105957 8.687160491943 65.283996582031 202 202 202
24.705696105957 8.687160491943 65.321998596191 210 210 210
24.690605163574 8.691214561462 65.356994628906 207 207 207
24.690605163574 8.691214561462 65.393997192383 199 199 199
24.660425186157 8.699321746826 65.426994323730 138 138 138
24.581602096558 8.526349067688 62.440994262695 109 109 109
24.641962051392 8.510134696960 62.458000183105 238 238 238
24.641962051392 8.510134696960 62.495994567871 239 239 239
24.652997970581 8.490991592407 62.532997131348 255 255 255
24.562459945679 8.515312194824 62.592994689941 120 120 120
24.581602096558 8.526349067688 62.626998901367 128 128 128
24.562459945679 8.515312194824 62.667999267578 122 122 122
24.581602096558 8.526349067688 62.700996398926 126 126 126
24.581602096558 8.526349067688 62.738998413086 128 128 128
24.581602096558 8.526349067688 62.775001525879 131 131 131
24.732503890991 8.485813140869 62.779998779297 14 14 14
24.732503890991 8.485813140869 62.819999694824 9 9 9
24.611782073975 8.518241882324 62.883995056152 141 141 141
24.581602096558 8.526349067688 62.921997070313 137 137 137
24.581602096558 8.526349067688 62.958999633789 129 129 129
24.581602096558 8.526349067688 62.995994567871 134 134 134
24.581602096558 8.526349067688 63.031997680664 136 136 136
24.581602096558 8.526349067688 63.068000793457 133 133 133
24.562459945679 8.515312194824 63.106994628906 135 135 135
24.566513061523 8.530403137207 63.144001007080 140 140 140
24.551422119141 8.534456253052 63.181999206543 137 137 137
24.547369003296 8.519366264343 63.216995239258 150 150 150
24.551422119141 8.534456253052 63.253997802734 145 145 145
24.517187118530 8.527473449707 63.291000366211 149 149 149
24.551422119141 8.534456253052 63.325996398926 146 146 146
24.551422119141 8.534456253052 63.361000061035 147 147 147
24.551422119141 8.534456253052 63.396995544434 147 147 147
24.566513061523 8.530403137207 63.430999755859 148 148 148
24.566513061523 8.530403137207 63.465995788574 147 147 147
24.566513061523 8.530403137207 63.501998901367 149 149 149
24.581602096558 8.526349067688 63.535995483398 152 152 152
24.562459945679 8.515312194824 63.571998596191 151 151 151
24.562459945679 8.515312194824 63.606994628906 150 150 150
24.581602096558 8.526349067688 63.641998291016 155 155 155
24.611782073975 8.518241882324 63.676994323730 154 154 154
24.596693038940 8.522294998169 63.712997436523 151 151 151
24.611782073975 8.518241882324 63.748001098633 148 148 148
24.596693038940 8.522294998169 63.784000396729 149 149 149
24.596693038940 8.522294998169 63.819000244141 151 151 151
24.611782073975 8.518241882324 63.854995727539 153 153 153
24.581602096558 8.526349067688 63.890998840332 148 148 148
24.611782073975 8.518241882324 63.925994873047 146 146 146
24.581602096558 8.526349067688 63.961997985840 146 146 146
24.562459945679 8.515312194824 63.997001647949 140 140 140
24.566513061523 8.530403137207 64.031997680664 149 149 149
24.547369003296 8.519366264343 64.067001342773 154 154 154
24.551422119141 8.534456253052 64.102996826172 158 158 158
24.566513061523 8.530403137207 64.138000488281 155 155 155
24.547369003296 8.519366264343 64.172996520996 147 147 147
24.562459945679 8.515312194824 64.208999633789 137 137 137
24.566513061523 8.530403137207 64.243995666504 130 130 130
24.581602096558 8.526349067688 64.279998779297 130 130 130
24.581602096558 8.526349067688 64.315994262695 127 127 127
24.581602096558 8.526349067688 64.351997375488 122 122 122
24.581602096558 8.526349067688 64.387001037598 120 120 120
24.581602096558 8.526349067688 64.422996520996 120 120 120
24.611782073975 8.518241882324 64.458999633789 120 120 120
24.596693038940 8.522294998169 64.494995117188 129 129 129
24.611782073975 8.518241882324 64.530998229980 117 117 117
24.611782073975 8.518241882324 64.568000793457 114 114 114
24.611782073975 8.518241882324 64.602996826172 122 122 122
24.581602096558 8.526349067688 64.637001037598 123 123 123
24.596693038940 8.522294998169 64.672996520996 124 124 124
24.611782073975 8.518241882324 64.709999084473 130 130 130
24.611782073975 8.518241882324 64.748001098633 134 134 134
24.611782073975 8.518241882324 64.782997131348 140 140 140
24.611782073975 8.518241882324 64.819999694824 135 135 135
24.626873016357 8.514188766479 64.858001708984 130 130 130
24.641962051392 8.510134696960 64.896995544434 136 136 136
24.641962051392 8.510134696960 64.934997558594 131 131 131
24.641962051392 8.510134696960 64.971000671387 133 133 133
24.641962051392 8.510134696960 65.006996154785 146 146 146
24.672142028809 8.502027511597 65.047996520996 146 146 146
24.672142028809 8.502027511597 65.084999084473 146 146 146
24.672142028809 8.502027511597 65.123001098633 144 144 144
24.672142028809 8.502027511597 65.160995483398 142 142 142
24.687232971191 8.497974395752 65.198997497559 147 147 147
24.687232971191 8.497974395752 65.236000061035 144 144 144
24.687232971191 8.497974395752 65.275001525879 149 149 149
24.687232971191 8.497974395752 65.311996459961 149 149 149
24.702323913574 8.493920326233 65.351997375488 148 148 148
24.687232971191 8.497974395752 65.388999938965 151 151 151
24.702323913574 8.493920326233 65.429000854492 150 150 150
24.702323913574 8.493920326233 65.466995239258 155 155 155
24.702323913574 8.493920326233 65.504997253418 158 158 158
24.702323913574 8.493920326233 65.544998168945 151 151 151
24.702323913574 8.493920326233 65.582000732422 150 150 150
24.800525665283 8.257213592529 63.984001159668 56 56 56
24.796472549438 8.242122650146 64.020996093750 88 88 88
24.796472549438 8.242122650146 64.057998657227 86 86 86
24.796472549438 8.242122650146 64.095001220703 82 82 82
24.796472549438 8.242122650146 64.131996154785 83 83 83
24.796472549438 8.242122650146 64.168998718262 86 86 86
24.796472549438 8.242122650146 64.206001281738 79 79 79
24.796472549438 8.242122650146 64.242996215820 81 81 81
24.796472549438 8.242122650146 64.279998779297 86 86 86
24.796472549438 8.242122650146 64.318000793457 88 88 88
24.796472549438 8.242122650146 64.354995727539 86 86 86
24.796472549438 8.242122650146 64.391998291016 27 27 27
24.709985733032 8.281534194946 64.902999877930 139 139 139
24.690841674805 8.270498275757 64.936996459961 203 203 203
24.690841674805 8.270498275757 64.976997375488 220 220 220
24.690841674805 8.270498275757 65.013000488281 205 205 205
24.690841674805 8.270498275757 65.050994873047 217 217 217
24.709985733032 8.281534194946 65.089996337891 218 218 218
24.690841674805 8.270498275757 65.125999450684 194 194 194
24.690841674805 8.270498275757 65.161994934082 193 193 193
24.690841674805 8.270498275757 65.199996948242 203 203 203
24.690841674805 8.270498275757 65.237998962402 199 199 199
24.690841674805 8.270498275757 65.277000427246 201 201 201
24.709985733032 8.281534194946 65.315994262695 201 201 201
24.690841674805 8.270498275757 65.352996826172 188 188 188
24.702558517456 8.073204040527 64.783996582031 175 175 175
24.702558517456 8.073204040527 64.820999145508 209 209 209
24.687469482422 8.077257156372 64.858001708984 213 213 213
24.702558517456 8.073204040527 64.896995544434 204 204 204
24.717649459839 8.069149971008 64.934997558594 222 222 222
24.702558517456 8.073204040527 64.972000122070 204 204 204
24.702558517456 8.073204040527 65.008995056152 194 194 194
24.702558517456 8.073204040527 65.236999511719 110 110 110
24.687469482422 8.077257156372 65.272994995117 197 197 197
24.687469482422 8.077257156372 65.311996459961 202 202 202
24.702558517456 8.073204040527 65.350997924805 198 198 198
24.702558517456 8.073204040527 65.389999389648 200 200 200
24.702558517456 8.073204040527 65.429000854492 196 196 196
24.702558517456 8.073204040527 65.466995239258 175 175 175
24.714275360107 7.875909328461 64.812995910645 40 40 40
24.714275360107 7.875909328461 64.849998474121 179 179 179
24.695131301880 7.864872932434 64.887001037598 176 176 176
24.695131301880 7.864872932434 65.345001220703 139 139 139
24.695131301880 7.864872932434 65.383995056152 192 192 192
24.695131301880 7.864872932434 65.422996520996 195 195 195
24.695131301880 7.864872932434 65.461997985840 166 166 166
24.695131301880 7.864872932434 65.499000549316 89 89 89
24.734987258911 8.193923950195 65.428001403809 105 105 105
24.734987258911 8.193923950195 65.384994506836 143 143 143
24.734987258911 8.193923950195 65.341995239258 143 143 143
24.734987258911 8.193923950195 65.296997070313 141 141 141
24.734987258911 8.193923950195 65.252998352051 147 147 147
24.704807281494 8.202031135559 65.208000183105 131 131 131
24.719898223877 8.197977066040 65.078994750977 130 130 130
24.734987258911 8.193923950195 65.039001464844 148 148 148
24.734987258911 8.193923950195 64.994995117188 152 152 152
24.734987258911 8.193923950195 64.950996398926 148 148 148
24.723951339722 8.213068008423 64.907997131348 152 152 152
24.704807281494 8.202031135559 64.864997863770 121 121 121
24.711553573608 8.588514328003 65.340995788574 97 97 97
24.741733551025 8.580406188965 65.300994873047 148 148 148
24.741733551025 8.580406188965 65.257995605469 145 145 145
24.726644515991 8.584460258484 65.213996887207 137 137 137
24.726644515991 8.584460258484 65.171997070313 140 140 140
24.730699539185 8.599550247192 65.128997802734 140 140 140
24.715608596802 8.603603363037 65.084999084473 136 136 136
24.715608596802 8.603603363037 65.042999267578 138 138 138
24.719661712646 8.618694305420 64.999000549316 124 124 124
24.831150054932 8.491670608521 64.416000366211 25 25 25
24.835205078125 8.506761550903 64.373001098633 121 121 121
24.831150054932 8.491670608521 64.330001831055 78 78 78
24.831150054932 8.491670608521 64.286994934082 54 54 54
24.778898239136 8.538064956665 64.244995117188 75 75 75
24.704570770264 8.622747421265 64.202995300293 147 147 147
24.704570770264 8.622747421265 64.161994934082 150 150 150
24.689481735229 8.626800537109 64.119995117188 154 154 154
24.704570770264 8.622747421265 64.077995300293 145 145 145
24.689481735229 8.626800537109 64.036994934082 137 137 137
24.778898239136 8.538064956665 63.990997314453 116 116 116
24.778898239136 8.538064956665 63.947998046875 98 98 98
24.839258193970 8.521850585938 63.903999328613 52 52 52
24.809078216553 8.529958724976 63.861999511719 46 46 46
24.809078216553 8.529958724976 63.819000244141 60 60 60
24.809078216553 8.529958724976 63.777000427246 120 120 120
24.809078216553 8.529958724976 63.735000610352 50 50 50
24.685192108154 9.032426834106 65.590995788574 96 96 96
24.696228027344 9.013282775879 65.550994873047 163 163 163
24.696228027344 9.013282775879 65.508995056152 153 153 153
24.696228027344 9.013282775879 65.466995239258 146 146 146
24.696228027344 9.013282775879 65.424995422363 142 142 142
24.711317062378 9.009229660034 65.384994506836 116 116 116
24.711317062378 9.009229660034 65.008995056152 102 102 102
24.711317062378 9.009229660034 64.966995239258 146 146 146
24.711317062378 9.009229660034 64.925994873047 167 167 167
24.711317062378 9.009229660034 64.884994506836 142 142 142
24.711317062378 9.009229660034 64.844001770020 131 131 131
24.696228027344 9.013282775879 64.800994873047 111 111 111
24.837898254395 8.878152847290 64.309997558594 51 51 51
24.837898254395 8.878152847290 64.267997741699 62 62 62
24.837898254395 8.878152847290 64.225997924805 64 64 64
24.837898254395 8.878152847290 64.183998107910 61 61 61
24.837898254395 8.878152847290 64.141998291016 65 65 65
24.841951370239 8.893243789673 64.099998474121 54 54 54
24.708415985107 7.974556446075 65.533996582031 165 165 165
24.708415985107 7.974556446075 65.493995666504 196 196 196
24.708415985107 7.974556446075 65.455001831055 192 192 192
24.708415985107 7.974556446075 65.416999816895 192 192 192
24.708415985107 7.974556446075 65.376998901367 194 194 194
24.693326950073 7.978610038757 65.337997436523 191 191 191
24.708415985107 7.974556446075 65.299995422363 105 105 105
24.708415985107 7.974556446075 64.956001281738 148 148 148
24.708415985107 7.974556446075 64.918998718262 199 199 199
24.708415985107 7.974556446075 64.880996704102 214 214 214
24.693326950073 7.978610038757 64.841995239258 208 208 208
24.708415985107 7.974556446075 64.805000305176 202 202 202
24.708415985107 7.974556446075 64.766998291016 213 213 213
24.693326950073 7.978610038757 64.729995727539 189 189 189
24.722146987915 8.326805114746 65.377998352051 101 101 101
24.707056045532 8.330858230591 65.337997436523 197 197 197
