21.000000000000 13.289062500000 57.074996948242 5 5 5
21.000000000000 13.289062500000 57.110000610352 19 19 19
21.000000000000 13.296875000000 57.145004272461 19 19 19
21.000000000000 13.296875000000 57.179992675781 19 19 19
21.000000000000 13.289062500000 57.216003417969 247 247 247
21.000000000000 13.289062500000 57.250991821289 231 231 231
21.000000000000 13.296875000000 57.285003662109 225 225 225
21.000000000000 13.289062500000 57.320999145508 220 220 220
21.000000000000 13.296875000000 57.356002807617 210 210 210
21.000000000000 13.289062500000 57.391006469727 201 201 201
21.000000000000 13.289062500000 57.425994873047 193 193 193
21.000000000000 13.296875000000 57.460998535156 188 188 188
21.000000000000 13.296875000000 57.496002197266 181 181 181
21.000000000000 13.289062500000 57.531997680664 178 178 178
21.000000000000 13.296875000000 57.567001342773 175 175 175
21.000000000000 13.289062500000 57.602996826172 165 165 165
21.000000000000 13.289062500000 57.638992309570 154 154 154
21.000000000000 13.289062500000 57.673995971680 148 148 148
21.000000000000 13.289062500000 57.710006713867 141 141 141
21.000000000000 13.281250000000 57.746002197266 135 135 135
21.000000000000 13.281250000000 57.781997680664 132 132 132
21.000000000000 13.273437500000 57.819000244141 141 141 141
21.000000000000 13.273437500000 57.856002807617 150 150 150
20.968750000000 13.265625000000 57.895004272461 156 156 156
20.968750000000 13.265625000000 57.930999755859 151 151 151
20.968750000000 13.265625000000 57.968002319336 150 150 150
20.968750000000 13.257812500000 58.005004882813 150 150 150
20.968750000000 13.257812500000 58.041000366211 153 153 153
20.968750000000 13.250000000000 58.078994750977 154 154 154
20.937500000000 13.250000000000 58.117996215820 155 155 155
20.968750000000 13.250000000000 58.154006958008 142 142 142
20.968750000000 13.250000000000 58.190002441406 159 159 159
20.968750000000 13.250000000000 58.227005004883 166 166 166
20.968750000000 13.250000000000 58.263992309570 167 167 167
20.953125000000 13.242187500000 58.302001953125 165 165 165
20.937500000000 13.554687500000 57.667999267578 93 93 93
20.937500000000 13.554687500000 57.703994750977 168 168 168
20.921875000000 13.546875000000 57.740997314453 193 193 193
20.921875000000 13.546875000000 57.776992797852 176 176 176
20.937500000000 13.554687500000 57.813003540039 208 208 208
20.937500000000 13.554687500000 57.847991943359 207 207 207
20.937500000000 13.554687500000 57.886001586914 148 148 148
20.937500000000 13.562500000000 58.063995361328 168 168 168
20.937500000000 13.562500000000 58.100006103516 199 199 199
20.953125000000 13.570312500000 58.134994506836 209 209 209
20.968750000000 13.570312500000 58.169998168945 178 178 178
20.937500000000 13.562500000000 58.210006713867 176 176 176
20.937500000000 13.562500000000 58.246002197266 177 177 177
20.937500000000 13.562500000000 58.283996582031 152 152 152
20.968750000000 13.882812500000 57.716995239258 24 24 24
20.937500000000 12.632812500000 58.330001831055 75 75 75
20.906250000000 12.648437500000 58.296005249023 157 157 157
20.921875000000 12.640625000000 58.255996704102 178 178 178
20.906250000000 12.632812500000 58.218994140625 207 207 207
20.906250000000 12.632812500000 58.182006835938 189 189 189
20.906250000000 12.640625000000 58.145004272461 127 127 127
20.875000000000 12.640625000000 57.701995849609 154 154 154
20.890625000000 12.632812500000 57.662994384766 173 173 173
20.875000000000 12.640625000000 57.628005981445 144 144 144
20.937500000000 12.937500000000 58.233993530273 43 43 43
20.937500000000 12.937500000000 58.195999145508 181 181 181
20.953125000000 12.929687500000 58.156997680664 181 181 181
20.937500000000 12.937500000000 58.121002197266 183 183 183
20.937500000000 12.929687500000 58.083999633789 181 181 181
20.937500000000 12.929687500000 58.046005249023 186 186 186
20.937500000000 12.929687500000 58.009994506836 173 173 173
20.890625000000 12.953125000000 57.979995727539 16 16 16
20.921875000000 12.937500000000 57.899993896484 117 117 117
20.937500000000 12.929687500000 57.860992431641 177 177 177
20.937500000000 12.929687500000 57.824996948242 190 190 190
20.937500000000 12.929687500000 57.789001464844 190 190 190
20.937500000000 12.929687500000 57.751998901367 182 182 182
20.937500000000 12.929687500000 57.716003417969 189 189 189
20.921875000000 12.937500000000 57.679992675781 179 179 179
20.921875000000 12.937500000000 57.643005371094 106 106 106
21.109375000000 13.156250000000 58.289001464844 191 191 191
21.109375000000 13.156250000000 58.251998901367 192 192 192
21.109375000000 13.156250000000 58.216995239258 188 188 188
21.093750000000 13.148437500000 58.179992675781 189 189 189
21.093750000000 13.156250000000 58.147003173828 192 192 192
21.093750000000 13.156250000000 58.110992431641 192 192 192
21.093750000000 13.148437500000 58.072006225586 189 189 189
21.093750000000 13.156250000000 58.037002563477 188 188 188
21.062500000000 13.164062500000 58.003005981445 187 187 187
21.093750000000 13.156250000000 57.966003417969 189 189 189
21.093750000000 13.148437500000 57.929992675781 184 184 184
21.062500000000 13.156250000000 57.895004272461 186 186 186
21.062500000000 13.156250000000 57.860000610352 178 178 178
21.062500000000 13.156250000000 57.824005126953 178 178 178
21.062500000000 13.156250000000 57.787994384766 177 177 177
21.062500000000 13.164062500000 57.753997802734 174 174 174
21.062500000000 13.156250000000 57.716995239258 171 171 171
21.062500000000 13.164062500000 57.682998657227 169 169 169
21.062500000000 13.164062500000 57.647994995117 164 164 164
21.031250000000 13.171875000000 57.613006591797 163 163 163
21.031250000000 13.171875000000 57.576995849609 160 160 160
21.062500000000 13.164062500000 57.541000366211 159 159 159
21.031250000000 13.179687500000 57.507003784180 161 161 161
21.031250000000 13.179687500000 57.472000122070 161 161 161
21.015625000000 13.187500000000 57.436996459961 170 170 170
20.984375000000 13.210937500000 57.402999877930 184 184 184
20.984375000000 13.203125000000 57.367996215820 182 182 182
20.984375000000 13.203125000000 57.332000732422 178 178 178
20.968750000000 13.210937500000 57.296005249023 178 178 178
20.968750000000 13.210937500000 57.259994506836 173 173 173
20.968750000000 13.218750000000 57.225006103516 177 177 177
20.968750000000 13.218750000000 57.188995361328 174 174 174
20.953125000000 13.210937500000 57.152999877930 177 177 177
20.953125000000 13.210937500000 57.117996215820 174 174 174
20.953125000000 13.210937500000 57.082000732422 175 175 175
20.937500000000 13.218750000000 57.046005249023 171 171 171
20.937500000000 13.218750000000 57.009994506836 171 171 171
20.937500000000 13.218750000000 56.973999023438 170 170 170
20.937500000000 13.218750000000 56.938003540039 173 173 173
20.937500000000 13.218750000000 56.901992797852 172 172 172
20.921875000000 13.218750000000 56.865997314453 171 171 171
20.921875000000 13.218750000000 56.830001831055 169 169 169
20.906250000000 13.226562500000 56.792999267578 171 171 171
20.906250000000 13.226562500000 56.757003784180 173 173 173
20.906250000000 13.226562500000 56.720993041992 172 172 172
20.906250000000 13.234375000000 56.684005737305 174 174 174
20.906250000000 13.226562500000 56.647994995117 166 166 166
20.890625000000 13.226562500000 56.610992431641 166 166 166
20.890625000000 13.226562500000 56.574996948242 156 156 156
20.890625000000 13.226562500000 56.537994384766 154 154 154
20.890625000000 13.226562500000 56.501998901367 146 146 146
20.875000000000 13.234375000000 56.464004516602 144 144 144
20.875000000000 13.234375000000 56.427001953125 145 145 145
20.875000000000 13.234375000000 56.391006469727 138 138 138
20.890625000000 13.226562500000 56.356002807617 137 137 137
20.875000000000 13.226562500000 56.317001342773 131 131 131
20.875000000000 13.234375000000 56.279006958008 134 134 134
20.875000000000 13.234375000000 56.242996215820 127 127 127
20.875000000000 13.226562500000 56.207000732422 123 123 123
20.875000000000 13.226562500000 56.169998168945 116 116 116
20.875000000000 13.226562500000 56.132995605469 115 115 115
20.875000000000 13.234375000000 56.093994140625 111 111 111
20.859375000000 13.226562500000 56.057998657227 99 99 99
20.859375000000 13.226562500000 56.020996093750 95 95 95
20.859375000000 13.226562500000 55.981994628906 83 83 83
20.859375000000 13.226562500000 55.945999145508 69 69 69
20.859375000000 13.226562500000 55.906997680664 45 45 45
20.843750000000 13.234375000000 55.867996215820 18 18 18
21.000000000000 13.531250000000 58.261001586914 173 173 173
21.015625000000 13.523437500000 58.222991943359 181 181 181
21.000000000000 13.531250000000 58.188003540039 186 186 186
21.000000000000 13.531250000000 58.151000976563 185 185 185
21.000000000000 13.531250000000 58.115005493164 192 192 192
21.000000000000 13.531250000000 58.076995849609 205 205 205
21.000000000000 13.523437500000 58.039993286133 165 165 165
20.984375000000 13.531250000000 57.897003173828 170 170 170
20.968750000000 13.539062500000 57.860992431641 196 196 196
20.968750000000 13.523437500000 57.824005126953 208 208 208
20.968750000000 13.523437500000 57.787002563477 189 189 189
20.968750000000 13.523437500000 57.750991821289 206 206 206
20.968750000000 13.531250000000 57.714996337891 182 182 182
20.953125000000 13.539062500000 57.680999755859 132 132 132
21.031250000000 13.835937500000 58.276000976563 94 94 94
21.031250000000 13.820312500000 58.235992431641 157 157 157
21.000000000000 13.828125000000 57.766998291016 36 36 36
21.000000000000 13.828125000000 57.729995727539 179 179 179
21.000000000000 13.828125000000 57.694000244141 187 187 187
21.000000000000 13.828125000000 57.658996582031 141 141 141
21.031250000000 13.820312500000 58.235000610352 95 95 95
21.031250000000 13.820312500000 58.201004028320 183 183 183
21.000000000000 13.820312500000 57.725006103516 211 211 211
20.968750000000 13.820312500000 57.695999145508 244 244 244
20.968750000000 13.812500000000 57.666000366211 241 241 241
21.000000000000 13.812500000000 57.632003784180 215 215 215
20.968750000000 13.812500000000 57.600997924805 182 182 182
21.000000000000 13.531250000000 58.259994506836 148 148 148
21.000000000000 13.523437500000 58.229995727539 227 227 227
21.000000000000 13.523437500000 58.195999145508 227 227 227
21.000000000000 13.523437500000 58.164001464844 231 231 231
21.000000000000 13.515625000000 58.132995605469 229 229 229
21.000000000000 13.523437500000 58.097991943359 209 209 209
21.000000000000 13.515625000000 58.067001342773 214 214 214
21.000000000000 13.523437500000 58.033004760742 225 225 225
20.968750000000 13.523437500000 58.003997802734 174 174 174
20.968750000000 13.523437500000 57.878005981445 228 228 228
20.968750000000 13.523437500000 57.845993041992 234 234 234
20.968750000000 13.523437500000 57.811004638672 211 211 211
20.968750000000 13.523437500000 57.781997680664 241 241 241
20.968750000000 13.523437500000 57.750000000000 221 221 221
20.968750000000 13.523437500000 57.716995239258 203 203 203
20.937500000000 13.523437500000 57.688995361328 252 252 252
20.968750000000 13.523437500000 57.654006958008 215 215 215
21.109375000000 13.226562500000 58.279998779297 105 105 105
21.093750000000 13.226562500000 58.250000000000 145 145 145
21.093750000000 13.226562500000 58.220993041992 155 155 155
21.093750000000 13.218750000000 58.184997558594 154 154 154
21.093750000000 13.226562500000 58.152999877930 160 160 160
21.093750000000 13.226562500000 58.119995117188 165 165 165
21.093750000000 13.218750000000 58.087997436523 164 164 164
21.093750000000 13.226562500000 58.057006835938 171 171 171
21.093750000000 13.218750000000 58.024002075195 171 171 171
21.093750000000 13.226562500000 57.992996215820 175 175 175
21.093750000000 13.226562500000 57.960998535156 176 176 176
21.093750000000 13.226562500000 57.929000854492 181 181 181
21.093750000000 13.218750000000 57.897003173828 182 182 182
21.093750000000 13.218750000000 57.867004394531 181 181 181
21.093750000000 13.218750000000 57.835998535156 190 190 190
21.093750000000 13.218750000000 57.802993774414 192 192 192
21.093750000000 13.218750000000 57.774002075195 195 195 195
21.093750000000 13.218750000000 57.742004394531 196 196 196
21.093750000000 13.218750000000 57.708999633789 201 201 201
21.093750000000 13.218750000000 57.679000854492 204 204 204
21.093750000000 13.210937500000 57.649993896484 204 204 204
21.093750000000 13.210937500000 57.619003295898 210 210 210
21.093750000000 13.210937500000 57.587005615234 208 208 208
21.093750000000 13.210937500000 57.557006835938 212 212 212
21.062500000000 13.218750000000 57.526000976563 213 213 213
21.062500000000 13.218750000000 57.496002197266 218 218 218
21.062500000000 13.218750000000 57.466003417969 220 220 220
21.062500000000 13.218750000000 57.434997558594 220 220 220
21.062500000000 13.218750000000 57.404006958008 222 222 222
21.062500000000 13.218750000000 57.373001098633 222 222 222
21.046875000000 13.218750000000 57.343994140625 229 229 229
21.046875000000 13.218750000000 57.313003540039 226 226 226
21.046875000000 13.210937500000 57.283004760742 225 225 225
21.046875000000 13.210937500000 57.251998901367 228 228 228
21.062500000000 13.210937500000 57.220993041992 221 221 221
21.046875000000 13.210937500000 57.190994262695 224 224 224
21.046875000000 13.210937500000 57.160003662109 219 219 219
21.046875000000 13.210937500000 57.130004882813 216 216 216
21.062500000000 13.203125000000 57.098999023438 210 210 210
21.046875000000 13.210937500000 57.069000244141 211 211 211
21.046875000000 13.210937500000 57.039001464844 220 220 220
21.031250000000 13.203125000000 57.007995605469 214 214 214
21.046875000000 13.210937500000 56.977005004883 190 190 190
21.031250000000 13.203125000000 56.947006225586 183 183 183
21.031250000000 13.203125000000 56.916992187500 180 180 180
21.031250000000 13.203125000000 56.886993408203 174 174 174
21.031250000000 13.203125000000 56.856002807617 168 168 168
21.031250000000 13.203125000000 56.826004028320 163 163 163
21.031250000000 13.195312500000 56.794998168945 159 159 159
21.031250000000 13.195312500000 56.764999389648 153 153 153
21.000000000000 13.210937500000 56.733993530273 146 146 146
21.000000000000 13.210937500000 56.703994750977 144 144 144
21.000000000000 13.210937500000 56.673004150391 133 133 133
21.000000000000 13.203125000000 56.641998291016 129 129 129
21.000000000000 13.203125000000 56.611999511719 123 123 123
21.000000000000 13.203125000000 56.580993652344 124 124 124
21.000000000000 13.203125000000 56.550003051758 113 113 113
20.984375000000 13.210937500000 56.518997192383 111 111 111
20.984375000000 13.210937500000 56.488006591797 106 106 106
21.000000000000 13.203125000000 56.457992553711 95 95 95
20.984375000000 13.203125000000 56.425994873047 99 99 99
20.984375000000 13.203125000000 56.395996093750 89 89 89
20.984375000000 13.210937500000 56.365005493164 72 72 72
20.984375000000 13.203125000000 56.332992553711 65 65 65
20.968750000000 13.203125000000 56.302001953125 37 37 37
20.937500000000 12.929687500000 58.184005737305 219 219 219
20.937500000000 12.929687500000 58.151992797852 234 234 234
20.921875000000 12.937500000000 58.121994018555 248 248 248
20.937500000000 12.929687500000 58.087005615234 239 239 239
20.937500000000 12.929687500000 58.054992675781 240 240 240
20.906250000000 12.929687500000 58.024002075195 3 3 3
20.937500000000 12.929687500000 57.988998413086 236 236 236
20.906250000000 12.929687500000 57.957992553711 140 140 140
20.937500000000 12.929687500000 57.856994628906 219 219 219
20.906250000000 12.929687500000 57.826995849609 240 240 240
20.906250000000 12.929687500000 57.796005249023 246 246 246
20.906250000000 12.921875000000 57.763992309570 249 249 249
20.906250000000 12.921875000000 57.731994628906 241 241 241
20.906250000000 12.929687500000 57.701004028320 4 4 4
20.906250000000 12.921875000000 57.667999267578 246 246 246
20.906250000000 12.921875000000 57.636001586914 233 233 233
20.906250000000 12.921875000000 57.602005004883 82 82 82
20.906250000000 12.632812500000 58.311996459961 29 29 29
20.906250000000 12.632812500000 58.277999877930 200 200 200
20.906250000000 12.632812500000 58.246994018555 224 224 224
20.906250000000 12.640625000000 58.214996337891 233 233 233
20.875000000000 12.640625000000 58.186004638672 234 234 234
20.906250000000 12.640625000000 58.147994995117 236 236 236
20.906250000000 12.632812500000 58.113998413086 183 183 183
20.875000000000 12.625000000000 57.660995483398 227 227 227
20.875000000000 12.625000000000 57.630996704102 232 232 232
20.890625000000 12.625000000000 57.595993041992 201 201 201
21.031250000000 13.757812500000 58.311004638672 156 156 156
21.031250000000 13.750000000000 58.272994995117 175 175 175
21.031250000000 13.750000000000 58.236999511719 180 180 180
21.031250000000 13.750000000000 58.201004028320 179 179 179
21.031250000000 13.750000000000 58.164001464844 152 152 152
20.968750000000 13.757812500000 57.768997192383 80 80 80
20.984375000000 13.750000000000 57.731002807617 180 180 180
20.984375000000 13.750000000000 57.697006225586 190 190 190
20.984375000000 13.750000000000 57.660003662109 192 192 192
20.968750000000 13.757812500000 57.625000000000 179 179 179
20.968750000000 13.757812500000 57.589004516602 182 182 182
20.968750000000 13.750000000000 57.552993774414 166 166 166
21.000000000000 13.476562500000 58.229995727539 110 110 110
21.000000000000 13.468750000000 58.190002441406 179 179 179
21.000000000000 13.468750000000 58.154006958008 181 181 181
20.984375000000 13.468750000000 58.117996215820 186 186 186
20.984375000000 13.468750000000 58.082992553711 199 199 199
20.984375000000 13.468750000000 58.044998168945 193 193 193
20.984375000000 13.468750000000 58.007995605469 190 190 190
20.984375000000 13.468750000000 57.972000122070 131 131 131
20.953125000000 13.484375000000 57.902999877930 155 155 155
20.968750000000 13.476562500000 57.865005493164 179 179 179
20.968750000000 13.476562500000 57.828002929688 206 206 206
20.968750000000 13.476562500000 57.792999267578 189 189 189
20.953125000000 13.484375000000 57.757995605469 199 199 199
20.937500000000 13.476562500000 57.720993041992 188 188 188
20.937500000000 13.476562500000 57.686004638672 148 148 148
21.062500000000 13.132812500000 58.302001953125 19 19 19
21.062500000000 13.125000000000 58.264999389648 155 155 155
21.062500000000 13.132812500000 58.229995727539 155 155 155
21.062500000000 13.132812500000 58.194000244141 158 158 158
21.046875000000 13.140625000000 58.160995483398 163 163 163
21.031250000000 13.148437500000 58.125991821289 162 162 162
21.031250000000 13.148437500000 58.091995239258 169 169 169
21.000000000000 13.148437500000 58.057998657227 172 172 172
21.000000000000 13.148437500000 58.020996093750 171 171 171
21.000000000000 13.156250000000 57.986999511719 174 174 174
21.000000000000 13.156250000000 57.949996948242 177 177 177
20.984375000000 13.171875000000 57.916000366211 178 178 178
20.984375000000 13.164062500000 57.880004882813 181 181 181
20.984375000000 13.164062500000 57.843994140625 186 186 186
20.968750000000 13.171875000000 57.809005737305 190 190 190
20.968750000000 13.171875000000 57.772003173828 185 185 185
20.968750000000 13.179687500000 57.738006591797 190 190 190
20.968750000000 13.164062500000 57.699996948242 188 188 188
20.953125000000 13.171875000000 57.666000366211 193 193 193
20.953125000000 13.171875000000 57.630004882813 191 191 191
20.937500000000 13.179687500000 57.595001220703 190 190 190
20.953125000000 13.171875000000 57.557998657227 182 182 182
20.937500000000 13.179687500000 57.522003173828 178 178 178
20.937500000000 13.179687500000 57.485992431641 174 174 174
20.937500000000 13.179687500000 57.451004028320 173 173 173
20.937500000000 13.179687500000 57.414001464844 180 180 180
20.937500000000 13.179687500000 57.378005981445 172 172 172
20.937500000000 13.171875000000 57.341995239258 162 162 162
20.906250000000 13.179687500000 57.307006835938 156 156 156
20.906250000000 13.179687500000 57.270996093750 152 152 152
20.906250000000 13.179687500000 57.235000610352 141 141 141
20.906250000000 13.179687500000 57.199005126953 135 135 135
20.906250000000 13.171875000000 57.162994384766 132 132 132
20.906250000000 13.171875000000 57.126998901367 117 117 117
20.906250000000 13.179687500000 57.091003417969 91 91 91
20.906250000000 13.171875000000 57.054992675781 39 39 39
20.921875000000 12.914062500000 58.201995849609 139 139 139
20.921875000000 12.914062500000 58.164993286133 177 177 177
20.937500000000 12.906250000000 58.126998901367 185 185 185
20.937500000000 12.906250000000 58.089996337891 182 182 182
20.906250000000 12.906250000000 58.052993774414 183 183 183
20.906250000000 12.906250000000 58.016998291016 184 184 184
20.906250000000 12.906250000000 57.981002807617 156 156 156
20.906250000000 12.898437500000 57.869995117188 71 71 71
20.906250000000 12.898437500000 57.832000732422 179 179 179
20.906250000000 12.898437500000 57.794998168945 187 187 187
20.906250000000 12.898437500000 57.759002685547 190 190 190
20.906250000000 12.898437500000 57.722991943359 181 181 181
20.906250000000 12.890625000000 57.686004638672 189 189 189
20.906250000000 12.890625000000 57.649993896484 183 183 183
20.906250000000 12.890625000000 57.613006591797 149 149 149
20.906250000000 12.640625000000 58.302993774414 109 109 109
20.906250000000 12.640625000000 58.264999389648 157 157 157
20.906250000000 12.632812500000 58.225006103516 182 182 182
20.906250000000 12.625000000000 58.188995361328 208 208 208
20.906250000000 12.625000000000 58.151000976563 187 187 187
20.890625000000 12.632812500000 58.115997314453 111 111 111
20.875000000000 12.617187500000 57.673004150391 140 140 140
20.875000000000 12.609375000000 57.634994506836 166 166 166
20.875000000000 12.617187500000 57.600006103516 114 114 114
20.937500000000 13.429687500000 57.722991943359 160 160 160
20.937500000000 13.429687500000 57.759002685547 191 191 191
20.968750000000 13.421875000000 57.794006347656 207 207 207
20.968750000000 13.421875000000 57.830001831055 186 186 186
20.968750000000 13.429687500000 57.865005493164 211 211 211
20.968750000000 13.429687500000 57.901000976563 181 181 181
20.953125000000 13.421875000000 57.940002441406 139 139 139
20.984375000000 13.429687500000 57.972000122070 173 173 173
20.984375000000 13.429687500000 58.009002685547 196 196 196
20.984375000000 13.429687500000 58.044006347656 204 204 204
20.984375000000 13.429687500000 58.080993652344 173 173 173
20.968750000000 13.421875000000 58.119003295898 175 175 175
20.984375000000 13.429687500000 58.154006958008 176 176 176
20.984375000000 13.437500000000 58.190002441406 92 92 92
21.015625000000 13.187500000000 56.807006835938 17 17 17
21.031250000000 13.187500000000 56.841995239258 33 33 33
21.015625000000 13.187500000000 56.876998901367 48 48 48
21.031250000000 13.187500000000 56.912002563477 60 60 60
21.031250000000 13.187500000000 56.947006225586 67 67 67
21.031250000000 13.187500000000 56.981994628906 73 73 73
21.031250000000 13.187500000000 57.016998291016 78 78 78
21.031250000000 13.195312500000 57.052001953125 81 81 81
21.031250000000 13.195312500000 57.087005615234 89 89 89
21.031250000000 13.187500000000 57.121994018555 94 94 94
21.031250000000 13.195312500000 57.156997680664 95 95 95
21.062500000000 13.195312500000 57.190994262695 100 100 100
21.031250000000 13.187500000000 57.227005004883 100 100 100
21.062500000000 13.195312500000 57.261001586914 102 102 102
21.062500000000 13.203125000000 57.296005249023 109 109 109
21.062500000000 13.187500000000 57.332000732422 115 115 115
21.062500000000 13.195312500000 57.365997314453 119 119 119
21.062500000000 13.195312500000 57.401000976563 129 129 129
21.062500000000 13.195312500000 57.436004638672 136 136 136
21.062500000000 13.210937500000 57.470001220703 132 132 132
21.062500000000 13.195312500000 57.505996704102 143 143 143
21.078125000000 13.195312500000 57.539993286133 139 139 139
21.062500000000 13.203125000000 57.576004028320 149 149 149
21.078125000000 13.203125000000 57.610992431641 154 154 154
21.078125000000 13.203125000000 57.645004272461 150 150 150
21.078125000000 13.203125000000 57.679992675781 150 150 150
21.078125000000 13.203125000000 57.716003417969 158 158 158
21.078125000000 13.203125000000 57.750991821289 156 156 156
21.078125000000 13.195312500000 57.787994384766 158 158 158
21.093750000000 13.210937500000 57.819992065430 164 164 164
21.078125000000 13.203125000000 57.856002807617 163 163 163
21.078125000000 13.203125000000 57.893005371094 167 167 167
21.093750000000 13.203125000000 57.927001953125 165 165 165
21.093750000000 13.195312500000 57.962997436523 170 170 170
21.093750000000 13.203125000000 57.996994018555 171 171 171
21.093750000000 13.203125000000 58.033004760742 174 174 174
21.093750000000 13.203125000000 58.069000244141 173 173 173
21.093750000000 13.195312500000 58.106002807617 178 178 178
21.093750000000 13.203125000000 58.138000488281 176 176 176
21.093750000000 13.203125000000 58.175003051758 182 182 182
21.109375000000 13.195312500000 58.210006713867 179 179 179
21.109375000000 13.195312500000 58.246002197266 181 181 181
21.125000000000 13.203125000000 58.281005859375 115 115 115
20.890625000000 12.796875000000 57.542999267578 130 130 130
20.890625000000 12.804687500000 57.578002929688 167 167 167
20.890625000000 12.796875000000 57.615005493164 176 176 176
20.890625000000 12.804687500000 57.651000976563 175 175 175
20.906250000000 12.812500000000 57.686996459961 178 178 178
20.906250000000 12.812500000000 57.722991943359 177 177 177
20.906250000000 12.804687500000 57.759002685547 170 170 170
20.906250000000 12.812500000000 57.794998168945 57 57 57
20.906250000000 12.796875000000 58.054000854492 156 156 156
20.906250000000 12.796875000000 58.091003417969 163 163 163
20.906250000000 12.796875000000 58.128005981445 168 168 168
20.906250000000 12.804687500000 58.164001464844 162 162 162
20.906250000000 12.796875000000 58.201995849609 159 159 159
20.906250000000 12.804687500000 58.238006591797 152 152 152
20.875000000000 12.734375000000 57.550994873047 125 125 125
20.875000000000 12.734375000000 57.587005615234 164 164 164
20.875000000000 12.734375000000 57.621994018555 170 170 170
20.875000000000 12.726562500000 57.658996582031 172 172 172
20.875000000000 12.734375000000 57.694000244141 219 219 219
20.875000000000 12.734375000000 57.729995727539 212 212 212
20.875000000000 12.734375000000 57.766006469727 164 164 164
20.906250000000 12.734375000000 58.164993286133 157 157 157
20.906250000000 12.734375000000 58.201004028320 212 212 212
20.906250000000 12.734375000000 58.238998413086 207 207 207
20.906250000000 12.750000000000 58.272003173828 159 159 159
20.906250000000 12.734375000000 58.311004638672 158 158 158
20.906250000000 12.742187500000 58.347991943359 153 153 153
20.921875000000 12.734375000000 58.382995605469 46 46 46
21.031250000000 13.195312500000 57.574005126953 34 34 34
21.062500000000 13.187500000000 57.608993530273 56 56 56
21.062500000000 13.195312500000 57.641998291016 70 70 70
21.078125000000 13.203125000000 57.675994873047 83 83 83
21.062500000000 13.203125000000 57.710998535156 84 84 84
21.078125000000 13.203125000000 57.744995117188 91 91 91
21.000000000000 13.148437500000 57.792999267578 155 155 155
21.000000000000 13.164062500000 57.826004028320 157 157 157
21.000000000000 13.164062500000 57.860992431641 155 155 155
21.015625000000 13.164062500000 57.895004272461 157 157 157
21.031250000000 13.171875000000 57.929992675781 155 155 155
21.031250000000 13.179687500000 57.964004516602 156 156 156
21.031250000000 13.179687500000 57.998001098633 151 151 151
21.062500000000 13.187500000000 58.029998779297 144 144 144
21.062500000000 13.187500000000 58.063995361328 150 150 150
21.078125000000 13.203125000000 58.097000122070 144 144 144
21.093750000000 13.203125000000 58.128997802734 135 135 135
21.093750000000 13.203125000000 58.164001464844 133 133 133
21.093750000000 13.203125000000 58.199005126953 142 142 142
21.093750000000 13.203125000000 58.235000610352 147 147 147
21.093750000000 13.203125000000 58.270004272461 149 149 149
21.125000000000 13.203125000000 58.304000854492 151 151 151
21.125000000000 13.203125000000 58.339004516602 112 112 112
20.953125000000 13.507812500000 57.740997314453 151 151 151
20.968750000000 13.515625000000 57.776000976563 200 200 200
20.968750000000 13.515625000000 57.811996459961 190 190 190
20.968750000000 13.523437500000 57.847000122070 177 177 177
20.968750000000 13.523437500000 57.882003784180 201 201 201
20.968750000000 13.523437500000 57.917999267578 183 183 183
20.968750000000 13.515625000000 57.955001831055 135 135 135
20.968750000000 13.523437500000 58.057998657227 166 166 166
20.968750000000 13.523437500000 58.093994140625 203 203 203
20.968750000000 13.523437500000 58.130996704102 191 191 191
21.000000000000 13.515625000000 58.166000366211 177 177 177
21.000000000000 13.515625000000 58.201995849609 172 172 172
21.000000000000 13.523437500000 58.238006591797 174 174 174
21.000000000000 13.523437500000 58.274002075195 156 156 156
20.890625000000 12.742187500000 57.537002563477 192 192 192
20.890625000000 12.742187500000 57.569000244141 239 239 239
20.875000000000 12.734375000000 57.600997924805 254 254 254
20.890625000000 12.742187500000 57.632003784180 251 251 251
20.875000000000 12.734375000000 57.664993286133 242 242 242
20.890625000000 12.742187500000 57.694000244141 222 222 222
20.890625000000 12.742187500000 57.725997924805 237 237 237
20.890625000000 12.742187500000 57.759002685547 240 240 240
20.906250000000 12.742187500000 58.113998413086 167 167 167
20.906250000000 12.750000000000 58.143005371094 233 233 233
20.906250000000 12.750000000000 58.175003051758 218 218 218
20.906250000000 12.750000000000 58.210998535156 226 226 226
20.906250000000 12.750000000000 58.242996215820 237 237 237
20.906250000000 12.750000000000 58.276992797852 240 240 240
20.906250000000 12.750000000000 58.309005737305 235 235 235
20.937500000000 12.742187500000 58.337997436523 208 208 208
20.937500000000 13.117187500000 57.768005371094 206 206 206
20.937500000000 13.117187500000 57.798004150391 235 235 235
20.937500000000 13.117187500000 57.830993652344 243 243 243
20.937500000000 13.117187500000 57.863998413086 246 246 246
20.937500000000 13.117187500000 57.893997192383 237 237 237
20.937500000000 13.117187500000 57.925994873047 235 235 235
20.937500000000 13.117187500000 57.958999633789 238 238 238
20.937500000000 13.117187500000 57.990005493164 239 239 239
20.937500000000 13.117187500000 58.024002075195 240 240 240
20.937500000000 13.117187500000 58.055999755859 243 243 243
20.937500000000 13.117187500000 58.089004516602 246 246 246
20.937500000000 13.117187500000 58.121002197266 236 236 236
20.953125000000 13.117187500000 58.151000976563 201 201 201
20.953125000000 13.484375000000 57.744003295898 236 236 236
20.953125000000 13.484375000000 57.772994995117 234 234 234
20.953125000000 13.484375000000 57.804992675781 207 207 207
20.953125000000 13.484375000000 57.837005615234 232 232 232
20.953125000000 13.484375000000 57.869995117188 229 229 229
20.953125000000 13.484375000000 57.899993896484 207 207 207
20.968750000000 13.484375000000 57.930999755859 236 236 236
20.968750000000 13.484375000000 57.962997436523 197 197 197
20.968750000000 13.484375000000 57.994003295898 129 129 129
20.968750000000 13.492187500000 58.024002075195 227 227 227
20.968750000000 13.492187500000 58.055999755859 219 219 219
21.000000000000 13.484375000000 58.087005615234 204 204 204
21.000000000000 13.492187500000 58.119003295898 227 227 227
20.968750000000 13.492187500000 58.154006958008 234 234 234
21.000000000000 13.492187500000 58.184005737305 228 228 228
20.968750000000 13.492187500000 58.218994140625 229 229 229
21.000000000000 13.500000000000 58.246994018555 184 184 184
20.984375000000 13.843750000000 57.658004760742 122 122 122
20.984375000000 13.851562500000 57.688003540039 227 227 227
20.984375000000 13.851562500000 57.718994140625 243 243 243
21.000000000000 13.851562500000 57.748992919922 248 248 248
21.000000000000 13.851562500000 57.779998779297 157 157 157
21.031250000000 13.859375000000 58.251998901367 185 185 185
21.031250000000 13.859375000000 58.285995483398 44 44 44
20.906250000000 12.601562500000 58.242004394531 135 135 135
20.906250000000 12.593750000000 58.201995849609 122 122 122
20.937500000000 12.960937500000 58.251998901367 106 106 106
20.937500000000 12.960937500000 58.214996337891 192 192 192
20.937500000000 12.960937500000 58.179000854492 194 194 194
20.937500000000 12.953125000000 58.139999389648 189 189 189
20.937500000000 12.953125000000 58.102996826172 188 188 188
20.937500000000 12.953125000000 58.065994262695 195 195 195
20.906250000000 12.960937500000 58.029998779297 182 182 182
20.937500000000 12.953125000000 57.917999267578 181 181 181
20.937500000000 12.953125000000 57.880996704102 193 193 193
20.906250000000 12.960937500000 57.845001220703 201 201 201
20.906250000000 12.960937500000 57.809005737305 191 191 191
20.906250000000 12.960937500000 57.770996093750 196 196 196
20.906250000000 12.960937500000 57.735000610352 195 195 195
20.906250000000 12.960937500000 57.699005126953 175 175 175
21.125000000000 13.226562500000 58.341995239258 39 39 39
21.109375000000 13.234375000000 58.305999755859 119 119 119
21.109375000000 13.234375000000 58.268997192383 119 119 119
21.109375000000 13.234375000000 58.235000610352 125 125 125
21.109375000000 13.234375000000 58.197998046875 127 127 127
21.093750000000 13.242187500000 58.164001464844 124 124 124
21.062500000000 13.257812500000 58.134994506836 157 157 157
21.062500000000 13.265625000000 58.100006103516 166 166 166
21.062500000000 13.250000000000 58.061996459961 167 167 167
21.062500000000 13.250000000000 58.026000976563 158 158 158
21.062500000000 13.250000000000 57.990005493164 157 157 157
21.062500000000 13.250000000000 57.951995849609 150 150 150
21.093750000000 13.242187500000 57.914993286133 151 151 151
21.093750000000 13.242187500000 57.878997802734 151 151 151
21.093750000000 13.242187500000 57.843002319336 153 153 153
21.093750000000 13.242187500000 57.807006835938 156 156 156
21.093750000000 13.242187500000 57.772003173828 155 155 155
21.093750000000 13.242187500000 57.736999511719 159 159 159
21.093750000000 13.242187500000 57.701004028320 160 160 160
21.093750000000 13.242187500000 57.666000366211 164 164 164
21.093750000000 13.242187500000 57.630004882813 169 169 169
21.062500000000 13.250000000000 57.595001220703 174 174 174
21.062500000000 13.250000000000 57.559997558594 176 176 176
21.062500000000 13.242187500000 57.524993896484 182 182 182
21.062500000000 13.242187500000 57.488998413086 186 186 186
21.062500000000 13.242187500000 57.453994750977 204 204 204
21.062500000000 13.242187500000 57.419006347656 213 213 213
21.062500000000 13.242187500000 57.382995605469 196 196 196
21.062500000000 13.242187500000 57.348999023438 194 194 194
21.062500000000 13.250000000000 57.313995361328 193 193 193
21.062500000000 13.242187500000 57.277999877930 192 192 192
21.062500000000 13.250000000000 57.242996215820 193 193 193
21.062500000000 13.250000000000 57.207992553711 192 192 192
21.062500000000 13.250000000000 57.173004150391 194 194 194
21.062500000000 13.250000000000 57.138000488281 197 197 197
21.062500000000 13.250000000000 57.102005004883 195 195 195
21.062500000000 13.242187500000 57.067001342773 196 196 196
21.062500000000 13.242187500000 57.031997680664 199 199 199
21.062500000000 13.242187500000 56.996994018555 200 200 200
21.031250000000 13.257812500000 56.960998535156 197 197 197
21.031250000000 13.257812500000 56.925994873047 197 197 197
21.031250000000 13.257812500000 56.891006469727 201 201 201
21.031250000000 13.257812500000 56.854995727539 200 200 200
21.031250000000 13.265625000000 56.819992065430 202 202 202
21.031250000000 13.257812500000 56.785003662109 203 203 203
21.031250000000 13.265625000000 56.748992919922 204 204 204
21.031250000000 13.257812500000 56.714004516602 204 204 204
21.031250000000 13.265625000000 56.677993774414 200 200 200
21.031250000000 13.265625000000 56.643005371094 201 201 201
21.031250000000 13.265625000000 56.606994628906 201 201 201
21.015625000000 13.273437500000 56.569992065430 198 198 198
21.015625000000 13.257812500000 56.535003662109 202 202 202
21.015625000000 13.257812500000 56.500000000000 199 199 199
21.015625000000 13.257812500000 56.464004516602 202 202 202
21.000000000000 13.265625000000 56.427001953125 199 199 199
21.000000000000 13.265625000000 56.391006469727 197 197 197
21.000000000000 13.265625000000 56.356002807617 200 200 200
21.000000000000 13.273437500000 56.319000244141 197 197 197
21.000000000000 13.265625000000 56.283004760742 199 199 199
21.000000000000 13.273437500000 56.246994018555 201 201 201
21.000000000000 13.273437500000 56.210006713867 196 196 196
21.000000000000 13.273437500000 56.173995971680 193 193 193
21.000000000000 13.273437500000 56.136993408203 193 193 193
21.000000000000 13.273437500000 56.102005004883 196 196 196
21.000000000000 13.273437500000 56.063995361328 192 192 192
20.968750000000 13.281250000000 56.026992797852 193 193 193
20.968750000000 13.281250000000 55.990997314453 193 193 193
20.968750000000 13.281250000000 55.953994750977 193 193 193
20.968750000000 13.281250000000 55.916992187500 191 191 191
20.968750000000 13.281250000000 55.878997802734 194 194 194
21.000000000000 13.273437500000 55.843994140625 189 189 189
20.968750000000 13.281250000000 55.804000854492 192 192 192
20.968750000000 13.281250000000 55.768005371094 190 190 190
20.968750000000 13.289062500000 55.729995727539 189 189 189
20.968750000000 13.289062500000 55.690002441406 189 189 189
20.953125000000 13.296875000000 55.649993896484 188 188 188
20.953125000000 13.296875000000 55.613006591797 187 187 187
20.953125000000 13.296875000000 55.576004028320 185 185 185
20.968750000000 13.289062500000 55.539993286133 185 185 185
20.953125000000 13.296875000000 55.500991821289 183 183 183
20.953125000000 13.296875000000 55.460998535156 184 184 184
20.953125000000 13.296875000000 55.421997070313 183 183 183
20.937500000000 13.289062500000 55.384994506836 184 184 184
20.937500000000 13.289062500000 55.345993041992 185 185 185
20.937500000000 13.296875000000 55.304992675781 181 181 181
20.937500000000 13.296875000000 55.266998291016 182 182 182
20.937500000000 13.296875000000 55.227005004883 183 183 183
20.937500000000 13.296875000000 55.186004638672 178 178 178
21.015625000000 13.679687500000 58.397003173828 120 120 120
21.015625000000 13.679687500000 58.360000610352 192 192 192
21.015625000000 13.679687500000 58.320999145508 198 198 198
21.015625000000 13.679687500000 58.285003662109 196 196 196
21.000000000000 13.687500000000 58.250000000000 193 193 193
21.015625000000 13.679687500000 58.212005615234 214 214 214
21.000000000000 13.687500000000 58.177001953125 190 190 190
21.000000000000 13.687500000000 58.139999389648 96 96 96
20.968750000000 13.695312500000 57.850997924805 175 175 175
21.000000000000 13.687500000000 57.813003540039 214 214 214
21.000000000000 13.687500000000 57.777999877930 212 212 212
21.000000000000 13.687500000000 57.740997314453 202 202 202
20.968750000000 13.695312500000 57.705993652344 232 232 232
20.968750000000 13.695312500000 57.671005249023 211 211 211
20.968750000000 13.703125000000 57.634994506836 160 160 160
21.000000000000 13.781250000000 58.300994873047 169 169 169
21.000000000000 13.781250000000 58.261993408203 183 183 183
21.000000000000 13.773437500000 58.223999023438 181 181 181
20.953125000000 13.789062500000 57.753997802734 183 183 183
20.953125000000 13.781250000000 57.718002319336 211 211 211
20.953125000000 13.781250000000 57.682998657227 214 214 214
20.953125000000 13.781250000000 57.647003173828 181 181 181
20.953125000000 13.781250000000 57.610992431641 152 152 152
20.968750000000 13.437500000000 58.212005615234 191 191 191
20.968750000000 13.429687500000 58.175003051758 191 191 191
20.968750000000 13.429687500000 58.139999389648 199 199 199
20.968750000000 13.429687500000 58.102005004883 200 200 200
20.968750000000 13.429687500000 58.065994262695 213 213 213
20.968750000000 13.429687500000 58.029006958008 206 206 206
20.968750000000 13.429687500000 57.992004394531 160 160 160
20.937500000000 13.445312500000 57.960006713867 70 70 70
20.937500000000 13.437500000000 57.921997070313 188 188 188
20.937500000000 13.429687500000 57.886001586914 205 205 205
20.937500000000 13.437500000000 57.850006103516 213 213 213
20.937500000000 13.437500000000 57.813995361328 206 206 206
20.937500000000 13.437500000000 57.776992797852 206 206 206
20.937500000000 13.437500000000 57.740997314453 191 191 191
20.906250000000 13.109375000000 58.130004882813 136 136 136
20.921875000000 13.101562500000 58.089996337891 190 190 190
20.906250000000 13.109375000000 58.055999755859 195 195 195
20.906250000000 13.101562500000 58.020004272461 190 190 190
20.906250000000 13.093750000000 57.981002807617 192 192 192
20.906250000000 13.093750000000 57.944000244141 197 197 197
20.906250000000 13.101562500000 57.908004760742 195 195 195
20.906250000000 13.093750000000 57.871002197266 192 192 192
20.906250000000 13.101562500000 57.835006713867 191 191 191
20.906250000000 13.101562500000 57.798995971680 191 191 191
20.906250000000 13.085937500000 57.761001586914 121 121 121
20.890625000000 12.765625000000 58.309997558594 139 139 139
20.906250000000 12.757812500000 58.266998291016 183 183 183
20.906250000000 12.757812500000 58.231002807617 195 195 195
20.890625000000 12.765625000000 58.194992065430 198 198 198
20.906250000000 12.757812500000 58.156005859375 219 219 219
20.890625000000 12.765625000000 58.121002197266 203 203 203
20.890625000000 12.765625000000 58.082992553711 177 177 177
20.875000000000 12.757812500000 57.789001464844 174 174 174
20.875000000000 12.757812500000 57.751998901367 194 194 194
20.875000000000 12.757812500000 57.714996337891 198 198 198
20.875000000000 12.750000000000 57.677001953125 198 198 198
20.875000000000 12.757812500000 57.641998291016 196 196 196
20.875000000000 12.757812500000 57.604995727539 192 192 192
20.875000000000 12.750000000000 57.567001342773 169 169 169
20.906250000000 13.648437500000 57.591003417969 80 80 80
20.937500000000 13.648437500000 57.619003295898 247 247 247
20.937500000000 13.648437500000 57.649993896484 236 236 236
20.937500000000 13.648437500000 57.680999755859 232 232 232
20.937500000000 13.640625000000 57.712997436523 10 10 10
20.937500000000 13.640625000000 57.744003295898 224 224 224
20.937500000000 13.640625000000 57.774993896484 222 222 222
20.937500000000 13.640625000000 57.807998657227 255 255 255
20.937500000000 13.640625000000 57.839004516602 176 176 176
20.968750000000 13.632812500000 58.089996337891 162 162 162
20.968750000000 13.632812500000 58.123001098633 224 224 224
20.984375000000 13.640625000000 58.151992797852 205 205 205
20.984375000000 13.640625000000 58.186996459961 219 219 219
20.984375000000 13.640625000000 58.220001220703 227 227 227
20.968750000000 13.632812500000 58.253005981445 233 233 233
20.984375000000 13.640625000000 58.283996582031 225 225 225
21.000000000000 13.640625000000 58.313995361328 222 222 222
20.968750000000 13.632812500000 58.356994628906 38 38 38
20.906250000000 13.320312500000 55.158004760742 160 160 160
20.906250000000 13.320312500000 55.190002441406 163 163 163
20.906250000000 13.320312500000 55.222991943359 165 165 165
20.906250000000 13.320312500000 55.255996704102 160 160 160
20.906250000000 13.320312500000 55.291992187500 159 159 159
20.906250000000 13.320312500000 55.324005126953 161 161 161
20.906250000000 13.320312500000 55.358001708984 159 159 159
20.906250000000 13.320312500000 55.389999389648 159 159 159
20.921875000000 13.312500000000 55.423995971680 159 159 159
20.906250000000 13.320312500000 55.455993652344 157 157 157
20.906250000000 13.320312500000 55.488998413086 159 159 159
20.921875000000 13.312500000000 55.524002075195 154 154 154
20.921875000000 13.312500000000 55.555999755859 156 156 156
20.921875000000 13.312500000000 55.587997436523 157 157 157
20.921875000000 13.312500000000 55.617996215820 155 155 155
20.937500000000 13.312500000000 55.652999877930 154 154 154
20.921875000000 13.312500000000 55.684005737305 153 153 153
20.921875000000 13.312500000000 55.714996337891 155 155 155
20.921875000000 13.312500000000 55.746994018555 155 155 155
20.937500000000 13.312500000000 55.781005859375 156 156 156
20.937500000000 13.304687500000 55.811996459961 153 153 153
20.937500000000 13.312500000000 55.843994140625 151 151 151
20.937500000000 13.312500000000 55.875991821289 150 150 150
20.937500000000 13.304687500000 55.906005859375 146 146 146
20.937500000000 13.312500000000 55.938995361328 145 145 145
20.937500000000 13.312500000000 55.970001220703 146 146 146
20.937500000000 13.304687500000 56.000000000000 145 145 145
20.937500000000 13.304687500000 56.031997680664 149 149 149
20.937500000000 13.312500000000 56.063995361328 144 144 144
20.937500000000 13.312500000000 56.095001220703 143 143 143
20.937500000000 13.304687500000 56.125000000000 144 144 144
20.921875000000 13.312500000000 56.154006958008 151 151 151
20.921875000000 13.312500000000 56.186004638672 156 156 156
20.921875000000 13.312500000000 56.216003417969 160 160 160
20.906250000000 13.312500000000 56.246002197266 169 169 169
20.906250000000 13.312500000000 56.276992797852 173 173 173
20.906250000000 13.312500000000 56.307998657227 173 173 173
20.906250000000 13.312500000000 56.339004516602 177 177 177
20.906250000000 13.312500000000 56.369995117188 176 176 176
20.906250000000 13.312500000000 56.401000976563 180 180 180
20.906250000000 13.304687500000 56.430999755859 180 180 180
20.906250000000 13.312500000000 56.462997436523 183 183 183
20.906250000000 13.304687500000 56.492996215820 178 178 178
20.906250000000 13.304687500000 56.524002075195 177 177 177
20.906250000000 13.312500000000 56.554992675781 167 167 167
20.906250000000 13.312500000000 56.585998535156 169 169 169
20.906250000000 13.304687500000 56.617004394531 166 166 166
20.906250000000 13.312500000000 56.647994995117 165 165 165
20.906250000000 13.304687500000 56.677993774414 166 166 166
20.906250000000 13.312500000000 56.708999633789 168 168 168
20.906250000000 13.304687500000 56.740005493164 168 168 168
20.906250000000 13.304687500000 56.770996093750 171 171 171
20.906250000000 13.304687500000 56.800994873047 173 173 173
20.906250000000 13.304687500000 56.832000732422 176 176 176
20.906250000000 13.304687500000 56.863006591797 176 176 176
20.906250000000 13.304687500000 56.893997192383 184 184 184
20.906250000000 13.304687500000 56.925003051758 189 189 189
20.906250000000 13.296875000000 56.955993652344 193 193 193
20.906250000000 13.304687500000 56.986999511719 203 203 203
20.906250000000 13.304687500000 57.018005371094 244 244 244
20.875000000000 13.304687500000 57.050003051758 240 240 240
20.906250000000 13.304687500000 57.080001831055 209 209 209
20.906250000000 13.304687500000 57.110000610352 198 198 198
20.906250000000 13.296875000000 57.141998291016 194 194 194
20.906250000000 13.296875000000 57.171997070313 191 191 191
20.906250000000 13.296875000000 57.203002929688 187 187 187
20.906250000000 13.296875000000 57.233993530273 192 192 192
20.906250000000 13.296875000000 57.264999389648 198 198 198
20.906250000000 13.296875000000 57.296005249023 199 199 199
20.906250000000 13.296875000000 57.326004028320 199 199 199
20.906250000000 13.296875000000 57.356994628906 201 201 201
20.937500000000 13.296875000000 57.388000488281 199 199 199
20.906250000000 13.296875000000 57.419006347656 190 190 190
20.937500000000 13.296875000000 57.449996948242 188 188 188
20.937500000000 13.289062500000 57.481994628906 181 181 181
20.937500000000 13.296875000000 57.511993408203 176 176 176
20.937500000000 13.289062500000 57.544006347656 171 171 171
20.937500000000 13.296875000000 57.574005126953 160 160 160
