11.230421066284 11.251760482788 2.437000274658 97 97 97
11.244647026062 11.234852790833 2.402000427246 95 95 95
11.082121849060 11.350790977478 2.285999298096 27 27 27
11.111245155334 11.324758529663 2.250000000000 27 27 27
11.112586021423 11.340325355530 2.206001281738 27 27 27
11.111245155334 11.324758529663 2.168998718262 27 27 27
11.305575370789 11.213921546936 2.175998687744 25 25 25
11.583629608154 11.346799850464 5.080997467041 59 59 59
11.583629608154 11.346799850464 5.039997100830 135 135 135
11.391982078552 11.488770484924 5.058002471924 146 146 146
11.334404945374 11.548620223999 4.723003387451 124 124 124
11.333734512329 11.540836334229 4.683002471924 156 156 156
11.334404945374 11.548620223999 4.645000457764 161 161 161
11.318167686462 11.542177200317 4.606998443604 164 164 164
11.318167686462 11.542177200317 4.570003509521 186 186 186
11.334404945374 11.548620223999 4.529003143311 178 178 178
11.334404945374 11.548620223999 4.490001678467 98 98 98
11.288373947144 11.560425758362 4.415996551514 106 106 106
11.288373947144 11.560425758362 4.378002166748 167 167 167
11.288373947144 11.560425758362 4.340000152588 191 191 191
11.288373947144 11.560425758362 4.301998138428 172 172 172
11.288373947144 11.560425758362 4.262996673584 179 179 179
11.288373947144 11.560425758362 4.224002838135 177 177 177
11.273476600647 11.569550514221 4.187999725342 145 145 145
11.288373947144 11.560425758362 4.071002960205 153 153 153
11.288373947144 11.560425758362 4.033000946045 153 153 153
11.273476600647 11.569550514221 3.994998931885 152 152 152
11.288373947144 11.560425758362 3.955997467041 159 159 159
11.274147033691 11.577334403992 3.919002532959 153 153 153
11.274147033691 11.577334403992 3.880001068115 153 153 153
11.274147033691 11.577334403992 3.841999053955 54 54 54
11.154972076416 11.650330543518 3.573001861572 16 16 16
11.170538902283 11.648989677429 3.534000396729 17 17 17
11.154972076416 11.650330543518 3.494998931885 18 18 18
11.332770347595 11.893783569336 4.785999298096 23 23 23
11.317873954773 11.902908325195 4.748996734619 131 131 131
11.317873954773 11.902908325195 4.710002899170 132 132 132
11.272512435913 11.922497749329 4.208003997803 50 50 50
11.320096015930 10.836282730103 3.921001434326 145 145 145
11.320096015930 10.836282730103 3.958003997803 187 187 187
11.320096015930 10.836282730103 3.994998931885 80 80 80
11.337004661560 10.850508689880 4.067996978760 138 138 138
11.337004661560 10.850508689880 4.104000091553 185 185 185
11.337004661560 10.850508689880 4.141002655029 185 185 185
11.353241920471 10.856951713562 4.176998138428 198 198 198
11.353241920471 10.856951713562 4.214000701904 193 193 193
11.353241920471 10.856951713562 4.252002716064 197 197 197
11.353912353516 10.864735603333 4.287998199463 199 199 199
11.353912353516 10.864735603333 4.324001312256 82 82 82
11.353912353516 10.864735603333 4.587001800537 165 165 165
11.353912353516 10.864735603333 4.625003814697 203 203 203
11.353912353516 10.864735603333 4.661998748779 223 223 223
11.354582786560 10.872519493103 4.700000762939 194 194 194
11.354582786560 10.872519493103 4.737003326416 205 205 205
11.370820999146 10.878962516785 4.773998260498 199 199 199
11.354582786560 10.872519493103 4.812999725342 161 161 161
11.183864593506 11.075417518616 3.262996673584 14 14 14
11.135151863098 11.056089401245 3.375003814697 29 29 29
11.118243217468 11.041863441467 3.411998748779 51 51 51
11.135151863098 11.056089401245 3.451999664307 50 50 50
11.167627334595 11.068975448608 3.491001129150 45 45 45
11.152059555054 11.070316314697 3.529003143311 47 47 47
11.136492729187 11.071657180786 3.566997528076 50 50 50
11.102676391602 11.043204307556 3.604999542236 46 46 46
11.118243217468 11.041863441467 3.643001556396 45 45 45
11.102676391602 11.043204307556 3.682003021240 41 41 41
11.299541473389 11.143868446350 3.941997528076 194 194 194
11.299541473389 11.143868446350 3.979000091553 199 199 199
11.315779685974 11.150311470032 4.016002655029 202 202 202
11.299541473389 11.143868446350 4.053997039795 199 199 199
11.315779685974 11.150311470032 4.090999603271 201 201 201
11.300211906433 11.151652336121 4.129001617432 194 194 194
11.315779685974 11.150311470032 4.164997100830 144 144 144
11.300211906433 11.151652336121 4.242000579834 44 44 44
11.348255157471 11.163197517395 4.275997161865 199 199 199
11.332016944885 11.156754493713 4.312999725342 204 204 204
11.348255157471 11.163197517395 4.350002288818 203 203 203
11.348255157471 11.163197517395 4.387996673584 203 203 203
11.348255157471 11.163197517395 4.424999237061 201 201 201
11.348255157471 11.163197517395 4.462001800537 199 199 199
11.348255157471 11.163197517395 4.501003265381 197 197 197
11.332016944885 11.156754493713 4.539997100830 196 196 196
11.348255157471 11.163197517395 4.576000213623 202 202 202
11.348255157471 11.163197517395 4.612003326416 193 193 193
11.348255157471 11.163197517395 4.650997161865 106 106 106
11.480168342590 11.238089561462 4.885997772217 126 126 126
11.528882026672 11.257417678833 4.914997100830 150 150 150
11.544449806213 11.256076812744 4.948001861572 130 130 130
11.480168342590 11.238089561462 4.997997283936 123 123 123
11.463260650635 11.223863601685 5.045001983643 140 140 140
11.609400749207 11.281848907471 5.045001983643 144 144 144
11.561357498169 11.270303726196 5.093997955322 141 141 141
11.513315200806 11.258758544922 5.143001556396 103 103 103
11.210012435913 11.378981590271 2.153999328613 20 20 20
11.146402359009 11.368777275085 3.047000885010 20 20 20
11.146402359009 11.368777275085 3.086002349854 19 19 19
11.162640571594 11.375220298767 3.125003814697 20 20 20
11.146402359009 11.368777275085 3.161998748779 30 30 30
11.145731925964 11.360993385315 3.200000762939 24 24 24
11.145731925964 11.360993385315 3.239002227783 22 22 22
11.113926887512 11.355893135071 3.276996612549 22 22 22
11.276305198669 11.420319557190 3.323001861572 135 135 135
11.163311004639 11.383004188538 3.356998443604 110 110 110
11.195116043091 11.388106346130 3.395999908447 97 97 97
11.195116043091 11.388106346130 3.434001922607 82 82 82
11.130835533142 11.370118141174 3.470996856689 32 32 32
11.260737419128 11.421660423279 3.511997222900 165 165 165
11.163311004639 11.383004188538 3.548000335693 36 36 36
11.130835533142 11.370118141174 3.586002349854 32 32 32
11.113926887512 11.355893135071 3.625003814697 32 32 32
11.130835533142 11.370118141174 3.662998199463 85 85 85
11.114597320557 11.363676071167 3.701999664307 43 43 43
11.309451103210 11.440989494324 3.924999237061 162 162 162
11.309451103210 11.440989494324 3.963001251221 206 206 206
11.310122489929 11.448773384094 4.000003814697 209 209 209
11.310122489929 11.448773384094 4.037998199463 203 203 203
11.310122489929 11.448773384094 4.075000762939 206 206 206
11.310122489929 11.448773384094 4.113002777100 209 209 209
11.310122489929 11.448773384094 4.150997161865 195 195 195
11.310122489929 11.448773384094 4.264003753662 196 196 196
11.310122489929 11.448773384094 4.301998138428 197 197 197
11.310122489929 11.448773384094 4.339000701904 195 195 195
11.311463356018 11.464340209961 4.377002716064 212 212 212
11.311463356018 11.464340209961 4.414997100830 216 216 216
11.311463356018 11.464340209961 4.451999664307 190 190 190
11.327030181885 11.462999343872 4.489002227783 204 204 204
11.327030181885 11.462999343872 4.526996612549 204 204 204
11.327700614929 11.470783233643 4.563999176025 198 198 198
11.327700614929 11.470783233643 4.602001190186 205 205 205
11.327700614929 11.470783233643 4.640003204346 199 199 199
11.327700614929 11.470783233643 4.677997589111 141 141 141
11.263419151306 11.452795982361 5.040996551514 95 95 95
11.377084732056 11.497895240784 5.053997039795 51 51 51
11.255080223083 11.720122337341 3.872997283936 137 137 137
11.271988868713 11.734349250793 3.909999847412 194 194 194
11.271988868713 11.734349250793 3.948001861572 204 204 204
11.271988868713 11.734349250793 3.986003875732 183 183 183
11.288896560669 11.748575210571 4.061000823975 14 14 14
11.271988868713 11.734349250793 4.100002288818 190 190 190
11.271988868713 11.734349250793 4.137996673584 201 201 201
11.272659301758 11.742132186890 4.175998687744 198 198 198
11.288896560669 11.748575210571 4.214000701904 198 198 198
11.272659301758 11.742132186890 4.252002716064 218 218 218
11.288896560669 11.748575210571 4.288997650146 192 192 192
11.322043418884 11.769244194031 4.629001617432 192 192 192
11.321372032166 11.761461257935 4.669002532959 200 200 200
11.322043418884 11.769244194031 4.705997467041 202 202 202
11.338280677795 11.775687217712 4.743999481201 196 196 196
11.322043418884 11.769244194031 4.783000946045 199 199 199
11.338280677795 11.775687217712 4.820003509521 194 194 194
11.338280677795 11.775687217712 4.858997344971 142 142 142
11.247558593750 11.814867019653 3.974002838135 32 32 32
11.263126373291 11.813526153564 4.045001983643 102 102 102
11.279364585876 11.819969177246 4.117000579834 202 202 202
11.263126373291 11.813526153564 4.188999176025 197 197 197
11.279364585876 11.819969177246 4.259998321533 163 163 163
11.295601844788 11.826412200928 4.619998931885 11 11 11
11.328077316284 11.839297294617 4.688999176025 174 174 174
11.328077316284 11.839297294617 4.760997772217 179 179 179
11.328077316284 11.839297294617 4.834003448486 167 167 167
11.146926879883 11.556927680969 3.297000885010 3 3 3
11.146926879883 11.556927680969 3.368999481201 8 8 8
11.131359100342 11.558268547058 3.440998077393 9 9 9
11.146926879883 11.556927680969 3.514003753662 15 15 15
11.146926879883 11.556927680969 3.586002349854 11 11 11
11.131359100342 11.558268547058 3.659000396729 9 9 9
11.278169631958 11.624036788940 3.873996734619 195 195 195
11.278169631958 11.624036788940 3.946002960205 191 191 191
11.278169631958 11.624036788940 4.017002105713 187 187 187
11.261932373047 11.617593765259 4.089000701904 57 57 57
11.278169631958 11.624036788940 4.159999847412 130 130 130
11.278169631958 11.624036788940 4.231998443604 178 178 178
11.278169631958 11.624036788940 4.303997039795 199 199 199
11.278169631958 11.624036788940 4.375003814697 149 149 149
11.311315536499 11.644705772400 4.518001556396 82 82 82
11.327553749084 11.651148796082 4.589000701904 198 198 198
11.327553749084 11.651148796082 4.659999847412 183 183 183
11.311315536499 11.644705772400 4.732997894287 174 174 174
11.146402359009 11.368777275085 2.098999023438 147 147 147
11.226921081543 11.393207550049 2.254001617432 56 56 56
11.243829727173 11.407434463501 2.328998565674 53 53 53
11.226921081543 11.393207550049 2.399002075195 57 57 57
11.227591514587 11.400991439819 2.472000122070 44 44 44
11.227591514587 11.400991439819 2.545001983643 28 28 28
11.243829727173 11.407434463501 2.618000030518 17 17 17
11.146402359009 11.368777275085 3.190998077393 11 11 11
11.276305198669 11.420319557190 3.339000701904 121 121 121
11.244500160217 11.415218353271 3.409999847412 100 100 100
11.260737419128 11.421660423279 3.481998443604 118 118 118
11.227591514587 11.400991439819 3.553997039795 69 69 69
11.114597320557 11.363676071167 3.698001861572 73 73 73
11.309451103210 11.440989494324 3.982997894287 184 184 184
11.293212890625 11.434546470642 4.053997039795 187 187 187
11.309451103210 11.440989494324 4.126003265381 191 191 191
11.293212890625 11.434546470642 4.198001861572 78 78 78
11.293212890625 11.434546470642 4.269001007080 122 122 122
11.293212890625 11.434546470642 4.340000152588 191 191 191
11.309451103210 11.440989494324 4.410999298096 194 194 194
11.310122489929 11.448773384094 4.481998443604 183 183 183
11.310122489929 11.448773384094 4.552997589111 179 179 179
11.341927528381 11.453874588013 4.623996734619 178 178 178
11.359505653381 11.475885391235 5.050998687744 68 68 68
11.161446571350 11.179287910461 3.149997711182 83 83 83
11.145879745483 11.180628776550 3.222003936768 27 27 27
11.227068901062 11.212841987610 3.297000885010 110 110 110
11.276452064514 11.239954948425 3.369998931885 138 138 138
11.292690277100 11.246397018433 3.441997528076 117 117 117
11.308927536011 11.252840042114 3.512996673584 114 114 114
11.308927536011 11.252840042114 3.585002899170 69 69 69
11.341403007507 11.265726089478 3.656002044678 79 79 79
11.357641220093 11.272168159485 3.727001190186 78 78 78
11.390116691589 11.285054206848 3.797000885010 63 63 63
11.407025337219 11.299281120300 3.868000030518 59 59 59
11.390787124634 11.292838096619 3.938999176025 49 49 49
11.357641220093 11.272168159485 4.009998321533 159 159 159
11.373879432678 11.278611183167 4.080997467041 159 159 159
11.373879432678 11.278611183167 4.151996612549 155 155 155
11.423933029175 11.313507080078 4.219997406006 165 165 165
11.423262596130 11.305723190308 4.290996551514 150 150 150
11.423262596130 11.305723190308 4.362003326416 194 194 194
11.407025337219 11.299281120300 4.434001922607 148 148 148
11.423933029175 11.313507080078 4.502002716064 169 169 169
11.423933029175 11.313507080078 4.573001861572 148 148 148
11.423262596130 11.305723190308 4.645000457764 120 120 120
11.423262596130 11.305723190308 4.716999053955 91 91 91
11.440171241760 11.319949150085 4.784999847412 94 94 94
11.391457557678 11.300621986389 4.859996795654 78 78 78
11.505792617798 11.353504180908 4.917003631592 101 101 101
11.490224838257 11.354845046997 4.990001678467 88 88 88
11.570743560791 11.379275321960 5.052997589111 109 109 109
11.522701263428 11.367730140686 5.128002166748 103 103 103
11.080404281616 10.966709136963 3.469997406006 11 11 11
11.112879753113 10.979593276978 3.542003631592 9 9 9
11.307733535767 11.056907653809 3.899997711182 164 164 164
11.292836189270 11.066031455994 3.970996856689 179 179 179
11.292836189270 11.066031455994 4.042003631592 173 173 173
11.292836189270 11.066031455994 4.113002777100 114 114 114
11.309074401855 11.072474479675 4.184001922607 70 70 70
11.341549873352 11.085360527039 4.254001617432 182 182 182
11.341549873352 11.085360527039 4.325000762939 181 181 181
11.325982093811 11.086701393127 4.395999908447 180 180 180
11.325982093811 11.086701393127 4.466999053955 101 101 101
11.325982093811 11.086701393127 4.538997650146 185 185 185
11.325982093811 11.086701393127 4.609996795654 184 184 184
11.341549873352 11.085360527039 4.679996490479 172 172 172
11.455885887146 11.138242721558 5.024997711182 63 63 63
11.554653167725 11.192466735840 5.081996917725 17 17 17
11.307880401611 10.876542091370 3.865001678467 69 69 69
11.307880401611 10.876542091370 3.936000823975 152 152 152
11.324118614197 10.882985115051 4.006000518799 71 71 71
11.340356826782 10.889427185059 4.076000213623 100 100 100
11.356594085693 10.895870208740 4.146999359131 160 160 160
11.340356826782 10.889427185059 4.217998504639 174 174 174
11.356594085693 10.895870208740 4.288997650146 177 177 177
11.357264518738 10.903654098511 4.572002410889 110 110 110
11.356594085693 10.895870208740 4.643001556396 208 208 208
11.357264518738 10.903654098511 4.714000701904 190 190 190
11.357264518738 10.903654098511 4.784999847412 174 174 174
11.371637344360 10.706379890442 4.186000823975 117 117 117
11.372307777405 10.714163780212 4.679996490479 108 108 108
11.372307777405 10.714163780212 4.751003265381 141 141 141
11.303647041321 11.919816017151 4.785999298096 162 162 162
11.318544387817 11.910691261292 4.722003936768 201 201 201
11.303647041321 11.919816017151 4.659000396729 8 8 8
11.256274223328 11.916054725647 4.220996856689 187 187 187
11.256274223328 11.916054725647 4.158000946045 165 165 165
11.271171569824 11.906930923462 4.092998504639 53 53 53
11.317349433899 11.714758872986 4.807003021240 180 180 180
11.317349433899 11.714758872986 4.743999481201 209 209 209
11.317349433899 11.714758872986 4.681003570557 201 201 201
11.317349433899 11.714758872986 4.618000030518 198 198 198
11.332917213440 11.713418006897 4.552997589111 62 62 62
11.301782608032 11.716099739075 4.367000579834 104 104 104
11.285544395447 11.709656715393 4.304996490479 192 192 192
11.286214828491 11.717440605164 4.242000579834 196 196 196
11.286214828491 11.717440605164 4.179996490479 206 206 206
11.286214828491 11.717440605164 4.117000579834 142 142 142
11.285544395447 11.709656715393 4.052997589111 91 91 91
11.285544395447 11.709656715393 3.991001129150 211 211 211
11.285544395447 11.709656715393 3.927997589111 212 212 212
11.270648002625 11.718781471252 3.866001129150 200 200 200
11.285544395447 11.709656715393 3.802997589111 73 73 73
11.456933021545 11.514540672302 5.061000823975 43 43 43
11.316156387329 11.518826484680 4.701999664307 143 143 143
11.316156387329 11.518826484680 4.639003753662 206 206 206
11.316156387329 11.518826484680 4.576999664307 200 200 200
11.316156387329 11.518826484680 4.512996673584 210 210 210
11.299918174744 11.512383460999 4.451000213623 191 191 191
11.299918174744 11.512383460999 4.389003753662 188 188 188
11.268783569336 11.515065193176 4.327999114990 200 200 200
11.285021781921 11.521508216858 4.265003204346 197 197 197
11.285021781921 11.521508216858 4.201999664307 18 18 18
11.284351348877 11.513724327087 4.139003753662 203 203 203
11.299918174744 11.512383460999 4.076000213623 215 215 215
11.284351348877 11.513724327087 4.012996673584 215 215 215
11.284351348877 11.513724327087 3.950000762939 209 209 209
11.299918174744 11.512383460999 3.887996673584 56 56 56
11.113110542297 11.528474807739 3.704998016357 32 32 32
11.128677368164 11.527133941650 3.641002655029 90 90 90
11.190946578979 11.521769523621 3.576999664307 77 77 77
11.222081184387 11.519087791443 3.514003753662 82 82 82
11.143574714661 11.518008232117 3.451000213623 39 39 39
11.159811973572 11.524451255798 3.387996673584 38 38 38
11.143574714661 11.518008232117 3.324001312256 37 37 37
11.159811973572 11.524451255798 3.260997772217 35 35 35
11.174709320068 11.515326499939 3.198001861572 18 18 18
11.516667366028 11.297677040100 5.140003204346 99 99 99
11.609400749207 11.281848907471 5.065998077393 110 110 110
11.516667366028 11.297677040100 5.016002655029 103 103 103
11.531563758850 11.288553237915 4.951999664307 104 104 104
11.501770019531 11.306801795959 4.894001007080 99 99 99
11.392798423767 11.316188812256 4.847003936768 96 96 96
11.392798423767 11.316188812256 4.784000396729 95 95 95
11.392798423767 11.316188812256 4.720996856689 94 94 94
11.376561164856 11.309745788574 4.659999847412 105 105 105
11.376561164856 11.309745788574 4.597003936768 110 110 110
11.454397201538 11.303040504456 4.529003143311 190 190 190
11.376561164856 11.309745788574 4.473003387451 107 107 107
11.423262596130 11.305723190308 4.408000946045 138 138 138
11.423262596130 11.305723190308 4.344997406006 161 161 161
11.376561164856 11.309745788574 4.284999847412 113 113 113
11.422592163086 11.297940254211 4.220996856689 177 177 177
11.376561164856 11.309745788574 4.161998748779 108 108 108
11.376561164856 11.309745788574 4.100002288818 121 121 121
11.391457557678 11.300621986389 4.035999298096 177 177 177
11.360322952271 11.303303718567 3.976001739502 118 118 118
11.360322952271 11.303303718567 3.913997650146 116 116 116
11.344755172729 11.304644584656 3.853000640869 117 117 117
11.344755172729 11.304644584656 3.790996551514 112 112 112
11.344755172729 11.304644584656 3.729000091553 116 116 116
11.329188346863 11.305985450745 3.667003631592 127 127 127
11.313620567322 11.307326316833 3.604999542236 121 121 121
11.329188346863 11.305985450745 3.543003082275 112 112 112
11.329188346863 11.305985450745 3.480998992920 110 110 110
11.313620567322 11.307326316833 3.419002532959 116 116 116
11.313620567322 11.307326316833 3.355998992920 120 120 120
11.297383308411 11.300883293152 3.294002532959 113 113 113
11.298053741455 11.308667182922 3.231998443604 122 122 122
11.298053741455 11.308667182922 3.169002532959 119 119 119
11.298053741455 11.308667182922 3.106998443604 126 126 126
11.298053741455 11.308667182922 3.045001983643 124 124 124
11.282485961914 11.310008049011 2.981998443604 120 120 120
11.282485961914 11.310008049011 2.919002532959 106 106 106
11.281145095825 11.294440269470 2.856998443604 111 111 111
11.282485961914 11.310008049011 2.794002532959 109 109 109
11.266248703003 11.303565025330 2.730998992920 107 107 107
11.282485961914 11.310008049011 2.669002532959 104 104 104
11.266248703003 11.303565025330 2.604999542236 101 101 101
11.266248703003 11.303565025330 2.541999816895 96 96 96
11.250010490417 11.297122001648 2.478000640869 99 99 99
11.250010490417 11.297122001648 2.415000915527 105 105 105
11.250010490417 11.297122001648 2.353000640869 99 99 99
11.266248703003 11.303565025330 2.290000915527 96 96 96
11.250010490417 11.297122001648 2.224998474121 99 99 99
11.218875885010 11.299803733826 2.158000946045 117 117 117
11.203308105469 11.301144599915 2.092998504639 103 103 103
11.358458518982 11.099586486816 4.700000762939 158 158 158
11.342890739441 11.100927352905 4.636997222900 212 212 212
11.342890739441 11.100927352905 4.575000762939 212 212 212
11.342890739441 11.100927352905 4.512996673584 205 205 205
11.327322959900 11.102268218994 4.451000213623 149 149 149
11.342890739441 11.100927352905 4.387996673584 207 207 207
11.342890739441 11.100927352905 4.325000762939 202 202 202
11.342890739441 11.100927352905 4.262996673584 208 208 208
11.342890739441 11.100927352905 4.201000213623 142 142 142
11.327322959900 11.102268218994 4.140003204346 117 117 117
11.311756134033 11.103609085083 4.077999114990 222 222 222
11.311756134033 11.103609085083 4.016002655029 224 224 224
11.311756134033 11.103609085083 3.953998565674 226 226 226
11.311756134033 11.103609085083 3.892002105713 189 189 189
11.109380722046 11.121041297913 3.710002899170 18 18 18
11.108039855957 11.105473518372 3.646999359131 34 34 34
11.124947547913 11.119699478149 3.584003448486 75 75 75
11.170979499817 11.107893943787 3.520000457764 37 37 37
11.140515327454 11.118358612061 3.456996917725 43 43 43
11.139844894409 11.110575675964 3.394001007080 56 56 56
11.170979499817 11.107893943787 3.330997467041 128 128 128
11.170979499817 11.107893943787 3.269001007080 110 110 110
11.186546325684 11.106553077698 3.205997467041 64 64 64
11.356594085693 10.895870208740 4.861003875732 9 9 9
11.372161865234 10.894529342651 4.796001434326 207 207 207
11.355923652649 10.888086318970 4.733997344971 214 214 214
11.372161865234 10.894529342651 4.671001434326 204 204 204
11.355923652649 10.888086318970 4.609996795654 195 195 195
11.355923652649 10.888086318970 4.298000335693 187 187 187
11.355923652649 10.888086318970 4.237003326416 201 201 201
11.355923652649 10.888086318970 4.173999786377 196 196 196
11.355923652649 10.888086318970 4.112003326416 186 186 186
11.355253219604 10.880303382874 4.049999237061 14 14 14
11.324118614197 10.882985115051 3.990001678467 209 209 209
11.324118614197 10.882985115051 3.927997589111 206 206 206
11.308550834656 10.884325981140 3.866001129150 120 120 120
11.369626045227 10.683029174805 4.759998321533 25 25 25
11.368955612183 10.675245285034 4.698001861572 101 101 101
11.369626045227 10.683029174805 4.201000213623 89 89 89
11.299624443054 11.873114585876 4.825000762939 96 96 96
11.315192222595 11.871773719788 4.751003265381 144 144 144
11.315192222595 11.871773719788 4.677997589111 76 76 76
11.285398483276 11.890022277832 4.243999481201 81 81 81
11.254933357239 11.900487899780 4.171001434326 142 142 142
11.269830703735 11.891363143921 4.098003387451 49 49 49
11.327553749084 11.651148796082 4.788997650146 44 44 44
11.311985969543 11.652489662170 4.717998504639 119 119 119
11.311315536499 11.644705772400 4.644001007080 156 156 156
11.311985969543 11.652489662170 4.572002410889 125 125 125
11.297760009766 11.669397354126 4.355998992920 129 129 129
11.266625404358 11.672079086304 4.284000396729 156 156 156
11.266625404358 11.672079086304 4.211002349854 160 160 160
11.266625404358 11.672079086304 4.137996673584 56 56 56
11.266625404358 11.672079086304 4.064998626709 25 25 25
11.266625404358 11.672079086304 3.993000030518 111 111 111
11.266625404358 11.672079086304 3.920001983643 145 145 145
11.251057624817 11.673419952393 3.848003387451 111 111 111
11.501770019531 11.306801795959 5.154003143311 56 56 56
11.560016632080 11.254735946655 5.073001861572 110 110 110
11.487543106079 11.323710441589 5.014003753662 73 73 73
11.516667366028 11.297677040100 4.937000274658 98 98 98
11.428626060486 11.367993354797 4.877002716064 41 41 41
11.443523406982 11.358868598938 4.803997039795 81 81 81
11.428626060486 11.367993354797 4.732997894287 38 38 38
11.398161888123 11.378458023071 4.663997650146 94 94 94
11.382595062256 11.379798889160 4.592998504639 148 148 148
11.383935928345 11.395366668701 4.521999359131 132 132 132
11.324347496033 11.431864738464 4.453998565674 127 127 127
11.383935928345 11.395366668701 4.378002166748 146 146 146
11.310122489929 11.448773384094 4.310001373291 145 145 145
11.412388801575 11.361550331116 4.231998443604 88 88 88
11.310122489929 11.448773384094 4.165996551514 96 96 96
11.339244842529 11.422739982605 4.091999053955 120 120 120
11.309451103210 11.440989494324 4.020999908447 120 120 120
11.280328750610 11.467021942139 3.949001312256 88 88 88
11.175379753113 11.523110389709 3.659000396729 12 12 12
11.175379753113 11.523110389709 3.586002349854 68 68 68
11.250535011292 11.485271453857 3.514003753662 45 45 45
11.205843925476 11.512644767761 3.367000579834 13 13 13
11.427433013916 11.172059059143 5.118999481201 65 65 65
11.471452713013 11.136901855469 5.040996551514 105 105 105
11.411865234375 11.173400878906 4.977001190186 66 66 66
11.366504669189 11.192991256714 4.908000946045 33 33 33
11.352948188782 11.217682838440 4.767002105713 11 11 11
11.322484016418 11.228148460388 4.697002410889 13 13 13
11.338050842285 11.226807594299 4.623996734619 89 89 89
11.307586669922 11.237273216248 4.551998138428 123 123 123
11.322484016418 11.228148460388 4.479999542236 120 120 120
11.322484016418 11.228148460388 4.407001495361 122 122 122
11.307586669922 11.237273216248 4.335002899170 114 114 114
11.307586669922 11.237273216248 4.264003753662 20 20 20
11.292690277100 11.246397018433 4.191997528076 96 96 96
11.292690277100 11.246397018433 4.118999481201 128 128 128
11.292690277100 11.246397018433 4.047000885010 121 121 121
11.292690277100 11.246397018433 3.975002288818 71 71 71
11.307586669922 11.237273216248 3.903003692627 19 19 19
11.277792930603 11.255521774292 3.830997467041 23 23 23
11.277792930603 11.255521774292 3.757999420166 27 27 27
11.218875885010 11.299803733826 3.686000823975 84 84 84
11.278463363647 11.263305664063 3.614002227783 59 59 59
11.277122497559 11.247737884521 3.542003631592 72 72 72
11.277122497559 11.247737884521 3.468997955322 95 95 95
11.277792930603 11.255521774292 3.396999359131 88 88 88
11.292690277100 11.246397018433 3.325000762939 99 99 99
11.262226104736 11.256862640381 3.252002716064 43 43 43
11.262896537781 11.264646530151 3.178997039795 49 49 49
11.216864585876 11.276453018188 3.104999542236 93 93 93
11.247328758240 11.265987396240 3.033000946045 48 48 48
11.247328758240 11.265987396240 2.960002899170 48 48 48
11.247328758240 11.265987396240 2.887996673584 41 41 41
11.262226104736 11.256862640381 2.815998077393 44 44 44
11.247328758240 11.265987396240 2.742000579834 44 44 44
11.216864585876 11.276453018188 2.667003631592 45 45 45
11.216864585876 11.276453018188 2.593997955322 39 39 39
11.216864585876 11.276453018188 2.520999908447 40 40 40
11.247328758240 11.265987396240 2.449001312256 41 41 41
11.231761932373 11.267328262329 2.375000000000 41 41 41
11.217535018921 11.284235954285 2.298999786377 39 39 39
11.247328758240 11.265987396240 2.229000091553 35 35 35
11.201967239380 11.285576820374 2.151000976563 33 33 33
11.201967239380 11.285576820374 2.077999114990 32 32 32
11.349072456360 10.990614891052 4.731998443604 112 112 112
11.350413322449 11.006182670593 4.660999298096 130 130 130
11.350413322449 11.006182670593 4.589000701904 133 133 133
11.319948196411 11.016648292542 4.518001556396 49 49 49
11.350413322449 11.006182670593 4.372997283936 94 94 94
11.350413322449 11.006182670593 4.300998687744 116 116 116
11.334845542908 11.007523536682 4.229999542236 120 120 120
11.334175109863 10.999739646912 4.157001495361 47 47 47
11.289484024048 11.027113914490 4.087001800537 69 69 69
11.305051803589 11.025773048401 4.015003204346 110 110 110
11.304381370544 11.017989158630 3.942996978760 114 114 114
11.303710937500 11.010205268860 3.870998382568 93 93 93
11.099177360535 11.184652328491 3.654003143311 4 4 4
11.126288414001 11.135267257690 3.580997467041 15 15 15
11.170979499817 11.107893943787 3.508998870850 5 5 5
11.126288414001 11.135267257690 3.435001373291 16 16 16
11.126288414001 11.135267257690 3.362003326416 59 59 59
11.361433982849 10.769990921021 4.851001739502 61 61 61
11.360763549805 10.762207031250 4.778003692627 120 120 120
11.361433982849 10.769990921021 4.706996917725 161 161 161
11.345866203308 10.771331787109 4.635997772217 4 4 4
11.345866203308 10.771331787109 4.204998016357 89 89 89
11.345866203308 10.771331787109 4.132999420166 77 77 77
11.330299377441 10.772672653198 4.062000274658 27 27 27
11.383852958679 10.666121482849 4.218997955322 146 146 146
11.383852958679 10.666121482849 4.256000518799 176 176 176
11.400760650635 10.680346488953 4.737003326416 144 144 144
11.400760650635 10.680346488953 4.773998260498 187 187 187
11.400760650635 10.680346488953 4.812000274658 148 148 148
11.329482078552 10.945254325867 3.873996734619 152 152 152
11.329482078552 10.945254325867 3.910999298096 193 193 193
11.345720291138 10.951697349548 3.948001861572 219 219 219
11.330822944641 10.960821151733 3.984996795654 192 192 192
11.329482078552 10.945254325867 4.022998809814 189 189 189
11.329482078552 10.945254325867 4.060001373291 190 190 190
11.329482078552 10.945254325867 4.097003936768 184 184 184
11.330822944641 10.960821151733 4.206996917725 183 183 183
11.361957550049 10.958139419556 4.243000030518 194 194 194
11.362627983093 10.965923309326 4.280002593994 203 203 203
11.363298416138 10.973707199097 4.316997528076 200 200 200
11.362627983093 10.965923309326 4.354999542236 201 201 201
11.363298416138 10.973707199097 4.392002105713 197 197 197
11.362627983093 10.965923309326 4.428997039795 184 184 184
11.347731590271 10.975048065186 4.578998565674 143 143 143
11.363298416138 10.973707199097 4.616001129150 192 192 192
11.363298416138 10.973707199097 4.654003143311 193 193 193
11.363298416138 10.973707199097 4.690998077393 192 192 192
11.363298416138 10.973707199097 4.729000091553 198 198 198
11.363298416138 10.973707199097 4.766002655029 197 197 197
11.363298416138 10.973707199097 4.804996490479 177 177 177
11.291349411011 11.230830192566 3.064998626709 48 48 48
11.291349411011 11.230830192566 3.103000640869 82 82 82
11.290678977966 11.223046302795 3.140003204346 114 114 114
11.258873939514 11.217944145203 3.175998687744 146 146 146
11.273770332336 11.208819389343 3.213001251221 154 154 154
11.291349411011 11.230830192566 3.253002166748 129 129 129
11.307586669922 11.237273216248 3.292003631592 127 127 127
11.290678977966 11.223046302795 3.327999114990 154 154 154
11.340062141418 11.250158309937 3.368999481201 161 161 161
11.340062141418 11.250158309937 3.406002044678 173 173 173
11.356300354004 11.256601333618 3.442996978760 160 160 160
11.356300354004 11.256601333618 3.480998992920 157 157 157
11.356300354004 11.256601333618 3.518001556396 162 162 162
11.356300354004 11.256601333618 3.554996490479 174 174 174
11.388775825500 11.269486427307 3.592998504639 129 129 129
11.388775825500 11.269486427307 3.629001617432 129 129 129
11.388775825500 11.269486427307 3.665996551514 128 128 128
11.388775825500 11.269486427307 3.702999114990 126 126 126
11.372538566589 11.263044357300 3.740001678467 133 133 133
11.388775825500 11.269486427307 3.776996612549 128 128 128
11.388775825500 11.269486427307 3.813999176025 128 128 128
11.372538566589 11.263044357300 3.851001739502 130 130 130
11.372538566589 11.263044357300 3.887996673584 133 133 133
11.372538566589 11.263044357300 3.924999237061 140 140 140
11.372538566589 11.263044357300 3.962001800537 137 137 137
11.388775825500 11.269486427307 3.998996734619 137 137 137
11.388775825500 11.269486427307 4.034999847412 137 137 137
11.436819076538 11.281031608582 4.070003509521 188 188 188
11.438159942627 11.296599388123 4.105998992920 207 207 207
11.436819076538 11.281031608582 4.143001556396 181 181 181
11.453726768494 11.295258522034 4.178997039795 189 189 189
11.453726768494 11.295258522034 4.215999603271 182 182 182
11.453726768494 11.295258522034 4.252002716064 190 190 190
11.453726768494 11.295258522034 4.288997650146 211 211 211
11.453726768494 11.295258522034 4.326999664307 159 159 159
11.453726768494 11.295258522034 4.364002227783 153 153 153
11.453726768494 11.295258522034 4.398998260498 196 196 196
11.469294548035 11.293916702271 4.436000823975 208 208 208
11.453726768494 11.295258522034 4.475002288818 153 153 153
11.453726768494 11.295258522034 4.510997772217 151 151 151
11.453726768494 11.295258522034 4.548000335693 166 166 166
11.470635414124 11.309483528137 4.581996917725 216 216 216
11.470635414124 11.309483528137 4.619998931885 169 169 169
11.470635414124 11.309483528137 4.657001495361 163 163 163
11.469294548035 11.293916702271 4.696002960205 127 127 127
11.453726768494 11.295258522034 4.736003875732 104 104 104
11.453726768494 11.295258522034 4.772998809814 100 100 100
11.453726768494 11.295258522034 4.810001373291 102 102 102
11.453726768494 11.295258522034 4.847003936768 112 112 112
11.453726768494 11.295258522034 4.886997222900 102 102 102
11.388775825500 11.269486427307 4.937000274658 139 139 139
11.519349098206 11.328811645508 4.947002410889 134 134 134
11.536256790161 11.343038558960 4.979000091553 149 149 149
11.536256790161 11.343038558960 5.016002655029 129 129 129
11.519349098206 11.328811645508 5.061000823975 137 137 137
11.487543106079 11.323710441589 5.100002288818 149 149 149
11.601878166199 11.376593589783 5.113002777100 144 144 144
11.536256790161 11.343038558960 5.164997100830 148 148 148
11.487543106079 11.323710441589 5.214000701904 117 117 117
11.186923980713 11.475067138672 3.215999603271 39 39 39
11.186923980713 11.475067138672 3.254001617432 39 39 39
11.170016288757 11.460841178894 3.292003631592 35 35 35
11.170016288757 11.460841178894 3.330997467041 43 43 43
11.186923980713 11.475067138672 3.369998931885 39 39 39
11.154448509216 11.462182044983 3.407001495361 34 34 34
11.170016288757 11.460841178894 3.446002960205 35 35 35
11.170016288757 11.460841178894 3.484996795654 130 130 130
11.219399452209 11.487953186035 3.523998260498 36 36 36
11.251875877380 11.500838279724 3.562999725342 106 106 106
11.220069885254 11.495736122131 3.601001739502 119 119 119
11.186923980713 11.475067138672 3.639003753662 56 56 56
11.186923980713 11.475067138672 3.676998138428 144 144 144
11.154448509216 11.462182044983 3.715999603271 61 61 61
11.138880729675 11.463522911072 3.754001617432 43 43 43
11.301259040833 11.527950286865 3.940998077393 188 188 188
11.301259040833 11.527950286865 3.979000091553 199 199 199
11.301259040833 11.527950286865 4.016002655029 200 200 200
11.301259040833 11.527950286865 4.053997039795 202 202 202
11.301259040833 11.527950286865 4.091999053955 199 199 199
11.317497253418 11.534393310547 4.129001617432 200 200 200
11.301259040833 11.527950286865 4.167003631592 165 165 165
11.301259040833 11.527950286865 4.243000030518 73 73 73
11.301259040833 11.527950286865 4.282001495361 195 195 195
11.301259040833 11.527950286865 4.318996429443 199 199 199
11.317497253418 11.534393310547 4.355998992920 199 199 199
11.317497253418 11.534393310547 4.394001007080 214 214 214
11.317497253418 11.534393310547 4.432003021240 198 198 198
11.317497253418 11.534393310547 4.468997955322 187 187 187
11.285021781921 11.521508216858 4.512996673584 20 20 20
11.317497253418 11.534393310547 4.546001434326 158 158 158
11.333734512329 11.540836334229 4.583003997803 205 205 205
11.350643157959 11.555062294006 4.618999481201 191 191 191
11.334404945374 11.548620223999 4.658000946045 204 204 204
11.333734512329 11.540836334229 4.697002410889 199 199 199
11.350643157959 11.555062294006 4.733997344971 195 195 195
11.350643157959 11.555062294006 4.770999908447 184 184 184
11.294260978699 11.810844421387 4.111003875732 175 175 175
11.294260978699 11.810844421387 4.148998260498 213 213 213
11.294260978699 11.810844421387 4.187999725342 200 200 200
11.294260978699 11.810844421387 4.225002288818 194 194 194
11.294260978699 11.810844421387 4.262996673584 212 212 212
11.294260978699 11.810844421387 4.301998138428 188 188 188
11.294260978699 11.810844421387 4.340000152588 42 42 42
11.326736450195 11.823730468750 4.720996856689 163 163 163
11.343645095825 11.837956428528 4.757999420166 200 200 200
11.342974662781 11.830173492432 4.797000885010 198 198 198
11.343645095825 11.837956428528 4.834003448486 193 193 193
11.343645095825 11.837956428528 4.873996734619 194 194 194
11.342974662781 11.830173492432 4.913997650146 152 152 152
11.343184471130 10.740197181702 4.937000274658 65 65 65
11.373648643494 10.729731559753 4.897998809814 157 157 157
11.343184471130 10.740197181702 4.862003326416 175 175 175
11.373648643494 10.729731559753 4.822002410889 174 174 174
11.343184471130 10.740197181702 4.784999847412 215 215 215
11.343184471130 10.740197181702 4.747997283936 198 198 198
11.328288078308 10.749320983887 4.712001800537 144 144 144
11.328958511353 10.757104873657 4.298999786377 147 147 147
11.328958511353 10.757104873657 4.260997772217 144 144 144
11.328958511353 10.757104873657 4.224002838135 153 153 153
11.344525337219 10.755764007568 4.186000823975 137 137 137
11.329628944397 10.764888763428 4.149997711182 137 137 137
11.344525337219 10.755764007568 4.112003326416 131 131 131
11.344525337219 10.755764007568 4.074001312256 61 61 61
11.285609245300 10.800045967102 4.003002166748 25 25 25
11.094631195068 10.949799537659 3.702999114990 28 28 28
11.064167022705 10.960266113281 3.663997650146 50 50 50
11.094631195068 10.949799537659 3.625003814697 50 50 50
11.110198020935 10.948458671570 3.586002349854 54 54 54
11.094631195068 10.949799537659 3.547000885010 57 57 57
11.094631195068 10.949799537659 3.507999420166 60 60 60
11.110198020935 10.948458671570 3.468997955322 52 52 52
11.108857154846 10.932891845703 3.431003570557 21 21 21
11.370002746582 11.051544189453 5.114002227783 94 94 94
11.207478523254 11.167481422424 5.115001678467 136 136 136
11.342220306396 11.093144416809 4.737003326416 80 80 80
11.327322959900 11.102268218994 4.699001312256 176 176 176
11.327322959900 11.102268218994 4.663997650146 180 180 180
11.327322959900 11.102268218994 4.625003814697 177 177 177
11.327322959900 11.102268218994 4.587001800537 176 176 176
11.312426567078 11.111392974854 4.549999237061 176 176 176
11.327322959900 11.102268218994 4.509998321533 157 157 157
11.327322959900 11.102268218994 4.472003936768 166 166 166
11.327322959900 11.102268218994 4.434001922607 169 169 169
11.328663825989 11.117835998535 4.396999359131 166 166 166
11.328663825989 11.117835998535 4.358997344971 172 172 172
11.312426567078 11.111392974854 4.322002410889 161 161 161
11.328663825989 11.117835998535 4.283000946045 79 79 79
11.282633781433 11.129642486572 4.211002349854 129 129 129
11.298871040344 11.136084556580 4.173000335693 165 165 165
11.298871040344 11.136084556580 4.134998321533 168 168 168
11.283303260803 11.137425422668 4.098003387451 167 167 167
11.283303260803 11.137425422668 4.060001373291 173 173 173
11.283303260803 11.137425422668 4.021999359131 166 166 166
11.298871040344 11.136084556580 3.983997344971 103 103 103
11.091655731201 11.279397010803 3.759998321533 71 71 71
11.091655731201 11.279397010803 3.720996856689 44 44 44
11.106552124023 11.270272254944 3.682003021240 32 32 32
11.106552124023 11.270272254944 3.643001556396 40 40 40
11.107222557068 11.278056144714 3.604000091553 43 43 43
11.105881690979 11.262488365173 3.564998626709 92 92 92
11.179696083069 11.209081649780 3.529003143311 92 92 92
11.225057601929 11.189491271973 3.491001129150 134 134 134
11.225057601929 11.189491271973 3.452999114990 137 137 137
11.210160255432 11.198616027832 3.413997650146 120 120 120
11.165469169617 11.225989341736 3.372997283936 135 135 135
11.121449470520 11.261147499084 3.331996917725 45 45 45
11.166139602661 11.233773231506 3.296001434326 28 28 28
11.166139602661 11.233773231506 3.256999969482 27 27 27
11.151243209839 11.242897987366 3.216999053955 33 33 33
11.166810035706 11.241557121277 3.178997039795 59 59 59
11.136345863342 11.252022743225 3.137996673584 153 153 153
11.137016296387 11.259805679321 3.098003387451 22 22 22
11.515326499939 11.282110214233 5.176998138428 128 128 128
11.575584411621 11.253395080566 5.126003265381 152 152 152
11.559346199036 11.246953010559 5.090000152588 159 159 159
11.383935928345 11.395366668701 5.104999542236 142 142 142
11.501770019531 11.306801795959 5.031002044678 104 104 104
11.515996932983 11.289894104004 4.989002227783 141 141 141
11.486202239990 11.308142662048 4.958003997803 132 132 132
11.442852973938 11.351084709167 4.934001922607 25 25 25
11.457749366760 11.341959953308 4.893001556396 108 108 108
11.459090232849 11.357527732849 4.856998443604 108 108 108
11.325688362122 11.447432518005 4.730998992920 119 119 119
11.310122489929 11.448773384094 4.692996978760 169 169 169
11.310122489929 11.448773384094 4.656002044678 175 175 175
11.310122489929 11.448773384094 4.616001129150 173 173 173
11.295224189758 11.457897186279 4.578998565674 184 184 184
11.295224189758 11.457897186279 4.539997100830 170 170 170
11.310122489929 11.448773384094 4.501003265381 153 153 153
11.295895576477 11.465681076050 4.465000152588 196 196 196
11.280328750610 11.467021942139 4.427997589111 189 189 189
11.296566009521 11.473464965820 4.389003753662 184 184 184
11.280328750610 11.467021942139 4.351001739502 212 212 212
11.280328750610 11.467021942139 4.312999725342 182 182 182
11.281669616699 11.482589721680 4.275997161865 132 132 132
11.281669616699 11.482589721680 4.198001861572 77 77 77
11.281669616699 11.482589721680 4.160999298096 165 165 165
11.281669616699 11.482589721680 4.122997283936 164 164 164
11.281669616699 11.482589721680 4.084003448486 165 165 165
11.281669616699 11.482589721680 4.047000885010 169 169 169
11.281669616699 11.482589721680 4.008998870850 168 168 168
11.281669616699 11.482589721680 3.970996856689 167 167 167
11.251875877380 11.500838279724 3.933002471924 43 43 43
11.134040832520 11.589403152466 3.703998565674 44 44 44
11.118474006653 11.590744018555 3.664997100830 55 55 55
11.118474006653 11.590744018555 3.626003265381 49 49 49
11.134040832520 11.589403152466 3.587001800537 48 48 48
11.134040832520 11.589403152466 3.548000335693 42 42 42
11.134040832520 11.589403152466 3.508998870850 49 49 49
11.134040832520 11.589403152466 3.469997406006 53 53 53
11.164505004883 11.578936576843 3.432003021240 34 34 34
11.322712898254 11.777028083801 4.917003631592 158 158 158
11.307816505432 11.786152839661 4.878002166748 166 166 166
11.307147026062 11.778368949890 4.840000152588 170 170 170
11.307816505432 11.786152839661 4.800998687744 186 186 186
11.292920112610 11.795277595520 4.764003753662 186 186 186
11.292920112610 11.795277595520 4.724002838135 161 161 161
11.263796806335 11.821310043335 4.303997039795 143 143 143
11.264467239380 11.829093933105 4.265003204346 196 196 196
11.264467239380 11.829093933105 4.227001190186 182 182 182
11.249569892883 11.838218688965 4.188999176025 174 174 174
11.249569892883 11.838218688965 4.149997711182 150 150 150
11.264467239380 11.829093933105 4.111003875732 74 74 74
11.361433982849 10.769990921021 4.067996978760 147 147 147
11.361433982849 10.769990921021 4.099002838135 193 193 193
11.360763549805 10.762207031250 4.131000518799 190 190 190
11.361433982849 10.769990921021 4.164997100830 202 202 202
11.361433982849 10.769990921021 4.197002410889 194 194 194
11.361433982849 10.769990921021 4.228000640869 192 192 192
11.361433982849 10.769990921021 4.260997772217 205 205 205
11.377671241760 10.776432991028 4.293003082275 202 202 202
11.345866203308 10.771331787109 4.661998748779 45 45 45
11.377671241760 10.776432991028 4.687999725342 210 210 210
11.377671241760 10.776432991028 4.723003387451 218 218 218
11.377671241760 10.776432991028 4.756999969482 216 216 216
11.377671241760 10.776432991028 4.787998199463 221 221 221
11.377671241760 10.776432991028 4.823001861572 228 228 228
11.393909454346 10.782876014709 4.854000091553 223 223 223
11.377671241760 10.776432991028 4.889003753662 219 219 219
11.392568588257 10.767308235168 4.919002532959 115 115 115
11.139174461365 11.102791786194 3.204998016357 75 75 75
11.154741287231 11.101450920105 3.239002227783 146 146 146
11.185875892639 11.098769187927 3.272998809814 173 173 173
11.185205459595 11.090985298157 3.306003570557 153 153 153
11.185875892639 11.098769187927 3.339000701904 172 172 172
11.154741287231 11.101450920105 3.371997833252 181 181 181
11.154741287231 11.101450920105 3.405002593994 178 178 178
11.138504028320 11.095007896423 3.438999176025 160 160 160
11.138504028320 11.095007896423 3.472003936768 131 131 131
11.170309066772 11.100110054016 3.505001068115 92 92 92
11.154741287231 11.101450920105 3.537998199463 87 87 87
11.170309066772 11.100110054016 3.572002410889 85 85 85
11.154741287231 11.101450920105 3.604999542236 87 87 87
11.123606681824 11.104132652283 3.639003753662 168 168 168
11.124277114868 11.111916542053 3.673999786377 89 89 89
11.123606681824 11.104132652283 3.706996917725 88 88 88
11.123606681824 11.104132652283 3.741001129150 90 90 90
11.294847488403 11.089383125305 3.928997039795 61 61 61
11.310415267944 11.088042259216 3.960002899170 232 232 232
11.310415267944 11.088042259216 3.992000579834 233 233 233
11.310415267944 11.088042259216 4.024997711182 239 239 239
11.310415267944 11.088042259216 4.057003021240 232 232 232
11.310415267944 11.088042259216 4.090999603271 238 238 238
11.310415267944 11.088042259216 4.122997283936 233 233 233
11.325982093811 11.086701393127 4.154003143311 230 230 230
11.325982093811 11.086701393127 4.187999725342 106 106 106
11.341549873352 11.085360527039 4.252002716064 147 147 147
11.341549873352 11.085360527039 4.284000396729 218 218 218
11.341549873352 11.085360527039 4.316997528076 220 220 220
11.341549873352 11.085360527039 4.350002288818 214 214 214
11.341549873352 11.085360527039 4.381999969482 210 210 210
11.341549873352 11.085360527039 4.413997650146 216 216 216
11.341549873352 11.085360527039 4.448001861572 211 211 211
11.357117652893 11.084019660950 4.479999542236 199 199 199
11.341549873352 11.085360527039 4.515003204346 214 214 214
11.341549873352 11.085360527039 4.548000335693 224 224 224
11.357117652893 11.084019660950 4.580997467041 223 223 223
11.341549873352 11.085360527039 4.615001678467 220 220 220
11.341549873352 11.085360527039 4.648998260498 224 224 224
11.357117652893 11.084019660950 4.681003570557 223 223 223
11.357117652893 11.084019660950 4.715000152588 214 214 214
11.325982093811 11.086701393127 4.755001068115 21 21 21
11.295517921448 11.097167015076 5.076000213623 117 117 117
11.388252258301 11.081337928772 5.080997467041 119 119 119
11.165992736816 11.414138793945 3.121997833252 72 72 72
11.165992736816 11.414138793945 3.155002593994 99 99 99
11.165992736816 11.414138793945 3.188999176025 96 96 96
11.165992736816 11.414138793945 3.223003387451 94 94 94
11.181559562683 11.412797927856 3.256000518799 82 82 82
11.165992736816 11.414138793945 3.288997650146 90 90 90
11.181559562683 11.412797927856 3.323001861572 88 88 88
11.274964332581 11.404752731323 3.357997894287 141 141 141
11.259396553040 11.406093597412 3.391002655029 168 168 168
11.212694168091 11.410116195679 3.423999786377 145 145 145
11.212694168091 11.410116195679 3.456996917725 104 104 104
11.197127342224 11.411457061768 3.490001678467 104 104 104
11.243829727173 11.407434463501 3.522998809814 108 108 108
11.290531158447 11.403411865234 3.554996490479 178 178 178
11.212694168091 11.410116195679 3.590000152588 97 97 97
11.181559562683 11.412797927856 3.622997283936 93 93 93
