22.121871948242 10.848943710327 6.014999389648 136 136 136
22.198944091797 10.833961486816 6.624008178711 75 75 75
22.219852447510 10.631916046143 5.691009521484 92 92 92
22.142021179199 10.590026855469 5.966003417969 16 16 16
22.107597351074 10.584048271179 6.016006469727 145 145 145
22.204128265381 10.579538345337 6.695007324219 37 37 37
22.127746582031 10.325132369995 6.012008666992 146 146 146
22.228769302368 10.335586547852 6.819000244141 73 73 73
22.137424468994 10.085673332214 6.007003784180 109 109 109
22.122459411621 10.090166091919 6.063003540039 76 76 76
22.253412246704 10.091634750366 6.884002685547 20 20 20
22.147100448608 9.846214294434 6.001007080078 18 18 18
22.112678527832 9.840234756470 6.052001953125 86 86 86
22.142608642578 9.831249237061 6.851013183594 48 48 48
22.174783706665 9.829746246338 6.920013427734 108 108 108
22.140361785889 9.823766708374 6.969009399414 107 107 107
22.140361785889 9.823766708374 7.034011840820 116 116 116
22.140361785889 9.823766708374 7.098007202148 129 129 129
22.135868072510 9.808801651001 7.163009643555 147 147 147
22.135868072510 9.808801651001 7.225006103516 161 161 161
22.153079986572 9.811791419983 7.292007446289 166 166 166
22.135868072510 9.808801651001 7.352005004883 166 166 166
22.135868072510 9.808801651001 7.417007446289 170 170 170
22.135868072510 9.808801651001 7.481002807617 176 176 176
22.135868072510 9.808801651001 7.547012329102 171 171 171
22.146339416504 9.789343833923 7.611999511719 173 173 173
22.146339416504 9.789343833923 7.676010131836 170 170 170
22.146339416504 9.789343833923 7.744003295898 173 173 173
22.163551330566 9.792333602905 7.815002441406 171 171 171
22.163551330566 9.792333602905 7.880004882813 169 169 169
22.165798187256 9.799816131592 7.951004028320 173 173 173
22.165798187256 9.799816131592 8.018005371094 162 162 162
22.176269531250 9.780357360840 8.089004516602 160 160 160
22.191234588623 9.775864601135 8.160003662109 168 168 168
22.193481445313 9.783347129822 8.229003906250 156 156 156
22.195728302002 9.790829658508 8.303009033203 141 141 141
22.210693359375 9.786336898804 8.375000000000 123 123 123
22.056514739990 9.653171539307 3.787002563477 76 76 76
22.041549682617 9.657665252686 3.844009399414 139 139 139
22.041549682617 9.657665252686 3.900009155273 151 151 151
22.041549682617 9.657665252686 3.957000732422 152 152 152
22.024337768555 9.654675483704 4.013000488281 164 164 164
22.041549682617 9.657665252686 4.070007324219 172 172 172
22.024337768555 9.654675483704 4.126998901367 175 175 175
22.052022933960 9.638206481934 4.183013916016 178 178 178
22.052022933960 9.638206481934 4.240005493164 196 196 196
22.034811019897 9.635217666626 4.296005249023 186 186 186
22.052022933960 9.638206481934 4.354003906250 189 189 189
22.052022933960 9.638206481934 4.410003662109 197 197 197
22.034811019897 9.635217666626 4.467010498047 192 192 192
22.052022933960 9.638206481934 4.524002075195 196 196 196
22.034811019897 9.635217666626 4.581008911133 201 201 201
22.047529220581 9.623241424561 4.638000488281 203 203 203
22.047529220581 9.623241424561 4.695007324219 195 195 195
22.047529220581 9.623241424561 4.751998901367 202 202 202
22.045282363892 9.615758895874 4.809005737305 198 198 198
22.047529220581 9.623241424561 4.867004394531 201 201 201
22.047529220581 9.623241424561 4.924011230469 200 200 200
22.047529220581 9.623241424561 4.982009887695 196 196 196
22.047529220581 9.623241424561 5.040008544922 198 198 198
22.062494277954 9.618749618530 5.098999023438 199 199 199
22.072967529297 9.599290847778 5.156005859375 200 200 200
22.072967529297 9.599290847778 5.214004516602 182 182 182
22.075212478638 9.606773376465 5.273010253906 191 191 191
22.077459335327 9.614255905151 5.332000732422 192 192 192
22.077459335327 9.614255905151 5.391006469727 190 190 190
22.077459335327 9.614255905151 5.450012207031 189 189 189
22.092424392700 9.609763145447 5.510009765625 188 188 188
22.105142593384 9.597787857056 5.570007324219 181 181 181
22.122354507446 9.600776672363 5.631011962891 180 180 180
22.122354507446 9.600776672363 5.690002441406 174 174 174
22.137319564819 9.596283912659 5.751007080078 161 161 161
22.137319564819 9.596283912659 5.810012817383 136 136 136
22.137319564819 9.596283912659 5.869003295898 127 127 127
22.137319564819 9.596283912659 5.930999755859 105 105 105
22.141813278198 9.611248970032 5.994003295898 109 109 109
22.141813278198 9.611248970032 6.053009033203 23 23 23
22.208412170410 9.615724563599 6.126007080078 20 20 20
21.899330139160 9.455653190613 1.348007202148 174 174 174
21.899330139160 9.455653190613 1.468002319336 207 207 207
21.914295196533 9.451160430908 1.526000976563 207 207 207
21.924766540527 9.431701660156 1.585006713867 207 207 207
21.924766540527 9.431701660156 1.643005371094 198 198 198
21.927013397217 9.439184188843 1.700012207031 208 208 208
21.944225311279 9.442173957825 1.757003784180 199 199 199
21.927013397217 9.439184188843 1.818008422852 203 203 203
21.944225311279 9.442173957825 1.875000000000 205 205 205
21.959190368652 9.437681198120 1.932006835938 199 199 199
21.959190368652 9.437681198120 1.990005493164 201 201 201
21.959190368652 9.437681198120 2.049011230469 206 206 206
21.959190368652 9.437681198120 2.106002807617 199 199 199
21.959190368652 9.437681198120 2.165008544922 215 215 215
21.978649139404 9.448153495789 2.220001220703 210 210 210
21.978649139404 9.448153495789 2.277999877930 209 209 209
21.993614196777 9.443660736084 2.335006713867 205 205 205
21.993614196777 9.443660736084 2.393005371094 202 202 202
21.993614196777 9.443660736084 2.450012207031 198 198 198
22.006332397461 9.431684494019 2.507003784180 206 206 206
22.023544311523 9.434674263000 2.563003540039 206 206 206
22.023544311523 9.434674263000 2.620010375977 202 202 202
22.023544311523 9.434674263000 2.677001953125 193 193 193
22.023544311523 9.434674263000 2.735000610352 178 178 178
22.025791168213 9.442156791687 2.792007446289 169 169 169
22.043001174927 9.445146560669 2.848999023438 171 171 171
22.057966232300 9.440652847290 2.905014038086 163 163 163
22.057966232300 9.440652847290 2.963012695313 141 141 141
22.062459945679 9.455617904663 3.019012451172 101 101 101
22.070686340332 9.428678512573 3.077011108398 97 97 97
22.072931289673 9.436161041260 3.134002685547 5 5 5
22.172676086426 17.538753509521 1.192001342773 17 17 17
22.204853057861 17.537248611450 1.303009033203 23 23 23
22.026723861694 17.378646850586 5.784011840820 64 64 64
21.957878112793 17.366687774658 5.805007934570 123 123 123
21.902509689331 17.399625778198 5.815002441406 107 107 107
21.872579574585 17.408611297607 5.851013183594 76 76 76
21.962369918823 17.381652832031 6.618011474609 98 98 98
21.936933517456 17.405605316162 6.656005859375 72 72 72
22.001216888428 17.076335906982 5.792007446289 129 129 129
21.998970031738 17.068855285645 5.832000732422 90 90 90
21.945850372314 17.109273910522 6.590011596680 90 90 90
22.010133743286 16.780006408691 5.785003662109 74 74 74
22.010133743286 16.780006408691 5.819000244141 143 143 143
21.950273513794 16.797981262207 6.492004394531 94 94 94
22.014556884766 16.468715667725 5.809005737305 156 156 156
21.984626770020 16.477699279785 5.846008300781 36 36 36
21.971908569336 16.489675521851 6.399002075195 86 86 86
22.048912048340 16.148433685303 5.799011230469 73 73 73
22.008508682251 16.176876068115 5.827011108398 142 142 142
21.968107223511 16.205322265625 6.335006713867 92 92 92
22.047355651855 15.871562004089 5.809005737305 107 107 107
22.002460479736 15.885041236877 5.840011596680 132 132 132
22.002460479736 15.885041236877 6.234008789063 52 52 52
21.972530364990 15.894026756287 6.267013549805 58 58 58
22.041307449341 15.579725265503 5.810012817383 141 141 141
22.015871047974 15.603676795959 5.848999023438 108 108 108
22.015871047974 15.603676795959 6.160003662109 75 75 75
22.080156326294 15.274411201477 5.535003662109 129 129 129
22.024787902832 15.307347297668 5.822006225586 170 170 170
22.022541046143 15.299864768982 5.865005493164 71 71 71
22.024787902832 15.307347297668 6.090011596680 94 94 94
22.089073181152 14.978080749512 5.554000854492 115 115 115
22.054649353027 14.972102165222 5.808013916016 73 73 73
22.026966094971 14.988570213318 5.844009399414 162 162 162
22.029212951660 14.996052742004 6.027999877930 72 72 72
22.121179580688 14.650317192078 5.531005859375 85 85 85
22.093496322632 14.666786193848 5.570007324219 52 52 52
22.053094863892 14.695230484009 5.825012207031 126 126 126
22.033636093140 14.684757232666 5.863006591797 132 132 132
22.063566207886 14.675771713257 5.921005249023 61 61 61
22.102413177490 14.370456695557 5.540008544922 108 108 108
22.089694976807 14.382432937622 5.579010009766 27 27 27
22.062011718750 14.398900985718 5.841003417969 136 136 136
22.047046661377 14.403393745422 5.876998901367 115 115 115
22.111330032349 14.074127197266 5.540008544922 110 110 110
22.111330032349 14.074127197266 5.583999633789 121 121 121
22.111330032349 14.074127197266 5.629013061523 124 124 124
22.111330032349 14.074127197266 5.679000854492 130 130 130
22.111330032349 14.074127197266 5.722000122070 121 121 121
22.111330032349 14.074127197266 5.769012451172 131 131 131
22.111330032349 14.074127197266 5.817001342773 124 124 124
22.053716659546 14.099580764771 5.844009399414 134 134 134
22.055961608887 14.107063293457 5.882003784180 109 109 109
22.126985549927 13.800245285034 5.544006347656 66 66 66
22.126985549927 13.800245285034 5.590011596680 188 188 188
22.124740600586 13.792762756348 5.631011962891 190 190 190
22.124740600586 13.792762756348 5.680999755859 110 110 110
22.124740600586 13.792762756348 5.726013183594 166 166 166
22.124740600586 13.792762756348 5.770004272461 202 202 202
22.112020492554 13.804738998413 5.814010620117 43 43 43
22.067125320435 13.818217277527 5.848007202148 114 114 114
22.069372177124 13.825699806213 5.889007568359 137 137 137
22.148620605469 13.491939544678 5.551010131836 67 67 67
22.133655548096 13.496433258057 5.596008300781 191 191 191
22.138149261475 13.511398315430 5.639999389648 187 187 187
22.138149261475 13.511398315430 5.688003540039 183 183 183
22.138149261475 13.511398315430 5.733001708984 126 126 126
22.138149261475 13.511398315430 5.777999877930 191 191 191
22.103725433350 13.505418777466 5.820999145508 44 44 44
22.073795318604 13.514405250549 5.856002807617 126 126 126
22.073795318604 13.514405250549 5.899002075195 114 114 114
22.138080596924 13.185138702393 5.561004638672 93 93 93
22.153045654297 13.180646896362 5.611007690430 199 199 199
22.138080596924 13.185138702393 5.656005859375 191 191 191
22.138080596924 13.185138702393 5.703002929688 193 193 193
22.140327453613 13.192621231079 5.749008178711 193 193 193
22.140327453613 13.192621231079 5.795013427734 182 182 182
22.082712173462 13.218076705933 5.873001098633 132 132 132
22.082712173462 13.218076705933 5.916000366211 48 48 48
22.144750595093 12.881326675415 5.575012207031 100 100 100
22.144750595093 12.881326675415 5.622009277344 202 202 202
22.144750595093 12.881326675415 5.670013427734 186 186 186
22.144750595093 12.881326675415 5.718002319336 204 204 204
22.144750595093 12.881326675415 5.764999389648 202 202 202
22.132032394409 12.893302917480 5.812011718750 167 167 167
22.074417114258 12.918756484985 5.888000488281 160 160 160
22.091629028320 12.921746253967 5.938003540039 21 21 21
22.158159255981 12.599962234497 5.579010009766 88 88 88
22.158159255981 12.599962234497 5.626007080078 195 195 195
22.155914306641 12.592479705811 5.674011230469 179 179 179
22.158159255981 12.599962234497 5.723007202148 189 189 189
22.160406112671 12.607444763184 5.775009155273 103 103 103
22.158159255981 12.599962234497 5.820007324219 176 176 176
22.096054077148 12.610452651978 5.850006103516 105 105 105
22.093807220459 12.602970123291 5.895004272461 137 137 137
22.096054077148 12.610452651978 5.947006225586 104 104 104
22.164829254150 12.296150207520 5.579010009766 13 13 13
22.167076110840 12.303632736206 5.625000000000 182 182 182
22.164829254150 12.296150207520 5.673004150391 191 191 191
22.164829254150 12.296150207520 5.720001220703 200 200 200
22.164829254150 12.296150207520 5.769012451172 170 170 170
22.164829254150 12.296150207520 5.819000244141 194 194 194
22.139392852783 12.320101737976 5.861999511719 24 24 24
22.109462738037 12.329087257385 5.901000976563 140 140 140
22.104969024658 12.314122200012 5.945007324219 86 86 86
22.137145996094 12.312619209290 6.055999755859 74 74 74
22.163274765015 12.019279479980 5.623001098633 165 165 165
22.163274765015 12.019279479980 5.671005249023 191 191 191
22.178239822388 12.014786720276 5.722000122070 161 161 161
22.163274765015 12.019279479980 5.771011352539 156 156 156
22.148309707642 12.023773193359 5.817001342773 188 188 188
22.148309707642 12.023773193359 5.865005493164 50 50 50
22.116132736206 12.025276184082 5.901000976563 130 130 130
22.088449478149 12.041744232178 5.943008422852 99 99 99
22.113885879517 12.017793655396 6.159011840820 91 91 91
22.182664871216 11.703491210938 5.631011962891 116 116 116
22.122804641724 11.721464157104 5.910003662109 130 130 130
22.095119476318 11.737932205200 5.954010009766 84 84 84
22.157228469849 11.727442741394 6.284011840820 28 28 28
22.176616668701 11.411655426025 5.643005371094 113 113 113
22.116756439209 11.429628372192 5.925003051758 147 147 147
22.101791381836 11.434120178223 5.975006103516 53 53 53
22.166145324707 11.431114196777 6.358001708984 83 83 83
22.200498580933 11.110832214355 5.657012939453 123 123 123
22.110708236694 11.137790679932 5.937011718750 149 149 149
22.108461380005 11.130308151245 5.984008789063 39 39 39
22.168321609497 11.112336158752 6.480010986328 79 79 79
22.234851837158 10.790553092957 5.667007446289 126 126 126
22.121871948242 10.848943710327 5.939010620117 120 120 120
22.121871948242 10.848943710327 5.990005493164 94 94 94
22.181732177734 10.830972671509 6.597000122070 49 49 49
22.218332290649 10.518174171448 5.657012939453 62 62 62
22.218332290649 10.518174171448 5.707000732422 26 26 26
22.128541946411 10.545131683350 5.945999145508 85 85 85
22.128541946411 10.545131683350 5.991012573242 121 121 121
22.225070953369 10.540621757507 6.670013427734 20 20 20
22.156915664673 10.259275436401 5.950012207031 63 63 63
22.141950607300 10.263768196106 5.995010375977 137 137 137
22.231740951538 10.236810684204 6.794006347656 67 67 67
22.176305770874 9.943487167358 5.961013793945 109 109 109
22.118690490723 9.968941688538 5.998001098633 112 112 112
22.260116577148 9.950952529907 6.873001098633 107 107 107
22.377590179443 9.907526016235 6.981002807617 8 8 8
22.071479797363 9.648679733276 3.242004394531 52 52 52
22.071479797363 9.648679733276 3.291000366211 105 105 105
22.071479797363 9.648679733276 3.340011596680 123 123 123
22.058761596680 9.660654067993 3.389007568359 142 142 142
22.071479797363 9.648679733276 3.438003540039 157 157 157
22.071479797363 9.648679733276 3.486999511719 165 165 165
22.058761596680 9.660654067993 3.535003662109 172 172 172
22.058761596680 9.660654067993 3.583999633789 167 167 167
22.058761596680 9.660654067993 3.633010864258 173 173 173
22.058761596680 9.660654067993 3.682006835938 174 174 174
22.058761596680 9.660654067993 3.731002807617 183 183 183
22.056514739990 9.653171539307 3.779006958008 183 183 183
22.056514739990 9.653171539307 3.828002929688 181 181 181
22.056514739990 9.653171539307 3.876998901367 183 183 183
22.058761596680 9.660654067993 3.926010131836 180 180 180
22.058761596680 9.660654067993 3.975006103516 190 190 190
22.061008453369 9.668136596680 4.025009155273 194 194 194
22.058761596680 9.660654067993 4.073013305664 199 199 199
22.058761596680 9.660654067993 4.122009277344 196 196 196
22.058761596680 9.660654067993 4.171005249023 196 196 196
22.058761596680 9.660654067993 4.220001220703 198 198 198
22.058761596680 9.660654067993 4.270004272461 189 189 189
22.058761596680 9.660654067993 4.319000244141 197 197 197
22.058761596680 9.660654067993 4.368011474609 199 199 199
22.061008453369 9.668136596680 4.417007446289 202 202 202
22.058761596680 9.660654067993 4.467010498047 200 200 200
22.063255310059 9.675619125366 4.516006469727 198 198 198
22.058761596680 9.660654067993 4.566009521484 195 195 195
22.061008453369 9.668136596680 4.614013671875 195 195 195
22.063255310059 9.675619125366 4.665008544922 191 191 191
22.061008453369 9.668136596680 4.713012695313 194 194 194
22.063255310059 9.675619125366 4.764007568359 189 189 189
22.063255310059 9.675619125366 4.814010620117 190 190 190
22.065502166748 9.683101654053 4.865005493164 194 194 194
22.061008453369 9.668136596680 4.913009643555 190 190 190
22.065502166748 9.683101654053 4.966003417969 190 190 190
22.065502166748 9.683101654053 5.016006469727 192 192 192
22.063255310059 9.675619125366 5.065002441406 192 192 192
22.065502166748 9.683101654053 5.117004394531 190 190 190
22.063255310059 9.675619125366 5.166000366211 193 193 193
22.065502166748 9.683101654053 5.220001220703 181 181 181
22.065502166748 9.683101654053 5.269012451172 187 187 187
22.065502166748 9.683101654053 5.320999145508 188 188 188
22.065502166748 9.683101654053 5.373001098633 190 190 190
22.065502166748 9.683101654053 5.425003051758 192 192 192
22.065502166748 9.683101654053 5.476013183594 191 191 191
22.065502166748 9.683101654053 5.527008056641 184 184 184
22.080467224121 9.678609848022 5.581008911133 186 186 186
22.080467224121 9.678609848022 5.633010864258 184 184 184
22.093185424805 9.666633605957 5.687011718750 178 178 178
22.080467224121 9.678609848022 5.736999511719 181 181 181
22.093185424805 9.666633605957 5.792999267578 183 183 183
22.095432281494 9.674116134644 5.846008300781 180 180 180
22.095432281494 9.674116134644 5.900009155273 174 174 174
22.110397338867 9.669623374939 5.954010009766 171 171 171
22.110397338867 9.669623374939 6.008010864258 117 117 117
22.110397338867 9.669623374939 6.062011718750 180 180 180
22.110397338867 9.669623374939 6.116012573242 184 184 184
22.125362396240 9.665130615234 6.173004150391 169 169 169
22.110397338867 9.669623374939 6.223007202148 157 157 157
22.140327453613 9.660636901855 6.288009643555 173 173 173
22.155292510986 9.656144142151 6.346008300781 208 208 208
22.187467575073 9.654640197754 6.416000366211 8 8 8
22.127607345581 9.672613143921 6.448013305664 135 135 135
22.140327453613 9.660636901855 6.508010864258 130 130 130
22.279504776001 9.635166168213 6.615005493164 49 49 49
22.245082855225 9.629186630249 6.658004760742 252 252 252
22.140327453613 9.660636901855 6.733001708984 19 19 19
22.053474426270 9.425687789917 2.830001831055 14 14 14
22.048980712891 9.410722732544 2.780014038086 66 66 66
22.053474426270 9.425687789917 2.731002807617 95 95 95
22.053474426270 9.425687789917 2.682006835938 119 119 119
22.036262512207 9.422698974609 2.632003784180 128 128 128
22.036262512207 9.422698974609 2.582000732422 136 136 136
22.036262512207 9.422698974609 2.532012939453 146 146 146
22.019050598145 9.419709205627 2.484008789063 139 139 139
22.023544311523 9.434674263000 2.435012817383 146 146 146
22.023544311523 9.434674263000 2.385009765625 155 155 155
22.023544311523 9.434674263000 2.333999633789 162 162 162
22.023544311523 9.434674263000 2.285003662109 172 172 172
22.023544311523 9.434674263000 2.235000610352 171 171 171
22.006332397461 9.431684494019 2.185012817383 173 173 173
22.023544311523 9.434674263000 2.133010864258 175 175 175
22.006332397461 9.431684494019 2.083999633789 180 180 180
22.023544311523 9.434674263000 2.032012939453 187 187 187
22.006332397461 9.431684494019 1.983001708984 185 185 185
22.006332397461 9.431684494019 1.932006835938 190 190 190
21.989120483398 9.428695678711 1.882003784180 189 189 189
21.989120483398 9.428695678711 1.831008911133 187 187 187
21.989120483398 9.428695678711 1.781005859375 196 196 196
21.993614196777 9.443660736084 1.731002807617 185 185 185
21.978649139404 9.448153495789 1.680999755859 192 192 192
21.978649139404 9.448153495789 1.630004882813 191 191 191
21.978649139404 9.448153495789 1.578002929688 178 178 178
21.959190368652 9.437681198120 1.480010986328 189 189 189
22.260082244873 9.787822723389 8.370010375977 18 18 18
22.230152130127 9.796808242798 8.283004760742 55 55 55
22.260082244873 9.787822723389 8.235000610352 105 105 105
22.230152130127 9.796808242798 8.157012939453 98 98 98
22.260082244873 9.787822723389 8.104003906250 122 122 122
22.317695617676 9.762369155884 8.073013305664 28 28 28
22.349872589111 9.760865211487 8.025009155273 54 54 54
22.262329101563 9.795305252075 7.911010742188 212 212 212
22.234643936157 9.811773300171 7.833999633789 154 154 154
22.230152130127 9.796808242798 7.773010253906 166 166 166
22.200222015381 9.805794715881 7.703002929688 155 155 155
22.200222015381 9.805794715881 7.645004272461 161 161 161
22.200222015381 9.805794715881 7.580001831055 157 157 157
22.200222015381 9.805794715881 7.522003173828 173 173 173
22.200222015381 9.805794715881 7.461013793945 170 170 170
22.200222015381 9.805794715881 7.396011352539 169 169 169
22.200222015381 9.805794715881 7.340011596680 166 166 166
22.200222015381 9.805794715881 7.276000976563 169 169 169
22.200222015381 9.805794715881 7.217010498047 166 166 166
22.200222015381 9.805794715881 7.162002563477 168 168 168
22.200222015381 9.805794715881 7.102005004883 173 173 173
22.197975158691 9.798312187195 7.040008544922 126 126 126
22.200222015381 9.805794715881 6.988006591797 166 166 166
22.197975158691 9.798312187195 6.926010131836 174 174 174
22.200222015381 9.805794715881 6.873001098633 168 168 168
22.200222015381 9.805794715881 6.816009521484 165 165 165
22.200222015381 9.805794715881 6.759002685547 165 165 165
22.200222015381 9.805794715881 6.703002929688 165 165 165
22.200222015381 9.805794715881 6.646011352539 159 159 159
22.200222015381 9.805794715881 6.595001220703 161 161 161
22.200222015381 9.805794715881 6.539001464844 161 161 161
22.210693359375 9.786336898804 6.484008789063 166 166 166
22.210693359375 9.786336898804 6.430007934570 168 168 168
22.210693359375 9.786336898804 6.379013061523 177 177 177
22.200222015381 9.805794715881 6.317001342773 136 136 136
22.210693359375 9.786336898804 6.264007568359 132 132 132
22.210693359375 9.786336898804 6.212005615234 131 131 131
22.200222015381 9.805794715881 6.152999877930 102 102 102
22.197975158691 9.798312187195 6.097000122070 138 138 138
22.210693359375 9.786336898804 6.052001953125 105 105 105
22.210693359375 9.786336898804 5.995010375977 68 68 68
22.210693359375 9.786336898804 5.941009521484 55 55 55
22.223411560059 9.774360656738 5.893005371094 25 25 25
22.195728302002 9.790829658508 5.833999633789 12 12 12
22.301313400269 10.142509460449 6.943008422852 47 47 47
22.183839797974 10.185935974121 6.131011962891 72 72 72
22.196557998657 10.173960685730 6.082000732422 113 113 113
22.259494781494 10.546600341797 6.790008544922 51 51 51
22.165210723877 10.558593750000 6.106002807617 83 83 83
22.177928924561 10.546617507935 6.059005737305 100 100 100
22.272212982178 10.534625053406 5.773010253906 74 74 74
22.230394363403 10.938716888428 6.651000976563 68 68 68
22.170534133911 10.956689834595 6.098007202148 82 82 82
22.185499191284 10.952196121216 6.049011230469 120 120 120
22.270795822144 10.910273551941 5.767013549805 114 114 114
22.222997665405 11.348789215088 6.485000610352 19 19 19
22.163137435913 11.366760253906 6.045013427734 144 144 144
22.237962722778 11.344295501709 5.758010864258 93 93 93
22.200637817383 11.763351440430 6.356002807617 76 76 76
22.170707702637 11.772337913513 6.040008544922 141 141 141
22.200637817383 11.763351440430 5.751007080078 61 61 61
22.230567932129 11.754365921021 5.705001831055 38 38 38
22.173782348633 12.162950515747 6.230010986328 73 73 73
22.143852233887 12.171936988831 6.069000244141 19 19 19
22.143852233887 12.171936988831 6.018005371094 137 137 137
22.186500549316 12.150976181030 5.937011718750 175 175 175
22.203712463379 12.153964996338 5.888000488281 176 176 176
22.218677520752 12.149472236633 5.841003417969 168 168 168
22.203712463379 12.153964996338 5.790008544922 181 181 181
22.203712463379 12.153964996338 5.741012573242 179 179 179
22.218677520752 12.149472236633 5.694000244141 23 23 23
22.174610137939 12.546081542969 6.098007202148 67 67 67
22.144680023193 12.555067062378 6.037002563477 102 102 102
22.146926879883 12.562549591064 5.991012573242 96 96 96
22.202295303345 12.529613494873 5.960006713867 75 75 75
22.204540252686 12.537096023560 5.912002563477 193 193 193
22.202295303345 12.529613494873 5.861007690430 196 196 196
22.217260360718 12.525119781494 5.817001342773 189 189 189
22.200048446655 12.522130966187 5.767013549805 191 191 191
22.204540252686 12.537096023560 5.717010498047 149 149 149
22.100616455078 12.951677322388 6.005004882813 143 143 143
22.130546569824 12.942691802979 5.966003417969 32 32 32
22.190406799316 12.924718856812 5.933013916016 117 117 117
22.203125000000 12.912742614746 5.888000488281 186 186 186
22.203125000000 12.912742614746 5.840011596680 174 174 174
22.203125000000 12.912742614746 5.791000366211 170 170 170
22.190406799316 12.924718856812 5.742004394531 201 201 201
22.190406799316 12.924718856812 5.693008422852 121 121 121
22.118656158447 13.337797164917 5.986999511719 147 147 147
22.138114929199 13.348268508911 5.945999145508 12 12 12
22.178516387939 13.319824218750 5.912002563477 111 111 111
22.178516387939 13.319824218750 5.866012573242 181 181 181
22.193481445313 13.315332412720 5.819000244141 161 161 161
22.193481445313 13.315332412720 5.772003173828 156 156 156
22.193481445313 13.315332412720 5.723999023438 197 197 197
22.178516387939 13.319824218750 5.676010131836 125 125 125
22.111261367798 13.747867584229 5.973007202148 149 149 149
22.175613403320 13.744861602783 5.899002075195 136 136 136
22.188331604004 13.732885360718 5.856002807617 186 186 186
22.188331604004 13.732885360718 5.810012817383 172 172 172
22.188331604004 13.732885360718 5.762008666992 173 173 173
22.175613403320 13.744861602783 5.714004516602 198 198 198
22.175613403320 13.744861602783 5.667007446289 141 141 141
22.108358383179 14.172904014587 6.000000000000 38 38 38
22.108358383179 14.172904014587 5.954010009766 137 137 137
22.168218612671 14.154932022095 5.649002075195 117 117 117
22.081504821777 14.572502136230 6.016006469727 73 73 73
22.096469879150 14.568009376526 5.976013183594 138 138 138
22.111434936523 14.563516616821 5.937011718750 126 126 126
22.139118194580 14.547048568726 5.901000976563 117 117 117
22.156330108643 14.550037384033 5.860000610352 90 90 90
22.156330108643 14.550037384033 5.814010620117 89 89 89
22.156330108643 14.550037384033 5.767013549805 95 95 95
22.156330108643 14.550037384033 5.721008300781 97 97 97
22.139118194580 14.547048568726 5.674011230469 115 115 115
22.156330108643 14.550037384033 5.634002685547 16 16 16
22.084579467773 14.963115692139 6.124008178711 79 79 79
22.084579467773 14.963115692139 5.985000610352 75 75 75
22.084579467773 14.963115692139 5.943008422852 142 142 142
22.139947891235 14.930178642273 5.643005371094 109 109 109
22.068199157715 15.343256950378 6.216003417969 92 92 92
22.083164215088 15.338763237000 5.951004028320 156 156 156
22.098129272461 15.334271430969 5.914001464844 82 82 82
22.130304336548 15.332767486572 5.660003662109 94 94 94
22.130304336548 15.332767486572 5.617004394531 16 16 16
22.045835494995 15.757820129395 6.320007324219 91 91 91
22.033117294312 15.769795417786 5.950012207031 92 92 92
22.060800552368 15.753327369690 5.922012329102 130 130 130
22.038438796997 16.167892456055 6.422012329102 89 89 89
22.068368911743 16.158905029297 5.948013305664 108 108 108
22.068368911743 16.158905029297 5.904006958008 109 109 109
22.001113891602 16.586948394775 6.561004638672 33 33 33
22.001113891602 16.586948394775 6.519012451172 54 54 54
22.050500869751 16.588436126709 5.924011230469 143 143 143
22.078186035156 16.571966171265 5.892013549805 17 17 17
22.008682250977 16.992527008057 6.657012939453 102 102 102
22.064048767090 16.959587097168 5.936004638672 111 111 111
22.064048767090 16.959587097168 5.894012451172 116 116 116
21.992300033569 17.372669219971 6.738006591797 107 107 107
22.028970718384 17.386129379272 6.720001220703 38 38 38
22.026723861694 17.378646850586 5.926010131836 102 102 102
22.056653976440 17.369659423828 5.899002075195 110 110 110
22.075351715088 17.323261260986 1.603012084961 19 19 19
22.075351715088 17.323261260986 1.562011718750 36 36 36
22.073104858398 17.315780639648 1.524002075195 40 40 40
22.075351715088 17.323261260986 1.482009887695 61 61 61
22.103034973145 17.306793212891 1.396011352539 104 104 104
22.103034973145 17.306793212891 1.355010986328 116 116 116
22.075351715088 17.323261260986 1.320999145508 114 114 114
22.077598571777 17.330745697021 1.277008056641 118 118 118
22.075351715088 17.323261260986 1.240005493164 114 114 114
22.075351715088 17.323261260986 1.199005126953 117 117 117
22.075351715088 17.323261260986 1.156005859375 118 118 118
22.073104858398 17.315780639648 1.120010375977 113 113 113
22.073104858398 17.315780639648 1.078002929688 119 119 119
22.103034973145 17.306793212891 1.024002075195 206 206 206
22.007093429565 9.488555908203 2.881011962891 9 9 9
22.030282974243 9.457121849060 2.819000244141 28 28 28
22.002599716187 9.473590850830 2.763000488281 59 59 59
22.028036117554 9.449639320374 2.702011108398 85 85 85
22.028036117554 9.449639320374 2.644012451172 105 105 105
22.028036117554 9.449639320374 2.583999633789 116 116 116
22.013071060181 9.454132080078 2.527008056641 125 125 125
21.998106002808 9.458625793457 2.469009399414 128 128 128
22.013071060181 9.454132080078 2.409011840820 141 141 141
22.013071060181 9.454132080078 2.351013183594 137 137 137
22.013071060181 9.454132080078 2.291000366211 140 140 140
21.995861053467 9.451143264771 2.233001708984 142 142 142
21.995861053467 9.451143264771 2.174011230469 142 142 142
21.995861053467 9.451143264771 2.114013671875 138 138 138
21.993614196777 9.443660736084 2.057006835938 141 141 141
21.993614196777 9.443660736084 1.995010375977 153 153 153
21.993614196777 9.443660736084 1.937011718750 146 146 146
22.065431594849 9.356842041016 1.854003906250 59 59 59
22.048221588135 9.353853225708 1.796005249023 35 35 35
22.035501480103 9.365827560425 1.738006591797 59 59 59
22.014556884766 9.404744148254 1.685012817383 3 3 3
21.961437225342 9.445163726807 1.393005371094 180 180 180
21.961437225342 9.445163726807 1.333007812500 180 180 180
21.959190368652 9.437681198120 1.273010253906 171 171 171
21.999591827393 9.409236907959 1.626998901367 244 244 244
22.311750411987 9.959920883179 8.488006591797 76 76 76
22.324470520020 9.947945594788 8.425003051758 145 145 145
22.305011749268 9.937473297119 8.346008300781 118 118 118
22.305011749268 9.937473297119 8.279006958008 132 132 132
22.305011749268 9.937473297119 8.208999633789 118 118 118
22.300518035889 9.922508239746 8.143005371094 115 115 115
22.300518035889 9.922508239746 8.078002929688 110 110 110
22.300518035889 9.922508239746 8.005004882813 105 105 105
22.300518035889 9.922508239746 7.939010620117 106 106 106
22.310991287231 9.903050422668 7.874008178711 100 100 100
22.321462631226 9.883592605591 7.813003540039 94 94 94
22.423212051392 9.787788391113 7.813003540039 67 67 67
22.372337341309 9.835690498352 7.715011596680 6 6 6
22.393281936646 9.796773910522 7.662002563477 28 28 28
22.444154739380 9.748872756958 7.481002807617 13 13 13
22.316970825195 9.868627548218 7.292999267578 24 24 24
22.327442169189 9.849168777466 7.232009887695 9 9 9
22.299758911133 9.865637779236 7.025009155273 85 85 85
22.178550720215 9.950969696045 6.111999511719 93 93 93
22.324434280396 9.784816741943 6.101013183594 81 81 81
22.186882019043 10.413418769836 6.092010498047 116 116 116
22.252824783325 10.850413322449 6.694000244141 38 38 38
22.182491302490 10.887843132019 6.070999145508 109 109 109
22.262535095215 10.774084091187 5.809005737305 15 15 15
22.205787658691 11.345798492432 6.537002563477 9 9 9
22.152666091919 11.386219024658 6.049011230469 110 110 110
22.219991683960 11.284435272217 5.784011840820 10 10 10
22.197664260864 11.862129211426 6.332000732422 43 43 43
22.146789550781 11.910031318665 6.030014038086 103 103 103
22.144542694092 11.902548789978 5.973007202148 5 5 5
22.235059738159 11.769331932068 5.723007202148 24 24 24
22.146892547607 12.399420738220 6.019012451172 111 111 111
22.203746795654 12.317094802856 5.930999755859 161 161 161
22.231430053711 12.300626754761 5.879013061523 128 128 128
22.214218139648 12.297636032104 5.822006225586 168 168 168
22.214218139648 12.297636032104 5.766006469727 170 170 170
22.214218139648 12.297636032104 5.708999633789 87 87 87
22.132032394409 12.893302917480 6.049011230469 12 12 12
22.142503738403 12.873844146729 5.998001098633 103 103 103
22.203849792480 12.806484222412 5.914001464844 168 168 168
22.201602935791 12.799001693726 5.858001708984 159 159 159
22.201602935791 12.799001693726 5.803009033203 157 157 157
22.203849792480 12.806484222412 5.751007080078 175 175 175
22.214321136475 12.787025451660 5.699005126953 84 84 84
22.127643585205 13.367727279663 6.024002075195 66 66 66
22.153079986572 13.343775749207 5.977005004883 84 84 84
22.199460983276 13.280908584595 5.944000244141 19 19 19
22.209932327271 13.261450767517 5.891006469727 176 176 176
22.209932327271 13.261450767517 5.837005615234 163 163 163
22.194967269897 13.265943527222 5.783004760742 114 114 114
22.209932327271 13.261450767517 5.732009887695 176 176 176
22.220405578613 13.241992950439 5.679000854492 57 57 57
22.123252868652 13.842151641846 5.995010375977 104 104 104
22.144197463989 13.803235054016 5.954010009766 26 26 26
22.182353973389 13.767309188843 5.913009643555 90 90 90
22.195072174072 13.755332946777 5.867004394531 155 155 155
22.205543518066 13.735875129700 5.815002441406 128 128 128
22.205543518066 13.735875129700 5.763000488281 131 131 131
22.205543518066 13.735875129700 5.710006713867 168 168 168
22.211523056030 13.701452255249 5.664001464844 30 30 30
22.108392715454 14.336033821106 5.971008300781 117 117 117
22.165245056152 14.253707885742 5.682006835938 44 44 44
22.087551116943 14.864339828491 6.098999023438 12 12 12
22.108495712280 14.825423240662 6.060012817383 26 26 26
22.108495712280 14.825423240662 5.953002929688 122 122 122
22.154876708984 14.762556076050 5.670013427734 62 62 62
22.077184677124 15.373187065125 6.229003906250 63 63 63
22.098129272461 15.334271430969 5.986007690430 18 18 18
22.098129272461 15.334271430969 5.938003540039 122 122 122
22.140016555786 15.256438255310 5.661010742188 71 71 71
22.026411056519 15.910477638245 6.374008178711 16 16 16
22.064567565918 15.874551773071 6.342010498047 37 37 37
22.083265304565 15.828152656555 5.956008911133 101 101 101
22.104209899902 15.789236068726 5.919006347656 87 87 87
22.022022247314 16.384902954102 6.519012451172 12 12 12
22.034740447998 16.372924804688 6.480010986328 83 83 83
22.089347839355 16.283119201660 5.969009399414 20 20 20
22.084854125977 16.268154144287 5.924011230469 110 110 110
21.981723785400 16.902736663818 6.652008056641 38 38 38
22.007162094116 16.878784179688 6.619003295898 65 65 65
22.072240829468 16.769519805908 5.929000854492 113 113 113
21.945194244385 17.541793823242 8.149002075195 86 86 86
21.947441101074 17.549276351929 8.100006103516 134 134 134
21.942947387695 17.534311294556 8.045013427734 149 149 149
21.942947387695 17.534311294556 7.994003295898 146 146 146
21.940700531006 17.526828765869 7.934005737305 133 133 133
21.940700531006 17.526828765869 7.875000000000 127 127 127
21.938453674316 17.519346237183 7.832000732422 121 121 121
21.936206817627 17.511863708496 7.777008056641 111 111 111
21.936206817627 17.511863708496 7.725006103516 99 99 99
21.948925018311 17.499889373779 7.677001953125 90 90 90
21.936206817627 17.511863708496 7.614013671875 86 86 86
21.936206817627 17.511863708496 7.563003540039 73 73 73
21.946680068970 17.492404937744 7.518005371094 53 53 53
21.946680068970 17.492404937744 7.463012695313 31 31 31
21.924974441528 17.474451065063 6.755004882813 113 113 113
21.971355438232 17.411582946777 6.739013671875 103 103 103
22.022230148315 17.363681793213 6.719009399414 76 76 76
21.939180374146 17.413085937500 5.926010131836 52 52 52
22.023715972900 17.314292907715 5.924011230469 83 83 83
22.061872482300 17.278366088867 5.895004272461 83 83 83
22.159957885742 17.550727844238 3.911010742188 61 61 61
22.159957885742 17.550727844238 3.868011474609 100 100 100
22.159957885742 17.550727844238 3.825012207031 124 124 124
22.142745971680 17.547737121582 3.783004760742 144 144 144
22.142745971680 17.547737121582 3.740005493164 150 150 150
22.142745971680 17.547737121582 3.697006225586 158 158 158
22.142745971680 17.547737121582 3.655014038086 166 166 166
22.142745971680 17.547737121582 3.611999511719 164 164 164
22.144992828369 17.555221557617 3.569000244141 164 164 164
22.130027770996 17.559715270996 3.527008056641 167 167 167
22.140499114990 17.540256500244 3.484008789063 169 169 169
22.140499114990 17.540256500244 3.441009521484 174 174 174
22.130027770996 17.559715270996 3.399002075195 180 180 180
22.140499114990 17.540256500244 3.356002807617 190 190 190
22.140499114990 17.540256500244 3.313003540039 196 196 196
22.115062713623 17.564205169678 3.271011352539 191 191 191
22.115062713623 17.564205169678 3.228012084961 189 189 189
22.115062713623 17.564205169678 3.186004638672 195 195 195
22.125534057617 17.544750213623 3.142013549805 194 194 194
22.108322143555 17.541759490967 3.100006103516 196 196 196
22.112815856934 17.556724548340 3.058013916016 175 175 175
22.112815856934 17.556724548340 3.014999389648 191 191 191
22.110569000244 17.549240112305 2.973007202148 198 198 198
22.110569000244 17.549240112305 2.929000854492 196 196 196
22.110569000244 17.549240112305 2.886001586914 201 201 201
22.106075286865 17.534275054932 2.843002319336 196 196 196
22.110569000244 17.549240112305 2.800003051758 185 185 185
22.106075286865 17.534275054932 2.757003784180 189 189 189
22.110569000244 17.549240112305 2.714004516602 194 194 194
22.110569000244 17.549240112305 2.671005249023 196 196 196
22.110569000244 17.549240112305 2.626998901367 196 196 196
22.106075286865 17.534275054932 2.583999633789 198 198 198
22.106075286865 17.534275054932 2.539001464844 194 194 194
22.095603942871 17.553733825684 2.497009277344 184 184 184
22.106075286865 17.534275054932 2.453002929688 193 193 193
22.106075286865 17.534275054932 2.409011840820 196 196 196
22.106075286865 17.534275054932 2.366012573242 193 193 193
22.106075286865 17.534275054932 2.320999145508 180 180 180
22.088865280151 17.531288146973 2.277999877930 183 183 183
22.088865280151 17.531288146973 2.234008789063 190 190 190
22.088865280151 17.531288146973 2.189010620117 187 187 187
22.088865280151 17.531288146973 2.145004272461 189 189 189
22.076145172119 17.543262481689 2.103012084961 189 189 189
22.071653366089 17.528297424316 2.057006835938 192 192 192
22.071653366089 17.528297424316 2.012008666992 183 183 183
22.076145172119 17.543262481689 1.969009399414 181 181 181
22.076145172119 17.543262481689 1.925003051758 184 184 184
22.071653366089 17.528297424316 1.878005981445 192 192 192
22.071653366089 17.528297424316 1.833007812500 187 187 187
22.071653366089 17.528297424316 1.786010742188 185 185 185
22.071653366089 17.528297424316 1.742004394531 189 189 189
22.067161560059 17.513332366943 1.693008422852 186 186 186
22.071653366089 17.528297424316 1.652008056641 181 181 181
22.071653366089 17.528297424316 1.605010986328 186 186 186
22.071653366089 17.528297424316 1.560012817383 181 181 181
22.067161560059 17.513332366943 1.511001586914 184 184 184
22.067161560059 17.513332366943 1.465011596680 186 186 186
22.067161560059 17.513332366943 1.420013427734 190 190 190
22.067161560059 17.513332366943 1.372009277344 191 191 191
22.064914703369 17.505849838257 1.326004028320 191 191 191
22.067161560059 17.513332366943 1.276000976563 189 189 189
22.064914703369 17.505849838257 1.231002807617 185 185 185
22.064914703369 17.505849838257 1.185012817383 182 182 182
22.088104248047 17.474414825439 1.120010375977 170 170 170
22.098575592041 17.454959869385 1.066009521484 171 171 171
22.088104248047 17.474414825439 1.023010253906 170 170 170
22.116374969482 9.635200500488 3.595001220703 12 12 12
22.116374969482 9.635200500488 3.651000976563 100 100 100
22.099163055420 9.632210731506 3.707000732422 139 139 139
22.081953048706 9.629220962524 3.762008666992 157 157 157
22.081953048706 9.629220962524 3.818008422852 164 164 164
22.081953048706 9.629220962524 3.874008178711 174 174 174
22.081953048706 9.629220962524 3.929000854492 166 166 166
22.081953048706 9.629220962524 3.985000610352 177 177 177
22.081953048706 9.629220962524 4.040008544922 193 193 193
22.092424392700 9.609763145447 4.096008300781 204 204 204
22.092424392700 9.609763145447 4.152008056641 205 205 205
22.092424392700 9.609763145447 4.207000732422 200 200 200
22.092424392700 9.609763145447 4.263000488281 197 197 197
22.077459335327 9.614255905151 4.318008422852 215 215 215
22.077459335327 9.614255905151 4.374008178711 193 193 193
22.077459335327 9.614255905151 4.430007934570 194 194 194
22.092424392700 9.609763145447 4.485000610352 204 204 204
22.092424392700 9.609763145447 4.541000366211 203 203 203
22.102897644043 9.590305328369 4.598007202148 205 205 205
22.102897644043 9.590305328369 4.652999877930 205 205 205
22.102897644043 9.590305328369 4.708007812500 208 208 208
22.105142593384 9.597787857056 4.764999389648 199 199 199
22.102897644043 9.590305328369 4.820999145508 208 208 208
22.105142593384 9.597787857056 4.878005981445 204 204 204
22.122354507446 9.600776672363 4.935012817383 203 203 203
22.122354507446 9.600776672363 4.991012573242 203 203 203
22.122354507446 9.600776672363 5.048004150391 202 202 202
22.122354507446 9.600776672363 5.104003906250 201 201 201
22.137319564819 9.596283912659 5.162002563477 202 202 202
22.137319564819 9.596283912659 5.219009399414 206 206 206
22.137319564819 9.596283912659 5.276000976563 182 182 182
22.137319564819 9.596283912659 5.333007812500 195 195 195
22.156778335571 9.606756210327 5.393005371094 195 195 195
22.156778335571 9.606756210327 5.450012207031 187 187 187
22.171743392944 9.602262496948 5.509002685547 185 185 185
22.171743392944 9.602262496948 5.567001342773 180 180 180
22.173988342285 9.609745025635 5.626998901367 170 170 170
22.201673507690 9.593276977539 5.687011718750 187 187 187
22.255554199219 9.609727859497 5.755004882813 7 7 7
22.270519256592 9.605236053467 5.818008422852 14 14 14
22.309434890747 9.626179695129 5.886001586914 54 54 54
22.201673507690 9.593276977539 5.923004150391 108 108 108
22.203918457031 9.600759506226 5.982009887695 66 66 66
22.236095428467 9.599256515503 6.045013427734 12 12 12
22.230186462402 9.959938049316 6.062011718750 56 56 56
22.176305770874 9.943487167358 6.106002807617 106 106 106
22.287799835205 9.934484481812 6.977005004883 73 73 73
22.290046691895 9.941967010498 7.040008544922 38 38 38
22.257110595703 9.886598587036 7.913009643555 5 5 5
22.242145538330 9.891092300415 7.973999023438 51 51 51
22.259355545044 9.894081115723 8.048004150391 80 80 80
22.242145538330 9.891092300415 8.105010986328 89 89 89
22.257110595703 9.886598587036 8.177001953125 114 114 114
22.242145538330 9.891092300415 8.242004394531 123 123 123
22.242145538330 9.891092300415 8.309005737305 133 133 133
22.242145538330 9.891092300415 8.372009277344 135 135 135
22.252616882324 9.871633529663 8.442001342773 136 136 136
22.195833206177 10.280219078064 6.058013916016 61 61 61
22.180868148804 10.284711837769 6.114013671875 107 107 107
22.275150299072 10.272719383240 6.908004760742 60 60 60
22.273733139038 10.648366928101 5.782012939453 111 111 111
22.185430526733 10.625937461853 6.048004150391 53 53 53
22.180936813354 10.610971450806 6.102005004883 126 126 126
22.245290756226 10.607965469360 6.764007568359 60 60 60
22.254344940186 10.964155197144 5.763000488281 97 97 97
22.210935592651 10.928245544434 6.027999877930 7 7 7
22.176513671875 10.922266006470 6.077011108398 139 139 139
22.223655700684 10.916269302368 6.667007446289 67 67 67
22.249921798706 11.275449752808 5.747009277344 105 105 105
22.181076049805 11.263490676880 6.014007568359 16 16 16
22.146652221680 11.257512092590 6.062011718750 140 140 140
22.225971221924 11.250012397766 6.535003662109 68 68 68
22.241765975952 11.628648757935 5.702011108398 19 19 19
22.235025405884 11.606201171875 5.756011962891 83 83 83
22.166179656982 11.594244003296 6.013000488281 124 124 124
22.166179656982 11.594244003296 6.070999145508 76 76 76
22.196109771729 11.585257530212 6.413009643555 69 69 69
22.233608245850 11.981849670410 5.720001220703 146 146 146
22.233608245850 11.981849670410 5.774002075195 198 198 198
22.218643188477 11.986342430115 5.825012207031 199 199 199
22.201431274414 11.983352661133 5.879013061523 203 203 203
22.229116439819 11.966884613037 5.935012817383 167 167 167
22.140810012817 11.944454193115 6.024002075195 132 132 132
22.194692611694 11.960905075073 6.259002685547 14 14 14
22.220958709717 12.320083618164 5.727005004883 168 168 168
22.203746795654 12.317094802856 5.779006958008 160 160 160
22.203746795654 12.317094802856 5.832000732422 186 186 186
22.203746795654 12.317094802856 5.884002685547 161 161 161
22.203746795654 12.317094802856 5.940002441406 166 166 166
22.167076110840 12.303632736206 5.981002807617 19 19 19
22.134899139404 12.305136680603 6.029006958008 141 141 141
22.208309173584 12.658319473267 5.715011596680 159 159 159
22.223274230957 12.653826713562 5.770004272461 190 190 190
22.206062316895 12.650836944580 5.819000244141 196 196 196
22.206062316895 12.650836944580 5.872009277344 206 206 206
22.201568603516 12.635871887207 5.925003051758 186 186 186
22.154426574707 12.641868591309 5.965011596680 139 139 139
22.130475997925 12.616431236267 6.013000488281 144 144 144
22.130475997925 12.616431236267 6.069000244141 113 113 113
22.203884124756 12.969614028931 5.699005126953 144 144 144
22.203884124756 12.969614028931 5.750000000000 204 204 204
22.203884124756 12.969614028931 5.803009033203 181 181 181
22.199392318726 12.954648971558 5.856002807617 185 185 185
22.199392318726 12.954648971558 5.907012939453 197 197 197
22.128299713135 12.935207366943 5.995010375977 152 152 152
22.126052856445 12.927724838257 6.046005249023 8 8 8
22.199460983276 13.280908584595 5.694000244141 171 171 171
22.199460983276 13.280908584595 5.745010375977 194 194 194
22.184495925903 13.285402297974 5.794006347656 208 208 208
22.199460983276 13.280908584595 5.848999023438 208 208 208
22.199460983276 13.280908584595 5.902008056641 174 174 174
22.130615234375 13.268950462341 5.986999511719 163 163 163
22.178586959839 13.646084785461 5.650009155273 78 78 78
22.178586959839 13.646084785461 5.699005126953 200 200 200
22.178586959839 13.646084785461 5.751007080078 163 163 163
22.193552017212 13.641592025757 5.803009033203 146 146 146
22.193552017212 13.641592025757 5.855010986328 170 170 170
22.174093246460 13.631119728088 5.900009155273 129 129 129
22.139669418335 13.625141143799 5.942001342773 56 56 56
22.120212554932 13.614667892456 5.989013671875 140 140 140
22.185394287109 13.994791030884 5.659011840820 134 134 134
22.183147430420 13.987308502197 5.708007812500 206 206 206
22.185394287109 13.994791030884 5.760009765625 206 206 206
22.183147430420 13.987308502197 5.808013916016 206 206 206
22.178655624390 13.972343444824 5.859008789063 206 206 206
22.178655624390 13.972343444824 5.909011840820 67 67 67
22.127021789551 13.963375091553 5.947006225586 111 111 111
22.127021789551 13.963375091553 5.996002197266 112 112 112
22.155534744263 14.330037117004 5.651000976563 125 125 125
22.118864059448 14.316576004028 5.935012817383 89 89 89
22.084442138672 14.310596466064 5.982009887695 134 134 134
22.155603408813 14.656295776367 5.636001586914 89 89 89
22.157850265503 14.663780212402 5.687011718750 17 17 17
22.121179580688 14.650317192078 5.921005249023 16 16 16
22.089004516602 14.651821136475 5.965011596680 146 146 146
22.118934631348 14.642834663391 6.017013549805 55 55 55
