8.658692359924 20.055259704590 67.081001281738 14 14 14
8.637868881226 20.083314895630 67.023994445801 60 60 60
8.622425079346 20.350324630737 67.905998229980 15 15 15
8.619706153870 20.365711212158 67.041999816895 104 104 104
8.616931915283 20.650827407837 67.989997863770 15 15 15
8.601545333862 20.648109436035 67.058998107910 92 92 92
8.634980201721 20.907890319824 68.140998840332 15 15 15
8.619593620300 20.905170440674 67.078994750977 13 13 13
8.586101531982 20.915121078491 67.020996093750 50 50 50
8.616817474365 21.190288543701 68.863998413086 94 94 94
8.634922981262 21.177619934082 68.787994384766 103 103 103
8.616817474365 21.190288543701 68.722999572754 110 110 110
8.616817474365 21.190288543701 68.652999877930 108 108 108
8.616817474365 21.190288543701 68.585998535156 106 106 106
8.616817474365 21.190288543701 68.514999389648 104 104 104
8.616817474365 21.190288543701 68.444000244141 101 101 101
8.601430892944 21.187568664551 68.380996704102 100 100 100
8.601430892944 21.187568664551 68.310997009277 96 96 96
8.650309562683 21.180337905884 68.224998474121 88 88 88
8.616817474365 21.190288543701 68.168998718262 110 110 110
8.586044311523 21.184850692749 68.106994628906 90 90 90
8.601430892944 21.187568664551 68.034996032715 80 80 80
8.583326339722 21.200237274170 67.973999023438 80 80 80
8.583326339722 21.200237274170 67.905998229980 84 84 84
8.583326339722 21.200237274170 67.839996337891 90 90 90
8.583326339722 21.200237274170 67.772994995117 89 89 89
8.583326339722 21.200237274170 67.706001281738 96 96 96
8.567939758301 21.197517395020 67.641998291016 90 90 90
8.567939758301 21.197517395020 67.572998046875 95 95 95
8.586044311523 21.184850692749 67.502998352051 95 95 95
8.567939758301 21.197517395020 67.442001342773 97 97 97
8.565220832825 21.212903976440 67.379997253418 96 96 96
8.567939758301 21.197517395020 67.310997009277 96 96 96
8.565220832825 21.212903976440 67.249000549316 92 92 92
8.549834251404 21.210186004639 67.186996459961 87 87 87
8.565220832825 21.212903976440 67.117996215820 93 93 93
8.583326339722 21.200237274170 67.046997070313 112 112 112
8.549834251404 21.210186004639 66.989997863770 108 108 108
8.549834251404 21.210186004639 66.929000854492 106 106 106
8.567939758301 21.197517395020 66.856994628906 99 99 99
8.565220832825 21.212903976440 66.794998168945 108 108 108
8.549834251404 21.210186004639 66.736999511719 108 108 108
8.549834251404 21.210186004639 66.674995422363 116 116 116
8.549834251404 21.210186004639 66.608001708984 114 114 114
8.549834251404 21.210186004639 66.544998168945 116 116 116
8.549834251404 21.210186004639 66.481994628906 119 119 119
8.549834251404 21.210186004639 66.418998718262 124 124 124
8.549834251404 21.210186004639 66.355995178223 126 126 126
8.549834251404 21.210186004639 66.294998168945 127 127 127
8.549834251404 21.210186004639 66.231994628906 135 135 135
8.549834251404 21.210186004639 66.170997619629 135 135 135
8.549834251404 21.210186004639 66.108001708984 147 147 147
8.549834251404 21.210186004639 66.045997619629 144 144 144
8.549834251404 21.210186004639 65.985000610352 150 150 150
8.549834251404 21.210186004639 65.921997070313 143 143 143
8.549834251404 21.210186004639 65.860000610352 140 140 140
8.549834251404 21.210186004639 65.798995971680 149 149 149
8.549834251404 21.210186004639 65.737998962402 156 156 156
8.549834251404 21.210186004639 65.674995422363 151 151 151
8.549834251404 21.210186004639 65.614997863770 158 158 158
8.549834251404 21.210186004639 65.553001403809 165 165 165
8.513624191284 21.235521316528 64.823997497559 185 185 185
8.513624191284 21.235521316528 64.763000488281 191 191 191
8.516342163086 21.220134735107 64.701995849609 192 192 192
8.513624191284 21.235521316528 64.641998291016 197 197 197
8.513624191284 21.235521316528 64.581001281738 197 197 197
8.498237609863 21.232803344727 64.520996093750 202 202 202
8.513624191284 21.235521316528 64.459999084473 200 200 200
8.513624191284 21.235521316528 64.400001525879 196 196 196
8.513624191284 21.235521316528 64.338996887207 201 201 201
8.513624191284 21.235521316528 64.277999877930 204 204 204
8.513624191284 21.235521316528 64.217994689941 199 199 199
8.498237609863 21.232803344727 64.156997680664 194 194 194
8.498237609863 21.232803344727 64.097000122070 175 175 175
8.482851028442 21.230085372925 62.935997009277 185 185 185
8.482851028442 21.230085372925 62.875000000000 187 187 187
8.482851028442 21.230085372925 62.812995910645 183 183 183
8.482851028442 21.230085372925 62.750000000000 178 178 178
8.482851028442 21.230085372925 62.687995910645 182 182 182
8.482851028442 21.230085372925 62.625999450684 183 183 183
8.467463493347 21.227365493774 62.562995910645 182 182 182
8.482851028442 21.230085372925 62.501998901367 181 181 181
8.467463493347 21.227365493774 62.437995910645 168 168 168
8.467463493347 21.227365493774 62.375000000000 166 166 166
8.467463493347 21.227365493774 62.311996459961 150 150 150
8.482851028442 21.230085372925 62.250999450684 162 162 162
8.482851028442 21.230085372925 62.187995910645 131 131 131
8.467463493347 21.227365493774 62.124000549316 97 97 97
8.519061088562 21.204748153687 62.008995056152 72 72 72
8.586044311523 21.184850692749 61.962997436523 75 75 75
8.449357986450 21.240034103394 65.502998352051 124 124 124
8.513624191284 21.235521316528 64.886001586914 180 180 180
8.482851028442 21.230085372925 62.999000549316 139 139 139
8.868858337402 10.603915214539 66.074996948242 34 34 34
8.868858337402 10.603915214539 66.142997741699 101 101 101
8.868858337402 10.603915214539 66.214996337891 123 123 123
8.896912574768 10.624738693237 66.283996582031 140 140 140
8.894193649292 10.640125274658 66.352996826172 137 137 137
8.924967765808 10.645562171936 66.419998168945 148 148 148
8.924967765808 10.645562171936 66.489997863770 141 141 141
8.924967765808 10.645562171936 66.559997558594 145 145 145
8.922248840332 10.660948753357 66.628997802734 163 163 163
8.922248840332 10.660948753357 66.701995849609 169 169 169
8.922248840332 10.660948753357 66.773994445801 161 161 161
8.934917449951 10.679054260254 66.841995239258 182 182 182
8.934917449951 10.679054260254 66.914001464844 189 189 189
8.950304031372 10.681773185730 66.985000610352 190 190 190
8.950304031372 10.681773185730 67.055999755859 177 177 177
8.962971687317 10.699879646301 67.124000549316 166 166 166
8.962971687317 10.699879646301 67.197998046875 185 185 185
8.975640296936 10.717984199524 67.267997741699 182 182 182
8.991026878357 10.720703125000 67.337997436523 177 177 177
8.991026878357 10.720703125000 67.409996032715 181 181 181
8.991026878357 10.720703125000 67.483001708984 184 184 184
9.006413459778 10.723422050476 67.554000854492 169 169 169
9.006413459778 10.723422050476 67.626998901367 184 184 184
9.006413459778 10.723422050476 67.699996948242 179 179 179
9.016362190247 10.756913185120 67.766998291016 180 180 180
9.016362190247 10.756913185120 67.842994689941 182 182 182
9.016362190247 10.756913185120 67.915000915527 176 176 176
9.016362190247 10.756913185120 67.988998413086 183 183 183
9.031748771667 10.759632110596 68.061996459961 182 182 182
9.044417381287 10.777737617493 68.134994506836 177 177 177
9.057085037231 10.795842170715 68.201995849609 101 101 101
9.044417381287 10.777737617493 68.281997680664 172 172 172
9.044417381287 10.777737617493 68.359001159668 174 174 174
9.041698455811 10.793124198914 68.435997009277 173 173 173
9.057085037231 10.795842170715 68.511001586914 179 179 179
9.057085037231 10.795842170715 68.587997436523 165 165 165
9.057085037231 10.795842170715 68.660995483398 160 160 160
9.072471618652 10.798561096191 68.736000061035 136 136 136
9.072471618652 10.798561096191 68.815994262695 134 134 134
9.072471618652 10.798561096191 68.893997192383 127 127 127
9.085140228271 10.816666603088 68.965995788574 118 118 118
9.072471618652 10.798561096191 69.048995971680 109 109 109
9.097807884216 10.834771156311 69.119995117188 95 95 95
9.085140228271 10.816666603088 69.202995300293 81 81 81
9.082421302795 10.832053184509 69.281997680664 35 35 35
9.082421302795 10.832053184509 69.360000610352 16 16 16
8.409976959229 10.506969451904 62.004997253418 144 144 144
8.397308349609 10.488863945007 62.074996948242 153 153 153
8.422644615173 10.525074958801 62.156997680664 184 184 184
8.450699806213 10.545898437500 62.238002777100 189 189 189
8.450699806213 10.545898437500 62.313995361328 204 204 204
8.494140625000 10.569440841675 62.394996643066 183 183 183
8.506809234619 10.587546348572 62.471000671387 164 164 164
8.519476890564 10.605651855469 62.544998168945 163 163 163
8.534863471985 10.608369827271 62.620994567871 165 165 165
8.534863471985 10.608369827271 62.695999145508 169 169 169
8.534863471985 10.608369827271 62.769001007080 167 167 167
8.547531127930 10.626476287842 62.842994689941 173 173 173
8.560199737549 10.644581794739 62.916999816895 176 176 176
8.560199737549 10.644581794739 62.989997863770 174 174 174
8.560199737549 10.644581794739 63.062995910645 185 185 185
8.560199737549 10.644581794739 63.134994506836 181 181 181
8.575586318970 10.647299766541 63.208000183105 182 182 182
8.588254928589 10.665405273438 63.280998229980 182 182 182
8.588254928589 10.665405273438 63.352996826172 187 187 187
8.600922584534 10.683510780334 63.425994873047 180 180 180
8.600922584534 10.683510780334 63.498001098633 188 188 188
8.616309165955 10.686228752136 63.569999694824 187 187 187
8.616309165955 10.686228752136 63.641998291016 188 188 188
8.613590240479 10.701615333557 63.713996887207 192 192 192
8.616309165955 10.686228752136 63.784996032715 192 192 192
8.610871315002 10.717001914978 63.855995178223 193 193 193
8.626257896423 10.719720840454 63.928001403809 189 189 189
8.626257896423 10.719720840454 63.999000549316 196 196 196
8.626257896423 10.719720840454 64.069999694824 181 181 181
8.626257896423 10.719720840454 64.140998840332 196 196 196
8.641645431519 10.722439765930 64.211997985840 193 193 193
8.641645431519 10.722439765930 64.282997131348 193 193 193
8.641645431519 10.722439765930 64.353996276855 190 190 190
8.641645431519 10.722439765930 64.424995422363 193 193 193
8.654313087463 10.740544319153 64.495994567871 198 198 198
8.651595115662 10.755930900574 64.567001342773 197 197 197
8.651595115662 10.755930900574 64.638000488281 198 198 198
8.651595115662 10.755930900574 64.708000183105 197 197 197
8.651595115662 10.755930900574 64.778999328613 186 186 186
8.651595115662 10.755930900574 64.849998474121 177 177 177
8.651595115662 10.755930900574 64.920997619629 169 169 169
8.679649353027 10.776755332947 64.990997314453 163 163 163
8.679649353027 10.776755332947 65.060997009277 141 141 141
8.679649353027 10.776755332947 65.132995605469 147 147 147
8.679649353027 10.776755332947 65.202995300293 135 135 135
8.676930427551 10.792141914368 65.275001525879 118 118 118
8.664262771606 10.774036407471 65.347000122070 87 87 87
8.664262771606 10.774036407471 65.418998718262 17 17 17
8.911317825317 10.992225646973 67.089996337891 75 75 75
8.992763519287 11.070084571838 68.167999267578 15 15 15
8.897667884827 11.338888168335 67.101997375488 51 51 51
8.979113578796 11.416747093201 68.027000427246 12 12 12
8.889455795288 11.654777526855 67.054000854492 42 42 42
8.893910408020 11.988772392273 67.081001281738 71 71 71
8.873029708862 12.286556243896 67.045997619629 63 63 63
8.929140090942 12.328204154968 67.605995178223 17 17 17
8.859380722046 12.633218765259 67.065994262695 79 79 79
8.887435913086 12.654042243958 67.488998413086 22 22 22
8.863836288452 12.967213630676 67.080001831055 52 52 52
8.863836288452 12.967213630676 67.364997863770 18 18 18
8.840236663818 13.280384063721 67.032997131348 33 33 33
8.883677482605 13.303926467896 67.094001770020 10 10 10
8.868290901184 13.301207542419 67.236000061035 12 12 12
8.788582801819 13.572731018066 66.712997436523 8 8 8
8.813919067383 13.608941078186 66.986000061035 18 18 18
8.844693183899 13.614378929138 67.047996520996 82 82 82
8.844693183899 13.614378929138 67.119995117188 27 27 27
8.780369758606 13.888620376587 66.747001647949 46 46 46
8.821093559265 13.927549362183 67.013999938965 18 18 18
8.861815452576 13.966478347778 67.072998046875 29 29 29
8.772157669067 14.204509735107 66.777000427246 16 16 16
8.838216781616 14.279649734497 67.033996582031 58 58 58
8.761226654053 14.535785675049 66.727996826172 53 53 53
8.858058929443 14.616362571716 67.045997619629 74 74 74
8.722240447998 14.846238136292 66.750999450684 77 77 77
8.806405067444 14.908709526062 67.000999450684 43 43 43
8.831741333008 14.944920539856 67.058998107910 79 79 79
8.698640823364 15.159409523010 66.775001525879 157 157 157
8.726696968079 15.180232048035 66.836997985840 180 180 180
8.723978042603 15.195618629456 66.902999877930 137 137 137
8.736645698547 15.213725090027 66.964996337891 133 133 133
8.792755126953 15.255372047424 67.021995544434 96 96 96
8.820809364319 15.276196479797 67.074996948242 14 14 14
8.672324180603 15.487965583801 66.797996520996 194 194 194
8.700378417969 15.508790016174 66.863998413086 175 175 175
8.697660446167 15.524176597595 66.930000305176 170 170 170
8.728433609009 15.529614448547 66.989997863770 158 158 158
8.809878349304 15.607472419739 67.030998229980 72 72 72
8.648724555969 15.801136970520 66.762001037598 87 87 87
8.676779747009 15.821961402893 66.823997497559 194 194 194
8.689447402954 15.840065956116 66.888000488281 152 152 152
8.704833984375 15.842783927917 66.952995300293 167 167 167
8.745556831360 15.881712913513 67.005996704102 111 111 111
8.817052841187 15.926079750061 67.054000854492 66 66 66
8.683953285217 16.140569686890 66.781997680664 177 177 177
8.681234359741 16.155956268311 66.846000671387 155 155 155
8.681234359741 16.155956268311 66.911994934082 191 191 191
8.712007522583 16.161394119263 66.973999023438 152 152 152
8.765398979187 16.218427658081 67.021995544434 69 69 69
8.673022270203 16.471845626831 66.731994628906 51 51 51
8.673022270203 16.471845626831 66.797996520996 196 196 196
8.698358535767 16.508054733276 66.858001708984 157 157 157
8.698358535767 16.508054733276 66.924995422363 181 181 181
8.729131698608 16.513492584229 66.986000061035 159 159 159
8.795189857483 16.588634490967 67.032997131348 82 82 82
8.659372329712 16.818508148193 66.744995117188 105 105 105
8.690145492554 16.823944091797 66.805000305176 199 199 199
8.687427520752 16.839330673218 66.868995666504 182 182 182
8.715481758118 16.860155105591 66.930999755859 160 160 160
8.715481758118 16.860155105591 66.998001098633 155 155 155
8.796927452087 16.938014984131 67.037994384766 79 79 79
8.676495552063 17.170606613159 66.752998352051 72 72 72
8.788714408875 17.253904342651 67.050994873047 65 65 65
8.709006309509 17.525424957275 66.900001525879 49 49 49
8.724392890930 17.528144836426 66.963996887207 55 55 55
8.749729156494 17.564357757568 67.016998291016 91 91 91
8.777783393860 17.585180282593 67.072998046875 20 20 20
8.644684791565 17.799667358398 66.740997314453 51 51 51
8.751465797424 17.913738250732 67.035995483398 82 82 82
8.651858329773 18.118274688721 66.763999938965 59 59 59
8.761358261108 18.216958999634 67.056999206543 69 69 69
8.653595924377 18.467657089233 66.773994445801 45 45 45
8.722373008728 18.527412414551 67.014999389648 70 70 70
8.763094902039 18.566341400146 67.067001342773 90 90 90
8.722373008728 18.527412414551 67.145996093750 27 27 27
8.736778259277 18.894897460938 67.019996643066 52 52 52
8.736778259277 18.894897460938 67.081001281738 30 30 30
8.736778259277 18.894897460938 67.279998779297 33 33 33
8.728565216064 19.210786819458 67.031997680664 77 77 77
8.738514900208 19.244279861450 67.426994323730 30 30 30
8.730301856995 19.560169219971 67.053001403809 95 95 95
8.714915275574 19.557449340820 67.517997741699 4 4 4
8.694034576416 19.855234146118 67.017997741699 54 54 54
8.694034576416 19.855234146118 67.080001831055 16 16 16
8.691315650940 19.870620727539 67.668998718262 34 34 34
8.698490142822 20.189228057861 67.031997680664 91 91 91
8.695772171021 20.204614639282 67.815994262695 38 38 38
8.690278053284 20.505115509033 67.046997070313 94 94 94
8.700226783752 20.538610458374 67.960998535156 46 46 46
8.692013740540 20.854499816895 67.053001403809 78 78 78
8.686576843262 20.885272979736 68.099998474121 48 48 48
8.653028488159 21.164951324463 67.009994506836 39 39 39
8.734474182129 21.242809295654 67.044998168945 60 60 60
8.703701019287 21.237373352051 67.894996643066 27 27 27
8.731755256653 21.258195877075 67.950996398926 53 53 53
8.731755256653 21.258195877075 68.019996643066 85 85 85
8.731755256653 21.258195877075 68.085998535156 107 107 107
8.731755256653 21.258195877075 68.154998779297 133 133 133
8.759810447693 21.279020309448 68.208999633789 114 114 114
8.759810447693 21.279020309448 68.277000427246 119 119 119
8.759810447693 21.279020309448 68.345001220703 122 122 122
8.759810447693 21.279020309448 68.409996032715 129 129 129
8.759810447693 21.279020309448 68.483001708984 136 136 136
8.759810447693 21.279020309448 68.547996520996 149 149 149
8.757091522217 21.294406890869 68.612998962402 154 154 154
8.759810447693 21.279020309448 68.686996459961 160 160 160
8.757091522217 21.294406890869 68.752998352051 164 164 164
8.757091522217 21.294406890869 68.824996948242 155 155 155
8.785145759583 21.315231323242 68.880996704102 4 4 4
8.727186203003 21.463659286499 61.804000854492 103 103 103
8.576963424683 21.326047897339 61.819000244141 58 58 58
8.561576843262 21.323329925537 61.876998901367 100 100 100
8.561576843262 21.323329925537 61.939998626709 100 100 100
8.558857917786 21.338716506958 62.005996704102 71 71 71
8.558857917786 21.338716506958 62.069999694824 86 86 86
8.589631080627 21.344154357910 62.132995605469 126 126 126
8.558857917786 21.338716506958 62.194000244141 145 145 145
8.558857917786 21.338716506958 62.254997253418 158 158 158
8.558857917786 21.338716506958 62.318000793457 151 151 151
8.558857917786 21.338716506958 62.379997253418 177 177 177
8.574244499207 21.341434478760 62.442001342773 181 181 181
8.558857917786 21.338716506958 62.503002166748 184 184 184
8.558857917786 21.338716506958 62.563995361328 181 181 181
8.574244499207 21.341434478760 62.626998901367 181 181 181
8.558857917786 21.338716506958 62.686996459961 188 188 188
8.574244499207 21.341434478760 62.750000000000 190 190 190
8.574244499207 21.341434478760 62.810997009277 172 172 172
8.574244499207 21.341434478760 62.870994567871 192 192 192
8.558857917786 21.338716506958 62.930000305176 187 187 187
8.571526527405 21.356821060181 62.991996765137 186 186 186
8.571526527405 21.356821060181 63.053001403809 189 189 189
8.571526527405 21.356821060181 63.113998413086 193 193 193
8.571526527405 21.356821060181 63.173995971680 198 198 198
8.571526527405 21.356821060181 63.234001159668 198 198 198
8.571526527405 21.356821060181 63.294998168945 195 195 195
8.568807601929 21.372207641602 63.354995727539 202 202 202
8.571526527405 21.356821060181 63.415000915527 202 202 202
8.568807601929 21.372207641602 63.475997924805 203 203 203
8.568807601929 21.372207641602 63.534996032715 185 185 185
8.568807601929 21.372207641602 63.595001220703 194 194 194
8.568807601929 21.372207641602 63.654998779297 203 203 203
8.568807601929 21.372207641602 63.714996337891 204 204 204
8.584194183350 21.374927520752 63.776000976563 205 205 205
8.568807601929 21.372207641602 63.834999084473 205 205 205
8.584194183350 21.374927520752 63.894996643066 206 206 206
8.584194183350 21.374927520752 63.953994750977 207 207 207
8.584194183350 21.374927520752 64.013999938965 205 205 205
8.584194183350 21.374927520752 64.073997497559 210 210 210
8.584194183350 21.374927520752 64.132995605469 209 209 209
8.584194183350 21.374927520752 64.193000793457 211 211 211
8.584194183350 21.374927520752 64.251998901367 214 214 214
8.584194183350 21.374927520752 64.311996459961 212 212 212
8.584194183350 21.374927520752 64.370994567871 214 214 214
8.584194183350 21.374927520752 64.430999755859 212 212 212
8.581475257874 21.390312194824 64.489997863770 214 214 214
8.578757286072 21.405700683594 64.549995422363 214 214 214
8.566088676453 21.387594223022 64.610000610352 215 215 215
8.578757286072 21.405700683594 64.668998718262 217 217 217
8.578757286072 21.405700683594 64.728996276855 211 211 211
8.578757286072 21.405700683594 64.787994384766 209 209 209
8.578757286072 21.405700683594 64.847999572754 212 212 212
8.578757286072 21.405700683594 64.907997131348 210 210 210
8.578757286072 21.405700683594 64.967994689941 209 209 209
8.578757286072 21.405700683594 65.027999877930 208 208 208
8.578757286072 21.405700683594 65.087997436523 205 205 205
8.578757286072 21.405700683594 65.147994995117 201 201 201
8.578757286072 21.405700683594 65.207000732422 204 204 204
8.578757286072 21.405700683594 65.267997741699 195 195 195
8.563370704651 21.402980804443 65.328994750977 188 188 188
8.578757286072 21.405700683594 65.388000488281 172 172 172
8.594143867493 21.408418655396 65.446998596191 169 169 169
8.578757286072 21.405700683594 65.507995605469 162 162 162
8.594143867493 21.408418655396 65.568000793457 158 158 158
8.578757286072 21.405700683594 65.629997253418 152 152 152
8.578757286072 21.405700683594 65.690994262695 145 145 145
8.591424942017 21.423805236816 65.749000549316 132 132 132
8.591424942017 21.423805236816 65.810997009277 137 137 137
8.578757286072 21.405700683594 65.875000000000 133 133 133
8.578757286072 21.405700683594 65.934997558594 117 117 117
8.578757286072 21.405700683594 65.997001647949 102 102 102
8.547984123230 21.400262832642 66.059997558594 80 80 80
8.547984123230 21.400262832642 66.120994567871 64 64 64
8.547984123230 21.400262832642 66.182998657227 17 17 17
8.413090705872 21.535099029541 61.821998596191 205 205 205
8.531672477722 21.492584228516 61.902999877930 166 166 166
8.490949630737 21.453653335571 61.951995849609 163 163 163
8.490949630737 21.453653335571 62.014999389648 163 163 163
8.478281974792 21.435546875000 62.075996398926 171 171 171
8.478281974792 21.435546875000 62.137001037598 173 173 173
8.478281974792 21.435546875000 62.200996398926 173 173 173
8.478281974792 21.435546875000 62.263999938965 174 174 174
8.478281974792 21.435546875000 62.325996398926 174 174 174
8.478281974792 21.435546875000 62.388999938965 175 175 175
8.475563049316 21.450933456421 62.450996398926 174 174 174
8.447508811951 21.430110931396 62.511001586914 178 178 178
8.475563049316 21.450933456421 62.573997497559 180 180 180
8.475563049316 21.450933456421 62.638000488281 173 173 173
8.475563049316 21.450933456421 62.696998596191 174 174 174
8.475563049316 21.450933456421 62.759994506836 176 176 176
8.475563049316 21.450933456421 62.821998596191 175 175 175
8.475563049316 21.450933456421 62.882995605469 200 200 200
8.475563049316 21.450933456421 62.943000793457 187 187 187
8.475563049316 21.450933456421 63.004997253418 182 182 182
8.475563049316 21.450933456421 63.065994262695 186 186 186
8.475563049316 21.450933456421 63.125999450684 182 182 182
8.475563049316 21.450933456421 63.187995910645 181 181 181
8.447508811951 21.430110931396 63.248001098633 184 184 184
8.475563049316 21.450933456421 63.308998107910 184 184 184
8.475563049316 21.450933456421 63.369995117188 183 183 183
8.460176467896 21.448215484619 63.430000305176 180 180 180
8.460176467896 21.448215484619 63.490997314453 178 178 178
8.460176467896 21.448215484619 63.551994323730 166 166 166
8.460176467896 21.448215484619 63.611999511719 168 168 168
8.475563049316 21.450933456421 63.672996520996 166 166 166
8.460176467896 21.448215484619 63.733001708984 166 166 166
8.460176467896 21.448215484619 63.793998718262 160 160 160
8.475563049316 21.450933456421 63.854995727539 155 155 155
8.460176467896 21.448215484619 63.914001464844 157 157 157
8.475563049316 21.450933456421 63.974998474121 157 157 157
8.475563049316 21.450933456421 64.034996032715 153 153 153
8.475563049316 21.450933456421 64.095001220703 157 157 157
8.472844123840 21.466321945190 64.155998229980 152 152 152
8.475563049316 21.450933456421 64.215995788574 154 154 154
8.472844123840 21.466321945190 64.276000976563 156 156 156
8.472844123840 21.466321945190 64.335998535156 152 152 152
8.475563049316 21.450933456421 64.395996093750 156 156 156
8.472844123840 21.466321945190 64.456001281738 147 147 147
8.472844123840 21.466321945190 64.515998840332 133 133 133
8.472844123840 21.466321945190 64.575996398926 138 138 138
8.470126152039 21.481708526611 64.636001586914 142 142 142
8.470126152039 21.481708526611 64.695999145508 131 131 131
8.470126152039 21.481708526611 64.756996154785 117 117 117
8.472844123840 21.466321945190 64.818000793457 113 113 113
8.470126152039 21.481708526611 64.876998901367 86 86 86
8.472844123840 21.466321945190 64.938995361328 47 47 47
8.500899314880 21.487146377563 64.995994567871 9 9 9
8.701850891113 21.427448272705 61.845001220703 201 201 201
8.523572921753 21.269014358521 61.852996826172 188 188 188
8.520854949951 21.284400939941 62.291999816895 14 14 14
8.398686408997 21.167613983154 62.447998046875 64 64 64
8.367913246155 21.162176132202 62.507995605469 64 64 64
8.520854949951 21.284400939941 62.600997924805 96 96 96
8.520854949951 21.284400939941 62.662994384766 105 105 105
8.533522605896 21.302505493164 62.725997924805 114 114 114
8.533522605896 21.302505493164 62.786994934082 106 106 106
8.548909187317 21.305223464966 62.850997924805 119 119 119
8.533522605896 21.302505493164 62.909996032715 127 127 127
8.548909187317 21.305223464966 62.972003936768 125 125 125
8.548909187317 21.305223464966 63.032997131348 130 130 130
8.548909187317 21.305223464966 63.094001770020 137 137 137
8.564295768738 21.307943344116 63.155998229980 138 138 138
8.548909187317 21.305223464966 63.214996337891 141 141 141
8.564295768738 21.307943344116 63.277000427246 143 143 143
8.564295768738 21.307943344116 63.336997985840 146 146 146
8.561576843262 21.323329925537 63.396995544434 154 154 154
8.558857917786 21.338716506958 63.458000183105 157 157 157
8.561576843262 21.323329925537 63.517997741699 154 154 154
8.561576843262 21.323329925537 63.576995849609 162 162 162
8.558857917786 21.338716506958 63.638000488281 157 157 157
8.558857917786 21.338716506958 63.697998046875 163 163 163
8.561576843262 21.323329925537 63.757995605469 167 167 167
8.558857917786 21.338716506958 63.818000793457 170 170 170
8.558857917786 21.338716506958 63.878002166748 176 176 176
8.558857917786 21.338716506958 63.936996459961 179 179 179
8.558857917786 21.338716506958 63.997001647949 179 179 179
8.589631080627 21.344154357910 64.056999206543 188 188 188
8.589631080627 21.344154357910 64.116996765137 190 190 190
8.589631080627 21.344154357910 64.175994873047 201 201 201
8.589631080627 21.344154357910 64.236000061035 199 199 199
8.589631080627 21.344154357910 64.295997619629 204 204 204
8.589631080627 21.344154357910 64.354995727539 202 202 202
8.589631080627 21.344154357910 64.415000915527 201 201 201
8.589631080627 21.344154357910 64.473999023438 202 202 202
8.571526527405 21.356821060181 64.532997131348 204 204 204
8.571526527405 21.356821060181 64.592994689941 209 209 209
8.571526527405 21.356821060181 64.652000427246 211 211 211
8.571526527405 21.356821060181 64.711997985840 210 210 210
8.571526527405 21.356821060181 64.771995544434 211 211 211
8.584194183350 21.374927520752 64.831001281738 207 207 207
8.584194183350 21.374927520752 64.889999389648 212 212 212
8.584194183350 21.374927520752 64.949996948242 210 210 210
8.584194183350 21.374927520752 65.009994506836 207 207 207
8.599580764771 21.377645492554 65.069000244141 212 212 212
8.599580764771 21.377645492554 65.127998352051 211 211 211
8.599580764771 21.377645492554 65.186996459961 210 210 210
8.599580764771 21.377645492554 65.247001647949 211 211 211
8.614967346191 21.380363464355 65.305999755859 204 204 204
8.599580764771 21.377645492554 65.367996215820 208 208 208
8.614967346191 21.380363464355 65.426994323730 203 203 203
8.614967346191 21.380363464355 65.486999511719 200 200 200
8.599580764771 21.377645492554 65.546997070313 200 200 200
8.627635955811 21.398468017578 65.604995727539 198 198 198
8.614967346191 21.380363464355 65.666000366211 198 198 198
8.612248420715 21.395750045776 65.727996826172 202 202 202
8.612248420715 21.395750045776 65.786994934082 194 194 194
8.612248420715 21.395750045776 65.847000122070 188 188 188
8.612248420715 21.395750045776 65.908996582031 185 185 185
8.612248420715 21.395750045776 65.969001770020 190 190 190
8.624917984009 21.413856506348 66.028999328613 191 191 191
8.624917984009 21.413856506348 66.088996887207 191 191 191
8.624917984009 21.413856506348 66.150001525879 189 189 189
8.624917984009 21.413856506348 66.212997436523 190 190 190
8.624917984009 21.413856506348 66.271995544434 186 186 186
8.640304565430 21.416574478149 66.333000183105 176 176 176
8.624917984009 21.413856506348 66.396995544434 176 176 176
8.640304565430 21.416574478149 66.453994750977 171 171 171
8.640304565430 21.416574478149 66.516998291016 171 171 171
8.640304565430 21.416574478149 66.578994750977 174 174 174
8.640304565430 21.416574478149 66.641998291016 172 172 172
8.640304565430 21.416574478149 66.703994750977 170 170 170
8.640304565430 21.416574478149 66.764999389648 163 163 163
8.640304565430 21.416574478149 66.831001281738 168 168 168
8.655691146851 21.419292449951 66.889999389648 156 156 156
8.655691146851 21.419292449951 66.952995300293 157 157 157
8.655691146851 21.419292449951 67.016998291016 135 135 135
8.640304565430 21.416574478149 67.080001831055 155 155 155
8.640304565430 21.416574478149 67.143997192383 168 168 168
8.655691146851 21.419292449951 67.207000732422 166 166 166
8.655691146851 21.419292449951 67.269996643066 163 163 163
8.655691146851 21.419292449951 67.333999633789 165 165 165
8.655691146851 21.419292449951 67.398994445801 163 163 163
8.655691146851 21.419292449951 67.463996887207 175 175 175
8.640304565430 21.416574478149 67.531997680664 169 169 169
8.637585639954 21.431961059570 67.595001220703 157 157 157
8.640304565430 21.416574478149 67.664001464844 159 159 159
8.640304565430 21.416574478149 67.730995178223 168 168 168
8.637585639954 21.431961059570 67.792999267578 158 158 158
8.640304565430 21.416574478149 67.861000061035 162 162 162
8.637585639954 21.431961059570 67.926994323730 158 158 158
8.640304565430 21.416574478149 67.993995666504 148 148 148
8.640304565430 21.416574478149 68.061996459961 139 139 139
8.637585639954 21.431961059570 68.127998352051 130 130 130
8.640304565430 21.416574478149 68.196998596191 108 108 108
8.640304565430 21.416574478149 68.265998840332 135 135 135
8.640304565430 21.416574478149 68.336997985840 128 128 128
8.637585639954 21.431961059570 68.401000976563 122 122 122
8.622199058533 21.429241180420 68.473999023438 113 113 113
8.634866714478 21.447347640991 68.540000915527 107 107 107
8.622199058533 21.429241180420 68.611999511719 99 99 99
8.622199058533 21.429241180420 68.682998657227 83 83 83
8.609530448914 21.411136627197 68.762001037598 40 40 40
8.622199058533 21.429241180420 68.828994750977 13 13 13
8.642153739929 21.226497650146 67.049995422363 104 104 104
8.738986015320 21.307075500488 67.077995300293 12 12 12
8.626767158508 21.223779678345 68.168998718262 74 74 74
8.723599433899 21.304355621338 68.192001342773 91 91 91
8.692826271057 21.298919677734 68.476997375488 5 5 5
8.680158615112 21.280813217163 68.546997070313 25 25 25
8.692826271057 21.298919677734 68.610000610352 57 57 57
8.708212852478 21.301637649536 68.678001403809 79 79 79
8.708212852478 21.301637649536 68.745994567871 93 93 93
8.708212852478 21.301637649536 68.818000793457 103 103 103
8.736268043518 21.322462081909 68.870994567871 27 27 27
8.618668556213 21.000209808350 67.040000915527 92 92 92
8.644003868103 21.036418914795 68.146995544434 29 29 29
8.600620269775 20.743146896362 67.033996582031 67 67 67
8.654010772705 20.800182342529 67.077995300293 4 4 4
8.610569000244 20.776639938354 68.014999389648 22 22 22
8.620575904846 20.540403366089 67.014999389648 16 16 16
8.664016723633 20.563945770264 67.072998046875 49 49 49
8.633243560791 20.558507919312 67.932998657227 39 39 39
8.640530586243 20.337657928467 67.050994873047 93 93 93
8.650480270386 20.371149063110 67.837997436523 20 20 20
8.626994132996 20.144861221313 67.020996093750 20 20 20
8.667716979980 20.183792114258 67.076995849609 49 49 49
8.652329444885 20.181072235107 67.805000305176 27 27 27
8.644230842590 19.957502365112 67.054000854492 102 102 102
8.656898498535 19.975608825684 67.708999633789 29 29 29
8.651518821716 19.736652374268 67.039001464844 91 91 91
8.651518821716 19.736652374268 67.627998352051 19 19 19
8.674192428589 19.518520355225 67.028999328613 60 60 60
8.674192428589 19.518520355225 67.091995239258 23 23 23
8.658805847168 19.515802383423 67.493995666504 10 10 10
8.653425216675 19.276845932007 67.015998840332 9 9 9
8.681480407715 19.297670364380 67.072998046875 53 53 53
8.681480407715 19.297670364380 67.403999328613 20 20 20
8.698717117310 19.110309600830 67.049995422363 90 90 90
8.675230979919 18.884023666382 67.016998291016 10 10 10
8.715952873230 18.922952651978 67.072998046875 77 77 77
8.675230979919 18.884023666382 67.281997680664 32 32 32
8.582966804504 18.597982406616 66.759994506836 43 43 43
8.582966804504 18.597982406616 66.822998046875 68 68 68
8.595635414124 18.616086959839 66.883995056152 64 64 64
8.611022949219 18.618804931641 66.945999145508 45 45 45
8.692467689514 18.696664810181 67.048995971680 99 99 99
8.677081108093 18.693944931030 67.185997009277 32 32 32
8.699755668640 18.475812911987 67.029998779297 104 104 104
8.699755668640 18.475812911987 67.095001220703 85 85 85
8.610210418701 18.174386978149 66.789001464844 28 28 28
8.694375038147 18.236858367920 67.027000427246 42 42 42
8.691656112671 18.252244949341 67.087997436523 24 24 24
8.602111816406 17.950817108154 66.772994995117 55 55 55
8.698943138123 18.031393051147 67.007995605469 6 6 6
8.729717254639 18.036830902100 67.067001342773 62 62 62
8.594011306763 17.727247238159 66.749000549316 29 29 29
8.716179847717 17.844034194946 67.042999267578 75 75 75
8.608530044556 17.555274963379 66.773994445801 55 55 55
8.621197700500 17.573381423950 66.902000427246 29 29 29
8.651971817017 17.578817367554 66.960998535156 52 52 52
8.708081245422 17.620466232300 67.017997741699 78 78 78
8.736135482788 17.641288757324 67.072998046875 57 57 57
8.631204605103 17.337142944336 66.743995666504 60 60 60
8.709931373596 17.430387496948 67.045997619629 78 78 78
8.595050811768 17.092748641968 66.735000610352 26 26 26
8.620386123657 17.128959655762 66.795997619629 194 194 194
8.620386123657 17.128959655762 66.861999511719 205 205 205
8.651159286499 17.134397506714 66.923995971680 193 193 193
8.663827896118 17.152502059937 66.984001159668 144 144 144
8.732605934143 17.212257385254 67.030998229980 87 87 87
8.732605934143 17.212257385254 67.097000122070 18 18 18
8.630393028259 16.892723083496 66.784996032715 179 179 179
8.643060684204 16.910829544067 66.847000122070 188 188 188
8.673833847046 16.916265487671 66.907997131348 168 168 168
8.658447265625 16.913547515869 66.978996276855 156 156 156
8.714556694031 16.955194473267 67.026000976563 67 67 67
8.770666122437 16.996843338013 67.078994750977 9 9 9
8.622292518616 16.669153213501 66.767997741699 136 136 136
8.619574546814 16.684539794922 66.830001831055 196 196 196
8.619574546814 16.684539794922 66.896995544434 162 162 162
8.650348663330 16.689977645874 66.958000183105 161 161 161
8.675683975220 16.726188659668 67.019996643066 139 139 139
8.747179985046 16.770553588867 67.061996459961 50 50 50
8.639530181885 16.481794357300 66.795997619629 194 194 194
8.639530181885 16.481794357300 66.861000061035 151 151 151
8.636811256409 16.497180938721 66.926994323730 124 124 124
8.667585372925 16.502618789673 66.986999511719 157 157 157
8.739081382751 16.546985626221 67.035995483398 67 67 67
8.616044044495 16.255506515503 66.762001037598 107 107 107
8.628712654114 16.273612976074 66.827995300293 192 192 192
8.644099235535 16.276330947876 66.891998291016 166 166 166
8.659485816956 16.279050827026 66.957000732422 175 175 175
8.669434547424 16.312541961670 67.018997192383 134 134 134
8.738212585449 16.372295379639 67.061996459961 51 51 51
8.605226516724 16.047325134277 66.804000854492 185 185 185
8.635999679565 16.052761077881 66.868995666504 115 115 115
8.664054870605 16.073585510254 66.930999755859 143 143 143
8.692109107971 16.094409942627 66.990997314453 152 152 152
8.773554801941 16.172267913818 67.032997131348 76 76 76
8.615233421326 15.811085700989 66.791000366211 171 171 171
8.627901077271 15.829192161560 66.853996276855 140 140 140
8.627901077271 15.829192161560 66.921997070313 166 166 166
8.655955314636 15.850014686584 66.983001708984 164 164 164
8.752786636353 15.930592536926 67.020996093750 95 95 95
8.765456199646 15.948697090149 67.086997985840 21 21 21
8.619801521301 15.605622291565 66.775001525879 127 127 127
8.635188102722 15.608340263367 66.840995788574 188 188 188
8.650575637817 15.611060142517 66.904998779297 166 166 166
8.647856712341 15.626446723938 66.972000122070 118 118 118
8.703965187073 15.668093681335 67.026000976563 127 127 127
8.772742271423 15.727847099304 67.070999145508 30 30 30
8.611701965332 15.382052421570 66.747001647949 17 17 17
8.642475128174 15.387490272522 66.808998107910 196 196 196
8.655142784119 15.405594825745 66.874000549316 137 137 137
8.667811393738 15.423701286316 66.938995361328 113 113 113
8.683198928833 15.426419258118 67.003997802734 154 154 154
8.764643669128 15.504277229309 67.045997619629 75 75 75
8.644325256348 15.197413444519 66.771995544434 137 137 137
8.644325256348 15.197413444519 66.839996337891 188 188 188
8.672380447388 15.218235969543 66.903999328613 143 143 143
8.685048103333 15.236342430115 66.969001770020 136 136 136
8.700434684753 15.239060401917 67.029998779297 139 139 139
8.769212722778 15.298813819885 67.078994750977 31 31 31
8.620840072632 14.971125602722 66.742996215820 31 31 31
8.661562919617 15.010054588318 66.803001403809 154 154 154
8.676949501038 15.012772560120 66.866996765137 166 166 166
8.689617156982 15.030879020691 66.933998107910 180 180 180
8.702284812927 15.048983573914 66.997001647949 147 147 147
8.773781776428 15.093350410461 67.043998718262 69 69 69
8.666131973267 14.804591178894 66.772994995117 36 36 36
8.781069755554 14.872498512268 67.021995544434 43 43 43
8.781069755554 14.872498512268 67.089996337891 14 14 14
8.688805580139 14.586457252502 66.752998352051 56 56 56
8.772969245911 14.648930549622 67.006996154785 8 8 8
8.772969245911 14.648930549622 67.073997497559 45 45 45
8.698811531067 14.350220680237 66.734001159668 34 34 34
8.780257225037 14.428078651428 67.055999755859 71 71 71
8.716048240662 14.162861824036 66.771995544434 42 42 42
8.772157669067 14.204509735107 67.034996032715 42 42 42
8.797493934631 14.240720748901 67.094001770020 8 8 8
8.720617294312 13.957397460938 66.734001159668 23 23 23
8.802062988281 14.035256385803 67.061996459961 74 74 74
8.725186347961 13.751934051514 66.769996643066 46 46 46
8.781294822693 13.793581962585 67.033996582031 27 27 27
8.806632041931 13.829792976379 67.094001770020 17 17 17
8.729755401611 13.546469688416 66.742996215820 47 47 47
8.729755401611 13.546469688416 66.811996459961 59 59 59
8.757809638977 13.567294120789 66.877998352051 51 51 51
8.757809638977 13.567294120789 66.947998046875 51 51 51
8.757809638977 13.567294120789 67.019996643066 43 43 43
8.813919067383 13.608941078186 67.070999145508 82 82 82
8.798532485962 13.606223106384 67.143997192383 21 21 21
8.795870780945 13.351881027222 67.062995910645 63 63 63
8.800439834595 13.146415710449 67.040000915527 30 30 30
8.828494071960 13.167241096497 67.101997375488 9 9 9
8.800439834595 13.146415710449 67.322998046875 22 22 22
8.805007934570 12.940952301025 67.080001831055 63 63 63
8.781521797180 12.714664459229 67.054000854492 41 41 41
8.834913253784 12.771698951721 67.108001708984 14 14 14
8.834913253784 12.771698951721 67.466995239258 17 17 17
8.814145088196 12.530024528503 67.081001281738 81 81 81
8.870255470276 12.571672439575 67.574996948242 12 12 12
8.821433067322 12.309173583984 67.059997558594 59 59 59
8.862155914307 12.348103523254 67.619995117188 7 7 7
8.828721046448 12.088322639465 67.043998718262 14 14 14
8.828721046448 12.088322639465 67.116996765137 16 16 16
8.882111549377 12.145357131958 67.749000549316 16 16 16
8.833289146423 11.882859230042 67.092994689941 62 62 62
8.886680603027 11.939893722534 67.801994323730 5 5 5
8.812521934509 11.641183853149 67.070999145508 38 38 38
8.893967628479 11.719042778015 67.920997619629 15 15 15
8.842427253723 11.471930503845 67.096000671387 70 70 70
8.240666389465 10.746794700623 62.111999511719 138 138 138
8.271439552307 10.752231597900 62.193000793457 182 182 182
8.256052970886 10.749512672424 62.266998291016 205 205 205
8.240666389465 10.746794700623 62.339996337891 5 5 5
8.312162399292 10.791160583496 62.503002166748 28 28 28
8.834327697754 11.248361587524 67.071998596191 42 42 42
8.943828582764 11.347043991089 68.062995910645 15 15 15
8.441617965698 10.687097549438 62.044998168945 139 139 139
8.416282653809 10.650887489319 62.116996765137 131 131 131
8.444336891174 10.671710968018 62.193000793457 131 131 131
8.441617965698 10.687097549438 62.269996643066 149 149 149
8.441617965698 10.687097549438 62.341995239258 162 162 162
8.472391128540 10.692534446716 62.418998718262 162 162 162
8.472391128540 10.692534446716 62.492996215820 170 170 170
8.472391128540 10.692534446716 62.568000793457 162 162 162
8.472391128540 10.692534446716 62.641998291016 164 164 164
8.469673156738 10.707921028137 62.715995788574 172 172 172
8.469673156738 10.707921028137 62.790000915527 173 173 173
8.469673156738 10.707921028137 62.863002777100 177 177 177
8.497728347778 10.728745460510 62.938995361328 182 182 182
8.497728347778 10.728745460510 63.011001586914 178 178 178
8.497728347778 10.728745460510 63.083000183105 182 182 182
8.528501510620 10.734182357788 63.157997131348 174 174 174
8.528501510620 10.734182357788 63.229995727539 177 177 177
8.525782585144 10.749568939209 63.303001403809 181 181 181
8.525782585144 10.749568939209 63.375000000000 182 182 182
8.510396003723 10.746850013733 63.446998596191 187 187 187
8.538450241089 10.767674446106 63.519996643066 186 186 186
8.535732269287 10.783061981201 63.591995239258 186 186 186
8.535732269287 10.783061981201 63.664001464844 187 187 187
8.538450241089 10.767674446106 63.735000610352 187 187 187
8.535732269287 10.783061981201 63.806999206543 186 186 186
8.535732269287 10.783061981201 63.878002166748 187 187 187
8.535732269287 10.783061981201 63.949996948242 196 196 196
8.548399925232 10.801166534424 64.021995544434 195 195 195
8.535732269287 10.783061981201 64.092994689941 184 184 184
8.548399925232 10.801166534424 64.164001464844 193 193 193
8.563786506653 10.803885459900 64.236000061035 192 192 192
8.579173088074 10.806604385376 64.306999206543 193 193 193
8.563786506653 10.803885459900 64.377998352051 191 191 191
8.579173088074 10.806604385376 64.448997497559 197 197 197
8.579173088074 10.806604385376 64.519996643066 196 196 196
8.579173088074 10.806604385376 64.590995788574 197 197 197
8.591841697693 10.824709892273 64.661994934082 197 197 197
8.591841697693 10.824709892273 64.733001708984 193 193 193
8.591841697693 10.824709892273 64.804000854492 179 179 179
8.604509353638 10.842814445496 64.874000549316 161 161 161
8.619895935059 10.845533370972 64.944999694824 156 156 156
8.604509353638 10.842814445496 65.015998840332 147 147 147
8.604509353638 10.842814445496 65.086997985840 139 139 139
8.619895935059 10.845533370972 65.157997131348 143 143 143
8.619895935059 10.845533370972 65.228996276855 127 127 127
8.619895935059 10.845533370972 65.299995422363 101 101 101
8.619895935059 10.845533370972 65.372001647949 46 46 46
8.619895935059 10.845533370972 65.443000793457 8 8 8
8.770119667053 10.983143806458 67.069999694824 12 12 12
8.838896751404 11.042898178101 67.120994567871 42 42 42
8.655238151550 10.645506858826 64.565994262695 20 20 20
8.655238151550 10.645506858826 64.636001586914 82 82 82
8.667906761169 10.663611412048 64.707000732422 114 114 114
8.683293342590 10.666330337524 64.777000427246 131 131 131
8.698679924011 10.669049263000 64.847000122070 143 143 143
8.711347579956 10.687154769897 64.916999816895 149 149 149
8.711347579956 10.687154769897 64.986999511719 156 156 156
8.724016189575 10.705259323120 65.056999206543 156 156 156
8.724016189575 10.705259323120 65.126998901367 156 156 156
8.724016189575 10.705259323120 65.196998596191 173 173 173
8.739402770996 10.707978248596 65.267997741699 199 199 199
8.739402770996 10.707978248596 65.337997436523 198 198 198
8.736683845520 10.723364830017 65.407997131348 203 203 203
8.736683845520 10.723364830017 65.477996826172 204 204 204
8.764738082886 10.744188308716 65.545997619629 206 206 206
8.764738082886 10.744188308716 65.616996765137 199 199 199
8.764738082886 10.744188308716 65.686996459961 207 207 207
8.792793273926 10.765012741089 65.754997253418 208 208 208
8.780124664307 10.746907234192 65.826995849609 206 206 206
8.792793273926 10.765012741089 65.896995544434 200 200 200
8.792793273926 10.765012741089 65.966995239258 200 200 200
8.805461883545 10.783117294312 66.035995483398 202 202 202
8.805461883545 10.783117294312 66.106994628906 204 204 204
8.820848464966 10.785836219788 66.176994323730 202 202 202
8.820848464966 10.785836219788 66.247001647949 202 202 202
8.820848464966 10.785836219788 66.317001342773 202 202 202
8.820848464966 10.785836219788 66.388000488281 194 194 194
8.833516120911 10.803941726685 66.458000183105 198 198 198
8.833516120911 10.803941726685 66.529998779297 185 185 185
8.833516120911 10.803941726685 66.599998474121 185 185 185
8.846183776855 10.822047233582 66.669998168945 186 186 186
8.846183776855 10.822047233582 66.740997314453 190 190 190
8.861570358276 10.824765205383 66.812995910645 163 163 163
8.846183776855 10.822047233582 66.886001586914 189 189 189
8.861570358276 10.824765205383 66.957000732422 186 186 186
8.861570358276 10.824765205383 67.027999877930 179 179 179
8.902293205261 10.863695144653 67.091995239258 98 98 98
8.876957893372 10.827484130859 67.170997619629 183 183 183
8.889625549316 10.845589637756 67.242996215820 189 189 189
8.889625549316 10.845589637756 67.315994262695 185 185 185
8.889625549316 10.845589637756 67.388000488281 191 191 191
8.889625549316 10.845589637756 67.460998535156 176 176 176
8.902293205261 10.863695144653 67.531997680664 155 155 155
8.902293205261 10.863695144653 67.605995178223 159 159 159
8.902293205261 10.863695144653 67.679000854492 155 155 155
8.902293205261 10.863695144653 67.753997802734 138 138 138
8.917679786682 10.866414070129 67.825996398926 122 122 122
8.902293205261 10.863695144653 67.903999328613 134 134 134
8.917679786682 10.866414070129 67.977996826172 104 104 104
8.917679786682 10.866414070129 68.054000854492 92 92 92
8.902293205261 10.863695144653 68.133995056152 76 76 76
8.917679786682 10.866414070129 68.205001831055 71 71 71
8.914961814880 10.881800651550 68.277000427246 24 24 24
8.978358268738 10.702597618103 67.702995300293 11 11 11
8.981077194214 10.687210083008 67.779998779297 36 36 36
8.978358268738 10.702597618103 67.850997924805 64 64 64
8.991026878357 10.720703125000 67.922996520996 82 82 82
9.006413459778 10.723422050476 67.993995666504 98 98 98
9.037186622620 10.728858947754 68.062995910645 100 100 100
9.037186622620 10.728858947754 68.137001037598 108 108 108
9.019081115723 10.741526603699 68.210998535156 68 68 68
9.034467697144 10.744245529175 68.280998229980 126 126 126
9.031748771667 10.759632110596 68.356994628906 136 136 136
9.031748771667 10.759632110596 68.430000305176 146 146 146
9.047136306763 10.762351036072 68.504997253418 160 160 160
9.047136306763 10.762351036072 68.576995849609 160 160 160
9.059803962708 10.780455589294 68.652999877930 152 152 152
9.072471618652 10.798561096191 68.724998474121 147 147 147
9.072471618652 10.798561096191 68.799995422363 136 136 136
9.087858200073 10.801280021667 68.872001647949 142 142 142
