30.610946655273 18.570535659790 7.332000732422 173 173 173
30.610946655273 18.570535659790 7.269989013672 168 168 168
30.595607757568 18.567552566528 7.207992553711 170 170 170
30.592624664307 18.582889556885 7.144989013672 175 175 175
30.595607757568 18.567552566528 7.086990356445 180 180 180
30.595607757568 18.567552566528 7.028991699219 179 179 179
30.595607757568 18.567552566528 6.968994140625 179 179 179
30.595607757568 18.567552566528 6.908996582031 176 176 176
30.577287673950 18.579906463623 6.848999023438 182 182 182
30.595607757568 18.567552566528 6.791000366211 182 182 182
30.595607757568 18.567552566528 6.733001708984 190 190 190
30.598590850830 18.552215576172 6.673995971680 187 187 187
30.598590850830 18.552215576172 6.615997314453 183 183 183
30.598590850830 18.552215576172 6.556991577148 186 186 186
30.613929748535 18.555198669434 6.500991821289 192 192 192
30.598590850830 18.552215576172 6.442001342773 191 191 191
30.616910934448 18.539859771729 6.384002685547 164 164 164
30.619894027710 18.524522781372 6.326995849609 148 148 148
30.619894027710 18.524522781372 6.268997192383 140 140 140
30.635231018066 18.527505874634 6.211990356445 122 122 122
30.638214111328 18.512168884277 6.154998779297 81 81 81
30.533409118652 18.396278381348 8.659988403320 103 103 103
30.567068099976 18.386907577515 8.606002807617 120 120 120
30.499750137329 18.405652999878 8.522994995117 116 116 116
30.585386276245 18.374553680420 8.491989135742 98 98 98
30.609674453735 18.331523895264 7.509002685547 66 66 66
30.615640640259 18.300846099854 7.451995849609 85 85 85
30.562387466431 18.083560943604 8.432998657227 32 32 32
30.623313903809 18.015821456909 7.464996337891 132 132 132
30.594350814819 17.755504608154 8.276000976563 77 77 77
30.636955261230 17.700119018555 7.434997558594 120 120 120
30.595636367798 17.421482086182 8.177993774414 20 20 20
30.635259628296 17.381435394287 7.463989257813 103 103 103
30.638242721558 17.366096496582 7.407989501953 33 33 33
30.590957641602 17.118137359619 8.009994506836 53 53 53
30.645917892456 17.081071853638 7.420989990234 128 128 128
30.613969802856 16.836091995239 7.890991210938 25 25 25
30.638254165649 16.793062210083 7.417999267578 129 129 129
30.607580184937 16.787097930908 7.119995117188 78 78 78
30.612274169922 16.517408370972 7.774002075195 47 47 47
30.630594253540 16.505054473877 7.421997070313 122 122 122
30.648914337158 16.492698669434 7.369995117188 11 11 11
30.618240356445 16.486734390259 7.129989624023 96 96 96
30.641252517700 16.204689025879 7.680999755859 72 72 72
30.641252517700 16.204689025879 7.446990966797 21 21 21
30.641252517700 16.204689025879 7.388992309570 124 124 124
30.625915527344 16.201705932617 7.093002319336 63 63 63
30.670230865479 15.891971588135 7.535995483398 65 65 65
30.654893875122 15.888988494873 7.416000366211 115 115 115
30.676197052002 15.861295700073 7.363998413086 54 54 54
30.608880996704 15.880039215088 7.118988037109 77 77 77
30.668535232544 15.573287963867 7.440002441406 79 79 79
30.671518325806 15.557949066162 7.381988525391 133 133 133
30.622522354126 15.564338684082 7.082000732422 55 55 55
30.666837692261 15.254604339600 7.388992309570 132 132 132
30.697513580322 15.260568618774 7.281997680664 184 184 184
30.682176589966 15.257585525513 7.218994140625 170 170 170
30.648517608643 15.266956329346 7.155990600586 191 191 191
30.633180618286 15.263975143433 7.093002319336 141 141 141
30.668548583984 15.000251770020 7.388992309570 125 125 125
30.720525741577 14.978525161743 7.284988403320 179 179 179
30.686870574951 14.987897872925 7.220001220703 160 160 160
30.656194686890 14.981931686401 7.155990600586 184 184 184
30.637874603271 14.994285583496 7.095001220703 144 144 144
30.676223754883 14.715225219727 7.394989013672 124 124 124
30.712865829468 14.690515518188 7.348999023438 24 24 24
30.712865829468 14.690515518188 7.287002563477 176 176 176
30.712865829468 14.690515518188 7.229995727539 197 197 197
30.679206848145 14.699888229370 7.166000366211 178 178 178
30.648532867432 14.693923950195 7.102996826172 161 161 161
30.708187103271 14.387168884277 7.416992187500 27 27 27
30.692848205566 14.384187698364 7.358001708984 132 132 132
30.729490280151 14.359476089478 7.309997558594 75 75 75
30.711170196533 14.371831893921 7.248992919922 183 183 183
30.708187103271 14.387168884277 7.188995361328 168 168 168
30.674528121948 14.396541595459 7.125000000000 198 198 198
30.643852233887 14.390575408936 7.065002441406 100 100 100
30.669736862183 18.677474975586 2.903991699219 152 152 152
30.669736862183 18.677474975586 2.968002319336 166 166 166
30.669736862183 18.677474975586 3.027999877930 167 167 167
30.657382965088 18.659154891968 3.091995239258 161 161 161
30.672719955444 18.662137985229 3.151992797852 164 164 164
30.672719955444 18.662137985229 3.211990356445 164 164 164
30.672719955444 18.662137985229 3.271987915039 164 164 164
30.675703048706 18.646799087524 3.333999633789 177 177 177
30.660366058350 18.643815994263 3.395996093750 160 160 160
30.663347244263 18.628479003906 3.457000732422 161 161 161
30.675703048706 18.646799087524 3.515991210938 165 165 165
30.663347244263 18.628479003906 3.575988769531 161 161 161
30.650993347168 18.610160827637 3.638000488281 160 160 160
30.666330337524 18.613142013550 3.696990966797 155 155 155
30.650993347168 18.610160827637 3.756988525391 162 162 162
30.666330337524 18.613142013550 3.815994262695 164 164 164
30.650993347168 18.610160827637 3.876998901367 172 172 172
30.669313430786 18.597803115845 3.934997558594 171 171 171
30.653976440430 18.594821929932 3.996002197266 170 170 170
30.669313430786 18.597803115845 4.054000854492 166 166 166
30.684650421143 18.600786209106 4.111999511719 134 134 134
30.675279617310 18.567129135132 4.763000488281 167 167 167
30.659942626953 18.564147949219 4.820999145508 172 172 172
30.659942626953 18.564147949219 4.879989624023 159 159 159
30.659942626953 18.564147949219 4.938995361328 154 154 154
30.659942626953 18.564147949219 4.996994018555 142 142 142
30.665906906128 18.533470153809 5.055999755859 133 133 133
30.665906906128 18.533470153809 5.114990234375 138 138 138
30.665906906128 18.533470153809 5.172988891602 136 136 136
30.665906906128 18.533470153809 5.231994628906 140 140 140
30.665906906128 18.533470153809 5.289993286133 154 154 154
30.668889999390 18.518135070801 5.348999023438 141 141 141
30.684226989746 18.521116256714 5.407989501953 125 125 125
30.668889999390 18.518135070801 5.465988159180 94 94 94
30.671873092651 18.502796173096 5.524993896484 44 44 44
30.566642761230 18.307235717773 7.457992553711 73 73 73
30.529577255249 18.252275466919 7.506988525391 62 62 62
30.646314620972 18.306812286377 8.490997314453 10 10 10
30.516799926758 18.154283523560 8.486999511719 102 102 102
30.533847808838 17.902915954590 7.461990356445 114 114 114
30.502748489380 17.817279815674 8.371994018555 11 11 11
30.553453445435 17.556539535522 7.430999755859 79 79 79
30.556436538696 17.541200637817 7.486999511719 41 41 41
30.509998321533 17.452583312988 8.198989868164 46 46 46
30.566669464111 17.161167144775 7.442001342773 122 122 122
30.544944763184 17.109188079834 8.039993286133 23 23 23
30.552619934082 16.824161529541 7.153991699219 76 76 76
30.577329635620 16.860801696777 7.222991943359 26 26 26
30.577329635620 16.860801696777 7.281997680664 64 64 64
30.620359420776 16.885087966919 7.352996826172 84 84 84
30.608003616333 16.866767883301 7.407989501953 95 95 95
30.583293914795 16.830127716064 7.457000732422 107 107 107
30.546228408813 16.775165557861 7.924987792969 57 57 57
30.553905487061 16.490140914917 7.101989746094 9 9 9
30.553905487061 16.490140914917 7.162002563477 21 21 21
30.584581375122 16.496105194092 7.406997680664 97 97 97
30.572227478027 16.477787017822 7.457992553711 36 36 36
30.562852859497 16.444128036499 7.809997558594 47 47 47
30.567546844482 16.174438476563 7.111999511719 65 65 65
30.570529937744 16.159101486206 7.404998779297 118 118 118
30.550088882446 15.773101806641 7.115997314453 71 71 71
30.620811462402 15.818689346313 7.375991821289 60 60 60
30.593118667603 15.797386169434 7.419998168945 108 108 108
30.596101760864 15.782049179077 7.535995483398 61 61 61
30.557340621948 15.408403396606 7.080001831055 108 108 108
30.569696426392 15.426723480225 7.141998291016 181 181 181
30.585031509399 15.429706573486 7.203994750977 162 162 162
30.612726211548 15.451009750366 7.269989013672 143 143 143
30.640419006348 15.472312927246 7.337997436523 88 88 88
30.585031509399 15.429706573486 7.376998901367 112 112 112
30.585031509399 15.429706573486 7.434997558594 15 15 15
30.582914352417 15.031351089478 7.102996826172 145 145 145
30.595268249512 15.049671173096 7.162994384766 164 164 164
30.607622146606 15.067993164063 7.229995727539 152 152 152
30.638298034668 15.073957443237 7.292999267578 158 158 158
30.625944137573 15.055637359619 7.347991943359 17 17 17
30.607622146606 15.067993164063 7.402999877930 104 104 104
30.584197998047 14.697328567505 7.117996215820 158 158 158
30.611890792847 14.718631744385 7.181991577148 114 114 114
30.639585494995 14.739936828613 7.250000000000 125 125 125
30.639585494995 14.739936828613 7.307998657227 139 139 139
30.627229690552 14.721614837646 7.358001708984 63 63 63
30.627229690552 14.721614837646 7.414993286133 95 95 95
30.588468551636 14.347969055176 7.065994262695 12 12 12
30.588468551636 14.347969055176 7.123001098633 160 160 160
30.628515243530 14.387592315674 7.188995361328 148 148 148
30.643852233887 14.390575408936 7.250000000000 153 153 153
30.671545028687 14.411880493164 7.313995361328 125 125 125
30.643852233887 14.390575408936 7.366989135742 75 75 75
30.619142532349 14.353935241699 7.416000366211 80 80 80
30.725122451782 18.720081329346 3.024002075195 149 149 149
30.709783554077 18.717098236084 3.078002929688 155 155 155
30.725122451782 18.720081329346 3.129989624023 150 150 150
30.709783554077 18.717098236084 3.183990478516 158 158 158
30.709783554077 18.717098236084 3.235992431641 157 157 157
30.709783554077 18.717098236084 3.287994384766 159 159 159
30.697429656982 18.698776245117 3.341995239258 163 163 163
30.697429656982 18.698776245117 3.394989013672 164 164 164
30.697429656982 18.698776245117 3.445999145508 166 166 166
30.697429656982 18.698776245117 3.498001098633 166 166 166
30.697429656982 18.698776245117 3.549987792969 163 163 163
30.697429656982 18.698776245117 3.601989746094 167 167 167
30.697429656982 18.698776245117 3.653991699219 161 161 161
30.697429656982 18.698776245117 3.705993652344 164 164 164
30.697429656982 18.698776245117 3.757995605469 160 160 160
30.697429656982 18.698776245117 3.808990478516 161 161 161
30.666753768921 18.692811965942 3.860992431641 160 160 160
30.666753768921 18.692811965942 3.912994384766 161 161 161
30.666753768921 18.692811965942 3.963989257813 168 168 168
30.666753768921 18.692811965942 4.013992309570 166 166 166
30.682092666626 18.695795059204 4.065002441406 169 169 169
30.666753768921 18.692811965942 4.116989135742 181 181 181
30.666753768921 18.692811965942 4.167999267578 174 174 174
30.666753768921 18.692811965942 4.218002319336 172 172 172
30.666753768921 18.692811965942 4.269989013672 177 177 177
30.666753768921 18.692811965942 4.319992065430 169 169 169
30.666753768921 18.692811965942 4.371002197266 168 168 168
30.666753768921 18.692811965942 4.421997070313 171 171 171
30.666753768921 18.692811965942 4.472991943359 170 170 170
30.654399871826 18.674491882324 4.522994995117 163 163 163
30.654399871826 18.674491882324 4.573989868164 181 181 181
30.654399871826 18.674491882324 4.625000000000 174 174 174
30.669736862183 18.677474975586 4.674987792969 165 165 165
30.654399871826 18.674491882324 4.725997924805 168 168 168
30.636079788208 18.686847686768 4.776000976563 169 169 169
30.654399871826 18.674491882324 4.826995849609 165 165 165
30.636079788208 18.686847686768 4.877990722656 164 164 164
30.636079788208 18.686847686768 4.927993774414 149 149 149
30.639062881470 18.671508789063 4.977996826172 162 162 162
30.639062881470 18.671508789063 5.028991699219 145 145 145
30.639062881470 18.671508789063 5.078994750977 146 146 146
30.623723983765 18.668525695801 5.128997802734 129 129 129
30.639062881470 18.671508789063 5.179992675781 144 144 144
30.623723983765 18.668525695801 5.229995727539 144 144 144
30.639062881470 18.671508789063 5.280990600586 135 135 135
30.639062881470 18.671508789063 5.332000732422 130 130 130
30.639062881470 18.671508789063 5.381988525391 123 123 123
30.623723983765 18.668525695801 5.432998657227 105 105 105
30.623723983765 18.668525695801 5.483001708984 98 98 98
30.623723983765 18.668525695801 5.533996582031 116 116 116
30.639062881470 18.671508789063 5.585998535156 110 110 110
30.611370086670 18.650207519531 5.634994506836 119 119 119
30.611370086670 18.650207519531 5.685989379883 113 113 113
30.611370086670 18.650207519531 5.736999511719 111 111 111
30.611370086670 18.650207519531 5.787994384766 101 101 101
30.611370086670 18.650207519531 5.838989257813 108 108 108
30.611370086670 18.650207519531 5.888992309570 106 106 106
30.611370086670 18.650207519531 5.940994262695 105 105 105
30.611370086670 18.650207519531 5.992996215820 96 96 96
30.611370086670 18.650207519531 6.044998168945 98 98 98
30.611370086670 18.650207519531 6.095993041992 86 86 86
30.611370086670 18.650207519531 6.146987915039 71 71 71
30.611370086670 18.650207519531 6.198989868164 68 68 68
30.611370086670 18.650207519531 6.252990722656 19 19 19
30.737478256226 18.738401412964 2.485000610352 98 98 98
30.578998565674 18.325557708740 7.421997070313 99 99 99
30.566642761230 18.307235717773 7.473999023438 78 78 78
30.615640640259 18.300846099854 8.462997436523 89 89 89
30.523611068726 18.282951354980 8.478988647461 47 47 47
30.580284118652 17.991535186768 7.416992187500 125 125 125
30.580284118652 17.991535186768 7.474990844727 25 25 25
30.537252426147 17.967250823975 8.362991333008 67 67 67
30.578588485718 17.672851562500 7.417999267578 144 144 144
30.550893783569 17.651548385620 8.244995117188 77 77 77
30.607566833496 17.360132217407 7.380996704102 82 82 82
30.573909759521 17.369503021240 7.427001953125 106 106 106
30.561553955078 17.351184844971 8.086990356445 72 72 72
30.608854293823 17.026111602783 7.401000976563 148 148 148
30.584142684937 16.989469528198 7.938995361328 39 39 39
30.579463958740 16.686122894287 7.090988159180 98 98 98
30.613121032715 16.676750183105 7.368988037109 128 128 128
30.613121032715 16.676750183105 7.417999267578 65 65 65
30.567108154297 16.667802810669 7.843994140625 38 38 38
30.580749511719 16.352102279663 7.101989746094 101 101 101
30.611425399780 16.358066558838 7.373992919922 140 140 140
30.611425399780 16.358066558838 7.427993774414 4 4 4
30.596088409424 16.355083465576 7.694000244141 57 57 57
30.594390869141 16.036399841309 7.102996826172 79 79 79
30.609729766846 16.039382934570 7.373992919922 141 141 141
30.609729766846 16.039382934570 7.588989257813 89 89 89
30.608032226563 15.720699310303 7.059997558594 82 82 82
30.654045104980 15.729646682739 7.335998535156 70 70 70
30.623371124268 15.723680496216 7.378997802734 116 116 116
30.638708114624 15.726663589478 7.488998413086 69 69 69
30.606336593628 15.402013778687 7.073989868164 161 161 161
30.621673583984 15.404996871948 7.129989624023 194 194 194
30.637010574341 15.407979965210 7.185989379883 192 192 192
30.652349472046 15.410963058472 7.246002197266 185 185 185
30.667686462402 15.413944244385 7.300994873047 8 8 8
30.639993667603 15.392642974854 7.345001220703 127 127 127
30.637010574341 15.407979965210 7.393997192383 31 31 31
30.595268249512 15.049671173096 7.041992187500 109 109 109
30.610605239868 15.052654266357 7.099990844727 192 192 192
30.641281127930 15.058620452881 7.157989501953 166 166 166
30.656618118286 15.061603546143 7.214996337891 162 162 162
30.656618118286 15.061603546143 7.268997192383 125 125 125
30.656618118286 15.061603546143 7.320999145508 86 86 86
30.641281127930 15.058620452881 7.365997314453 105 105 105
30.611890792847 14.718631744385 7.063995361328 146 146 146
30.627229690552 14.721614837646 7.121002197266 152 152 152
30.639585494995 14.739936828613 7.174987792969 113 113 113
30.670259475708 14.745901107788 7.240997314453 168 168 168
30.673242568970 14.730564117432 7.289001464844 49 49 49
30.657903671265 14.727581024170 7.336990356445 137 137 137
30.657903671265 14.727581024170 7.388000488281 53 53 53
30.610193252563 14.399948120117 7.071990966797 150 150 150
30.610193252563 14.399948120117 7.123992919922 152 152 152
30.656209945679 14.408897399902 7.184997558594 189 189 189
30.674528121948 14.396541595459 7.244995117188 176 176 176
30.674528121948 14.396541595459 7.295989990234 28 28 28
30.671545028687 14.411880493164 7.343002319336 141 141 141
30.671545028687 14.411880493164 7.392990112305 27 27 27
30.641717910767 14.565256118774 7.365997314453 67 67 67
30.660037994385 14.552900314331 7.317001342773 123 123 123
30.690713882446 14.558866500854 7.274993896484 64 64 64
30.675376892090 14.555883407593 7.218002319336 176 176 176
30.641717910767 14.565256118774 7.158996582031 177 177 177
30.629364013672 14.546936035156 7.099990844727 179 179 179
30.611043930054 14.559289932251 7.042999267578 139 139 139
30.649379730225 14.853263854980 7.347000122070 137 137 137
30.664718627930 14.856246948242 7.300994873047 40 40 40
30.664718627930 14.856246948242 7.248001098633 149 149 149
30.649379730225 14.853263854980 7.192001342773 145 145 145
30.634042739868 14.850282669067 7.134994506836 128 128 128
30.615722656250 14.862636566162 7.078994750977 181 181 181
30.603366851807 14.844316482544 7.024993896484 77 77 77
30.657043457031 15.141273498535 7.384002685547 31 31 31
30.641704559326 15.138290405273 7.328002929688 144 144 144
30.657043457031 15.141273498535 7.281997680664 18 18 18
30.669397354126 15.159593582153 7.233001708984 169 169 169
30.641704559326 15.138290405273 7.170989990234 100 100 100
30.623384475708 15.150646209717 7.114990234375 178 178 178
30.595691680908 15.129343032837 7.052993774414 158 158 158
30.628063201904 15.453992843628 7.371994018555 65 65 65
30.631044387817 15.438655853271 7.315994262695 114 114 114
30.661722183228 15.444620132446 7.278991699219 96 96 96
30.646383285522 15.441637039185 7.215988159180 137 137 137
30.628063201904 15.453992843628 7.160995483398 140 140 140
30.612726211548 15.451009750366 7.103988647461 145 145 145
30.600370407104 15.432689666748 7.044998168945 122 122 122
30.620388031006 15.739019393921 7.479995727539 58 58 58
30.635725021362 15.742000579834 7.377990722656 63 63 63
30.632741928101 15.757339477539 7.324996948242 119 119 119
30.586729049683 15.748390197754 7.047988891602 101 101 101
30.603765487671 16.070058822632 7.595993041992 74 74 74
30.603765487671 16.070058822632 7.378997802734 67 67 67
30.634439468384 16.076023101807 7.330993652344 112 112 112
30.588426589966 16.067075729370 7.057998657227 104 104 104
30.593105316162 16.370422363281 7.696990966797 74 74 74
30.593105316162 16.370422363281 7.373001098633 122 122 122
30.620798110962 16.391723632813 7.326995849609 49 49 49
30.574785232544 16.382776260376 7.099990844727 11 11 11
30.590124130249 16.385757446289 7.050994873047 51 51 51
30.570091247559 16.652463912964 7.833999633789 13 13 13
30.597784042358 16.673768997192 7.405990600586 53 53 53
30.613121032715 16.676750183105 7.358993530273 123 123 123
30.582447052002 16.670785903931 7.082000732422 97 97 97
30.577753067017 16.940475463867 7.934997558594 66 66 66
30.577753067017 16.940475463867 7.384994506836 118 118 118
30.623765945435 16.949422836304 7.341995239258 25 25 25
30.567094802856 17.240839004517 8.041992187500 65 65 65
30.594789505005 17.262142181396 7.380996704102 134 134 134
30.584129333496 17.562505722046 8.166992187500 22 22 22
30.584129333496 17.562505722046 7.433990478516 17 17 17
30.584129333496 17.562505722046 7.379989624023 124 124 124
30.539812088013 17.872241973877 8.323989868164 31 31 31
30.570487976074 17.878206253052 7.429992675781 89 89 89
30.585824966431 17.881189346313 7.379989624023 76 76 76
30.516799926758 18.154283523560 8.427001953125 89 89 89
30.575166702271 18.181552886963 7.418991088867 143 143 143
30.490802764893 18.451665878296 8.632995605469 45 45 45
30.506141662598 18.454647064209 8.578002929688 119 119 119
30.524461746216 18.442295074463 8.521987915039 114 114 114
30.490802764893 18.451665878296 8.455993652344 110 110 110
30.506141662598 18.454647064209 8.399993896484 135 135 135
30.524461746216 18.442295074463 8.343994140625 139 139 139
30.506141662598 18.454647064209 8.281997680664 136 136 136
30.524461746216 18.442295074463 8.228988647461 142 142 142
30.521478652954 18.457630157471 8.170989990234 138 138 138
30.524461746216 18.442295074463 8.108993530273 140 140 140
30.536815643311 18.460613250732 8.057998657227 137 137 137
30.536815643311 18.460613250732 7.998992919922 139 139 139
30.518495559692 18.472969055176 7.936996459961 139 139 139
30.518495559692 18.472969055176 7.880996704102 139 139 139
30.521478652954 18.457630157471 7.826995849609 139 139 139
30.521478652954 18.457630157471 7.767990112305 140 140 140
30.536815643311 18.460613250732 7.714996337891 141 141 141
30.521478652954 18.457630157471 7.655990600586 136 136 136
30.521478652954 18.457630157471 7.600997924805 134 134 134
30.521478652954 18.457630157471 7.544998168945 132 132 132
30.521478652954 18.457630157471 7.489990234375 134 134 134
30.521478652954 18.457630157471 7.433990478516 102 102 102
30.521478652954 18.457630157471 7.379989624023 133 133 133
30.533832550049 18.475950241089 7.328994750977 137 137 137
30.549171447754 18.478933334351 7.276000976563 134 134 134
30.533832550049 18.475950241089 7.218994140625 136 136 136
30.533832550049 18.475950241089 7.164993286133 139 139 139
30.549171447754 18.478933334351 7.112991333008 141 141 141
30.549171447754 18.478933334351 7.059997558594 144 144 144
30.549171447754 18.478933334351 7.005996704102 143 143 143
30.549171447754 18.478933334351 6.950988769531 143 143 143
30.564508438110 18.481916427612 6.901000976563 146 146 146
30.564508438110 18.481916427612 6.847991943359 164 164 164
30.546188354492 18.494272232056 6.792999267578 159 159 159
30.564508438110 18.481916427612 6.741989135742 150 150 150
30.564508438110 18.481916427612 6.687988281250 158 158 158
30.579847335815 18.484897613525 6.638000488281 158 158 158
30.579847335815 18.484897613525 6.585998535156 163 163 163
30.579847335815 18.484897613525 6.533996582031 163 163 163
30.579847335815 18.484897613525 6.481994628906 170 170 170
30.579847335815 18.484897613525 6.429000854492 171 171 171
30.607538223267 18.506202697754 6.379989624023 172 172 172
30.592201232910 18.503219604492 6.326995849609 172 172 172
30.607538223267 18.506202697754 6.276000976563 171 171 171
30.607538223267 18.506202697754 6.223999023438 172 172 172
30.607538223267 18.506202697754 6.173995971680 171 171 171
30.610521316528 18.490863800049 6.123001098633 180 180 180
30.610521316528 18.490863800049 6.070999145508 177 177 177
30.610521316528 18.490863800049 6.018997192383 169 169 169
30.610521316528 18.490863800049 5.968002319336 158 158 158
30.604555130005 18.521539688110 5.916000366211 155 155 155
30.622877120972 18.509185791016 5.865997314453 150 150 150
30.638214111328 18.512168884277 5.815994262695 150 150 150
30.622877120972 18.509185791016 5.763992309570 149 149 149
30.622877120972 18.509185791016 5.711990356445 149 149 149
30.622877120972 18.509185791016 5.660995483398 133 133 133
30.622877120972 18.509185791016 5.610000610352 156 156 156
30.638214111328 18.512168884277 5.559997558594 161 161 161
30.622877120972 18.509185791016 5.506988525391 162 162 162
30.650568008423 18.530487060547 5.457992553711 169 169 169
30.635231018066 18.527505874634 5.405990600586 149 149 149
30.650568008423 18.530487060547 5.356994628906 155 155 155
30.650568008423 18.530487060547 5.304992675781 151 151 151
30.650568008423 18.530487060547 5.253997802734 146 146 146
30.650568008423 18.530487060547 5.203994750977 146 146 146
30.650568008423 18.530487060547 5.151992797852 140 140 140
30.650568008423 18.530487060547 5.101989746094 122 122 122
30.650568008423 18.530487060547 5.050994873047 127 127 127
30.650568008423 18.530487060547 5.000000000000 128 128 128
30.665906906128 18.533470153809 4.948989868164 118 118 118
30.665906906128 18.533470153809 4.899002075195 114 114 114
30.665906906128 18.533470153809 4.847991943359 128 128 128
30.696580886841 18.539436340332 4.796997070313 118 118 118
30.681243896484 18.536453247070 4.746002197266 103 103 103
30.681243896484 18.536453247070 4.694992065430 114 114 114
30.681243896484 18.536453247070 4.643997192383 101 101 101
30.696580886841 18.539436340332 4.593002319336 113 113 113
30.711919784546 18.542419433594 4.541992187500 109 109 109
30.711919784546 18.542419433594 4.490997314453 96 96 96
30.727256774902 18.545402526855 4.440002441406 98 98 98
30.711919784546 18.542419433594 4.388992309570 94 94 94
30.711919784546 18.542419433594 4.336990356445 87 87 87
30.711919784546 18.542419433594 4.285995483398 85 85 85
30.727256774902 18.545402526855 4.233993530273 89 89 89
30.727256774902 18.545402526855 4.182998657227 81 81 81
30.727256774902 18.545402526855 4.131988525391 77 77 77
30.742593765259 18.548385620117 4.078994750977 76 76 76
30.727256774902 18.545402526855 4.028991699219 66 66 66
30.711919784546 18.542419433594 3.977996826172 66 66 66
30.742593765259 18.548385620117 3.924987792969 68 68 68
30.727256774902 18.545402526855 3.875000000000 62 62 62
30.742593765259 18.548385620117 3.820999145508 62 62 62
30.742593765259 18.548385620117 3.768997192383 69 69 69
30.742593765259 18.548385620117 3.716995239258 64 64 64
30.742593765259 18.548385620117 3.664993286133 68 68 68
30.742593765259 18.548385620117 3.612991333008 67 67 67
30.742593765259 18.548385620117 3.559997558594 70 70 70
30.757932662964 18.551366806030 3.507995605469 57 57 57
30.757932662964 18.551366806030 3.453994750977 79 79 79
30.757932662964 18.551366806030 3.402999877930 77 77 77
30.757932662964 18.551366806030 3.348999023438 82 82 82
30.757932662964 18.551366806030 3.298995971680 86 86 86
30.757932662964 18.551366806030 3.243988037109 82 82 82
30.785623550415 18.572669982910 3.134002685547 125 125 125
30.972660064697 18.593124389648 3.044998168945 49 49 49
30.972660064697 18.593124389648 2.994995117188 49 49 49
30.693273544312 14.463857650757 7.356002807617 112 112 112
30.723947525024 14.469821929932 7.302001953125 17 17 17
30.723947525024 14.469821929932 7.242996215820 163 163 163
30.693273544312 14.463857650757 7.181991577148 171 171 171
30.659614562988 14.473230361938 7.115997314453 174 174 174
30.656633377075 14.488567352295 7.054992675781 138 138 138
30.685598373413 14.748884201050 7.332000732422 119 119 119
30.722236633301 14.724174499512 7.282989501953 15 15 15
30.706899642944 14.721191406250 7.220993041992 146 146 146
30.685598373413 14.748884201050 7.156997680664 127 127 127
30.654922485352 14.742918014526 7.091995239258 167 167 167
30.636602401733 14.755273818970 7.029998779297 91 91 91
30.680904388428 15.018571853638 7.376998901367 26 26 26
30.680904388428 15.018571853638 7.319992065430 91 91 91
30.699224472046 15.006217956543 7.267990112305 97 97 97
30.696241378784 15.021554946899 7.205993652344 153 153 153
30.665565490723 15.015590667725 7.141998291016 143 143 143
30.647245407104 15.027944564819 7.078994750977 175 175 175
30.616569519043 15.021980285645 7.016998291016 24 24 24
30.670246124268 15.318935394287 7.373001098633 76 76 76
30.670246124268 15.318935394287 7.311996459961 66 66 66
30.688566207886 15.306581497192 7.261993408203 120 120 120
30.670246124268 15.318935394287 7.194992065430 138 138 138
30.651924133301 15.331291198730 7.131988525391 122 122 122
30.636587142944 15.328308105469 7.069000244141 169 169 169
30.618267059326 15.340663909912 7.009994506836 6 6 6
30.659587860107 15.619300842285 7.417999267578 75 75 75
30.659587860107 15.619300842285 7.358001708984 107 107 107
30.662569046021 15.603961944580 7.302001953125 76 76 76
30.625928878784 15.628673553467 7.054000854492 95 95 95
30.670230865479 15.891971588135 7.513992309570 58 58 58
30.639556884766 15.886005401611 7.390991210938 87 87 87
30.642539978027 15.870668411255 7.333999633789 97 97 97
30.676197052002 15.861295700073 7.280990600586 81 81 81
30.657876968384 15.873649597168 7.214996337891 87 87 87
30.657876968384 15.873649597168 7.155990600586 93 93 93
30.624217987061 15.883022308350 7.090988159180 113 113 113
30.616542816162 16.168048858643 7.597991943359 52 52 52
30.653182983398 16.143339157104 7.364990234375 116 116 116
30.622507095337 16.137372970581 7.060989379883 71 71 71
30.627187728882 16.440719604492 7.705001831055 35 35 35
30.648490905762 16.413028717041 7.405990600586 38 38 38
30.630170822144 16.425382614136 7.343994140625 90 90 90
30.614831924438 16.422399520874 7.100997924805 47 47 47
30.619512557983 16.725746154785 7.819992065430 35 35 35
30.622495651245 16.710407257080 7.395996093750 84 84 84
30.643796920776 16.682716369629 7.341995239258 51 51 51
30.607156753540 16.707424163818 7.090988159180 76 76 76
30.590532302856 17.038465499878 7.938995361328 40 40 40
30.630155563354 16.998416900635 7.396987915039 109 109 109
30.616514205933 17.314119338989 8.055999755859 47 47 47
30.625463485718 17.268106460571 7.384994506836 114 114 114
30.562826156616 17.590196609497 8.211990356445 12 12 12
30.620769500732 17.537796020508 7.416992187500 113 113 113
30.591791152954 17.850513458252 8.317993164063 48 48 48
30.613092422485 17.822820663452 7.447998046875 31 31 31
30.619058609009 17.792146682739 7.391998291016 76 76 76
30.568777084351 18.132556915283 8.433990478516 36 36 36
30.608400344849 18.092508316040 7.434997558594 107 107 107
30.524461746216 18.442295074463 8.614990234375 127 127 127
30.555135726929 18.448259353638 8.552993774414 148 148 148
30.539796829224 18.445276260376 8.485992431641 111 111 111
30.539796829224 18.445276260376 8.419998168945 154 154 154
30.561101913452 18.417583465576 8.360000610352 146 146 146
30.542779922485 18.429937362671 8.293991088867 143 143 143
30.542779922485 18.429937362671 8.229995727539 145 145 145
30.542779922485 18.429937362671 8.166000366211 147 147 147
30.542779922485 18.429937362671 8.099990844727 136 136 136
30.561101913452 18.417583465576 8.039993286133 140 140 140
30.561101913452 18.417583465576 7.979995727539 123 123 123
30.545763015747 18.414600372314 7.914001464844 107 107 107
30.564085006714 18.402244567871 7.854995727539 96 96 96
30.561101913452 18.417583465576 7.789993286133 90 90 90
30.564085006714 18.402244567871 7.729995727539 85 85 85
30.561101913452 18.417583465576 7.664001464844 75 75 75
30.597743988037 18.392871856689 7.610992431641 30 30 30
30.515089035034 18.408634185791 7.468002319336 44 44 44
30.551729202271 18.383924484253 7.416000366211 100 100 100
30.663347244263 18.628479003906 6.642990112305 46 46 46
30.666330337524 18.613142013550 6.582000732422 95 95 95
30.650993347168 18.610160827637 6.518997192383 95 95 95
30.650993347168 18.610160827637 6.457000732422 99 99 99
30.650993347168 18.610160827637 6.397994995117 96 96 96
30.650993347168 18.610160827637 6.337997436523 134 134 134
30.635654449463 18.607177734375 6.276000976563 148 148 148
30.650993347168 18.610160827637 6.216995239258 159 159 159
30.635654449463 18.607177734375 6.155990600586 165 165 165
30.632673263550 18.622512817383 6.095001220703 168 168 168
30.635654449463 18.607177734375 6.035995483398 169 169 169
30.635654449463 18.607177734375 5.975997924805 168 168 168
30.635654449463 18.607177734375 5.916992187500 170 170 170
30.632673263550 18.622512817383 5.856002807617 170 170 170
30.638637542725 18.591838836670 5.797988891602 167 167 167
30.623300552368 18.588855743408 5.737991333008 162 162 162
30.638637542725 18.591838836670 5.679000854492 181 181 181
30.653976440430 18.594821929932 5.619995117188 185 185 185
30.638637542725 18.591838836670 5.559997558594 187 187 187
30.638637542725 18.591838836670 5.500991821289 188 188 188
30.638637542725 18.591838836670 5.442001342773 185 185 185
30.641620635986 18.576499938965 5.382995605469 185 185 185
30.641620635986 18.576499938965 5.322998046875 183 183 183
30.641620635986 18.576499938965 5.263992309570 186 186 186
30.656959533691 18.579483032227 5.205001831055 186 186 186
30.656959533691 18.579483032227 5.145996093750 174 174 174
30.656959533691 18.579483032227 5.086990356445 175 175 175
30.659942626953 18.564147949219 5.027999877930 162 162 162
30.659942626953 18.564147949219 4.968002319336 158 158 158
30.675279617310 18.567129135132 4.908996582031 143 143 143
30.675279617310 18.567129135132 4.849990844727 132 132 132
30.675279617310 18.567129135132 4.789993286133 117 117 117
30.693597793579 18.554773330688 4.729995727539 118 118 118
30.678262710571 18.551790237427 4.670989990234 78 78 78
30.678262710571 18.551790237427 4.611999511719 14 14 14
30.814167022705 18.753314971924 3.901992797852 13 13 13
30.814167022705 18.753314971924 3.840988159180 60 60 60
30.798830032349 18.750331878662 3.780990600586 84 84 84
30.798830032349 18.750331878662 3.718994140625 99 99 99
30.798830032349 18.750331878662 3.657989501953 98 98 98
30.783491134644 18.747348785400 3.597000122070 104 104 104
30.783491134644 18.747348785400 3.535995483398 113 113 113
30.783491134644 18.747348785400 3.474990844727 120 120 120
30.783491134644 18.747348785400 3.412002563477 133 133 133
30.786474227905 18.732013702393 3.348999023438 143 143 143
30.783491134644 18.747348785400 3.287994384766 145 145 145
30.783491134644 18.747348785400 3.226989746094 148 148 148
30.783491134644 18.747348785400 3.162994384766 161 161 161
30.786474227905 18.732013702393 3.099990844727 158 158 158
30.783491134644 18.747348785400 3.039001464844 162 162 162
30.789455413818 18.716674804688 2.975997924805 153 153 153
30.774118423462 18.713691711426 2.914001464844 145 145 145
30.774118423462 18.713691711426 2.849990844727 142 142 142
30.774118423462 18.713691711426 2.787002563477 145 145 145
30.789455413818 18.716674804688 2.722000122070 138 138 138
30.771135330200 18.729030609131 2.660995483398 141 141 141
30.774118423462 18.713691711426 2.595993041992 136 136 136
30.774118423462 18.713691711426 2.532989501953 134 134 134
30.654823303223 18.754163742065 2.498001098633 142 142 142
30.589315414429 14.507312774658 7.029998779297 96 96 96
30.617008209229 14.528615951538 7.093994140625 146 146 146
30.617008209229 14.528615951538 7.152999877930 162 162 162
30.660037994385 14.552900314331 7.218002319336 175 175 175
30.660037994385 14.552900314331 7.276992797852 27 27 27
30.619991302490 14.513277053833 7.320999145508 115 115 115
30.619991302490 14.513277053833 7.377990722656 19 19 19
30.603366851807 14.844316482544 7.013992309570 23 23 23
30.591012954712 14.825996398926 7.067993164063 163 163 163
30.618705749512 14.847299575806 7.127990722656 115 115 115
30.649379730225 14.853263854980 7.192993164063 155 155 155
30.661735534668 14.871585845947 7.252990722656 120 120 120
30.649379730225 14.853263854980 7.304000854492 69 69 69
30.637025833130 14.834943771362 7.356002807617 87 87 87
30.583761215210 15.190692901611 7.054992675781 152 152 152
30.614435195923 15.196659088135 7.117996215820 139 139 139
30.626791000366 15.214979171753 7.180999755859 153 153 153
30.642129898071 15.217962265015 7.240997314453 143 143 143
30.642129898071 15.217962265015 7.299987792969 28 28 28
30.614435195923 15.196659088135 7.349990844727 106 106 106
30.570119857788 15.506395339966 7.052001953125 45 45 45
30.613149642944 15.530681610107 7.291000366211 117 117 117
30.603776931763 15.497022628784 7.341995239258 130 130 130
30.631471633911 15.518325805664 7.404998779297 94 94 94
30.565851211548 15.855754852295 7.042999267578 68 68 68
30.578205108643 15.874074935913 7.101989746094 95 95 95
30.593544006348 15.877058029175 7.159988403320 66 66 66
30.608880996704 15.880039215088 7.223999023438 45 45 45
30.584171295166 15.843399047852 7.332000732422 99 99 99
30.599510192871 15.846382141113 7.390991210938 38 38 38
30.599510192871 15.846382141113 7.505996704102 58 58 58
30.579902648926 16.192758560181 7.078994750977 79 79 79
30.625915527344 16.201705932617 7.323989868164 11 11 11
30.582885742188 16.177421569824 7.367996215820 112 112 112
30.585868835449 16.162084579468 7.599990844727 10 10 10
30.556888580322 16.474803924561 7.097991943359 19 19 19
30.599918365479 16.499088287354 7.341995239258 76 76 76
30.587564468384 16.480770111084 7.395996093750 57 57 57
30.578191757202 16.447109222412 7.739990234375 65 65 65
30.555603027344 16.808824539185 7.076995849609 77 77 77
30.595649719238 16.848449707031 7.149002075195 22 22 22
30.598632812500 16.833110809326 7.207000732422 56 56 56
30.610986709595 16.851430892944 7.269989013672 70 70 70
30.610986709595 16.851430892944 7.330993652344 87 87 87
30.586277008057 16.814788818359 7.375991821289 119 119 119
30.564550399780 16.762811660767 7.838989257813 25 25 25
30.569652557373 17.145828247070 7.369995117188 116 116 116
30.535570144653 17.075531005859 8.006988525391 7 7 7
30.565385818481 17.495187759399 7.371994018555 82 82 82
30.565385818481 17.495187759399 7.430999755859 17 17 17
30.546640396118 17.427871704102 8.138000488281 30 30 30
30.548761367798 17.826229095459 7.409988403320 117 117 117
30.517662048340 17.740591049194 8.240997314453 20 20 20
30.721292495728 18.576076507568 2.864990234375 144 144 144
30.718309402466 18.591415405273 2.927993774414 150 150 150
30.721292495728 18.576076507568 2.985992431641 144 144 144
30.721292495728 18.576076507568 3.046997070313 151 151 151
30.721292495728 18.576076507568 3.106002807617 150 150 150
30.724275588989 18.560737609863 3.167999267578 146 146 146
30.724275588989 18.560737609863 3.225997924805 135 135 135
30.724275588989 18.560737609863 3.285995483398 146 146 146
30.739610671997 18.563720703125 3.345001220703 136 136 136
30.727256774902 18.545402526855 3.406997680664 124 124 124
30.739610671997 18.563720703125 3.463989257813 103 103 103
30.739610671997 18.563720703125 3.522994995117 105 105 105
30.757932662964 18.551366806030 3.580993652344 92 92 92
30.757932662964 18.551366806030 3.639999389648 79 79 79
30.757932662964 18.551366806030 3.697998046875 30 30 30
30.565795898438 18.147895812988 7.386993408203 15 15 15
30.538103103638 18.126590728760 7.438995361328 95 95 95
30.507001876831 18.040954589844 8.392990112305 19 19 19
30.583253860474 18.549232482910 6.373992919922 137 137 137
30.540224075317 18.524946212769 6.421997070313 187 187 187
30.543205261230 18.509609222412 6.477996826172 181 181 181
30.543205261230 18.509609222412 6.537002563477 177 177 177
30.543205261230 18.509609222412 6.593994140625 170 170 170
30.530849456787 18.491289138794 6.651000976563 166 166 166
30.530849456787 18.491289138794 6.707992553711 161 161 161
30.546188354492 18.494272232056 6.766998291016 161 161 161
30.533832550049 18.475950241089 6.823989868164 166 166 166
30.521478652954 18.457630157471 6.878997802734 148 148 148
30.518495559692 18.472969055176 6.936996459961 141 141 141
30.521478652954 18.457630157471 6.996994018555 144 144 144
30.521478652954 18.457630157471 7.054000854492 141 141 141
30.524461746216 18.442295074463 7.111999511719 149 149 149
30.524461746216 18.442295074463 7.171997070313 140 140 140
30.509122848511 18.439311981201 7.227996826172 146 146 146
30.527442932129 18.426956176758 7.287002563477 149 149 149
30.509122848511 18.439311981201 7.345001220703 149 149 149
30.496767044067 18.420989990234 7.397994995117 114 114 114
30.496767044067 18.420989990234 7.459991455078 102 102 102
30.515089035034 18.408634185791 7.521987915039 156 156 156
30.530426025391 18.411617279053 7.583999633789 150 150 150
30.499750137329 18.405652999878 7.639999389648 141 141 141
30.530426025391 18.411617279053 7.703994750977 147 147 147
30.505716323853 18.374977111816 7.759002685547 139 139 139
30.505716323853 18.374977111816 7.819992065430 147 147 147
30.505716323853 18.374977111816 7.880996704102 142 142 142
30.505716323853 18.374977111816 7.940994262695 142 142 142
30.508699417114 18.359640121460 8.000000000000 145 145 145
30.508699417114 18.359640121460 8.061996459961 142 142 142
30.508699417114 18.359640121460 8.123001098633 147 147 147
30.524038314819 18.362621307373 8.185989379883 150 150 150
30.524038314819 18.362621307373 8.248001098633 154 154 154
30.511680603027 18.344301223755 8.307998657227 154 154 154
30.511680603027 18.344301223755 8.368988037109 164 164 164
30.511680603027 18.344301223755 8.431991577148 148 148 148
30.481006622314 18.338335037231 8.483001708984 125 125 125
30.511680603027 18.344301223755 8.559997558594 170 170 170
30.499326705933 18.325981140137 8.617996215820 96 96 96
30.659942626953 18.564147949219 5.998992919922 161 161 161
30.656534194946 18.499813079834 6.341995239258 160 160 160
30.613504409790 18.475526809692 6.392990112305 189 189 189
30.601148605347 18.457206726074 6.448989868164 200 200 200
30.601148605347 18.457206726074 6.506988525391 199 199 199
30.616487503052 18.460189819336 6.565994262695 201 201 201
30.604131698608 18.441867828369 6.623992919922 194 194 194
30.619468688965 18.444850921631 6.682998657227 194 194 194
30.619468688965 18.444850921631 6.740997314453 198 198 198
30.619468688965 18.444850921631 6.799987792969 192 192 192
30.622451782227 18.429513931274 6.858001708984 185 185 185
30.594760894775 18.408210754395 6.914001464844 165 165 165
30.610097885132 18.411193847656 6.973999023438 165 165 165
30.610097885132 18.411193847656 7.033996582031 156 156 156
30.610097885132 18.411193847656 7.089996337891 148 148 148
30.613080978394 18.395854949951 7.149993896484 145 145 145
30.613080978394 18.395854949951 7.209991455078 144 144 144
30.613080978394 18.395854949951 7.268997192383 143 143 143
30.628417968750 18.398838043213 7.332000732422 146 146 146
30.600725173950 18.377536773682 7.386993408203 118 118 118
30.576015472412 18.340894699097 7.431991577148 103 103 103
30.616064071655 18.380519866943 7.509002685547 104 104 104
30.634382247925 18.368162155151 7.572998046875 96 96 96
30.631399154663 18.383501052856 7.631988525391 87 87 87
30.634382247925 18.368162155151 7.692993164063 84 84 84
30.634382247925 18.368162155151 7.752990722656 76 76 76
30.619045257568 18.365180969238 7.812988281250 68 68 68
30.634382247925 18.368162155151 7.875000000000 69 69 69
30.634382247925 18.368162155151 7.937988281250 62 62 62
30.637365341187 18.352825164795 8.001998901367 43 43 43
30.640348434448 18.337488174438 8.060989379883 38 38 38
30.640348434448 18.337488174438 8.123992919922 29 29 29
30.640348434448 18.337488174438 8.187988281250 25 25 25
30.640348434448 18.337488174438 8.250000000000 29 29 29
30.643331527710 18.322149276733 8.312988281250 27 27 27
30.643331527710 18.322149276733 8.373992919922 25 25 25
30.609674453735 18.331523895264 8.429992675781 80 80 80
30.587945938110 18.279544830322 8.476989746094 35 35 35
30.589656829834 18.025192260742 7.401000976563 102 102 102
30.564523696899 17.908880233765 8.354995727539 17 17 17
30.587535858154 17.626838684082 7.401992797852 119 119 119
30.568790435791 17.559522628784 8.171997070313 27 27 27
30.597770690918 17.246803283691 7.394989013672 110 110 110
30.579027175903 17.179487228394 8.037994384766 26 26 26
30.586702346802 16.894462585449 7.106994628906 49 49 49
30.586702346802 16.894462585449 7.166000366211 16 16 16
30.602039337158 16.897443771362 7.345993041992 102 102 102
30.605022430420 16.882104873657 7.405990600586 81 81 81
30.598632812500 16.833110809326 7.871994018555 37 37 37
30.593952178955 16.529764175415 7.071990966797 85 85 85
30.624628067017 16.535730361938 7.367996215820 119 119 119
30.602901458740 16.483751296997 7.768997192383 21 21 21
30.610576629639 16.198724746704 7.041992187500 33 33 33
30.625915527344 16.201705932617 7.332992553711 105 105 105
30.613559722900 16.183387756348 7.388000488281 30 30 30
30.647218704224 16.174015045166 7.623001098633 65 65 65
30.617830276489 15.834026336670 7.054000854492 87 87 87
30.614847183228 15.849365234375 7.115997314453 92 92 92
30.645523071289 15.855331420898 7.179000854492 100 100 100
30.645523071289 15.855331420898 7.235992431641 89 89 89
30.676197052002 15.861295700073 7.299987792969 72 72 72
30.620811462402 15.818689346313 7.343994140625 113 113 113
30.648504257202 15.839992523193 7.407989501953 11 11 11
30.636148452759 15.821672439575 7.519989013672 22 22 22
30.600370407104 15.432689666748 7.048995971680 104 104 104
30.612726211548 15.451009750366 7.110000610352 84 84 84
30.625080108643 15.469329833984 7.171997070313 62 62 62
30.640419006348 15.472312927246 7.231994628906 22 22 22
30.640419006348 15.472312927246 7.345993041992 107 107 107
30.595268249512 15.049671173096 7.046997070313 140 140 140
30.641281127930 15.058620452881 7.111999511719 163 163 163
30.653635025024 15.076940536499 7.175994873047 149 149 149
30.668973922729 15.079923629761 7.235992431641 165 165 165
30.656618118286 15.061603546143 7.341995239258 115 115 115
30.633193969727 14.690940856934 7.057998657227 159 159 159
30.648532867432 14.693923950195 7.118988037109 124 124 124
30.673242568970 14.730564117432 7.183990478516 111 111 111
30.673242568970 14.730564117432 7.240997314453 146 146 146
30.676223754883 14.715225219727 7.297988891602 46 46 46
30.651515960693 14.678585052490 7.345001220703 100 100 100
30.652801513672 14.344562530518 7.076995849609 180 180 180
30.680494308472 14.365867614746 7.142990112305 153 153 153
30.695831298828 14.368848800659 7.203994750977 134 134 134
30.711170196533 14.371831893921 7.266998291016 33 33 33
30.683477401733 14.350528717041 7.310989379883 114 114 114
30.629690170288 18.637851715088 6.337997436523 19 19 19
30.629690170288 18.637851715088 6.284988403320 44 44 44
30.629690170288 18.637851715088 6.235000610352 69 69 69
30.648012161255 18.625495910645 6.183990478516 91 91 91
30.629690170288 18.637851715088 6.130996704102 98 98 98
30.629690170288 18.637851715088 6.078002929688 100 100 100
30.629690170288 18.637851715088 6.026000976563 104 104 104
30.632673263550 18.622512817383 5.975997924805 108 108 108
30.629690170288 18.637851715088 5.920989990234 110 110 110
30.632673263550 18.622512817383 5.871994018555 115 115 115
30.629690170288 18.637851715088 5.819992065430 114 114 114
30.632673263550 18.622512817383 5.768997192383 102 102 102
30.632673263550 18.622512817383 5.718002319336 111 111 111
30.629690170288 18.637851715088 5.666000366211 129 129 129
30.645029067993 18.640834808350 5.615997314453 127 127 127
30.645029067993 18.640834808350 5.565994262695 131 131 131
30.645029067993 18.640834808350 5.513992309570 129 129 129
30.645029067993 18.640834808350 5.462997436523 118 118 118
30.645029067993 18.640834808350 5.412002563477 127 127 127
30.645029067993 18.640834808350 5.360992431641 137 137 137
30.660366058350 18.643815994263 5.310989379883 149 149 149
30.645029067993 18.640834808350 5.259002685547 150 150 150
30.660366058350 18.643815994263 5.207992553711 162 162 162
30.660366058350 18.643815994263 5.156997680664 170 170 170
30.660366058350 18.643815994263 5.106002807617 162 162 162
30.660366058350 18.643815994263 5.055999755859 172 172 172
30.675703048706 18.646799087524 5.004989624023 166 166 166
30.678686141968 18.631462097168 4.955001831055 181 181 181
30.678686141968 18.631462097168 4.903991699219 170 170 170
30.675703048706 18.646799087524 4.851989746094 177 177 177
30.678686141968 18.631462097168 4.802001953125 182 182 182
30.675703048706 18.646799087524 4.750991821289 180 180 180
30.688058853149 18.665121078491 4.699996948242 173 173 173
30.706378936768 18.652763366699 4.649002075195 174 174 174
30.672719955444 18.662137985229 4.597991943359 180 180 180
30.688058853149 18.665121078491 4.546997070313 183 183 183
30.706378936768 18.652763366699 4.496002197266 173 173 173
30.706378936768 18.652763366699 4.444992065430 166 166 166
30.706378936768 18.652763366699 4.393997192383 173 173 173
30.706378936768 18.652763366699 4.343002319336 168 168 168
30.688058853149 18.665121078491 4.291992187500 166 166 166
30.706378936768 18.652763366699 4.239990234375 171 171 171
30.706378936768 18.652763366699 4.188995361328 169 169 169
