5.757920265198 5.000782012939 6.679000854492 119 119 119
5.757920265198 5.000782012939 6.624008178711 131 131 131
5.757540702820 4.992979049683 6.567001342773 124 124 124
5.757161140442 4.985175609589 6.509002685547 130 130 130
5.741934299469 4.993738174438 6.457000732422 138 138 138
5.756781578064 4.977372169495 6.398010253906 130 130 130
5.741934299469 4.993738174438 6.345001220703 131 131 131
5.756781578064 4.977372169495 6.287002563477 151 151 151
5.726327419281 4.994497776031 6.235000610352 140 140 140
5.741174697876 4.978131294250 6.179000854492 138 138 138
5.741174697876 4.978131294250 6.124008178711 137 137 137
5.741174697876 4.978131294250 6.068008422852 132 132 132
5.756781578064 4.977372169495 6.012008666992 135 135 135
5.741174697876 4.978131294250 5.958999633789 126 126 126
5.725188255310 4.971087932587 5.905014038086 123 123 123
5.741174697876 4.978131294250 5.850006103516 127 127 127
5.725188255310 4.971087932587 5.796005249023 122 122 122
5.756781578064 4.977372169495 5.739013671875 130 130 130
5.724808692932 4.963284492493 5.691009521484 130 130 130
5.724808692932 4.963284492493 5.636001586914 125 125 125
5.725188255310 4.971087932587 5.580001831055 126 126 126
5.724808692932 4.963284492493 5.529006958008 128 128 128
5.724808692932 4.963284492493 5.475006103516 125 125 125
5.724808692932 4.963284492493 5.423004150391 122 122 122
5.724808692932 4.963284492493 5.369003295898 132 132 132
5.724808692932 4.963284492493 5.319000244141 133 133 133
5.724808692932 4.963284492493 5.264999389648 130 130 130
5.724808692932 4.963284492493 5.213012695313 132 132 132
5.708822727203 4.956240177155 5.161010742188 133 133 133
5.708822727203 4.956240177155 5.108001708984 135 135 135
5.692836761475 4.949196815491 5.057006835938 139 139 139
5.708822727203 4.956240177155 5.003005981445 138 138 138
5.708822727203 4.956240177155 4.951004028320 140 140 140
5.708822727203 4.956240177155 4.898010253906 144 144 144
5.692836761475 4.949196815491 4.847000122070 140 140 140
5.708822727203 4.956240177155 4.794006347656 132 132 132
5.692836761475 4.949196815491 4.743011474609 141 141 141
5.692836761475 4.949196815491 4.691009521484 137 137 137
5.692836761475 4.949196815491 4.639007568359 133 133 133
5.692836761475 4.949196815491 4.586013793945 137 137 137
5.692836761475 4.949196815491 4.536010742188 140 140 140
5.692456722260 4.941393375397 4.484008789063 132 132 132
5.676470756531 4.934349060059 4.433013916016 140 140 140
5.692456722260 4.941393375397 4.381011962891 138 138 138
5.692456722260 4.941393375397 4.330001831055 133 133 133
5.692456722260 4.941393375397 4.277999877930 131 131 131
5.676470756531 4.934349060059 4.227005004883 129 129 129
5.676470756531 4.934349060059 4.176010131836 128 128 128
5.676470756531 4.934349060059 4.124008178711 121 121 121
5.676470756531 4.934349060059 4.072006225586 123 123 123
5.691318035126 4.917983531952 4.021011352539 117 117 117
5.676470756531 4.934349060059 3.970001220703 119 119 119
5.660863876343 4.935108184814 3.919006347656 112 112 112
5.691318035126 4.917983531952 3.867004394531 119 119 119
5.691318035126 4.917983531952 3.815002441406 114 114 114
5.660104751587 4.919502258301 3.764007568359 114 114 114
5.660484313965 4.927305221558 3.713012695313 120 120 120
5.675711631775 4.918742656708 3.661010742188 107 107 107
5.659724712372 4.911699295044 3.610000610352 101 101 101
5.675711631775 4.918742656708 3.559005737305 98 98 98
5.675711631775 4.918742656708 3.507003784180 97 97 97
5.659724712372 4.911699295044 3.456008911133 91 91 91
5.644498348236 4.920261383057 3.404006958008 87 87 87
5.659724712372 4.911699295044 3.353012084961 81 81 81
5.659345149994 4.903895378113 3.301010131836 70 70 70
5.659345149994 4.903895378113 3.250000000000 53 53 53
5.659345149994 4.903895378113 3.199005126953 46 46 46
5.659345149994 4.903895378113 3.146011352539 32 32 32
5.643738746643 4.904654979706 3.094009399414 23 23 23
5.659345149994 4.903895378113 3.042999267578 18 18 18
5.643738746643 4.904654979706 2.991012573242 11 11 11
5.862988471985 11.018411636353 2.670013427734 90 90 90
5.831395149231 11.012126922607 2.609008789063 63 63 63
5.831395149231 11.012126922607 2.549011230469 78 78 78
5.831395149231 11.012126922607 2.490005493164 133 133 133
5.862228870392 11.002804756165 2.435012817383 125 125 125
5.877076148987 10.986438751221 2.376998901367 137 137 137
5.712617874146 11.143053054810 6.932006835938 10 10 10
5.681404590607 11.144572257996 6.874008178711 19 19 19
5.711478710175 11.119643211365 6.802001953125 22 22 22
5.680644989014 11.128966331482 6.739013671875 27 27 27
5.679885864258 11.113359451294 6.673004150391 49 49 49
5.679885864258 11.113359451294 6.606002807617 70 70 70
5.680644989014 11.128966331482 6.545013427734 66 66 66
5.679885864258 11.113359451294 6.477005004883 80 80 80
5.694733619690 11.096994400024 6.412002563477 85 85 85
5.694733619690 11.096994400024 6.348007202148 98 98 98
5.678746700287 11.089949607849 6.284011840820 91 91 91
5.679126739502 11.097753524780 6.223007202148 93 93 93
5.678367137909 11.082146644592 6.157012939453 99 99 99
5.677608013153 11.066539764404 6.092010498047 99 99 99
5.677608013153 11.066539764404 6.029006958008 101 101 101
5.677608013153 11.066539764404 5.965011596680 109 109 109
5.677608013153 11.066539764404 5.902999877930 106 106 106
5.677608013153 11.066539764404 5.839004516602 111 111 111
5.676848411560 11.050933837891 5.775009155273 103 103 103
5.677608013153 11.066539764404 5.714004516602 109 109 109
5.676468849182 11.043129920959 5.652008056641 118 118 118
5.676468849182 11.043129920959 5.589004516602 110 110 110
5.676468849182 11.043129920959 5.525009155273 119 119 119
5.676468849182 11.043129920959 5.463012695313 120 120 120
5.676089286804 11.035326957703 5.402008056641 134 134 134
5.676089286804 11.035326957703 5.340011596680 139 139 139
5.676089286804 11.035326957703 5.277999877930 145 145 145
5.675329685211 11.019720077515 5.216003417969 144 144 144
5.675329685211 11.019720077515 5.155014038086 151 151 151
5.660482883453 11.036086082458 5.094009399414 164 164 164
5.675329685211 11.019720077515 5.033004760742 171 171 171
5.659343719482 11.012676239014 4.972000122070 171 171 171
5.659343719482 11.012676239014 4.910003662109 166 166 166
5.659343719482 11.012676239014 4.848999023438 174 174 174
5.658205032349 10.989266395569 4.788009643555 175 175 175
5.658205032349 10.989266395569 4.727005004883 177 177 177
5.642598152161 10.990025520325 4.667007446289 174 174 174
5.642598152161 10.990025520325 4.606002807617 177 177 177
5.642598152161 10.990025520325 4.545013427734 174 174 174
5.657445430756 10.973659515381 4.484008789063 176 176 176
5.641839027405 10.974418640137 4.424011230469 176 176 176
5.641839027405 10.974418640137 4.363006591797 180 180 180
5.641839027405 10.974418640137 4.303009033203 176 176 176
5.641459465027 10.966615676880 4.242004394531 181 181 181
5.656685829163 10.958053588867 4.182006835938 182 182 182
5.641079902649 10.958812713623 4.122009277344 183 183 183
5.640320301056 10.943205833435 4.061004638672 183 183 183
5.655547142029 10.934643745422 4.001007080078 182 182 182
5.655167579651 10.926839828491 3.941009521484 172 172 172
5.639561176300 10.927598953247 3.880004882813 173 173 173
5.639561176300 10.927598953247 3.820007324219 178 178 178
5.639561176300 10.927598953247 3.760009765625 176 176 176
5.654407978058 10.911233901978 3.700012207031 163 163 163
5.639561176300 10.927598953247 3.639007568359 168 168 168
5.638801574707 10.911993026733 3.579010009766 165 165 165
5.639181137085 10.919795989990 3.519012451172 157 157 157
5.638422012329 10.904190063477 3.458999633789 168 168 168
5.638422012329 10.904190063477 3.399002075195 168 168 168
5.622435569763 10.897146224976 3.338012695313 170 170 170
5.622435569763 10.897146224976 3.277999877930 173 173 173
5.606829166412 10.897905349731 3.217010498047 157 157 157
5.638042449951 10.896386146545 3.158004760742 158 158 158
5.638042449951 10.896386146545 3.097000122070 172 172 172
5.622435569763 10.897146224976 3.036010742188 171 171 171
5.622056007385 10.889343261719 2.976013183594 165 165 165
5.622056007385 10.889343261719 2.915008544922 171 171 171
5.622056007385 10.889343261719 2.855010986328 169 169 169
5.606069564819 10.882299423218 2.794006347656 152 152 152
5.620916843414 10.865932464600 2.733001708984 154 154 154
5.605310440063 10.866692543030 2.672012329102 157 157 157
5.605310440063 10.866692543030 2.611999511719 167 167 167
5.605310440063 10.866692543030 2.549011230469 163 163 163
5.605310440063 10.866692543030 2.489013671875 164 164 164
5.605310440063 10.866692543030 2.428009033203 158 158 158
5.604171276093 10.843282699585 2.367004394531 156 156 156
5.588944435120 10.851844787598 2.305007934570 161 161 161
5.604171276093 10.843282699585 2.245010375977 151 151 151
5.603791713715 10.835479736328 2.183013916016 145 145 145
5.636523723602 10.865173339844 6.779006958008 101 101 101
5.638082504272 10.575693130493 6.800003051758 93 93 93
5.638881683350 10.270606994629 6.830001831055 14 14 14
5.638501644135 10.262803077698 6.771011352539 57 57 57
5.654148578644 9.941349983215 6.805999755859 97 97 97
5.639720916748 9.644825935364 6.783004760742 82 82 82
5.640520572662 9.339738845825 6.808013916016 107 107 107
5.672533035278 9.033133506775 6.818008422852 86 86 86
5.642078876495 9.050258636475 6.764999389648 21 21 21
5.656167030334 9.018286705017 6.626998901367 63 63 63
5.671773433685 9.017526626587 6.554000854492 99 99 99
5.671773433685 9.017526626587 6.489013671875 76 76 76
5.658864974976 8.752215385437 6.848999023438 14 14 14
5.658864974976 8.752215385437 6.787002563477 105 105 105
5.627651691437 8.753734588623 6.730010986328 85 85 85
5.627651691437 8.753734588623 6.662002563477 144 144 144
5.672952651978 8.720243453979 6.586013793945 155 155 155
5.702647209167 8.687512397766 6.514007568359 145 145 145
5.658524990082 8.423719406128 6.824005126953 122 122 122
5.643678188324 8.440084457397 6.766006469727 15 15 15
5.643298149109 8.432281494141 6.702011108398 145 145 145
5.658524990082 8.423719406128 6.629013061523 132 132 132
5.672613143921 8.391747474670 6.558013916016 177 177 177
5.688599586487 8.398791313171 6.490005493164 64 64 64
5.659324645996 8.118632316589 6.863006591797 15 15 15
5.658945083618 8.110829353333 6.799011230469 106 106 106
5.628491401672 8.127954483032 6.741012573242 107 107 107
5.658945083618 8.110829353333 6.673004150391 155 155 155
5.658945083618 8.110829353333 6.604003906250 142 142 142
5.673032760620 8.078857421875 6.534011840820 155 155 155
5.674971103668 7.797179698944 6.822006225586 124 124 124
5.644517898560 7.814305305481 6.705001831055 168 168 168
5.659744262695 7.805742740631 6.632003784180 150 150 150
5.674211978912 7.781573295593 6.562011718750 145 145 145
5.705425262451 7.780054569244 6.496002197266 30 30 30
5.662062168121 7.531868934631 6.845001220703 116 116 116
5.630849361420 7.533387660980 6.789001464844 10 10 10
5.630849361420 7.533387660980 6.723999023438 145 145 145
5.645696640015 7.517021656036 6.655014038086 157 157 157
5.676529884338 7.507699966431 6.583999633789 153 153 153
5.691756725311 7.499136924744 6.513000488281 63 63 63
5.663241386414 7.234585285187 6.872009277344 53 53 53
5.663241386414 7.234585285187 6.808013916016 84 84 84
5.648014545441 7.243147850037 6.747009277344 115 115 115
5.648014545441 7.243147850037 6.682006835938 110 110 110
5.678088665009 7.218219280243 6.610000610352 133 133 133
5.692176342010 7.186246871948 6.539001464844 132 132 132
5.678887844086 6.913132667542 6.842010498047 122 122 122
5.648813724518 6.938061237335 6.721008300781 162 162 162
5.662901878357 6.906088352203 6.648010253906 162 162 162
5.694114685059 6.904569625854 6.576004028320 163 163 163
5.693735122681 6.896766662598 6.517013549805 19 19 19
5.680446624756 6.623651981354 6.876007080078 93 93 93
5.680446624756 6.623651981354 6.816009521484 63 63 63
5.665259838104 6.311521053314 6.908004760742 28 28 28
5.665259838104 6.311521053314 6.843002319336 96 96 96
5.682045459747 6.013478279114 6.926010131836 21 21 21
5.681665897369 6.005674839020 6.865005493164 109 109 109
5.667618274689 5.716954231262 6.957000732422 18 18 18
5.682465076447 5.700588226318 6.889999389648 111 111 111
5.683644294739 5.403305053711 6.921005249023 119 119 119
5.762096881866 5.086617946625 7.255004882813 28 28 28
5.746110439301 5.079574108124 7.190002441406 63 63 63
5.746110439301 5.079574108124 7.126007080078 83 83 83
5.746110439301 5.079574108124 7.061004638672 111 111 111
5.760957717896 5.063208103180 6.992004394531 105 105 105
5.744971752167 5.056164264679 6.929000854492 128 128 128
5.760198593140 5.047601699829 6.861007690430 121 121 121
5.759818553925 5.039798259735 6.799011230469 124 124 124
5.759818553925 5.039798259735 6.733001708984 125 125 125
5.759818553925 5.039798259735 6.672012329102 136 136 136
5.759818553925 5.039798259735 6.609008789063 144 144 144
5.759818553925 5.039798259735 6.546005249023 145 145 145
5.759818553925 5.039798259735 6.482009887695 155 155 155
5.759818553925 5.039798259735 6.421005249023 158 158 158
5.743832588196 5.032754421234 6.359008789063 155 155 155
5.759059429169 5.024191856384 6.295013427734 155 155 155
5.743832588196 5.032754421234 6.235000610352 161 161 161
5.727846145630 5.025710582733 6.174011230469 161 161 161
5.727846145630 5.025710582733 6.113006591797 157 157 157
5.742693424225 5.009344577789 6.048004150391 160 160 160
5.727086544037 5.010104179382 5.989013671875 167 167 167
5.727086544037 5.010104179382 5.929000854492 164 164 164
5.727086544037 5.010104179382 5.867004394531 163 163 163
5.741934299469 4.993738174438 5.805999755859 163 163 163
5.726706981659 5.002300739288 5.747009277344 175 175 175
5.726706981659 5.002300739288 5.686004638672 173 173 173
5.726327419281 4.994497776031 5.626007080078 169 169 169
5.725567817688 4.978890895844 5.566009521484 171 171 171
5.725567817688 4.978890895844 5.506011962891 171 171 171
5.725567817688 4.978890895844 5.445007324219 171 171 171
5.725567817688 4.978890895844 5.387008666992 169 169 169
5.709961891174 4.979650020599 5.327011108398 182 182 182
5.709961891174 4.979650020599 5.268005371094 177 177 177
5.693975448608 4.972606658936 5.208999633789 180 180 180
5.693975448608 4.972606658936 5.149002075195 183 183 183
5.693975448608 4.972606658936 5.089004516602 185 185 185
5.693595886230 4.964803218842 5.030014038086 182 182 182
5.693595886230 4.964803218842 4.972000122070 189 189 189
5.693595886230 4.964803218842 4.912002563477 188 188 188
5.677609920502 4.957758903503 4.853012084961 186 186 186
5.661623477936 4.950715065002 4.795013427734 181 181 181
5.661623477936 4.950715065002 4.735000610352 188 188 188
5.661623477936 4.950715065002 4.677001953125 184 184 184
5.661623477936 4.950715065002 4.618011474609 182 182 182
5.661623477936 4.950715065002 4.559005737305 171 171 171
5.661623477936 4.950715065002 4.500000000000 166 166 166
5.661243438721 4.942912101746 4.441009521484 162 162 162
5.660484313965 4.927305221558 4.382003784180 166 166 166
5.645257472992 4.935867786407 4.324005126953 150 150 150
5.645257472992 4.935867786407 4.264999389648 152 152 152
5.629651069641 4.936626911163 4.206008911133 145 145 145
5.629651069641 4.936626911163 4.147003173828 139 139 139
5.644498348236 4.920261383057 4.088012695313 143 143 143
5.629651069641 4.936626911163 4.029006958008 130 130 130
5.629271507263 4.928823947906 3.971008300781 139 139 139
5.628891944885 4.921020507813 3.912002563477 119 119 119
5.628891944885 4.921020507813 3.853012084961 115 115 115
5.597678661346 4.922539234161 3.794006347656 104 104 104
5.597678661346 4.922539234161 3.735000610352 93 93 93
5.597678661346 4.922539234161 3.676010131836 59 59 59
5.612525939941 4.906173706055 3.617004394531 20 20 20
5.669976234436 5.122386932373 2.255004882813 172 172 172
5.669976234436 5.122386932373 2.312011718750 173 173 173
5.669976234436 5.122386932373 2.372009277344 173 173 173
5.669976234436 5.122386932373 2.430999755859 174 174 174
5.685583114624 5.121627807617 2.491012573242 174 174 174
5.669976234436 5.122386932373 2.549011230469 176 176 176
5.669976234436 5.122386932373 2.608001708984 182 182 182
5.669976234436 5.122386932373 2.666000366211 181 181 181
5.669976234436 5.122386932373 2.725006103516 182 182 182
5.700429916382 5.105262279510 2.784011840820 188 188 188
5.700809478760 5.113065242767 2.843002319336 189 189 189
5.700429916382 5.105262279510 2.900009155273 186 186 186
5.700809478760 5.113065242767 2.958999633789 182 182 182
5.700809478760 5.113065242767 3.017013549805 189 189 189
5.701189517975 5.120868682861 3.075012207031 195 195 195
5.701189517975 5.120868682861 3.133010864258 195 195 195
5.716795921326 5.120109081268 3.191009521484 194 194 194
5.716795921326 5.120109081268 3.249008178711 198 198 198
5.716795921326 5.120109081268 3.307006835938 200 200 200
5.716795921326 5.120109081268 3.365005493164 199 199 199
5.732022285461 5.111546516418 3.423004150391 201 201 201
5.731642723083 5.103743553162 3.480010986328 200 200 200
5.731642723083 5.103743553162 3.538009643555 198 198 198
5.732022285461 5.111546516418 3.595001220703 201 201 201
5.732022285461 5.111546516418 3.652999877930 206 206 206
5.732402324677 5.119349956512 3.710006713867 201 201 201
5.732022285461 5.111546516418 3.768005371094 203 203 203
5.732022285461 5.111546516418 3.825012207031 201 201 201
5.732402324677 5.119349956512 3.882003784180 200 200 200
5.732022285461 5.111546516418 3.940002441406 198 198 198
5.732402324677 5.119349956512 3.997009277344 194 194 194
5.748009204865 5.118590354919 4.054000854492 200 200 200
5.747249603271 5.102983951569 4.111999511719 204 204 204
5.762856006622 5.102224826813 4.169006347656 210 210 210
5.762856006622 5.102224826813 4.514007568359 189 189 189
5.762856006622 5.102224826813 4.570999145508 195 195 195
5.763235569000 5.110027790070 4.628005981445 203 203 203
5.763235569000 5.110027790070 4.686004638672 196 196 196
5.778082847595 5.093661785126 4.743011474609 193 193 193
5.778082847595 5.093661785126 4.802001953125 190 190 190
5.794069290161 5.100706100464 4.858001708984 193 193 193
5.794069290161 5.100706100464 4.916000366211 190 190 190
5.794069290161 5.100706100464 5.323013305664 188 188 188
5.794069290161 5.100706100464 5.381011962891 188 188 188
5.793310165405 5.085099220276 5.439010620117 190 190 190
5.793310165405 5.085099220276 5.498001098633 179 179 179
5.793310165405 5.085099220276 5.912002563477 173 173 173
5.793310165405 5.085099220276 5.972000122070 179 179 179
5.793310165405 5.085099220276 6.033004760742 183 183 183
5.808156967163 5.068733215332 6.091003417969 179 179 179
5.808156967163 5.068733215332 6.152008056641 182 182 182
5.808156967163 5.068733215332 6.211013793945 176 176 176
5.792550563812 5.069492816925 6.274002075195 173 173 173
5.824142932892 5.075777530670 6.332000732422 170 170 170
5.792550563812 5.069492816925 6.396011352539 161 161 161
5.792550563812 5.069492816925 6.458007812500 165 165 165
5.792550563812 5.069492816925 6.518005371094 171 171 171
5.792550563812 5.069492816925 6.579010009766 166 166 166
5.808156967163 5.068733215332 6.641006469727 159 159 159
5.792550563812 5.069492816925 6.704010009766 156 156 156
5.823763370514 5.067974090576 6.764007568359 159 159 159
5.823763370514 5.067974090576 6.825012207031 149 149 149
5.808156967163 5.068733215332 6.891006469727 160 160 160
5.823763370514 5.067974090576 6.953002929688 164 164 164
5.808156967163 5.068733215332 7.016006469727 158 158 158
5.808156967163 5.068733215332 7.081008911133 113 113 113
5.824142932892 5.075777530670 7.139999389648 165 165 165
5.823763370514 5.067974090576 7.205001831055 162 162 162
5.808156967163 5.068733215332 7.273010253906 166 166 166
5.823763370514 5.067974090576 7.333007812500 166 166 166
5.823763370514 5.067974090576 7.397003173828 169 169 169
5.808156967163 5.068733215332 7.464004516602 159 159 159
5.823004245758 5.052367687225 7.530014038086 150 150 150
5.823004245758 5.052367687225 7.594009399414 152 152 152
5.823004245758 5.052367687225 7.658004760742 149 149 149
5.823004245758 5.052367687225 7.725006103516 146 146 146
5.823004245758 5.052367687225 7.792999267578 132 132 132
5.823004245758 5.052367687225 7.861007690430 130 130 130
5.823004245758 5.052367687225 7.929000854492 127 127 127
5.823004245758 5.052367687225 7.991012573242 117 117 117
5.823004245758 5.052367687225 8.059005737305 137 137 137
5.822244644165 5.036760807037 8.126998901367 122 122 122
5.822244644165 5.036760807037 8.195999145508 135 135 135
5.653989791870 5.115343093872 2.193008422852 164 164 164
5.667697906494 5.075567245483 4.230010986328 161 161 161
5.666938781738 5.059961318970 4.404006958008 134 134 134
5.747249603271 5.102983951569 4.457000732422 190 190 190
5.698152065277 5.058442592621 4.985000610352 124 124 124
5.713758468628 5.057682991028 5.276000976563 118 118 118
5.776943683624 5.070251941681 5.858001708984 164 164 164
5.746070384979 5.400267601013 6.994003295898 42 42 42
5.778042793274 5.414355278015 7.048004150391 119 119 119
5.733840942383 5.791949748993 6.962005615234 67 67 67
5.749826908112 5.798993587494 7.016006469727 114 114 114
5.752065181732 6.166506767273 6.929000854492 82 82 82
5.752444744110 6.174310207367 6.986007690430 89 89 89
5.740594863892 6.573795318604 6.897003173828 29 29 29
5.741353988647 6.589402198792 6.955001831055 129 129 129
5.775944709778 6.978806018829 6.595001220703 31 31 31
5.743971824646 6.964717864990 6.666000366211 173 173 173
5.728365421295 6.965476989746 6.733001708984 167 167 167
5.711999893188 6.950630187988 6.802001953125 184 184 184
5.696012973785 6.943585872650 6.872009277344 29 29 29
5.743971824646 6.964717864990 6.921005249023 138 138 138
5.748108386993 7.371247291565 6.617004394531 117 117 117
5.747348785400 7.355640411377 6.685012817383 155 155 155
5.715376377106 7.341552734375 6.758010864258 81 81 81
5.714616775513 7.325946331024 6.820007324219 164 164 164
5.714616775513 7.325946331024 6.885009765625 25 25 25
5.746589660645 7.340034008026 6.939010620117 125 125 125
5.734359741211 7.731716156006 6.580001831055 10 10 10
5.734359741211 7.731716156006 6.642013549805 168 168 168
5.717994213104 7.716869354248 6.716003417969 154 154 154
5.701628208160 7.702022075653 6.785003662109 192 192 192
5.716855049133 7.693459510803 6.845001220703 58 58 58
5.732841014862 7.700503349304 6.902999877930 129 129 129
5.752583980560 8.106272697449 6.598007202148 117 117 117
5.720612049103 8.092185020447 6.670013427734 139 139 139
5.720232009888 8.084382057190 6.739013671875 196 196 196
5.688639163971 8.078097343445 6.807006835938 178 178 178
5.688259601593 8.070293426514 6.873001098633 34 34 34
5.720612049103 8.092185020447 6.924011230469 124 124 124
5.741114139557 8.513562202454 6.564010620117 30 30 30
5.741114139557 8.513562202454 6.628005981445 179 179 179
5.724747657776 8.498714447021 6.698013305664 100 100 100
5.707622528076 8.468261718750 6.773010253906 145 145 145
5.707622528076 8.468261718750 6.833007812500 35 35 35
5.739595413208 8.482348442078 6.891006469727 134 134 134
5.728504657745 8.897440910339 6.606002807617 169 169 169
5.712518692017 8.890397071838 6.676010131836 161 161 161
5.696152687073 8.875549316406 6.745010375977 199 199 199
5.696152687073 8.875549316406 6.811004638672 89 89 89
5.712518692017 8.890397071838 6.869003295898 107 107 107
5.696532726288 8.883353233337 6.935012817383 28 28 28
5.715895652771 9.281319618225 6.900009155273 107 107 107
5.701767444611 9.633985519409 6.867004394531 36 36 36
5.732980728149 9.632467269897 6.925003051758 72 72 72
5.703246116638 9.985892295837 6.881011962891 112 112 112
5.690637111664 10.369771003723 6.845001220703 15 15 15
5.705863475800 10.361207962036 6.902999877930 88 88 88
5.860330581665 10.963788032532 1.897003173828 174 174 174
5.955488204956 10.990446090698 1.973999023438 164 164 164
5.858811855316 10.932575225830 2.013000488281 143 143 143
5.939122200012 10.975598335266 2.087005615234 149 149 149
5.875177383423 10.947422981262 2.548004150391 128 128 128
5.859571456909 10.948182106018 2.606002807617 112 112 112
5.666217803955 10.832442283630 2.638000488281 26 26 26
5.921997070313 10.945144653320 2.727005004883 103 103 103
5.694393634796 10.768496513367 6.820007324219 10 10 10
5.694393634796 10.768496513367 6.881011962891 88 88 88
5.650951385498 11.161697387695 5.863006591797 13 13 13
5.650951385498 11.161697387695 5.925003051758 53 53 53
5.650951385498 11.161697387695 5.988006591797 81 81 81
5.650951385498 11.161697387695 6.050003051758 90 90 90
5.650951385498 11.161697387695 6.110000610352 95 95 95
5.682543754578 11.167982101440 6.171005249023 104 104 104
5.682543754578 11.167982101440 6.233001708984 109 109 109
5.682543754578 11.167982101440 6.296005249023 108 108 108
5.682923316956 11.175786018372 6.358001708984 115 115 115
5.682543754578 11.167982101440 6.423004150391 125 125 125
5.682923316956 11.175786018372 6.484008789063 128 128 128
5.698530197144 11.175026893616 6.546005249023 136 136 136
5.698530197144 11.175026893616 6.610000610352 137 137 137
5.714516162872 11.182069778442 6.670013427734 136 136 136
5.714516162872 11.182069778442 6.734008789063 140 140 140
5.714895725250 11.189872741699 6.796005249023 136 136 136
5.714895725250 11.189872741699 6.861007690430 99 99 99
5.730882167816 11.196917533875 6.922012329102 157 157 157
5.730882167816 11.196917533875 6.986999511719 149 149 149
5.745728969574 11.180551528931 7.051010131836 123 123 123
5.746108531952 11.188354492188 7.113006591797 134 134 134
5.746108531952 11.188354492188 7.179000854492 131 131 131
5.746108531952 11.188354492188 7.246002197266 141 141 141
5.761715412140 11.187595367432 7.308013916016 141 141 141
5.746108531952 11.188354492188 7.378005981445 142 142 142
5.761715412140 11.187595367432 7.440002441406 148 148 148
5.761715412140 11.187595367432 7.507003784180 147 147 147
5.777701854706 11.194639205933 7.573013305664 144 144 144
5.761715412140 11.187595367432 7.642013549805 158 158 158
5.761715412140 11.187595367432 7.708999633789 165 165 165
5.776562690735 11.171229362488 7.777008056641 165 165 165
5.776942253113 11.179032325745 7.842010498047 168 168 168
5.777321815491 11.186835289001 7.910003662109 173 173 173
5.777321815491 11.186835289001 7.976013183594 177 177 177
5.777321815491 11.186835289001 8.045013427734 181 181 181
5.792928218842 11.186076164246 8.111007690430 169 169 169
5.756781578064 4.977372169495 6.259002685547 22 22 22
5.756781578064 4.977372169495 6.315002441406 40 40 40
5.741934299469 4.993738174438 6.372009277344 58 58 58
5.756781578064 4.977372169495 6.425003051758 68 68 68
5.757540702820 4.992979049683 6.482009887695 71 71 71
5.756781578064 4.977372169495 6.537002563477 73 73 73
5.757161140442 4.985175609589 6.590011596680 76 76 76
5.757540702820 4.992979049683 6.649002075195 79 79 79
5.757540702820 4.992979049683 6.708007812500 73 73 73
5.773147106171 4.992219448090 6.758010864258 76 76 76
5.758299827576 5.008585453033 6.817001342773 71 71 71
5.773147106171 4.992219448090 6.872009277344 85 85 85
5.773147106171 4.992219448090 6.929000854492 99 99 99
5.788753986359 4.991460323334 6.986007690430 77 77 77
5.758299827576 5.008585453033 7.048004150391 48 48 48
5.788753986359 4.991460323334 7.101013183594 99 99 99
5.773906230927 5.007825851440 7.161010742188 105 105 105
5.773906230927 5.007825851440 7.219009399414 111 111 111
5.789133548737 4.999263286591 7.271011352539 108 108 108
5.773906230927 5.007825851440 7.333999633789 115 115 115
5.789133548737 4.999263286591 7.391006469727 113 113 113
5.789133548737 4.999263286591 7.451004028320 117 117 117
5.789893150330 5.014870166779 7.512008666992 120 120 120
5.789893150330 5.014870166779 7.574005126953 119 119 119
5.789893150330 5.014870166779 7.635009765625 120 120 120
5.805119514465 5.006307125092 7.689010620117 120 120 120
5.790272712708 5.022673130035 7.751998901367 114 114 114
5.790272712708 5.022673130035 7.813003540039 123 123 123
5.790272712708 5.022673130035 7.876998901367 132 132 132
5.790272712708 5.022673130035 7.936004638672 129 129 129
5.790272712708 5.022673130035 8.001998901367 131 131 131
5.820725917816 5.005548000336 8.055999755859 124 124 124
5.805879116058 5.021913528442 8.124008178711 131 131 131
5.805879116058 5.021913528442 8.186004638672 121 121 121
5.744931221008 5.376857757568 6.952011108398 11 11 11
5.775764942169 5.367535591125 7.001007080078 150 150 150
5.716715812683 5.761496067047 6.919006347656 24 24 24
5.747928619385 5.759977340698 6.967010498047 154 154 154
5.735699653625 6.151659488678 6.892013549805 92 92 92
5.752065181732 6.166506767273 6.945007324219 116 116 116
5.739835262299 6.558188438416 6.876998901367 116 116 116
5.739835262299 6.558188438416 6.930999755859 95 95 95
5.758819103241 6.948351860046 6.565002441406 18 18 18
5.743971824646 6.964717864990 6.624008178711 176 176 176
5.758819103241 6.948351860046 6.680007934570 175 175 175
5.712759017944 6.966236591339 6.750000000000 188 188 188
5.712759017944 6.966236591339 6.810012817383 122 122 122
5.728744983673 6.973280429840 6.861999511719 103 103 103
5.743971824646 6.964717864990 6.912002563477 117 117 117
5.777802467346 7.338515281677 6.581008911133 101 101 101
5.746589660645 7.340034008026 6.643005371094 177 177 177
5.715755939484 7.349356174469 6.711013793945 72 72 72
5.700529098511 7.357918739319 6.776000976563 175 175 175
5.715755939484 7.349356174469 6.828002929688 29 29 29
5.716135501862 7.357159137726 6.881011962891 147 147 147
5.746969223022 7.347837448120 6.930007934570 17 17 17
5.749207496643 7.715350627899 6.594009399414 143 143 143
5.733221054077 7.708306312561 6.654006958008 108 108 108
5.733600616455 7.716109752655 6.719009399414 157 157 157
5.702767372131 7.725431919098 6.784011840820 178 178 178
5.702767372131 7.725431919098 6.842010498047 16 16 16
5.734359741211 7.731716156006 6.885009765625 147 147 147
5.751824855804 8.090665817261 6.551010131836 41 41 41
5.720612049103 8.092185020447 6.611999511719 180 180 180
5.705764293671 8.108551025391 6.677001953125 164 164 164
5.705764293671 8.108551025391 6.736007690430 182 182 182
5.705384731293 8.100748062134 6.796005249023 122 122 122
5.721371173859 8.107791900635 6.848999023438 125 125 125
5.752583980560 8.106272697449 6.899002075195 93 93 93
5.739974975586 8.490152359009 6.583007812500 174 174 174
5.724747657776 8.498714447021 6.647003173828 153 153 153
5.709900856018 8.515081405640 6.708999633789 137 137 137
5.678688049316 8.516599655151 6.776000976563 154 154 154
5.678688049316 8.516599655151 6.833999633789 81 81 81
5.740354537964 8.497955322266 6.876007080078 125 125 125
5.729643821716 8.920850753784 6.566009521484 152 152 152
5.714037418365 8.921609878540 6.631011962891 124 124 124
5.714037418365 8.921609878540 6.690002441406 174 174 174
5.682444095612 8.915325164795 6.757003784180 176 176 176
5.666458129883 8.908281326294 6.818008422852 22 22 22
5.729643821716 8.920850753784 6.859008789063 136 136 136
5.686201095581 9.314050674438 6.846008300781 131 131 131
5.717414379120 9.312532424927 6.899002075195 12 12 12
5.705184459686 9.704214096069 6.861007690430 130 130 130
5.707802295685 10.079531669617 6.868011474609 119 119 119
5.711178779602 10.470454216003 6.833007812500 124 124 124
5.538328170776 10.776090621948 1.881011962891 98 98 98
5.699329376221 10.869938850403 6.812011718750 120 120 120
5.699708938599 10.877742767334 6.864013671875 10 10 10
5.841648101807 5.114034652710 7.062011718750 77 77 77
5.765893459320 5.164650917053 7.024002075195 115 115 115
5.794448852539 5.108509063721 6.369003295898 40 40 40
5.794448852539 5.108509063721 6.305007934570 76 76 76
5.794069290161 5.100706100464 6.243011474609 113 113 113
5.793310165405 5.085099220276 6.179000854492 121 121 121
5.809296131134 5.092143058777 6.115005493164 130 130 130
5.793310165405 5.085099220276 6.055999755859 136 136 136
5.793310165405 5.085099220276 5.991012573242 146 146 146
5.808156967163 5.068733215332 5.928009033203 146 146 146
5.808156967163 5.068733215332 5.866012573242 151 151 151
5.793310165405 5.085099220276 5.808013916016 167 167 167
5.793310165405 5.085099220276 5.746002197266 167 167 167
5.792550563812 5.069492816925 5.684005737305 172 172 172
5.792550563812 5.069492816925 5.622009277344 181 181 181
5.792550563812 5.069492816925 5.561004638672 186 186 186
5.792171001434 5.061689376831 5.501998901367 193 193 193
5.792171001434 5.061689376831 5.439010620117 198 198 198
5.791791439056 5.053886413574 5.379013061523 202 202 202
5.792171001434 5.061689376831 5.317001342773 201 201 201
5.791791439056 5.053886413574 5.257003784180 201 201 201
5.791791439056 5.053886413574 5.197006225586 207 207 207
5.791791439056 5.053886413574 5.137008666992 205 205 205
5.791791439056 5.053886413574 5.076004028320 208 208 208
5.791791439056 5.053886413574 5.016006469727 204 204 204
5.760578155518 5.055405139923 4.956008911133 208 208 208
5.776184558868 5.054645538330 4.896011352539 209 209 209
5.776184558868 5.054645538330 4.835006713867 213 213 213
5.776184558868 5.054645538330 4.776000976563 211 211 211
5.776184558868 5.054645538330 4.716003417969 211 211 211
5.791031837463 5.038279533386 4.655014038086 213 213 213
5.791031837463 5.038279533386 4.595001220703 217 217 217
5.760198593140 5.047601699829 4.536010742188 215 215 215
5.775045394897 5.031235694885 4.476013183594 217 217 217
5.759059429169 5.024191856384 4.417007446289 221 221 221
5.759059429169 5.024191856384 4.357009887695 222 222 222
5.759059429169 5.024191856384 4.297012329102 216 216 216
5.759059429169 5.024191856384 4.238006591797 220 220 220
5.759059429169 5.024191856384 4.178009033203 222 222 222
5.759059429169 5.024191856384 4.118011474609 226 226 226
5.759059429169 5.024191856384 4.059005737305 221 221 221
5.759059429169 5.024191856384 3.999008178711 217 217 217
5.759059429169 5.024191856384 3.940002441406 217 217 217
5.759059429169 5.024191856384 3.880004882813 217 217 217
5.758679866791 5.016388893127 3.820999145508 226 226 226
5.758679866791 5.016388893127 3.761001586914 217 217 217
5.758679866791 5.016388893127 3.701004028320 217 217 217
5.757540702820 4.992979049683 3.642013549805 216 216 216
5.757540702820 4.992979049683 3.582000732422 217 217 217
5.757540702820 4.992979049683 3.523010253906 211 211 211
5.741934299469 4.993738174438 3.463012695313 213 213 213
5.727086544037 5.010104179382 3.402008056641 214 214 214
5.741934299469 4.993738174438 3.343002319336 210 210 210
5.726327419281 4.994497776031 3.283004760742 213 213 213
5.726327419281 4.994497776031 3.223007202148 211 211 211
5.726327419281 4.994497776031 3.163009643555 206 206 206
5.725947856903 4.986694335938 3.103012084961 203 203 203
5.725947856903 4.986694335938 3.042999267578 203 203 203
5.725947856903 4.986694335938 2.983001708984 204 204 204
5.725567817688 4.978890895844 2.922012329102 203 203 203
5.725567817688 4.978890895844 2.863006591797 197 197 197
5.725567817688 4.978890895844 2.801010131836 202 202 202
5.695114612579 4.996016502380 2.739013671875 198 198 198
5.725567817688 4.978890895844 2.680007934570 196 196 196
5.709961891174 4.979650020599 2.619003295898 193 193 193
5.709961891174 4.979650020599 2.557006835938 196 196 196
5.709961891174 4.979650020599 2.497009277344 188 188 188
5.694735050201 4.988213062286 2.434005737305 192 192 192
5.693975448608 4.972606658936 2.375000000000 191 191 191
5.694355010986 4.980409622192 2.311004638672 195 195 195
5.693595886230 4.964803218842 2.251998901367 189 189 189
5.693595886230 4.964803218842 2.190002441406 184 184 184
5.693595886230 4.964803218842 2.126998901367 185 185 185
5.755561828613 5.595349311829 7.009002685547 133 133 133
5.742953300476 5.979228019714 6.968002319336 121 121 121
5.730723381042 6.370910644531 6.975006103516 101 101 101
5.730343818665 6.363106727600 6.915008544922 52 52 52
5.748567581177 6.737664222717 6.923004150391 125 125 125
5.747428894043 6.714254379272 6.652999877930 38 38 38
5.738236904144 7.168362140656 6.960006713867 30 30 30
5.722250938416 7.161318302155 6.897003173828 105 105 105
5.706264495850 7.154274463654 6.835006713867 105 105 105
5.691417217255 7.170640468597 6.777008056641 39 39 39
5.737097740173 7.144952297211 6.697006225586 128 128 128
5.752324581146 7.136389732361 6.625000000000 132 132 132
5.727146148682 7.583454132080 6.945999145508 63 63 63
5.727525711060 7.591257572174 6.887008666992 90 90 90
5.696692466736 7.600579261780 6.826004028320 131 131 131
5.711919307709 7.592017173767 6.755004882813 132 132 132
5.757599830627 7.566329002380 6.677001953125 114 114 114
5.757599830627 7.566329002380 6.611007690430 126 126 126
5.716435432434 8.006349563599 6.925003051758 113 113 113
5.686361312866 8.031277656555 6.868011474609 23 23 23
5.686361312866 8.031277656555 6.803009033203 179 179 179
5.716055870056 7.998546123505 6.730010986328 166 166 166
5.746129512787 7.973617553711 6.656005859375 182 182 182
5.746129512787 7.973617553711 6.590011596680 72 72 72
5.734659671783 8.380906105042 6.939010620117 58 58 58
5.703825950623 8.390229225159 6.879013061523 90 90 90
5.704585552216 8.405835151672 6.816009521484 141 141 141
5.704585552216 8.405835151672 6.749008178711 170 170 170
5.733520507813 8.357496261597 6.673004150391 140 140 140
5.763974189758 8.340372085571 6.598999023438 121 121 121
5.722050189972 8.764785766602 6.885009765625 118 118 118
5.706823348999 8.773347854614 6.824005126953 57 57 57
5.706823348999 8.773347854614 6.756011962891 156 156 156
5.736897468567 8.748418807983 6.684005737305 151 151 151
5.751744747162 8.732053756714 6.613006591797 161 161 161
5.725427150726 9.155708312988 6.908004760742 75 75 75
5.694593906403 9.165029525757 6.854003906250 13 13 13
5.739515304565 9.123736381531 6.570999145508 63 63 63
5.699110031128 9.579361915588 6.898010253906 92 92 92
5.704764842987 10.017105102539 6.885009765625 113 113 113
5.694054126740 10.440000534058 6.861999511719 96 96 96
5.712278366089 10.814557075500 6.875000000000 97 97 97
5.778840541840 11.218049049377 8.120010375977 57 57 57
5.778081417084 11.202442169189 8.047012329102 80 80 80
5.778081417084 11.202442169189 7.975006103516 79 79 79
5.778840541840 11.218049049377 7.908004760742 71 71 71
5.777321815491 11.186835289001 7.826004028320 67 67 67
5.778081417084 11.202442169189 7.766006469727 44 44 44
5.778081417084 11.202442169189 7.695007324219 49 49 49
5.777701854706 11.194639205933 7.629013061523 56 56 56
5.777701854706 11.194639205933 7.558013916016 53 53 53
5.777701854706 11.194639205933 7.488006591797 47 47 47
5.776562690735 11.171229362488 7.417999267578 49 49 49
5.776562690735 11.171229362488 7.348999023438 49 49 49
5.760956287384 11.171989440918 7.283004760742 55 55 55
5.775803565979 11.155622482300 7.211013793945 57 57 57
5.775803565979 11.155622482300 7.143005371094 60 60 60
5.760956287384 11.171989440918 7.078002929688 40 40 40
5.745349407196 11.172748565674 7.013000488281 46 46 46
5.760196685791 11.156382560730 6.944000244141 83 83 83
5.745349407196 11.172748565674 6.880004882813 52 52 52
5.760196685791 11.156382560730 6.812011718750 69 69 69
5.760196685791 11.156382560730 6.742004394531 75 75 75
5.744210243225 11.149338722229 6.680007934570 83 83 83
5.743830680847 11.141534805298 6.615005493164 83 83 83
5.759057998657 11.132972717285 6.545013427734 86 86 86
5.743830680847 11.141534805298 6.484008789063 93 93 93
5.743830680847 11.141534805298 6.419006347656 94 94 94
5.743830680847 11.141534805298 6.353012084961 90 90 90
5.743830680847 11.141534805298 6.287002563477 87 87 87
5.743830680847 11.141534805298 6.223999023438 90 90 90
5.743071556091 11.125928878784 6.156005859375 94 94 94
5.743071556091 11.125928878784 6.092010498047 95 95 95
5.743071556091 11.125928878784 6.027999877930 106 106 106
5.742691516876 11.118124961853 5.965011596680 106 106 106
5.742311954498 11.110321998596 5.902999877930 101 101 101
5.742311954498 11.110321998596 5.839004516602 100 100 100
5.741552829742 11.094716072083 5.773010253906 102 102 102
5.742311954498 11.110321998596 5.710006713867 103 103 103
5.741552829742 11.094716072083 5.645004272461 101 101 101
5.726705551147 11.111081123352 5.585006713867 105 105 105
5.741552829742 11.094716072083 5.521011352539 110 110 110
5.741552829742 11.094716072083 5.458007812500 102 102 102
5.740793228149 11.079109191895 5.393005371094 108 108 108
5.725946426392 11.095475196838 5.332000732422 115 115 115
5.725946426392 11.095475196838 5.269012451172 115 115 115
5.725946426392 11.095475196838 5.207000732422 118 118 118
5.709959983826 11.088430404663 5.145004272461 117 117 117
5.709959983826 11.088430404663 5.082000732422 118 118 118
5.724807262421 11.072065353394 5.020004272461 127 127 127
5.709580421448 11.080627441406 4.958007812500 128 128 128
5.724807262421 11.072065353394 4.895004272461 128 128 128
5.708821296692 11.065020561218 4.833999633789 129 129 129
5.708821296692 11.065020561218 4.772003173828 138 138 138
5.708821296692 11.065020561218 4.710006713867 131 131 131
5.708821296692 11.065020561218 4.648010253906 129 129 129
5.708821296692 11.065020561218 4.586013793945 131 131 131
5.724427700043 11.064261436462 4.524002075195 137 137 137
5.708821296692 11.065020561218 4.463012695313 139 139 139
5.708821296692 11.065020561218 4.401000976563 143 143 143
5.708821296692 11.065020561218 4.340011596680 147 147 147
5.708821296692 11.065020561218 4.277999877930 148 148 148
5.723668098450 11.048655509949 4.216003417969 149 149 149
5.708821296692 11.065020561218 4.155014038086 149 149 149
5.723668098450 11.048655509949 4.094009399414 156 156 156
5.707682132721 11.041610717773 4.032012939453 146 146 146
5.707682132721 11.041610717773 3.971008300781 151 151 151
5.707682132721 11.041610717773 3.910003662109 151 151 151
5.707302570343 11.033807754517 3.848007202148 158 158 158
5.707302570343 11.033807754517 3.787002563477 157 157 157
5.707302570343 11.033807754517 3.726013183594 158 158 158
5.707302570343 11.033807754517 3.664001464844 158 158 158
5.706542968750 11.018200874329 3.603012084961 161 161 161
5.707302570343 11.033807754517 3.541000366211 159 159 159
5.706542968750 11.018200874329 3.480010986328 158 158 158
5.691696166992 11.034567832947 3.419006347656 162 162 162
5.706542968750 11.018200874329 3.357009887695 162 162 162
5.706542968750 11.018200874329 3.296005249023 127 127 127
5.706542968750 11.018200874329 3.235000610352 125 125 125
5.706542968750 11.018200874329 3.173004150391 147 147 147
5.690557003021 11.011157989502 3.111999511719 158 158 158
5.690557003021 11.011157989502 3.050003051758 152 152 152
5.690557003021 11.011157989502 2.988006591797 154 154 154
5.705404281616 10.994791030884 2.927001953125 149 149 149
5.705404281616 10.994791030884 2.866012573242 147 147 147
5.689417839050 10.987748146057 2.803009033203 154 154 154
5.689417839050 10.987748146057 2.742004394531 153 153 153
5.704265117645 10.971381187439 2.680007934570 156 156 156
5.765172481537 10.937130928040 2.626998901367 165 165 165
5.855774402618 10.870149612427 2.581008911133 172 172 172
5.855774402618 10.870149612427 2.520004272461 155 155 155
5.764413356781 10.921524047852 2.443008422852 152 152 152
5.794867038727 10.904399871826 2.387008666992 134 134 134
5.734338760376 10.946453094482 2.314010620117 160 160 160
5.703505516052 10.955775260925 2.247009277344 142 142 142
5.650951385498 11.161697387695 6.766006469727 9 9 9
5.666557312012 11.160938262939 6.819000244141 9 9 9
5.650951385498 11.161697387695 6.880004882813 51 51 51
5.650571346283 11.153894424438 6.945999145508 57 57 57
5.682543754578 11.167982101440 6.993011474609 75 75 75
5.666557312012 11.160938262939 7.058013916016 45 45 45
5.682923316956 11.175786018372 7.110000610352 78 78 78
5.682923316956 11.175786018372 7.172012329102 76 76 76
5.682543754578 11.167982101440 7.236999511719 87 87 87
5.698530197144 11.175026893616 7.290008544922 96 96 96
5.698530197144 11.175026893616 7.352005004883 98 98 98
5.713376998901 11.158659934998 7.408004760742 99 99 99
5.698530197144 11.175026893616 7.473007202148 103 103 103
5.713376998901 11.158659934998 7.533004760742 107 107 107
5.698530197144 11.175026893616 7.598007202148 114 114 114
5.698530197144 11.175026893616 7.663009643555 129 129 129
5.713376998901 11.158659934998 7.720001220703 119 119 119
5.714136600494 11.174266815186 7.785003662109 136 136 136
5.714136600494 11.174266815186 7.848999023438 146 146 146
5.714136600494 11.174266815186 7.915008544922 155 155 155
5.714136600494 11.174266815186 7.976013183594 171 171 171
5.714136600494 11.174266815186 8.042007446289 173 173 173
5.729743003845 11.173507690430 8.097000122070 70 70 70
5.602272987366 10.804265975952 1.881011962891 131 131 131
5.601893424988 10.796463012695 1.934005737305 135 135 135
5.585907459259 10.789419174194 1.988006591797 143 143 143
5.539846897125 10.807303428650 2.034011840820 118 118 118
5.601893424988 10.796463012695 2.097000122070 106 106 106
5.601893424988 10.796463012695 2.151000976563 84 84 84
5.633106708527 10.794943809509 2.211013793945 89 89 89
5.601893424988 10.796463012695 2.259002685547 78 78 78
5.602272987366 10.804265975952 2.313003540039 78 78 78
5.648333549500 10.786381721497 2.374008178711 69 69 69
5.585907459259 10.789419174194 2.419006347656 54 54 54
5.788792610168 10.779547691345 2.498001098633 110 110 110
5.820005416870 10.778029441833 2.555007934570 112 112 112
5.773565292358 10.788109779358 2.601013183594 94 94 94
5.571060180664 10.805784225464 2.632003784180 91 91 91
5.571060180664 10.805784225464 2.686004638672 85 85 85
5.587046146393 10.812829017639 2.739013671875 72 72 72
5.571060180664 10.805784225464 2.791000366211 69 69 69
5.571060180664 10.805784225464 2.845001220703 68 68 68
5.571060180664 10.805784225464 2.898010253906 60 60 60
5.587046146393 10.812829017639 2.952011108398 61 61 61
5.571060180664 10.805784225464 3.004013061523 57 57 57
5.571060180664 10.805784225464 3.055999755859 44 44 44
5.571819305420 10.821391105652 3.109008789063 23 23 23
5.571060180664 10.805784225464 3.163009643555 12 12 12
5.635764122009 10.849566459656 6.804000854492 96 96 96
5.666217803955 10.832442283630 6.857009887695 32 32 32
5.650651454926 10.512507438660 6.829010009766 129 129 129
5.664399623871 10.152038574219 6.852005004883 131 131 131
5.649212837219 9.839907646179 6.825012207031 100 100 100
5.648833274841 9.832104682922 6.887008666992 28 28 28
5.633646488190 9.519973754883 6.815002441406 41 41 41
5.664859294891 9.518455505371 6.860000610352 87 87 87
5.665279388428 9.205565452576 6.846008300781 149 149 149
5.680166244507 8.868505477905 6.522003173828 6 6 6
5.696152687073 8.875549316406 6.579010009766 173 173 173
5.664939403534 8.877067565918 6.644012451172 144 144 144
5.634106159210 8.886390686035 6.708999633789 186 186 186
5.634106159210 8.886390686035 6.769012451172 113 113 113
5.634106159210 8.886390686035 6.827011108398 97 97 97
5.664939403534 8.877067565918 6.874008178711 95 95 95
5.679827213287 8.540009498596 6.542999267578 39 39 39
5.679827213287 8.540009498596 6.598999023438 188 188 188
5.679447174072 8.532205581665 6.659011840820 109 109 109
5.663840293884 8.532964706421 6.726013183594 168 168 168
5.647854328156 8.525920867920 6.786010742188 104 104 104
5.663840293884 8.532964706421 6.843002319336 127 127 127
5.663840293884 8.532964706421 6.898010253906 86 86 86
5.693954467773 8.187342643738 6.558013916016 110 110 110
5.694334506989 8.195146560669 6.617004394531 181 181 181
5.662741661072 8.188861846924 6.683013916016 139 139 139
5.663121700287 8.196665763855 6.748001098633 163 163 163
5.647134780884 8.189620971680 6.807006835938 50 50 50
5.662741661072 8.188861846924 6.856002807617 153 153 153
5.662741661072 8.188861846924 6.915008544922 7 7 7
5.693614959717 7.858846664429 6.538009643555 5 5 5
5.693614959717 7.858846664429 6.596008300781 170 170 170
5.678767681122 7.875212669373 6.658004760742 132 132 132
5.662781715393 7.868168830872 6.718002319336 131 131 131
5.662781715393 7.868168830872 6.777999877930 132 132 132
5.678767681122 7.875212669373 6.833999633789 88 88 88
5.678767681122 7.875212669373 6.887008666992 117 117 117
5.694035053253 7.545956611633 6.574005126953 131 131 131
5.694035053253 7.545956611633 6.630004882813 119 119 119
5.678428173065 7.546716213226 6.698013305664 113 113 113
