13.888009071350 20.040857315063 5.431999206543 160 160 160
13.888009071350 20.040857315063 5.474998474121 170 170 170
13.873731613159 20.023992538452 5.522003173828 174 174 174
13.873731613159 20.023992538452 5.566001892090 168 168 168
13.873731613159 20.023992538452 5.611000061035 165 165 165
13.873731613159 20.023992538452 5.655998229980 166 166 166
13.888009071350 20.040857315063 5.698997497559 168 168 168
13.873731613159 20.023992538452 5.746002197266 168 168 168
13.888009071350 20.040857315063 5.787002563477 165 165 165
13.873731613159 20.023992538452 5.836997985840 164 164 164
13.888009071350 20.040857315063 5.880004882813 162 162 162
13.888009071350 20.040857315063 5.926002502441 162 162 162
13.873731613159 20.023992538452 5.973999023438 164 164 164
13.873731613159 20.023992538452 6.020004272461 160 160 160
13.873731613159 20.023992538452 6.066001892090 167 167 167
13.873731613159 20.023992538452 6.111999511719 176 176 176
13.873731613159 20.023992538452 6.160003662109 150 150 150
13.888009071350 20.040857315063 6.204002380371 160 160 160
13.888009071350 20.040857315063 6.250999450684 162 162 162
13.888009071350 20.040857315063 6.298004150391 166 166 166
13.888009071350 20.040857315063 6.346000671387 166 166 166
13.888009071350 20.040857315063 6.389999389648 164 164 164
13.888009071350 20.040857315063 6.439002990723 157 157 157
13.888009071350 20.040857315063 6.483001708984 162 162 162
13.888009071350 20.040857315063 6.536003112793 179 179 179
13.888009071350 20.040857315063 6.583999633789 163 163 163
13.888009071350 20.040857315063 6.628997802734 117 117 117
13.888009071350 20.040857315063 6.678001403809 168 168 168
13.888009071350 20.040857315063 6.725997924805 169 169 169
13.888009071350 20.040857315063 6.777999877930 169 169 169
13.888009071350 20.040857315063 6.828002929688 166 166 166
13.888009071350 20.040857315063 6.875000000000 171 171 171
13.888009071350 20.040857315063 6.927001953125 170 170 170
13.886715888977 20.056428909302 6.972000122070 173 173 173
13.886715888977 20.056428909302 7.024002075195 179 179 179
13.902287483215 20.057722091675 7.069000244141 170 170 170
13.884024620056 19.711273193359 6.623001098633 128 128 128
13.880039215088 19.381687164307 6.610000610352 122 122 122
13.892920494080 19.037822723389 6.595001220703 118 118 118
13.907196998596 19.054687500000 6.634002685547 76 76 76
13.904506683350 18.709529876709 6.579002380371 116 116 116
13.918785095215 18.726394653320 6.622001647949 92 92 92
13.945942878723 18.399396896362 6.309997558594 58 58 58
13.884949684143 18.378652572632 6.570999145508 94 94 94
13.916092872620 18.381238937378 6.610000610352 108 108 108
13.941957473755 18.069810867310 6.293998718262 104 104 104
13.882258415222 18.033494949341 6.558998107910 52 52 52
13.912107467651 18.051652908325 6.592002868652 130 130 130
13.937972068787 17.740224838257 6.280998229980 104 104 104
13.895138740540 17.689630508423 6.547004699707 17 17 17
13.892552375793 17.720773696899 6.583999633789 130 130 130
13.966423988342 17.397653579712 6.262001037598 78 78 78
13.935281753540 17.395067214966 6.563003540039 125 125 125
13.919710159302 17.393774032593 6.617004394531 24 24 24
13.932589530945 17.049911499023 6.257003784180 93 93 93
13.931296348572 17.065483093262 6.304000854492 197 197 197
13.931296348572 17.065483093262 6.352005004883 170 170 170
13.917018890381 17.048618316650 6.410003662109 152 152 152
13.887168884277 17.030460357666 6.465003967285 187 187 187
13.901447296143 17.047325134277 6.511001586914 12 12 12
13.917018890381 17.048618316650 6.553001403809 112 112 112
13.931296348572 17.065483093262 6.597000122070 82 82 82
13.914326667786 16.703460693359 6.250999450684 73 73 73
13.928605079651 16.720325469971 6.291999816895 181 181 181
13.914326667786 16.703460693359 6.345001220703 141 141 141
13.898755073547 16.702167510986 6.402000427246 142 142 142
13.867613792419 16.699581146240 6.457000732422 164 164 164
13.883183479309 16.700874328613 6.503997802734 75 75 75
13.898755073547 16.702167510986 6.544998168945 87 87 87
13.928605079651 16.720325469971 6.583999633789 112 112 112
13.938899040222 16.407604217529 6.274002075195 138 138 138
13.924620628357 16.390739440918 6.326004028320 197 197 197
13.910342216492 16.373874664307 6.381004333496 204 204 204
13.894771575928 16.372581481934 6.433998107910 184 184 184
13.894771575928 16.372581481934 6.485000610352 162 162 162
13.924620628357 16.390739440918 6.567001342773 129 129 129
13.936206817627 16.062446594238 6.258003234863 84 84 84
13.936206817627 16.062446594238 6.306999206543 195 195 195
13.920636177063 16.061153411865 6.359001159668 141 141 141
13.906357765198 16.044288635254 6.416000366211 177 177 177
13.907650947571 16.028717041016 6.469001770020 180 180 180
13.906357765198 16.044288635254 6.515998840332 68 68 68
13.920636177063 16.061153411865 6.554000854492 114 114 114
13.936206817627 16.062446594238 6.597000122070 68 68 68
13.963364601135 15.735446929932 6.287002563477 173 173 173
13.932222366333 15.732860565186 6.342002868652 185 185 185
13.932222366333 15.732860565186 6.390998840332 121 121 121
13.917943954468 15.715995788574 6.444999694824 103 103 103
13.917943954468 15.715995788574 6.499000549316 108 108 108
13.917943954468 15.715995788574 6.545997619629 68 68 68
13.947793960571 15.734153747559 6.586997985840 125 125 125
13.959380149841 15.405860900879 6.266998291016 99 99 99
13.943808555603 15.404567718506 6.320999145508 200 200 200
13.929530143738 15.387702941895 6.376998901367 169 169 169
13.915251731873 15.370840072632 6.430999755859 171 171 171
13.899682044983 15.369546890259 6.486000061035 182 182 182
13.943808555603 15.404567718506 6.569999694824 130 130 130
13.925546646118 15.058118820190 6.262001037598 14 14 14
13.955395698547 15.076276779175 6.305000305176 179 179 179
13.941117286682 15.059412002563 6.356002807617 202 202 202
13.925546646118 15.058118820190 6.412002563477 205 205 205
13.909975051880 15.056825637817 6.465003967285 205 205 205
13.911268234253 15.041254043579 6.517997741699 59 59 59
13.941117286682 15.059412002563 6.556999206543 88 88 88
13.955395698547 15.076276779175 6.599998474121 103 103 103
13.952704429626 14.731119155884 6.287002563477 105 105 105
13.937132835388 14.729825973511 6.541999816895 10 10 10
13.952704429626 14.731119155884 6.584999084473 124 124 124
13.962997436523 14.418398857117 6.271003723145 17 17 17
13.962997436523 14.418398857117 6.319999694824 21 21 21
13.933147430420 14.400239944458 6.573997497559 104 104 104
13.962997436523 14.418398857117 6.616004943848 92 92 92
13.975876808167 14.074533462524 6.303001403809 103 103 103
13.916178703308 14.038218498230 6.572998046875 15 15 15
13.975876808167 14.074533462524 6.604003906250 121 121 121
13.956321716309 13.743655204773 6.292999267578 14 14 14
13.986170768738 13.761814117432 6.330001831055 37 37 37
13.956321716309 13.743655204773 6.594001770020 103 103 103
13.970600128174 13.760519981384 6.635002136230 78 78 78
13.967907905579 13.415362358093 6.622001647949 127 127 127
13.963922500610 13.085777282715 6.610000610352 68 68 68
13.979494094849 13.087070465088 6.654998779297 94 94 94
13.975509643555 12.757484436035 6.642997741699 125 125 125
13.972818374634 12.412327766418 6.637001037598 43 43 43
13.987096786499 12.429192543030 6.680000305176 122 122 122
14.044103622437 12.120350837708 5.801002502441 177 177 177
14.044103622437 12.120350837708 5.848999023438 173 173 173
14.044103622437 12.120350837708 5.897003173828 164 164 164
14.044103622437 12.120350837708 5.945999145508 161 161 161
14.044103622437 12.120350837708 5.995002746582 171 171 171
14.044103622437 12.120350837708 6.041999816895 164 164 164
14.044103622437 12.120350837708 6.091003417969 161 161 161
14.042810440063 12.135922431946 6.138999938965 158 158 158
14.042810440063 12.135922431946 6.187004089355 152 152 152
14.044103622437 12.120350837708 6.239997863770 151 151 151
14.044103622437 12.120350837708 6.291000366211 152 152 152
14.042810440063 12.135922431946 6.336997985840 158 158 158
14.044103622437 12.120350837708 6.388999938965 158 158 158
14.044103622437 12.120350837708 6.440002441406 145 145 145
14.044103622437 12.120350837708 6.492004394531 148 148 148
14.044103622437 12.120350837708 6.539001464844 147 147 147
14.044103622437 12.120350837708 6.590003967285 163 163 163
14.044103622437 12.120350837708 6.640998840332 155 155 155
14.028532981873 12.119057655334 6.690002441406 140 140 140
14.028532981873 12.119057655334 6.743003845215 170 170 170
14.044103622437 12.120350837708 6.798004150391 152 152 152
14.044103622437 12.120350837708 6.848999023438 155 155 155
14.028532981873 12.119057655334 6.897003173828 158 158 158
14.044103622437 12.120350837708 6.953002929688 162 162 162
14.028532981873 12.119057655334 7.003997802734 163 163 163
14.028532981873 12.119057655334 7.057998657227 149 149 149
13.929497718811 19.918872833252 7.098999023438 112 112 112
13.929497718811 19.918872833252 7.048004150391 91 91 91
13.913926124573 19.917579650879 7.010002136230 95 95 95
13.913926124573 19.917579650879 6.960998535156 90 90 90
13.913926124573 19.917579650879 6.918998718262 93 93 93
13.898354530334 19.916286468506 6.877998352051 87 87 87
13.899647712708 19.900714874268 6.827003479004 85 85 85
13.913926124573 19.917579650879 6.777000427246 83 83 83
13.913926124573 19.917579650879 6.727005004883 82 82 82
13.976211547852 19.922752380371 6.652999877930 86 86 86
13.960640907288 19.921459197998 6.614997863770 115 115 115
13.899647712708 19.900714874268 6.603004455566 115 115 115
13.899647712708 19.900714874268 6.555999755859 94 94 94
13.899647712708 19.900714874268 6.511001586914 62 62 62
13.899647712708 19.900714874268 6.468002319336 64 64 64
13.884077072144 19.899421691895 6.426002502441 68 68 68
13.884077072144 19.899421691895 6.383003234863 68 68 68
13.899647712708 19.900714874268 6.336997985840 60 60 60
13.884077072144 19.899421691895 6.298004150391 60 60 60
13.884077072144 19.899421691895 6.257003784180 46 46 46
13.884077072144 19.899421691895 6.208999633789 31 31 31
13.884077072144 19.899421691895 6.167999267578 36 36 36
13.884077072144 19.899421691895 6.122001647949 23 23 23
13.868505477905 19.898128509521 6.085998535156 17 17 17
13.893076896667 19.602272033691 6.635002136230 129 129 129
13.878798484802 19.585407257080 6.597000122070 91 91 91
13.889092445374 19.272687911987 6.622001647949 150 150 150
13.873521804810 19.271394729614 6.584999084473 77 77 77
13.914957046509 18.961259841919 6.607002258301 153 153 153
13.914957046509 18.961259841919 6.569999694824 63 63 63
13.926544189453 18.632966995239 6.641998291016 13 13 13
13.926544189453 18.632966995239 6.597000122070 156 156 156
13.879829406738 18.629087448120 6.571998596191 39 39 39
13.936837196350 18.320245742798 6.624000549316 38 38 38
13.921265602112 18.318952560425 6.585998535156 160 160 160
13.952408790588 18.321538925171 6.301002502441 91 91 91
13.932852745056 17.990659713745 6.611000061035 82 82 82
13.932852745056 17.990659713745 6.567001342773 147 147 147
13.963995933533 17.993246078491 6.284004211426 114 114 114
13.943145751953 17.677940368652 6.597000122070 127 127 127
13.927575111389 17.676647186279 6.557998657227 120 120 120
13.958717346191 17.679233551025 6.274002075195 110 110 110
13.922296524048 17.362632751465 6.586997985840 145 145 145
13.922296524048 17.362632751465 6.548004150391 84 84 84
13.970303535461 17.350940704346 6.302001953125 45 45 45
13.970303535461 17.350940704346 6.256004333496 56 56 56
13.948161125183 17.051204681396 6.569000244141 154 154 154
13.918312072754 17.033046722412 6.536003112793 45 45 45
13.918312072754 17.033046722412 6.488998413086 118 118 118
13.918312072754 17.033046722412 6.446998596191 174 174 174
13.933882713318 17.034339904785 6.391998291016 146 146 146
13.933882713318 17.034339904785 6.346000671387 149 149 149
13.949454307556 17.035633087158 6.295997619629 192 192 192
13.949454307556 17.035633087158 6.249000549316 90 90 90
13.944176673889 16.721618652344 6.599998474121 62 62 62
13.944176673889 16.721618652344 6.557998657227 159 159 159
13.897461891174 16.717739105225 6.484001159668 160 160 160
13.898755073547 16.702167510986 6.438003540039 122 122 122
13.928605079651 16.720325469971 6.383003234863 175 175 175
13.928605079651 16.720325469971 6.335998535156 155 155 155
13.945469856262 16.706047058105 6.283004760742 172 172 172
13.928605079651 16.720325469971 6.247001647949 59 59 59
13.938899040222 16.407604217529 6.589004516602 119 119 119
13.938899040222 16.407604217529 6.543998718262 124 124 124
13.907755851746 16.405017852783 6.512001037598 69 69 69
13.907755851746 16.405017852783 6.467002868652 197 197 197
13.924620628357 16.390739440918 6.416000366211 201 201 201
13.924620628357 16.390739440918 6.368003845215 181 181 181
13.938899040222 16.407604217529 6.316001892090 202 202 202
13.940192222595 16.392032623291 6.271003723145 130 130 130
13.950485229492 16.079311370850 6.572998046875 156 156 156
13.919342994690 16.076725006104 6.536003112793 72 72 72
13.903771400452 16.075429916382 6.500000000000 123 123 123
13.919342994690 16.076725006104 6.445999145508 196 196 196
13.934913635254 16.078018188477 6.396003723145 170 170 170
13.934913635254 16.078018188477 6.350997924805 184 184 184
13.950485229492 16.079311370850 6.301002502441 197 197 197
13.951778411865 16.063741683960 6.252998352051 90 90 90
13.945207595825 15.765296936035 6.602005004883 83 83 83
13.945207595825 15.765296936035 6.557998657227 155 155 155
13.914064407349 15.762710571289 6.524002075195 56 56 56
13.914064407349 15.762710571289 6.479003906250 191 191 191
13.945207595825 15.765296936035 6.424003601074 200 200 200
13.930929183960 15.748432159424 6.380004882813 198 198 198
13.945207595825 15.765296936035 6.328002929688 201 201 201
13.945207595825 15.765296936035 6.283004760742 152 152 152
13.956793785095 15.437004089355 6.586997985840 143 143 143
13.941222190857 15.435710906982 6.544998168945 98 98 98
13.941222190857 15.435710906982 6.502998352051 105 105 105
13.925650596619 15.434417724609 6.464004516602 183 183 183
13.941222190857 15.435710906982 6.412002563477 141 141 141
13.941222190857 15.435710906982 6.361000061035 179 179 179
13.956793785095 15.437004089355 6.312004089355 200 200 200
13.972365379333 15.438297271729 6.263999938965 98 98 98
13.951516151428 15.122989654541 6.620002746582 14 14 14
13.951516151428 15.122989654541 6.573997497559 152 152 152
13.920372962952 15.120403289795 6.548004150391 19 19 19
13.920372962952 15.120403289795 6.496002197266 158 158 158
13.951516151428 15.122989654541 6.444999694824 134 134 134
13.951516151428 15.122989654541 6.397003173828 193 193 193
13.967087745667 15.124282836914 6.344001770020 154 154 154
13.982659339905 15.125576019287 6.297004699707 178 178 178
13.951516151428 15.122989654541 6.260002136230 24 24 24
13.978673934937 14.795991897583 6.606002807617 111 111 111
13.963102340698 14.794698715210 6.565002441406 121 121 121
13.994245529175 14.797285079956 6.279998779297 112 112 112
13.973396301270 14.481977462769 6.638000488281 16 16 16
13.988966941833 14.483270645142 6.585998535156 140 140 140
13.942253112793 14.479391098022 6.557998657227 100 100 100
13.942253112793 14.479391098022 6.512001037598 92 92 92
13.957824707031 14.480684280396 6.461997985840 97 97 97
13.973396301270 14.481977462769 6.410003662109 97 97 97
13.973396301270 14.481977462769 6.364997863770 105 105 105
13.988966941833 14.483270645142 6.308998107910 105 105 105
13.988966941833 14.483270645142 6.265998840332 35 35 35
13.983689308167 14.169256210327 6.617004394531 121 121 121
13.968117713928 14.167963027954 6.580001831055 119 119 119
13.984982490540 14.153684616089 6.292999267578 94 94 94
13.995275497437 13.840963363647 6.645004272461 23 23 23
13.979703903198 13.839670181274 6.602005004883 157 157 157
13.995275497437 13.840963363647 6.318000793457 100 100 100
13.989998817444 13.526948928833 6.632003784180 127 127 127
13.974427223206 13.525655746460 6.592002868652 106 106 106
13.943284034729 13.523069381714 6.558998107910 19 19 19
14.006862640381 13.512670516968 6.303001403809 100 100 100
14.001585006714 13.198656082153 6.666000366211 35 35 35
13.970441818237 13.196069717407 6.627998352051 160 160 160
14.011878013611 12.885935783386 6.653999328613 125 125 125
13.996306419373 12.884642601013 6.616004943848 95 95 95
13.992321968079 12.555056571960 6.694000244141 18 18 18
14.007892608643 12.556349754333 6.646003723145 144 144 144
14.018186569214 12.243629455566 6.672004699707 146 146 146
13.955900192261 12.238456726074 6.655998229980 97 97 97
14.035050392151 12.229351043701 5.503997802734 12 12 12
14.003909111023 12.226764678955 5.466003417969 17 17 17
14.003909111023 12.226764678955 5.425003051758 52 52 52
14.035050392151 12.229351043701 5.126998901367 103 103 103
14.035050392151 12.229351043701 5.084999084473 125 125 125
14.036343574524 12.213779449463 5.043998718262 126 126 126
14.036343574524 12.213779449463 5.002998352051 121 121 121
14.036343574524 12.213779449463 4.960998535156 136 136 136
14.036343574524 12.213779449463 4.919998168945 132 132 132
14.036343574524 12.213779449463 4.877998352051 135 135 135
14.036343574524 12.213779449463 4.836997985840 141 141 141
14.051915168762 12.215072631836 4.795997619629 142 142 142
14.051915168762 12.215072631836 4.755004882813 145 145 145
14.051915168762 12.215072631836 4.714004516602 145 145 145
14.051915168762 12.215072631836 4.472999572754 163 163 163
14.068780899048 12.200794219971 4.430999755859 162 162 162
14.053209304810 12.199501037598 4.391998291016 166 166 166
14.068780899048 12.200794219971 4.350997924805 169 169 169
14.053209304810 12.199501037598 4.312004089355 175 175 175
14.053209304810 12.199501037598 4.272003173828 177 177 177
14.053209304810 12.199501037598 4.232002258301 172 172 172
14.068780899048 12.200794219971 4.192001342773 181 181 181
14.068780899048 12.200794219971 4.152000427246 186 186 186
14.068780899048 12.200794219971 4.112998962402 193 193 193
14.068780899048 12.200794219971 4.072998046875 193 193 193
14.068780899048 12.200794219971 4.034004211426 194 194 194
14.053209304810 12.199501037598 3.995002746582 187 187 187
14.053209304810 12.199501037598 3.955001831055 183 183 183
14.068780899048 12.200794219971 3.915000915527 197 197 197
14.068780899048 12.200794219971 3.875999450684 192 192 192
14.068780899048 12.200794219971 3.835998535156 195 195 195
14.068780899048 12.200794219971 3.797004699707 202 202 202
14.068780899048 12.200794219971 3.757003784180 195 195 195
14.070074081421 12.185222625732 3.718002319336 201 201 201
14.084352493286 12.202087402344 3.679000854492 203 203 203
14.084352493286 12.202087402344 3.639999389648 204 204 204
14.084352493286 12.202087402344 3.599998474121 206 206 206
14.084352493286 12.202087402344 3.561004638672 201 201 201
14.084352493286 12.202087402344 3.522003173828 196 196 196
14.099924087524 12.203380584717 3.483001708984 201 201 201
14.084352493286 12.202087402344 3.443000793457 194 194 194
14.101217269897 12.187808990479 3.404998779297 194 194 194
14.085645675659 12.186515808105 3.364997863770 199 199 199
14.101217269897 12.187808990479 3.326004028320 195 195 195
14.101217269897 12.187808990479 3.287002563477 196 196 196
14.101217269897 12.187808990479 3.248001098633 199 199 199
14.101217269897 12.187808990479 3.208999633789 201 201 201
14.101217269897 12.187808990479 3.169998168945 197 197 197
14.101217269897 12.187808990479 3.130004882813 198 198 198
14.101217269897 12.187808990479 3.091003417969 193 193 193
14.116787910461 12.189102172852 3.052001953125 194 194 194
14.101217269897 12.187808990479 3.013000488281 195 195 195
14.101217269897 12.187808990479 2.972999572754 193 193 193
14.101217269897 12.187808990479 2.932998657227 188 188 188
14.101217269897 12.187808990479 2.894004821777 191 191 191
14.101217269897 12.187808990479 2.854003906250 188 188 188
14.116787910461 12.189102172852 2.815002441406 194 194 194
14.101217269897 12.187808990479 2.775001525879 194 194 194
14.101217269897 12.187808990479 2.735000610352 188 188 188
14.118081092834 12.173532485962 2.695999145508 187 187 187
14.118081092834 12.173532485962 2.655998229980 188 188 188
14.118081092834 12.173532485962 2.617004394531 187 187 187
14.118081092834 12.173532485962 2.577003479004 183 183 183
14.133652687073 12.174825668335 2.539001464844 189 189 189
14.118081092834 12.173532485962 2.497001647949 188 188 188
14.118081092834 12.173532485962 2.458000183105 186 186 186
14.118081092834 12.173532485962 2.416999816895 178 178 178
14.118081092834 12.173532485962 2.376998901367 189 189 189
14.118081092834 12.173532485962 2.338005065918 188 188 188
14.118081092834 12.173532485962 2.295997619629 186 186 186
14.118081092834 12.173532485962 2.255004882813 187 187 187
14.118081092834 12.173532485962 2.215003967285 183 183 183
13.958487510681 12.207313537598 5.180999755859 118 118 118
14.005202293396 12.211193084717 4.680999755859 160 160 160
14.020773887634 12.212486267090 4.517997741699 156 156 156
13.939844131470 19.794301986694 6.647003173828 61 61 61
13.874972343445 19.820272445679 6.623001098633 128 128 128
13.885265350342 19.507551193237 6.648002624512 89 89 89
13.885265350342 19.507551193237 6.600997924805 77 77 77
13.895558357239 19.194829940796 6.631004333496 130 130 130
13.879987716675 19.193536758423 6.584999084473 29 29 29
13.921422958374 18.883401870728 6.607002258301 130 130 130
13.931716918945 18.570680618286 6.639999389648 50 50 50
13.916145324707 18.569387435913 6.593002319336 125 125 125
13.882415771484 18.597944259644 6.561004638672 58 58 58
13.899280548096 18.583665847778 6.503997802734 89 89 89
13.914852142334 18.584959030151 6.450004577637 105 105 105
13.916145324707 18.569387435913 6.398002624512 95 95 95
13.933010101318 18.555109024048 6.342002868652 83 83 83
13.948580741882 18.556402206421 6.288002014160 85 85 85
13.925145149231 18.272237777710 6.625999450684 62 62 62
13.909573554993 18.270944595337 6.582000732422 124 124 124
13.926439285278 18.256668090820 6.328002929688 15 15 15
13.943304061890 18.242389678955 6.273002624512 49 49 49
13.919867515564 17.958225250244 6.613998413086 103 103 103
13.919867515564 17.958225250244 6.568000793457 109 109 109
13.953597068787 17.929668426514 6.305999755859 70 70 70
13.930161476135 17.645503997803 6.591003417969 130 130 130
13.897725105286 17.658489227295 6.555999755859 38 38 38
13.962596893311 17.632518768311 6.287002563477 109 109 109
13.940454483032 17.332782745361 6.620002746582 23 23 23
13.939161300659 17.348354339600 6.571998596191 129 129 129
13.957319259644 17.318504333496 6.264999389648 61 61 61
13.933882713318 17.034339904785 6.603004455566 107 107 107
13.933882713318 17.034339904785 6.555000305176 102 102 102
13.901447296143 17.047325134277 6.516998291016 64 64 64
13.901447296143 17.047325134277 6.466003417969 189 189 189
13.917018890381 17.048618316650 6.413002014160 160 160 160
13.935175895691 17.018768310547 6.355003356934 149 149 149
13.949454307556 17.035633087158 6.303001403809 181 181 181
13.966319084167 17.021354675293 6.248001098633 44 44 44
13.944176673889 16.721618652344 6.588005065918 124 124 124
13.911740303040 16.734603881836 6.550003051758 61 61 61
13.894875526428 16.748882293701 6.506004333496 106 106 106
13.911740303040 16.734603881836 6.451004028320 174 174 174
13.927311897278 16.735897064209 6.397003173828 178 178 178
13.928605079651 16.720325469971 6.346000671387 165 165 165
13.945469856262 16.706047058105 6.288002014160 161 161 161
13.937605857849 16.423175811768 6.573997497559 126 126 126
13.922034263611 16.421882629395 6.484001159668 162 162 162
13.922034263611 16.421882629395 6.431999206543 165 165 165
13.922034263611 16.421882629395 6.380004882813 154 154 154
13.937605857849 16.423175811768 6.328002929688 189 189 189
13.938899040222 16.407604217529 6.274002075195 125 125 125
13.949192047119 16.094882965088 6.605003356934 75 75 75
13.949192047119 16.094882965088 6.555999755859 119 119 119
13.916756629944 16.107868194580 6.522003173828 65 65 65
13.916756629944 16.107868194580 6.472000122070 179 179 179
13.932327270508 16.109161376953 6.416000366211 157 157 157
13.949192047119 16.094882965088 6.360000610352 168 168 168
13.950485229492 16.079311370850 6.306999206543 186 186 186
13.949192047119 16.094882965088 6.260002136230 44 44 44
13.959485054016 15.782161712646 6.583999633789 123 123 123
13.927049636841 15.795146942139 6.551002502441 76 76 76
13.927049636841 15.795146942139 6.501998901367 137 137 137
13.927049636841 15.795146942139 6.446998596191 173 173 173
13.942621231079 15.796440124512 6.394004821777 180 180 180
13.943914413452 15.780868530273 6.341003417969 170 170 170
13.943914413452 15.780868530273 6.291999816895 161 161 161
13.952914237976 15.483718872070 6.624000549316 19 19 19
13.952914237976 15.483718872070 6.572998046875 128 128 128
13.903613090515 15.510982513428 6.541999816895 26 26 26
13.937342643738 15.482425689697 6.483001708984 179 179 179
13.937342643738 15.482425689697 6.429000854492 150 150 150
13.952914237976 15.483718872070 6.375999450684 155 155 155
13.954207420349 15.468147277832 6.320999145508 189 189 189
13.986642837524 15.455162048340 6.264999389648 71 71 71
13.964500427246 15.155426025391 6.605003356934 107 107 107
13.947635650635 15.169704437256 6.561004638672 94 94 94
13.930770874023 15.183982849121 6.516998291016 85 85 85
13.930770874023 15.183982849121 6.467002868652 186 186 186
13.947635650635 15.169704437256 6.412002563477 159 159 159
13.947635650635 15.169704437256 6.359001159668 176 176 176
13.964500427246 15.155426025391 6.305000305176 169 169 169
13.957928657532 14.856984138489 6.596000671387 134 134 134
13.925493240356 14.869968414307 6.557998657227 19 19 19
13.974793434143 14.842705726624 6.288002014160 92 92 92
13.985087394714 14.529984474182 6.622001647949 61 61 61
13.968223571777 14.544262886047 6.581001281738 108 108 108
13.986380577087 14.514412879944 6.318000793457 45 45 45
13.968223571777 14.544262886047 6.277999877930 16 16 16
13.988809585571 13.918821334839 6.339004516602 29 29 29
13.973237991333 13.917528152466 6.294998168945 13 13 13
13.982238769531 13.620377540588 6.632003784180 122 122 122
13.966667175293 13.619084358215 6.585998535156 36 36 36
13.999102592468 13.606100082397 6.321998596191 96 96 96
13.976960182190 13.306363105774 6.670997619629 42 42 42
13.976960182190 13.306363105774 6.621002197266 118 118 118
14.002825737000 12.994935035706 6.655998229980 122 122 122
13.985960960388 13.009213447571 6.612998962402 28 28 28
13.997547149658 12.680921554565 6.693000793457 25 25 25
14.013118743896 12.682214736938 6.638999938965 122 122 122
14.006547927856 12.383771896362 6.676002502441 130 130 130
13.975404739380 12.381185531616 6.636001586914 11 11 11
14.096043586731 12.250095367432 2.154998779297 28 28 28
14.128479957581 12.237110137939 2.109001159668 74 74 74
14.128479957581 12.237110137939 2.064002990723 89 89 89
14.128479957581 12.237110137939 2.014999389648 113 113 113
14.128479957581 12.237110137939 1.969001770020 126 126 126
14.031170845032 12.276064872742 1.895004272461 38 38 38
14.048035621643 12.261786460876 1.853004455566 38 38 38
14.080471992493 12.248802185059 1.814002990723 235 235 235
14.096043586731 12.250095367432 1.769004821777 233 233 233
14.096043586731 12.250095367432 1.720001220703 225 225 225
14.097336769104 12.234523773193 1.675003051758 213 213 213
14.129773139954 12.221538543701 1.632003784180 188 188 188
14.129773139954 12.221538543701 1.583999633789 180 180 180
14.129773139954 12.221538543701 1.534004211426 177 177 177
14.129773139954 12.221538543701 1.486000061035 170 170 170
14.145344734192 12.222832679749 1.439002990723 168 168 168
14.129773139954 12.221538543701 1.388999938965 172 172 172
14.145344734192 12.222832679749 1.341003417969 174 174 174
14.032412528992 12.072343826294 7.075004577637 129 129 129
14.016840934753 12.071050643921 7.024002075195 152 152 152
14.016840934753 12.071050643921 6.974998474121 149 149 149
14.018134117126 12.055479049683 6.916000366211 155 155 155
14.018134117126 12.055479049683 6.862998962402 154 154 154
14.016840934753 12.071050643921 6.814002990723 164 164 164
14.033705711365 12.056772232056 6.758003234863 174 174 174
14.016840934753 12.071050643921 6.708999633789 153 153 153
14.018134117126 12.055479049683 6.654998779297 145 145 145
14.016840934753 12.071050643921 6.607002258301 154 154 154
14.016840934753 12.071050643921 6.555000305176 157 157 157
14.018134117126 12.055479049683 6.502998352051 143 143 143
14.016840934753 12.071050643921 6.454002380371 147 147 147
14.016840934753 12.071050643921 6.402999877930 161 161 161
14.002562522888 12.054185867310 6.354003906250 161 161 161
14.018134117126 12.055479049683 6.302001953125 160 160 160
14.018134117126 12.055479049683 6.250999450684 162 162 162
14.002562522888 12.054185867310 6.202003479004 158 158 158
14.002562522888 12.054185867310 6.153999328613 161 161 161
14.002562522888 12.054185867310 6.102005004883 171 171 171
14.002562522888 12.054185867310 6.054000854492 166 166 166
14.002562522888 12.054185867310 6.003997802734 164 164 164
14.018134117126 12.055479049683 5.952003479004 160 160 160
14.002562522888 12.054185867310 5.906997680664 160 160 160
14.002562522888 12.054185867310 5.858001708984 164 164 164
14.002562522888 12.054185867310 5.806999206543 159 159 159
14.002562522888 12.054185867310 5.759002685547 156 156 156
14.002562522888 12.054185867310 5.710998535156 146 146 146
14.003855705261 12.038614273071 5.661003112793 151 151 151
14.002562522888 12.054185867310 5.614997863770 154 154 154
14.003855705261 12.038614273071 5.564002990723 134 134 134
14.003855705261 12.038614273071 5.515998840332 147 147 147
14.003855705261 12.038614273071 5.468002319336 151 151 151
14.003855705261 12.038614273071 5.420997619629 145 145 145
14.019427299500 12.039907455444 5.371002197266 133 133 133
14.003855705261 12.038614273071 5.325004577637 137 137 137
14.003855705261 12.038614273071 5.277000427246 135 135 135
14.003855705261 12.038614273071 5.230003356934 134 134 134
14.003855705261 12.038614273071 5.182998657227 133 133 133
14.003855705261 12.038614273071 5.136001586914 125 125 125
14.003855705261 12.038614273071 5.089004516602 124 124 124
14.003855705261 12.038614273071 5.041999816895 126 126 126
13.988284111023 12.037321090698 4.996002197266 126 126 126
13.988284111023 12.037321090698 4.947998046875 126 126 126
13.971419334412 12.051599502563 4.903999328613 114 114 114
13.971419334412 12.051599502563 4.857002258301 127 127 127
13.971419334412 12.051599502563 4.809997558594 128 128 128
13.986990928650 12.052892684937 4.762001037598 116 116 116
13.971419334412 12.051599502563 4.716003417969 114 114 114
13.971419334412 12.051599502563 4.668998718262 117 117 117
13.988284111023 12.037321090698 4.622001647949 104 104 104
13.988284111023 12.037321090698 4.575004577637 97 97 97
14.005148887634 12.023043632507 4.527000427246 95 95 95
13.988284111023 12.037321090698 4.482002258301 92 92 92
13.972712516785 12.036027908325 4.436004638672 74 74 74
13.972712516785 12.036027908325 4.388999938965 53 53 53
13.988284111023 12.037321090698 4.343002319336 12 12 12
14.071367263794 12.169651985168 1.234001159668 156 156 156
13.937690734863 12.080156326294 4.169998168945 120 120 120
13.937690734863 12.080156326294 4.217002868652 118 118 118
13.951969146729 12.097020149231 4.261001586914 120 120 120
13.951969146729 12.097020149231 4.307998657227 128 128 128
13.951969146729 12.097020149231 4.354003906250 134 134 134
13.951969146729 12.097020149231 4.400001525879 131 131 131
13.981818199158 12.115178108215 4.443000793457 137 137 137
13.981818199158 12.115178108215 4.487998962402 147 147 147
13.996096611023 12.132042884827 4.533004760742 146 146 146
13.996096611023 12.132042884827 4.578002929688 154 154 154
13.996096611023 12.132042884827 4.625000000000 151 151 151
14.011668205261 12.133336067200 4.668998718262 154 154 154
14.011668205261 12.133336067200 5.133003234863 154 154 154
14.011668205261 12.133336067200 5.180000305176 163 163 163
14.011668205261 12.133336067200 5.227005004883 161 161 161
14.010375022888 12.148907661438 5.274002075195 159 159 159
13.981818199158 12.115178108215 5.326004028320 144 144 144
14.010375022888 12.148907661438 5.368003845215 151 151 151
13.996096611023 12.132042884827 5.752998352051 148 148 148
14.011668205261 12.133336067200 5.800003051758 156 156 156
14.010375022888 12.148907661438 5.847000122070 155 155 155
14.010375022888 12.148907661438 5.897003173828 158 158 158
14.010375022888 12.148907661438 5.943000793457 159 159 159
14.010375022888 12.148907661438 5.994003295898 158 158 158
14.010375022888 12.148907661438 6.042999267578 152 152 152
14.010375022888 12.148907661438 6.091003417969 147 147 147
14.010375022888 12.148907661438 6.140998840332 137 137 137
13.994803428650 12.147614479065 6.192001342773 135 135 135
13.994803428650 12.147614479065 6.243003845215 144 144 144
14.010375022888 12.148907661438 6.290000915527 143 143 143
13.994803428650 12.147614479065 6.342002868652 141 141 141
13.994803428650 12.147614479065 6.392997741699 141 141 141
13.994803428650 12.147614479065 6.444000244141 130 130 130
14.010375022888 12.148907661438 6.492004394531 131 131 131
13.996096611023 12.132042884827 6.549003601074 122 122 122
13.996096611023 12.132042884827 6.599998474121 147 147 147
14.010375022888 12.148907661438 6.645004272461 133 133 133
14.040224075317 12.167065620422 6.683998107910 122 122 122
14.010375022888 12.148907661438 6.750000000000 147 147 147
13.994803428650 12.147614479065 6.805000305176 145 145 145
13.994803428650 12.147614479065 6.857002258301 131 131 131
13.994803428650 12.147614479065 6.908004760742 138 138 138
13.994803428650 12.147614479065 6.961997985840 143 143 143
13.996096611023 12.132042884827 7.017997741699 133 133 133
14.010375022888 12.148907661438 7.065002441406 115 115 115
13.951969146729 12.097020149231 4.030998229980 117 117 117
13.951969146729 12.097020149231 4.077003479004 126 126 126
13.951969146729 12.097020149231 4.123001098633 126 126 126
14.013066291809 12.494064331055 6.660003662109 125 125 125
14.001479148865 12.822357177734 6.628997802734 112 112 112
14.017050743103 12.823650360107 6.676002502441 69 69 69
13.961336135864 13.116920471191 6.611000061035 85 85 85
13.989892959595 13.150649070740 6.639999389648 125 125 125
14.022434234619 13.513963699341 6.290000915527 61 61 61
14.006862640381 13.512670516968 6.344001770020 14 14 14
13.992585182190 13.495805740356 6.603004455566 116 116 116
13.992585182190 13.495805740356 6.650001525879 56 56 56
13.995275497437 13.840963363647 6.316001892090 100 100 100
13.980997085571 13.824098587036 6.577003479004 57 57 57
13.979703903198 13.839670181274 6.622001647949 122 122 122
13.997967720032 14.186120986938 6.289001464844 82 82 82
13.982396125793 14.184827804565 6.593002319336 125 125 125
13.997967720032 14.186120986938 6.638000488281 12 12 12
14.000658988953 14.531277656555 6.300003051758 93 93 93
13.956531524658 14.496255874634 6.563003540039 69 69 69
13.986380577087 14.514412879944 6.603004455566 114 114 114
13.989071846008 14.859570503235 6.271003723145 70 70 70
13.973500251770 14.858277320862 6.572998046875 124 124 124
13.989071846008 14.859570503235 6.613998413086 41 41 41
13.977485656738 15.187862396240 6.290000915527 161 161 161
13.977485656738 15.187862396240 6.341003417969 183 183 183
13.963207244873 15.170997619629 6.397003173828 89 89 89
13.947635650635 15.169704437256 6.450004577637 168 168 168
13.947635650635 15.169704437256 6.501998901367 133 133 133
13.963207244873 15.170997619629 6.544998168945 56 56 56
13.977485656738 15.187862396240 6.589004516602 129 129 129
13.995748519897 15.534313201904 6.256004333496 76 76 76
13.980176925659 15.533020019531 6.311004638672 191 191 191
13.964606285095 15.531726837158 6.363998413086 109 109 109
13.950327873230 15.514862060547 6.416999816895 189 189 189
13.934756278992 15.513568878174 6.472999572754 171 171 171
13.934756278992 15.513568878174 6.522003173828 68 68 68
13.964606285095 15.531726837158 6.562004089355 122 122 122
13.980176925659 15.533020019531 6.607002258301 70 70 70
13.967297554016 15.876884460449 6.278999328613 150 150 150
13.967297554016 15.876884460449 6.327003479004 184 184 184
13.937448501587 15.858726501465 6.383003234863 177 177 177
13.937448501587 15.858726501465 6.433998107910 165 165 165
13.937448501587 15.858726501465 6.486999511719 139 139 139
13.923170089722 15.841859817505 6.540000915527 100 100 100
13.967297554016 15.876884460449 6.573997497559 123 123 123
13.955710411072 16.205177307129 6.250999450684 40 40 40
13.955710411072 16.205177307129 6.298004150391 188 188 188
13.940138816833 16.203884124756 6.348999023438 187 187 187
13.940138816833 16.203884124756 6.401000976563 192 192 192
13.925860404968 16.187019348145 6.456001281738 187 187 187
13.911583900452 16.170154571533 6.511001586914 98 98 98
13.940138816833 16.203884124756 6.545997619629 99 99 99
13.955710411072 16.205177307129 6.590003967285 102 102 102
13.973973274231 16.551626205444 6.259002685547 111 111 111
13.959695816040 16.534761428833 6.313003540039 191 191 191
13.929845809937 16.516603469849 6.371002197266 154 154 154
13.929845809937 16.516603469849 6.420997619629 139 139 139
13.914274215698 16.515310287476 6.473999023438 175 175 175
13.959695816040 16.534761428833 6.556999206543 120 120 120
13.973973274231 16.551626205444 6.600997924805 58 58 58
13.962387084961 16.879919052124 6.276000976563 144 144 144
13.946815490723 16.878625869751 6.327003479004 187 187 187
13.946815490723 16.878625869751 6.380004882813 152 152 152
13.918259620667 16.844896316528 6.441001892090 159 159 159
13.918259620667 16.844896316528 6.491004943848 151 151 151
13.916966438293 16.860467910767 6.539001464844 9 9 9
13.946815490723 16.878625869751 6.575004577637 140 140 140
13.979355812073 17.241941452026 6.278999328613 100 100 100
13.919657707214 17.205625534058 6.549003601074 80 80 80
13.949507713318 17.223783493042 6.585998535156 120 120 120
13.982048034668 17.587097167969 6.251998901367 42 42 42
13.967769622803 17.570232391357 6.302001953125 52 52 52
13.922348976135 17.550781250000 6.364997863770 67 67 67
13.922348976135 17.550781250000 6.415000915527 90 90 90
13.923642158508 17.535209655762 6.467002868652 106 106 106
13.908070564270 17.533916473389 6.520004272461 107 107 107
13.937920570374 17.552074432373 6.558998107910 118 118 118
13.952198028564 17.568939208984 6.603004455566 88 88 88
13.970461845398 17.915390014648 6.270004272461 85 85 85
13.940611839294 17.897232055664 6.575004577637 128 128 128
13.940611839294 17.897232055664 6.623001098633 35 35 35
13.943304061890 18.242389678955 6.290000915527 103 103 103
13.912160873413 18.239803314209 6.543998718262 10 10 10
13.943304061890 18.242389678955 6.592002868652 131 131 131
13.917438507080 18.553815841675 6.413002014160 20 20 20
13.901866912842 18.552522659302 6.469001770020 58 58 58
13.901866912842 18.552522659302 6.519004821777 81 81 81
13.886295318604 18.551229476929 6.569999694824 110 110 110
13.931716918945 18.570680618286 6.604003906250 134 134 134
13.904559135437 18.897680282593 6.577003479004 88 88 88
13.918836593628 18.914545059204 6.614997863770 113 113 113
13.892971992493 19.225973129272 6.595001220703 99 99 99
13.907250404358 19.242837905884 6.635002136230 93 93 93
13.895664215088 19.571130752563 6.608001708984 108 108 108
13.909941673279 19.587993621826 6.644004821777 68 68 68
13.885370254517 19.883850097656 1.382003784180 172 172 172
13.871092796326 19.866985321045 1.428001403809 172 172 172
13.900940895081 19.885143280029 1.488998413086 170 170 170
13.871092796326 19.866985321045 1.520004272461 171 171 171
13.871092796326 19.866985321045 1.567001342773 169 169 169
13.871092796326 19.866985321045 1.614997863770 171 171 171
13.871092796326 19.866985321045 1.660003662109 171 171 171
13.871092796326 19.866985321045 1.706001281738 171 171 171
13.871092796326 19.866985321045 1.753997802734 171 171 171
13.885370254517 19.883850097656 1.801002502441 172 172 172
13.871092796326 19.866985321045 1.847000122070 173 173 173
13.871092796326 19.866985321045 1.891998291016 173 173 173
13.871092796326 19.866985321045 1.936004638672 173 173 173
13.885370254517 19.883850097656 1.985000610352 173 173 173
13.885370254517 19.883850097656 2.029998779297 173 173 173
13.871092796326 19.866985321045 2.072998046875 175 175 175
13.885370254517 19.883850097656 2.121002197266 173 173 173
13.885370254517 19.883850097656 2.165000915527 172 172 172
13.869798660278 19.882556915283 2.210998535156 171 171 171
13.871092796326 19.866985321045 2.252998352051 182 182 182
13.885370254517 19.883850097656 2.299003601074 186 186 186
13.869798660278 19.882556915283 2.344001770020 180 180 180
13.869798660278 19.882556915283 2.388999938965 178 178 178
13.869798660278 19.882556915283 2.432998657227 178 178 178
13.869798660278 19.882556915283 2.478004455566 177 177 177
13.900940895081 19.885143280029 2.522003173828 179 179 179
13.869798660278 19.882556915283 2.565002441406 182 182 182
13.884077072144 19.899421691895 2.611000061035 177 177 177
13.900940895081 19.885143280029 2.652999877930 178 178 178
13.900940895081 19.885143280029 2.696998596191 195 195 195
13.900940895081 19.885143280029 2.741004943848 193 193 193
13.869798660278 19.882556915283 2.784004211426 184 184 184
13.869798660278 19.882556915283 2.827003479004 184 184 184
13.884077072144 19.899421691895 2.872001647949 182 182 182
13.900940895081 19.885143280029 2.914001464844 187 187 187
13.900940895081 19.885143280029 2.958000183105 185 185 185
13.869798660278 19.882556915283 3.000000000000 185 185 185
13.884077072144 19.899421691895 3.043998718262 186 186 186
13.884077072144 19.899421691895 3.088005065918 184 184 184
13.884077072144 19.899421691895 3.130004882813 183 183 183
13.884077072144 19.899421691895 3.173004150391 189 189 189
13.899647712708 19.900714874268 3.217002868652 199 199 199
13.884077072144 19.899421691895 3.259002685547 197 197 197
13.884077072144 19.899421691895 3.302001953125 196 196 196
13.884077072144 19.899421691895 3.345001220703 191 191 191
13.899647712708 19.900714874268 3.388000488281 191 191 191
13.884077072144 19.899421691895 3.430000305176 188 188 188
13.884077072144 19.899421691895 3.472999572754 189 189 189
13.899647712708 19.900714874268 3.515998840332 188 188 188
13.899647712708 19.900714874268 3.557998657227 194 194 194
13.884077072144 19.899421691895 3.600997924805 194 194 194
13.899647712708 19.900714874268 3.644004821777 198 198 198
13.899647712708 19.900714874268 3.686004638672 199 199 199
13.899647712708 19.900714874268 3.728004455566 202 202 202
13.899647712708 19.900714874268 3.771003723145 197 197 197
13.899647712708 19.900714874268 3.813003540039 199 199 199
13.899647712708 19.900714874268 3.856002807617 202 202 202
13.899647712708 19.900714874268 3.898002624512 202 202 202
13.899647712708 19.900714874268 3.941001892090 200 200 200
13.899647712708 19.900714874268 3.983001708984 200 200 200
13.899647712708 19.900714874268 4.026000976563 193 193 193
13.899647712708 19.900714874268 4.068000793457 193 193 193
13.898354530334 19.916286468506 4.111000061035 193 193 193
13.899647712708 19.900714874268 4.152999877930 199 199 199
13.913926124573 19.917579650879 4.195999145508 203 203 203
13.898354530334 19.916286468506 4.237998962402 205 205 205
13.913926124573 19.917579650879 4.280998229980 201 201 201
13.899647712708 19.900714874268 4.323997497559 201 201 201
13.899647712708 19.900714874268 4.367004394531 202 202 202
13.913926124573 19.917579650879 4.409004211426 200 200 200
13.898354530334 19.916286468506 4.452003479004 202 202 202
13.898354530334 19.916286468506 4.494003295898 193 193 193
13.898354530334 19.916286468506 4.537002563477 183 183 183
13.898354530334 19.916286468506 4.580001831055 188 188 188
13.913926124573 19.917579650879 4.622001647949 192 192 192
13.898354530334 19.916286468506 4.666000366211 191 191 191
13.898354530334 19.916286468506 4.708999633789 192 192 192
13.913926124573 19.917579650879 4.751998901367 191 191 191
13.898354530334 19.916286468506 4.794998168945 189 189 189
13.913926124573 19.917579650879 4.838005065918 186 186 186
13.898354530334 19.916286468506 4.883003234863 188 188 188
13.913926124573 19.917579650879 4.924003601074 188 188 188
13.898354530334 19.916286468506 4.969001770020 187 187 187
13.912632942200 19.933151245117 5.011001586914 185 185 185
13.913926124573 19.917579650879 5.055000305176 181 181 181
13.913926124573 19.917579650879 5.098999023438 186 186 186
13.912632942200 19.933151245117 5.140998840332 185 185 185
13.912632942200 19.933151245117 5.186004638672 184 184 184
13.912632942200 19.933151245117 5.230003356934 180 180 180
13.912632942200 19.933151245117 5.274002075195 182 182 182
13.912632942200 19.933151245117 5.318000793457 179 179 179
13.912632942200 19.933151245117 5.362998962402 179 179 179
13.912632942200 19.933151245117 5.405998229980 182 182 182
13.912632942200 19.933151245117 5.450004577637 176 176 176
13.928204536438 19.934444427490 5.491004943848 177 177 177
13.912632942200 19.933151245117 5.540000915527 176 176 176
13.928204536438 19.934444427490 5.583000183105 178 178 178
13.928204536438 19.934444427490 5.626998901367 175 175 175
13.928204536438 19.934444427490 5.673004150391 172 172 172
13.912632942200 19.933151245117 5.719001770020 174 174 174
13.928204536438 19.934444427490 5.761001586914 174 174 174
13.928204536438 19.934444427490 5.805999755859 172 172 172
13.928204536438 19.934444427490 5.854003906250 170 170 170
13.928204536438 19.934444427490 5.898002624512 165 165 165
13.928204536438 19.934444427490 5.944000244141 172 172 172
13.928204536438 19.934444427490 5.989997863770 168 168 168
13.928204536438 19.934444427490 6.037002563477 169 169 169
13.928204536438 19.934444427490 6.083999633789 172 172 172
13.926911354065 19.950016021729 6.125999450684 171 171 171
13.928204536438 19.934444427490 6.177001953125 165 165 165
13.928204536438 19.934444427490 6.222999572754 166 166 166
13.942482948303 19.951309204102 6.265998840332 165 165 165
13.926911354065 19.950016021729 6.314002990723 161 161 161
13.942482948303 19.951309204102 6.361000061035 165 165 165
13.942482948303 19.951309204102 6.406997680664 164 164 164
13.942482948303 19.951309204102 6.456001281738 160 160 160
13.942482948303 19.951309204102 6.501998901367 158 158 158
13.942482948303 19.951309204102 6.551002502441 186 186 186
13.942482948303 19.951309204102 6.599998474121 174 174 174
13.942482948303 19.951309204102 6.647003173828 123 123 123
13.942482948303 19.951309204102 6.694999694824 170 170 170
13.942482948303 19.951309204102 6.742004394531 168 168 168
13.942482948303 19.951309204102 6.795997619629 169 169 169
13.942482948303 19.951309204102 6.840003967285 171 171 171
13.942482948303 19.951309204102 6.890998840332 168 168 168
13.942482948303 19.951309204102 6.942001342773 167 167 167
13.942482948303 19.951309204102 6.992004394531 168 168 168
13.956761360168 19.968173980713 7.039001464844 182 182 182
13.956761360168 19.968173980713 7.086997985840 144 144 144
14.007788658142 12.180049896240 6.694000244141 16 16 16
13.975352287292 12.193035125732 6.655998229980 138 138 138
13.920878410339 12.282584190369 1.347000122070 206 206 206
13.937743186951 12.268305778503 1.303001403809 179 179 179
13.970178604126 12.255320549011 1.265998840332 193 193 193
14.002614974976 12.242336273193 1.225997924805 194 194 194
13.997494697571 12.492771148682 6.665000915527 109 109 109
13.948193550110 12.520034790039 6.625999450684 75 75 75
13.970336914063 12.819770812988 6.634002685547 145 145 145
13.975614547729 13.133784294128 6.646003723145 91 91 91
13.974321365356 13.149355888367 6.599998474121 105 105 105
13.965321540833 13.446505546570 6.611000061035 131 131 131
13.917314529419 13.458197593689 6.571998596191 12 12 12
13.980893135071 13.447798728943 6.305000305176 106 106 106
13.938163757324 13.773505210876 6.631004333496 89 89 89
13.936869621277 13.789075851440 6.585998535156 115 115 115
13.969306945801 13.776091575623 6.325004577637 56 56 56
13.933147430420 14.400239944458 6.616004943848 92 92 92
13.948719024658 14.401533126831 6.562004089355 117 117 117
