14.093750000000 14.710937500000 1.347999572754 157 157 157
14.140625000000 14.687500000000 1.346000671387 163 163 163
14.171875000000 14.664062500000 1.345001220703 163 163 163
14.203125000000 14.648437500000 1.346000671387 163 163 163
14.250000000000 14.617187500000 1.354999542236 162 162 162
14.281250000000 14.601562500000 1.349998474121 158 158 158
14.312500000000 14.585937500000 1.351001739502 158 158 158
14.343750000000 14.562500000000 1.356998443604 164 164 164
14.375000000000 14.546875000000 1.353000640869 159 159 159
14.406250000000 14.523437500000 1.354000091553 159 159 159
14.421875000000 14.507812500000 1.346000671387 173 173 173
14.468750000000 14.492187500000 1.347000122070 160 160 160
14.484375000000 14.476562500000 1.349998474121 161 161 161
14.515625000000 14.460937500000 1.355998992920 157 157 157
14.546875000000 14.445312500000 1.352001190186 166 166 166
14.578125000000 14.414062500000 1.359001159668 166 166 166
14.593750000000 14.414062500000 1.346000671387 162 162 162
14.625000000000 14.398437500000 1.347000122070 164 164 164
14.656250000000 14.375000000000 1.353000640869 156 156 156
14.671875000000 14.367187500000 1.345001220703 160 160 160
14.718750000000 14.335937500000 1.356998443604 155 155 155
14.734375000000 14.335937500000 1.347999572754 162 162 162
14.765625000000 14.320312500000 1.358001708984 161 161 161
14.781250000000 14.304687500000 1.345001220703 153 153 153
14.812500000000 14.289062500000 1.351001739502 165 165 165
14.828125000000 14.273437500000 1.347999572754 155 155 155
14.875000000000 14.257812500000 1.361000061035 164 164 164
14.875000000000 14.242187500000 1.352001190186 162 162 162
14.921875000000 14.226562500000 1.358001708984 162 162 162
14.937500000000 14.210937500000 1.353000640869 158 158 158
14.953125000000 14.195312500000 1.361999511719 153 153 153
14.968750000000 14.187500000000 1.356998443604 158 158 158
15.000000000000 14.171875000000 1.360000610352 161 161 161
15.031250000000 14.156250000000 1.367000579834 150 150 150
15.046875000000 14.148437500000 1.361999511719 156 156 156
15.062500000000 14.132812500000 1.360000610352 161 161 161
15.093750000000 14.117187500000 1.360000610352 155 155 155
15.109375000000 14.101562500000 1.361999511719 169 169 169
15.125000000000 14.085937500000 1.361000061035 146 146 146
15.171875000000 14.078125000000 1.368000030518 151 151 151
15.171875000000 14.070312500000 1.366001129150 165 165 165
15.203125000000 14.054687500000 1.367000579834 165 165 165
15.234375000000 14.039062500000 1.367000579834 164 164 164
15.250000000000 14.031250000000 1.368999481201 179 179 179
15.250000000000 14.015625000000 1.363998413086 173 173 173
15.265625000000 14.007812500000 1.362998962402 165 165 165
15.296875000000 13.992187500000 1.366001129150 179 179 179
15.312500000000 13.984375000000 1.363998413086 165 165 165
15.359375000000 13.968750000000 1.374000549316 159 159 159
15.375000000000 13.960937500000 1.372001647949 169 169 169
15.375000000000 13.945312500000 1.369998931885 165 165 165
15.390625000000 13.937500000000 1.370998382568 172 172 172
15.421875000000 13.929687500000 1.372001647949 155 155 155
15.421875000000 13.914062500000 1.370998382568 169 169 169
15.437500000000 13.906250000000 1.375999450684 169 169 169
15.453125000000 13.898437500000 1.370998382568 170 170 170
15.484375000000 13.882812500000 1.380001068115 161 161 161
15.500000000000 13.882812500000 1.372001647949 148 148 148
15.515625000000 13.867187500000 1.374000549316 152 152 152
15.546875000000 13.851562500000 1.374000549316 162 162 162
15.562500000000 13.835937500000 1.380001068115 177 177 177
15.578125000000 13.820312500000 1.388999938965 181 181 181
15.609375000000 13.820312500000 1.394001007080 171 171 171
15.609375000000 13.804687500000 1.393001556396 170 170 170
15.625000000000 13.796875000000 1.395000457764 170 170 170
15.640625000000 13.789062500000 1.394001007080 168 168 168
15.671875000000 13.781250000000 1.394001007080 166 166 166
15.687500000000 13.773437500000 1.396999359131 164 164 164
15.703125000000 13.757812500000 1.392002105713 167 167 167
15.703125000000 13.750000000000 1.396999359131 168 168 168
15.734375000000 13.742187500000 1.386001586914 165 165 165
15.750000000000 13.726562500000 1.400001525879 168 168 168
15.765625000000 13.726562500000 1.394001007080 170 170 170
15.765625000000 13.710937500000 1.392002105713 169 169 169
15.781250000000 13.710937500000 1.389999389648 162 162 162
15.812500000000 13.695312500000 1.381000518799 160 160 160
15.828125000000 13.679687500000 1.387001037598 170 170 170
15.828125000000 13.679687500000 1.387001037598 171 171 171
15.843750000000 13.671875000000 1.382999420166 162 162 162
15.859375000000 13.664062500000 1.384998321533 164 164 164
15.890625000000 13.664062500000 1.390998840332 164 164 164
15.890625000000 13.648437500000 1.389999389648 163 163 163
15.906250000000 13.640625000000 1.386001586914 160 160 160
15.906250000000 13.632812500000 1.381000518799 158 158 158
15.937500000000 13.625000000000 1.390998840332 165 165 165
15.937500000000 13.609375000000 1.393001556396 164 164 164
15.953125000000 13.601562500000 1.387001037598 164 164 164
15.968750000000 13.593750000000 1.392002105713 163 163 163
13.828125000000 15.210937500000 1.344001770020 151 151 151
13.875000000000 15.179687500000 1.346000671387 154 154 154
13.890625000000 15.156250000000 1.347999572754 154 154 154
13.937500000000 15.125000000000 1.352001190186 156 156 156
13.984375000000 15.101562500000 1.347999572754 159 159 159
14.015625000000 15.085937500000 1.347999572754 162 162 162
14.062500000000 15.070312500000 1.347999572754 157 157 157
14.078125000000 15.046875000000 1.346000671387 164 164 164
14.125000000000 15.015625000000 1.348999023438 154 154 154
14.171875000000 14.992187500000 1.349998474121 156 156 156
14.203125000000 14.976562500000 1.352001190186 156 156 156
14.234375000000 14.960937500000 1.354000091553 160 160 160
14.265625000000 14.945312500000 1.347999572754 157 157 157
14.296875000000 14.921875000000 1.348999023438 156 156 156
14.328125000000 14.898437500000 1.347999572754 161 161 161
14.359375000000 14.882812500000 1.347999572754 169 169 169
14.375000000000 14.867187500000 1.347000122070 159 159 159
14.406250000000 14.835937500000 1.355998992920 162 162 162
14.453125000000 14.820312500000 1.356998443604 166 166 166
14.468750000000 14.804687500000 1.361000061035 175 175 175
14.515625000000 14.789062500000 1.354000091553 165 165 165
14.531250000000 14.781250000000 1.348999023438 164 164 164
14.578125000000 14.757812500000 1.356998443604 159 159 159
14.593750000000 14.742187500000 1.355998992920 164 164 164
14.625000000000 14.726562500000 1.356998443604 164 164 164
14.640625000000 14.703125000000 1.351001739502 158 158 158
14.671875000000 14.695312500000 1.358001708984 163 163 163
14.703125000000 14.679687500000 1.352001190186 160 160 160
14.718750000000 14.656250000000 1.352001190186 164 164 164
14.765625000000 14.648437500000 1.354999542236 156 156 156
14.781250000000 14.625000000000 1.359001159668 164 164 164
14.796875000000 14.617187500000 1.349998474121 161 161 161
14.828125000000 14.601562500000 1.359001159668 159 159 159
14.843750000000 14.585937500000 1.351001739502 157 157 157
14.859375000000 14.570312500000 1.347999572754 155 155 155
14.890625000000 14.562500000000 1.349998474121 152 152 152
14.906250000000 14.546875000000 1.348999023438 151 151 151
14.953125000000 14.531250000000 1.355998992920 161 161 161
14.968750000000 14.523437500000 1.353000640869 160 160 160
14.984375000000 14.500000000000 1.358001708984 163 163 163
15.015625000000 14.492187500000 1.358001708984 157 157 157
15.031250000000 14.468750000000 1.360000610352 160 160 160
15.046875000000 14.460937500000 1.356998443604 161 161 161
15.078125000000 14.445312500000 1.358001708984 161 161 161
15.093750000000 14.437500000000 1.356998443604 158 158 158
15.125000000000 14.429687500000 1.356998443604 169 169 169
15.140625000000 14.414062500000 1.354000091553 163 163 163
15.171875000000 14.398437500000 1.356998443604 156 156 156
15.187500000000 14.390625000000 1.361000061035 168 168 168
15.218750000000 14.367187500000 1.368999481201 160 160 160
15.234375000000 14.359375000000 1.361999511719 162 162 162
15.250000000000 14.351562500000 1.358001708984 158 158 158
15.265625000000 14.343750000000 1.354000091553 165 165 165
15.296875000000 14.320312500000 1.356998443604 163 163 163
15.296875000000 14.304687500000 1.368000030518 169 169 169
15.328125000000 14.312500000000 1.356998443604 165 165 165
15.343750000000 14.304687500000 1.360000610352 161 161 161
15.359375000000 14.281250000000 1.373001098633 167 167 167
15.390625000000 14.273437500000 1.365001678467 171 171 171
15.406250000000 14.257812500000 1.369998931885 153 153 153
15.421875000000 14.242187500000 1.367000579834 162 162 162
15.421875000000 14.226562500000 1.363998413086 163 163 163
15.453125000000 14.218750000000 1.366001129150 166 166 166
15.468750000000 14.210937500000 1.367000579834 161 161 161
15.484375000000 14.195312500000 1.370998382568 153 153 153
15.515625000000 14.187500000000 1.376998901367 164 164 164
15.531250000000 14.179687500000 1.368000030518 162 162 162
15.546875000000 14.171875000000 1.375999450684 178 178 178
15.562500000000 14.164062500000 1.382999420166 181 181 181
15.593750000000 14.148437500000 1.386001586914 173 173 173
15.609375000000 14.132812500000 1.392002105713 172 172 172
15.625000000000 14.132812500000 1.388000488281 176 176 176
15.640625000000 14.117187500000 1.388000488281 178 178 178
15.656250000000 14.109375000000 1.383998870850 170 170 170
15.671875000000 14.101562500000 1.388000488281 168 168 168
15.687500000000 14.085937500000 1.388999938965 172 172 172
15.703125000000 14.085937500000 1.384998321533 171 171 171
15.734375000000 14.070312500000 1.386001586914 168 168 168
15.750000000000 14.054687500000 1.390998840332 172 172 172
15.750000000000 14.039062500000 1.390998840332 177 177 177
15.765625000000 14.039062500000 1.393001556396 176 176 176
15.796875000000 14.039062500000 1.386001586914 173 173 173
15.796875000000 14.031250000000 1.375000000000 158 158 158
15.796875000000 14.023437500000 1.386001586914 170 170 170
15.812500000000 14.007812500000 1.384998321533 176 176 176
15.843750000000 13.992187500000 1.390998840332 179 179 179
15.843750000000 13.992187500000 1.386001586914 170 170 170
15.859375000000 13.976562500000 1.388000488281 168 168 168
15.875000000000 13.976562500000 1.383998870850 175 175 175
15.890625000000 13.960937500000 1.383998870850 166 166 166
15.906250000000 13.960937500000 1.386001586914 162 162 162
15.921875000000 13.945312500000 1.381000518799 166 166 166
15.937500000000 13.929687500000 1.397998809814 172 172 172
15.953125000000 13.929687500000 1.390998840332 168 168 168
14.234375000000 15.289062500000 1.380001068115 166 166 166
14.234375000000 15.304687500000 1.351001739502 155 155 155
14.250000000000 15.273437500000 1.356998443604 156 156 156
14.281250000000 15.250000000000 1.352001190186 161 161 161
14.312500000000 15.226562500000 1.354999542236 149 149 149
14.343750000000 15.210937500000 1.354999542236 155 155 155
14.375000000000 15.203125000000 1.353000640869 158 158 158
14.406250000000 15.179687500000 1.353000640869 169 169 169
14.437500000000 15.164062500000 1.353000640869 152 152 152
14.468750000000 15.132812500000 1.355998992920 158 158 158
14.515625000000 15.117187500000 1.367000579834 168 168 168
14.515625000000 15.101562500000 1.354999542236 175 175 175
14.562500000000 15.093750000000 1.351001739502 161 161 161
14.578125000000 15.070312500000 1.354999542236 151 151 151
14.609375000000 15.062500000000 1.349998474121 154 154 154
14.640625000000 15.039062500000 1.351001739502 166 166 166
14.671875000000 15.023437500000 1.352001190186 161 161 161
14.703125000000 15.015625000000 1.352001190186 159 159 159
14.703125000000 14.992187500000 1.356998443604 172 172 172
14.734375000000 14.976562500000 1.354000091553 163 163 163
14.765625000000 14.960937500000 1.354000091553 163 163 163
14.765625000000 14.945312500000 1.346000671387 160 160 160
14.812500000000 14.945312500000 1.352001190186 166 166 166
14.828125000000 14.921875000000 1.349998474121 155 155 155
14.875000000000 14.906250000000 1.359001159668 156 156 156
14.890625000000 14.898437500000 1.353000640869 165 165 165
14.906250000000 14.875000000000 1.348999023438 159 159 159
14.937500000000 14.867187500000 1.347999572754 158 158 158
14.953125000000 14.851562500000 1.354000091553 171 171 171
14.968750000000 14.835937500000 1.349998474121 168 168 168
15.015625000000 14.812500000000 1.358001708984 161 161 161
15.031250000000 14.804687500000 1.354000091553 164 164 164
15.046875000000 14.796875000000 1.356998443604 163 163 163
15.078125000000 14.781250000000 1.359001159668 168 168 168
15.093750000000 14.773437500000 1.355998992920 165 165 165
15.109375000000 14.757812500000 1.353000640869 160 160 160
15.140625000000 14.742187500000 1.351001739502 160 160 160
15.156250000000 14.726562500000 1.354999542236 156 156 156
15.171875000000 14.710937500000 1.354000091553 163 163 163
15.187500000000 14.695312500000 1.360000610352 165 165 165
15.203125000000 14.695312500000 1.352001190186 167 167 167
15.234375000000 14.687500000000 1.362998962402 158 158 158
15.250000000000 14.671875000000 1.353000640869 159 159 159
15.265625000000 14.664062500000 1.358001708984 159 159 159
15.281250000000 14.648437500000 1.348999023438 170 170 170
15.312500000000 14.632812500000 1.356998443604 165 165 165
15.343750000000 14.617187500000 1.368000030518 164 164 164
15.343750000000 14.601562500000 1.366001129150 162 162 162
15.375000000000 14.601562500000 1.368999481201 169 169 169
15.390625000000 14.585937500000 1.363998413086 170 170 170
15.406250000000 14.570312500000 1.365001678467 162 162 162
15.421875000000 14.562500000000 1.362998962402 161 161 161
15.453125000000 14.554687500000 1.368000030518 160 160 160
15.468750000000 14.546875000000 1.367000579834 149 149 149
15.484375000000 14.539062500000 1.367000579834 153 153 153
15.515625000000 14.523437500000 1.373001098633 164 164 164
15.531250000000 14.515625000000 1.369998931885 176 176 176
15.546875000000 14.507812500000 1.368000030518 170 170 170
15.578125000000 14.484375000000 1.383998870850 183 183 183
15.593750000000 14.476562500000 1.381999969482 179 179 179
15.593750000000 14.460937500000 1.381000518799 179 179 179
15.625000000000 14.460937500000 1.388000488281 179 179 179
15.640625000000 14.445312500000 1.379001617432 182 182 182
15.656250000000 14.429687500000 1.386001586914 182 182 182
15.671875000000 14.421875000000 1.387001037598 176 176 176
15.671875000000 14.414062500000 1.387001037598 167 167 167
15.687500000000 14.414062500000 1.382999420166 174 174 174
15.703125000000 14.398437500000 1.384998321533 182 182 182
15.718750000000 14.398437500000 1.380001068115 179 179 179
15.734375000000 14.382812500000 1.386001586914 181 181 181
15.765625000000 14.367187500000 1.383998870850 175 175 175
15.781250000000 14.367187500000 1.389999389648 181 181 181
15.781250000000 14.351562500000 1.386001586914 177 177 177
15.796875000000 14.351562500000 1.381999969482 169 169 169
15.828125000000 14.335937500000 1.377998352051 187 187 187
15.828125000000 14.320312500000 1.383998870850 183 183 183
15.843750000000 14.312500000000 1.388999938965 185 185 185
15.859375000000 14.304687500000 1.392002105713 180 180 180
15.890625000000 14.296875000000 1.389999389648 180 180 180
15.906250000000 14.289062500000 1.389999389648 178 178 178
15.906250000000 14.289062500000 1.386001586914 179 179 179
15.921875000000 14.281250000000 1.384998321533 178 178 178
15.937500000000 14.273437500000 1.389999389648 175 175 175
15.953125000000 14.257812500000 1.390998840332 177 177 177
15.968750000000 14.257812500000 1.379001617432 171 171 171
14.609375000000 15.382812500000 1.369998931885 150 150 150
14.625000000000 15.367187500000 1.361000061035 166 166 166
14.656250000000 15.343750000000 1.362998962402 165 165 165
14.671875000000 15.335937500000 1.361999511719 164 164 164
14.718750000000 15.320312500000 1.359001159668 155 155 155
14.734375000000 15.320312500000 1.353000640869 172 172 172
14.750000000000 15.296875000000 1.352001190186 156 156 156
14.781250000000 15.273437500000 1.355998992920 172 172 172
14.796875000000 15.265625000000 1.349998474121 157 157 157
14.828125000000 15.257812500000 1.354000091553 158 158 158
14.859375000000 15.234375000000 1.356998443604 187 187 187
14.875000000000 15.226562500000 1.349998474121 158 158 158
14.921875000000 15.210937500000 1.356998443604 155 155 155
14.937500000000 15.187500000000 1.359001159668 171 171 171
14.937500000000 15.179687500000 1.347999572754 181 181 181
14.984375000000 15.164062500000 1.354999542236 167 167 167
15.000000000000 15.156250000000 1.347000122070 162 162 162
15.015625000000 15.148437500000 1.347000122070 165 165 165
15.046875000000 15.132812500000 1.344001770020 161 161 161
15.062500000000 15.109375000000 1.356998443604 150 150 150
15.078125000000 15.101562500000 1.355998992920 152 152 152
15.093750000000 15.085937500000 1.353000640869 162 162 162
15.109375000000 15.070312500000 1.347000122070 165 165 165
15.125000000000 15.070312500000 1.338001251221 170 170 170
15.156250000000 15.054687500000 1.347000122070 168 168 168
15.187500000000 15.039062500000 1.353000640869 163 163 163
15.203125000000 15.031250000000 1.351001739502 169 169 169
15.234375000000 15.007812500000 1.354000091553 165 165 165
15.234375000000 15.007812500000 1.346000671387 161 161 161
15.265625000000 14.992187500000 1.352001190186 172 172 172
15.265625000000 14.984375000000 1.342998504639 164 164 164
15.312500000000 14.968750000000 1.351001739502 164 164 164
15.328125000000 14.945312500000 1.363998413086 161 161 161
15.359375000000 14.937500000000 1.358001708984 163 163 163
15.375000000000 14.914062500000 1.366001129150 169 169 169
15.390625000000 14.929687500000 1.358001708984 156 156 156
15.406250000000 14.914062500000 1.362998962402 159 159 159
15.421875000000 14.898437500000 1.353000640869 165 165 165
15.437500000000 14.882812500000 1.355998992920 159 159 159
15.453125000000 14.875000000000 1.359001159668 163 163 163
15.484375000000 14.867187500000 1.361999511719 163 163 163
15.515625000000 14.851562500000 1.373001098633 175 175 175
15.515625000000 14.835937500000 1.368000030518 184 184 184
15.531250000000 14.835937500000 1.370998382568 181 181 181
15.562500000000 14.820312500000 1.374000549316 187 187 187
15.562500000000 14.804687500000 1.384998321533 188 188 188
15.578125000000 14.796875000000 1.379001617432 189 189 189
15.609375000000 14.789062500000 1.381999969482 186 186 186
15.625000000000 14.781250000000 1.386001586914 183 183 183
15.640625000000 14.773437500000 1.384998321533 180 180 180
15.656250000000 14.757812500000 1.388000488281 181 181 181
15.671875000000 14.742187500000 1.382999420166 176 176 176
15.687500000000 14.742187500000 1.384998321533 175 175 175
15.703125000000 14.726562500000 1.381000518799 178 178 178
15.718750000000 14.718750000000 1.388000488281 185 185 185
15.750000000000 14.710937500000 1.389999389648 187 187 187
15.750000000000 14.695312500000 1.384998321533 178 178 178
15.765625000000 14.687500000000 1.388000488281 185 185 185
15.781250000000 14.679687500000 1.392002105713 192 192 192
15.796875000000 14.671875000000 1.379001617432 178 178 178
15.812500000000 14.656250000000 1.384998321533 187 187 187
15.828125000000 14.656250000000 1.383998870850 190 190 190
15.843750000000 14.648437500000 1.388999938965 191 191 191
15.859375000000 14.640625000000 1.392002105713 189 189 189
15.890625000000 14.632812500000 1.386001586914 192 192 192
15.890625000000 14.617187500000 1.382999420166 190 190 190
15.906250000000 14.609375000000 1.387001037598 188 188 188
15.921875000000 14.601562500000 1.377998352051 189 189 189
15.921875000000 14.601562500000 1.381000518799 169 169 169
15.953125000000 14.585937500000 1.390998840332 184 184 184
15.968750000000 14.585937500000 1.381999969482 185 185 185
14.984375000000 15.476562500000 1.362998962402 178 178 178
15.015625000000 15.468750000000 1.355998992920 153 153 153
15.031250000000 15.445312500000 1.359001159668 162 162 162
15.046875000000 15.437500000000 1.354999542236 161 161 161
15.078125000000 15.429687500000 1.354000091553 160 160 160
15.093750000000 15.414062500000 1.358001708984 157 157 157
15.109375000000 15.398437500000 1.361999511719 162 162 162
15.140625000000 15.382812500000 1.361000061035 172 172 172
15.156250000000 15.382812500000 1.353000640869 162 162 162
15.171875000000 15.367187500000 1.354999542236 172 172 172
15.203125000000 15.351562500000 1.354999542236 165 165 165
15.218750000000 15.335937500000 1.354000091553 152 152 152
15.234375000000 15.328125000000 1.347999572754 165 165 165
15.281250000000 15.320312500000 1.358001708984 168 168 168
15.281250000000 15.304687500000 1.354999542236 156 156 156
15.296875000000 15.289062500000 1.356998443604 153 153 153
15.312500000000 15.289062500000 1.347999572754 170 170 170
15.343750000000 15.273437500000 1.353000640869 165 165 165
15.359375000000 15.257812500000 1.359001159668 163 163 163
15.375000000000 15.250000000000 1.358001708984 158 158 158
15.406250000000 15.242187500000 1.354000091553 159 159 159
15.421875000000 15.226562500000 1.355998992920 164 164 164
15.437500000000 15.210937500000 1.359001159668 166 166 166
15.453125000000 15.195312500000 1.365001678467 157 157 157
15.468750000000 15.187500000000 1.361999511719 156 156 156
15.484375000000 15.179687500000 1.366001129150 183 183 183
15.500000000000 15.164062500000 1.366001129150 203 203 203
15.531250000000 15.164062500000 1.372001647949 195 195 195
15.546875000000 15.148437500000 1.369998931885 180 180 180
15.562500000000 15.140625000000 1.381999969482 172 172 172
15.593750000000 15.117187500000 1.386001586914 185 185 185
15.609375000000 15.117187500000 1.387001037598 186 186 186
15.625000000000 15.101562500000 1.383998870850 185 185 185
15.640625000000 15.093750000000 1.386001586914 184 184 184
15.656250000000 15.085937500000 1.376998901367 179 179 179
15.671875000000 15.070312500000 1.382999420166 172 172 172
15.687500000000 15.062500000000 1.389999389648 178 178 178
15.703125000000 15.054687500000 1.388999938965 182 182 182
15.734375000000 15.039062500000 1.386001586914 185 185 185
15.734375000000 15.039062500000 1.386001586914 188 188 188
15.750000000000 15.031250000000 1.384998321533 192 192 192
15.765625000000 15.023437500000 1.380001068115 187 187 187
15.796875000000 15.015625000000 1.381999969482 192 192 192
15.796875000000 15.000000000000 1.386001586914 185 185 185
15.812500000000 14.992187500000 1.368000030518 168 168 168
15.828125000000 14.984375000000 1.382999420166 185 185 185
15.859375000000 14.976562500000 1.382999420166 188 188 188
15.859375000000 14.968750000000 1.382999420166 192 192 192
15.875000000000 14.960937500000 1.387001037598 193 193 193
15.890625000000 14.945312500000 1.383998870850 194 194 194
15.890625000000 14.937500000000 1.375999450684 190 190 190
15.921875000000 14.929687500000 1.384998321533 184 184 184
15.921875000000 14.921875000000 1.369998931885 171 171 171
15.937500000000 14.914062500000 1.381000518799 176 176 176
15.953125000000 14.906250000000 1.386001586914 181 181 181
15.953125000000 14.898437500000 1.384998321533 182 182 182
15.375000000000 15.570312500000 1.358001708984 156 156 156
15.390625000000 15.562500000000 1.358001708984 164 164 164
15.406250000000 15.554687500000 1.361999511719 167 167 167
15.421875000000 15.539062500000 1.360000610352 169 169 169
15.453125000000 15.531250000000 1.356998443604 157 157 157
15.468750000000 15.523437500000 1.360000610352 150 150 150
15.468750000000 15.523437500000 1.353000640869 151 151 151
15.484375000000 15.507812500000 1.351001739502 161 161 161
15.515625000000 15.492187500000 1.354999542236 161 161 161
15.531250000000 15.484375000000 1.354999542236 159 159 159
15.546875000000 15.460937500000 1.370998382568 168 168 168
15.593750000000 15.453125000000 1.388999938965 177 177 177
15.609375000000 15.445312500000 1.388999938965 178 178 178
15.609375000000 15.429687500000 1.379001617432 181 181 181
15.640625000000 15.421875000000 1.382999420166 176 176 176
15.656250000000 15.414062500000 1.380001068115 174 174 174
15.671875000000 15.398437500000 1.387001037598 174 174 174
15.671875000000 15.398437500000 1.373001098633 166 166 166
15.703125000000 15.382812500000 1.376998901367 166 166 166
15.718750000000 15.375000000000 1.382999420166 169 169 169
15.734375000000 15.367187500000 1.381999969482 175 175 175
15.765625000000 15.351562500000 1.384998321533 177 177 177
15.765625000000 15.351562500000 1.379001617432 176 176 176
15.781250000000 15.335937500000 1.388000488281 181 181 181
15.796875000000 15.320312500000 1.386001586914 184 184 184
15.796875000000 15.320312500000 1.376998901367 175 175 175
15.796875000000 15.312500000000 1.375999450684 169 169 169
15.828125000000 15.304687500000 1.382999420166 177 177 177
15.843750000000 15.289062500000 1.381999969482 183 183 183
15.859375000000 15.281250000000 1.381999969482 179 179 179
15.859375000000 15.273437500000 1.381000518799 182 182 182
15.890625000000 15.273437500000 1.384998321533 182 182 182
15.906250000000 15.265625000000 1.375999450684 180 180 180
15.921875000000 15.257812500000 1.384998321533 181 181 181
15.921875000000 15.242187500000 1.376998901367 170 170 170
15.953125000000 15.234375000000 1.386001586914 173 173 173
15.968750000000 15.226562500000 1.386001586914 182 182 182
15.781250000000 15.656250000000 1.380001068115 179 179 179
15.796875000000 15.640625000000 1.377998352051 175 175 175
15.812500000000 15.632812500000 1.377998352051 167 167 167
15.828125000000 15.632812500000 1.379001617432 175 175 175
15.843750000000 15.617187500000 1.384998321533 175 175 175
15.875000000000 15.609375000000 1.386001586914 179 179 179
15.875000000000 15.601562500000 1.388999938965 175 175 175
15.890625000000 15.585937500000 1.382999420166 181 181 181
15.906250000000 15.585937500000 1.382999420166 176 176 176
15.921875000000 15.570312500000 1.381000518799 170 170 170
15.937500000000 15.570312500000 1.376998901367 167 167 167
15.953125000000 15.554687500000 1.380001068115 167 167 167
15.968750000000 15.546875000000 1.386001586914 178 178 178
15.968750000000 15.539062500000 1.388999938965 174 174 174
15.953125000000 11.960937500000 1.140998840332 149 149 149
15.921875000000 11.953125000000 1.125999450684 154 154 154
15.906250000000 11.937500000000 1.123001098633 154 154 154
15.890625000000 11.929687500000 1.139999389648 157 157 157
15.890625000000 11.929687500000 1.166999816895 157 157 157
15.875000000000 11.921875000000 1.167999267578 153 153 153
15.859375000000 11.914062500000 1.164001464844 145 145 145
15.828125000000 11.898437500000 1.159000396729 146 146 146
15.828125000000 11.898437500000 1.170001983643 154 154 154
15.812500000000 11.898437500000 1.186000823975 155 155 155
15.796875000000 11.890625000000 1.203998565674 164 164 164
15.796875000000 11.890625000000 1.214000701904 167 167 167
15.781250000000 11.882812500000 1.216999053955 160 160 160
15.765625000000 11.882812500000 1.229000091553 159 159 159
15.734375000000 11.867187500000 1.215999603271 138 138 138
15.734375000000 11.851562500000 1.210998535156 133 133 133
15.703125000000 11.851562500000 1.216999053955 135 135 135
15.703125000000 11.843750000000 1.228000640869 129 129 129
15.703125000000 11.843750000000 1.249000549316 148 148 148
15.687500000000 11.835937500000 1.250999450684 140 140 140
15.656250000000 11.820312500000 1.234001159668 149 149 149
15.968750000000 12.304687500000 1.188999176025 163 163 163
15.937500000000 12.289062500000 1.189998626709 160 160 160
15.921875000000 12.289062500000 1.194000244141 164 164 164
15.906250000000 12.273437500000 1.186000823975 165 165 165
15.906250000000 12.273437500000 1.182998657227 164 164 164
15.890625000000 12.257812500000 1.180999755859 167 167 167
15.875000000000 12.257812500000 1.185001373291 180 180 180
15.859375000000 12.242187500000 1.182998657227 192 192 192
15.843750000000 12.242187500000 1.189998626709 172 172 172
15.828125000000 12.234375000000 1.202999114990 169 169 169
15.796875000000 12.210937500000 1.187000274658 166 166 166
15.796875000000 12.210937500000 1.187000274658 150 150 150
15.796875000000 12.203125000000 1.196998596191 151 151 151
15.765625000000 12.195312500000 1.199001312256 159 159 159
15.765625000000 12.195312500000 1.215000152588 149 149 149
15.750000000000 12.179687500000 1.222999572754 151 151 151
15.718750000000 12.171875000000 1.213001251221 167 167 167
15.718750000000 12.164062500000 1.228000640869 173 173 173
15.703125000000 12.164062500000 1.234001159668 166 166 166
15.687500000000 12.156250000000 1.229999542236 162 162 162
15.656250000000 12.140625000000 1.226001739502 162 162 162
15.640625000000 12.132812500000 1.222999572754 166 166 166
15.625000000000 12.125000000000 1.237998962402 167 167 167
15.609375000000 12.117187500000 1.242000579834 160 160 160
15.609375000000 12.117187500000 1.256000518799 170 170 170
15.593750000000 12.101562500000 1.267002105713 165 165 165
15.562500000000 12.101562500000 1.261001586914 151 151 151
15.578125000000 12.085937500000 1.255001068115 153 153 153
15.546875000000 12.085937500000 1.264999389648 159 159 159
15.546875000000 12.070312500000 1.270000457764 158 158 158
15.515625000000 12.054687500000 1.256000518799 155 155 155
15.500000000000 12.046875000000 1.248001098633 151 151 151
15.484375000000 12.039062500000 1.270000457764 136 136 136
15.468750000000 12.039062500000 1.271999359131 143 143 143
15.468750000000 12.031250000000 1.291999816895 148 148 148
15.437500000000 12.023437500000 1.289001464844 154 154 154
15.421875000000 12.007812500000 1.285999298096 157 157 157
15.390625000000 11.992187500000 1.275001525879 150 150 150
15.390625000000 12.000000000000 1.302001953125 145 145 145
15.375000000000 11.992187500000 1.318000793457 146 146 146
15.359375000000 11.984375000000 1.319999694824 150 150 150
15.328125000000 11.960937500000 1.285999298096 150 150 150
15.296875000000 11.945312500000 1.278999328613 151 151 151
15.281250000000 11.929687500000 1.279998779297 151 151 151
15.265625000000 11.929687500000 1.282001495361 159 159 159
15.250000000000 11.929687500000 1.295001983643 151 151 151
15.234375000000 11.914062500000 1.288002014160 159 159 159
15.203125000000 11.898437500000 1.281002044678 179 179 179
15.203125000000 11.898437500000 1.298000335693 165 165 165
15.187500000000 11.882812500000 1.306999206543 165 165 165
15.156250000000 11.867187500000 1.298999786377 160 160 160
15.140625000000 11.867187500000 1.312000274658 162 162 162
15.125000000000 11.867187500000 1.324001312256 148 148 148
15.093750000000 11.843750000000 1.316001892090 144 144 144
15.078125000000 11.828125000000 1.302001953125 154 154 154
15.046875000000 11.820312500000 1.309001922607 155 155 155
15.031250000000 11.804687500000 1.305999755859 153 153 153
15.000000000000 11.789062500000 1.304000854492 160 160 160
14.968750000000 11.773437500000 1.291000366211 169 169 169
14.953125000000 11.773437500000 1.312000274658 154 154 154
14.953125000000 11.773437500000 1.324001312256 149 149 149
14.921875000000 11.757812500000 1.326999664307 153 153 153
14.906250000000 11.742187500000 1.327999114990 154 154 154
14.859375000000 11.710937500000 1.303001403809 158 158 158
14.828125000000 11.695312500000 1.284999847412 173 173 173
14.828125000000 11.695312500000 1.307998657227 174 174 174
14.796875000000 11.679687500000 1.306999206543 158 158 158
14.750000000000 11.656250000000 1.278999328613 160 160 160
14.734375000000 11.648437500000 1.293998718262 160 160 160
14.703125000000 11.632812500000 1.291000366211 157 157 157
14.703125000000 11.632812500000 1.319000244141 151 151 151
14.671875000000 11.617187500000 1.320999145508 156 156 156
14.609375000000 11.585937500000 1.286998748779 162 162 162
14.609375000000 11.570312500000 1.296001434326 168 168 168
14.578125000000 11.562500000000 1.303001403809 161 161 161
15.968750000000 12.625000000000 1.215999603271 145 145 145
15.953125000000 12.617187500000 1.210998535156 140 140 140
15.937500000000 12.601562500000 1.219001770020 145 145 145
15.921875000000 12.601562500000 1.219001770020 139 139 139
15.890625000000 12.585937500000 1.210998535156 137 137 137
15.890625000000 12.585937500000 1.199001312256 140 140 140
15.859375000000 12.570312500000 1.184001922607 157 157 157
15.843750000000 12.562500000000 1.192001342773 152 152 152
15.843750000000 12.554687500000 1.202999114990 143 143 143
15.828125000000 12.546875000000 1.210998535156 140 140 140
15.828125000000 12.539062500000 1.228000640869 130 130 130
15.828125000000 12.539062500000 1.241001129150 135 135 135
15.796875000000 12.523437500000 1.241001129150 138 138 138
15.765625000000 12.507812500000 1.215999603271 144 144 144
15.750000000000 12.507812500000 1.213001251221 150 150 150
15.734375000000 12.500000000000 1.227001190186 148 148 148
15.718750000000 12.492187500000 1.223999023438 147 147 147
15.703125000000 12.484375000000 1.227001190186 139 139 139
15.687500000000 12.476562500000 1.228000640869 147 147 147
15.671875000000 12.460937500000 1.209999084473 157 157 157
15.640625000000 12.453125000000 1.222999572754 153 153 153
15.640625000000 12.453125000000 1.247001647949 135 135 135
15.640625000000 12.453125000000 1.270000457764 148 148 148
15.625000000000 12.429687500000 1.263999938965 144 144 144
15.593750000000 12.429687500000 1.243000030518 154 154 154
15.578125000000 12.414062500000 1.238998413086 149 149 149
15.562500000000 12.414062500000 1.256000518799 153 153 153
15.546875000000 12.406250000000 1.257999420166 158 158 158
15.546875000000 12.406250000000 1.285999298096 166 166 166
15.546875000000 12.406250000000 1.302001953125 159 159 159
15.531250000000 12.398437500000 1.304000854492 155 155 155
15.484375000000 12.382812500000 1.282001495361 152 152 152
15.468750000000 12.367187500000 1.256000518799 154 154 154
15.453125000000 12.351562500000 1.255001068115 149 149 149
15.437500000000 12.351562500000 1.272998809814 150 150 150
15.421875000000 12.335937500000 1.270000457764 158 158 158
15.421875000000 12.328125000000 1.290000915527 159 159 159
15.421875000000 12.328125000000 1.312000274658 152 152 152
15.390625000000 12.320312500000 1.306999206543 153 153 153
15.359375000000 12.304687500000 1.285999298096 150 150 150
15.343750000000 12.289062500000 1.288002014160 167 167 167
15.328125000000 12.289062500000 1.295001983643 171 171 171
15.312500000000 12.273437500000 1.305999755859 165 165 165
15.281250000000 12.265625000000 1.305999755859 162 162 162
15.265625000000 12.257812500000 1.305999755859 164 164 164
15.250000000000 12.250000000000 1.313999176025 170 170 170
15.218750000000 12.226562500000 1.310001373291 166 166 166
15.203125000000 12.218750000000 1.300998687744 155 155 155
15.171875000000 12.210937500000 1.298000335693 155 155 155
15.140625000000 12.195312500000 1.285999298096 166 166 166
15.156250000000 12.179687500000 1.295001983643 171 171 171
15.125000000000 12.171875000000 1.298000335693 169 169 169
15.125000000000 12.171875000000 1.310001373291 147 147 147
15.093750000000 12.156250000000 1.318000793457 147 147 147
15.078125000000 12.148437500000 1.311000823975 164 164 164
15.046875000000 12.132812500000 1.318000793457 161 161 161
15.031250000000 12.125000000000 1.319999694824 158 158 158
14.984375000000 12.101562500000 1.303001403809 161 161 161
14.968750000000 12.101562500000 1.299999237061 169 169 169
14.937500000000 12.085937500000 1.298000335693 155 155 155
14.921875000000 12.062500000000 1.299999237061 166 166 166
14.890625000000 12.054687500000 1.305000305176 159 159 159
14.875000000000 12.039062500000 1.306999206543 159 159 159
14.859375000000 12.039062500000 1.319000244141 160 160 160
14.828125000000 12.023437500000 1.312999725342 158 158 158
14.812500000000 12.007812500000 1.325000762939 166 166 166
14.796875000000 12.000000000000 1.321998596191 163 163 163
14.765625000000 11.984375000000 1.319000244141 157 157 157
14.734375000000 11.968750000000 1.314998626709 162 162 162
14.703125000000 11.960937500000 1.311000823975 163 163 163
14.703125000000 11.945312500000 1.319999694824 162 162 162
14.671875000000 11.937500000000 1.321998596191 174 174 174
14.625000000000 11.914062500000 1.310001373291 156 156 156
14.609375000000 11.898437500000 1.317001342773 168 168 168
14.578125000000 11.882812500000 1.321998596191 167 167 167
14.546875000000 11.882812500000 1.324001312256 150 150 150
14.500000000000 11.851562500000 1.306999206543 175 175 175
14.468750000000 11.835937500000 1.309001922607 166 166 166
14.453125000000 11.820312500000 1.305999755859 169 169 169
14.421875000000 11.804687500000 1.304000854492 157 157 157
14.390625000000 11.789062500000 1.300998687744 164 164 164
14.359375000000 11.773437500000 1.302001953125 159 159 159
14.328125000000 11.757812500000 1.305999755859 158 158 158
14.281250000000 11.726562500000 1.295001983643 163 163 163
14.250000000000 11.710937500000 1.296001434326 178 178 178
14.234375000000 11.703125000000 1.309001922607 151 151 151
14.203125000000 11.679687500000 1.298000335693 169 169 169
14.171875000000 11.664062500000 1.303001403809 168 168 168
14.125000000000 11.648437500000 1.298999786377 158 158 158
14.093750000000 11.617187500000 1.298000335693 167 167 167
14.046875000000 11.601562500000 1.293998718262 163 163 163
14.000000000000 11.570312500000 1.279998779297 165 165 165
13.984375000000 11.554687500000 1.291999816895 176 176 176
13.921875000000 11.531250000000 1.279998779297 170 170 170
13.937500000000 11.539062500000 1.314998626709 198 198 198
13.843750000000 11.492187500000 1.277000427246 175 175 175
13.781250000000 11.453125000000 1.258998870850 157 157 157
13.734375000000 11.429687500000 1.261001586914 165 165 165
13.750000000000 11.445312500000 1.298000335693 182 182 182
13.718750000000 11.414062500000 1.296001434326 195 195 195
13.609375000000 11.367187500000 1.258998870850 186 186 186
13.562500000000 11.335937500000 1.256000518799 177 177 177
13.500000000000 11.320312500000 1.251998901367 174 174 174
13.484375000000 11.304687500000 1.271999359131 176 176 176
13.546875000000 11.335937500000 1.402000427246 216 216 216
15.953125000000 12.945312500000 1.392002105713 167 167 167
15.953125000000 12.929687500000 1.381999969482 164 164 164
15.937500000000 12.929687500000 1.388000488281 170 170 170
15.921875000000 12.921875000000 1.394001007080 174 174 174
15.906250000000 12.914062500000 1.389999389648 161 161 161
15.890625000000 12.906250000000 1.393001556396 164 164 164
15.875000000000 12.898437500000 1.393001556396 168 168 168
15.859375000000 12.898437500000 1.387001037598 170 170 170
15.843750000000 12.882812500000 1.386001586914 170 170 170
15.828125000000 12.882812500000 1.380001068115 168 168 168
15.812500000000 12.875000000000 1.388999938965 170 170 170
15.781250000000 12.859375000000 1.379001617432 162 162 162
15.765625000000 12.851562500000 1.368000030518 150 150 150
15.734375000000 12.835937500000 1.348999023438 147 147 147
15.734375000000 12.820312500000 1.318000793457 148 148 148
15.671875000000 12.789062500000 1.256000518799 150 150 150
15.656250000000 12.781250000000 1.258998870850 142 142 142
15.640625000000 12.773437500000 1.259998321533 149 149 149
15.625000000000 12.765625000000 1.261001586914 154 154 154
15.609375000000 12.757812500000 1.261001586914 140 140 140
15.593750000000 12.750000000000 1.270000457764 169 169 169
15.578125000000 12.742187500000 1.270999908447 163 163 163
15.562500000000 12.734375000000 1.278999328613 165 165 165
15.546875000000 12.726562500000 1.293998718262 155 155 155
15.531250000000 12.710937500000 1.291999816895 156 156 156
15.515625000000 12.710937500000 1.299999237061 159 159 159
15.484375000000 12.695312500000 1.295001983643 164 164 164
15.484375000000 12.695312500000 1.284999847412 163 163 163
15.468750000000 12.679687500000 1.297000885010 168 168 168
15.453125000000 12.671875000000 1.298999786377 163 163 163
15.421875000000 12.656250000000 1.291999816895 182 182 182
15.406250000000 12.648437500000 1.304000854492 159 159 159
15.406250000000 12.640625000000 1.305999755859 172 172 172
15.375000000000 12.632812500000 1.298000335693 152 152 152
15.359375000000 12.617187500000 1.295001983643 149 149 149
15.328125000000 12.609375000000 1.293998718262 151 151 151
15.328125000000 12.601562500000 1.312000274658 162 162 162
15.312500000000 12.601562500000 1.312999725342 157 157 157
15.281250000000 12.585937500000 1.305999755859 173 173 173
15.265625000000 12.578125000000 1.312999725342 184 184 184
15.265625000000 12.570312500000 1.319999694824 176 176 176
15.234375000000 12.554687500000 1.319000244141 165 165 165
15.218750000000 12.539062500000 1.319000244141 170 170 170
15.203125000000 12.539062500000 1.327999114990 168 168 168
15.187500000000 12.523437500000 1.334999084473 178 178 178
15.171875000000 12.523437500000 1.340000152588 158 158 158
15.125000000000 12.500000000000 1.328998565674 170 170 170
15.109375000000 12.492187500000 1.333999633789 165 165 165
15.078125000000 12.476562500000 1.326000213623 166 166 166
15.062500000000 12.468750000000 1.337001800537 171 171 171
15.062500000000 12.460937500000 1.334999084473 169 169 169
15.031250000000 12.445312500000 1.335998535156 168 168 168
15.015625000000 12.445312500000 1.341999053955 160 160 160
14.984375000000 12.429687500000 1.340999603271 159 159 159
14.984375000000 12.421875000000 1.341999053955 164 164 164
14.953125000000 12.406250000000 1.334999084473 158 158 158
14.921875000000 12.398437500000 1.335998535156 174 174 174
14.890625000000 12.382812500000 1.338001251221 163 163 163
14.859375000000 12.367187500000 1.332000732422 167 167 167
14.843750000000 12.351562500000 1.333999633789 167 167 167
14.812500000000 12.335937500000 1.335998535156 163 163 163
14.781250000000 12.320312500000 1.338001251221 160 160 160
14.765625000000 12.312500000000 1.335998535156 171 171 171
14.734375000000 12.304687500000 1.339000701904 149 149 149
14.718750000000 12.281250000000 1.330001831055 158 158 158
14.687500000000 12.265625000000 1.320999145508 171 171 171
14.656250000000 12.250000000000 1.317001342773 167 167 167
14.625000000000 12.226562500000 1.316001892090 168 168 168
14.593750000000 12.210937500000 1.316001892090 171 171 171
14.546875000000 12.195312500000 1.304000854492 149 149 149
14.515625000000 12.179687500000 1.305999755859 161 161 161
14.500000000000 12.164062500000 1.304000854492 162 162 162
14.468750000000 12.148437500000 1.303001403809 163 163 163
14.421875000000 12.117187500000 1.296001434326 156 156 156
14.390625000000 12.117187500000 1.300998687744 163 163 163
14.390625000000 12.101562500000 1.304000854492 161 161 161
14.343750000000 12.085937500000 1.302001953125 160 160 160
14.312500000000 12.062500000000 1.299999237061 146 146 146
14.296875000000 12.046875000000 1.303001403809 161 161 161
14.265625000000 12.031250000000 1.305000305176 167 167 167
14.234375000000 12.007812500000 1.306999206543 154 154 154
14.171875000000 11.992187500000 1.298999786377 158 158 158
14.140625000000 11.976562500000 1.298999786377 162 162 162
14.109375000000 11.960937500000 1.298999786377 165 165 165
14.062500000000 11.945312500000 1.293998718262 156 156 156
14.031250000000 11.906250000000 1.283000946045 161 161 161
14.000000000000 11.890625000000 1.285999298096 156 156 156
13.968750000000 11.875000000000 1.290000915527 165 165 165
13.968750000000 11.882812500000 1.326999664307 193 193 193
13.937500000000 11.859375000000 1.326999664307 185 185 185
13.921875000000 11.851562500000 1.354000091553 190 190 190
13.921875000000 11.859375000000 1.381999969482 205 205 205
13.921875000000 11.859375000000 1.409999847412 204 204 204
13.937500000000 11.867187500000 1.443000793457 210 210 210
13.937500000000 11.867187500000 1.477001190186 208 208 208
13.906250000000 11.851562500000 1.485000610352 214 214 214
13.906250000000 11.851562500000 1.508998870850 213 213 213
13.890625000000 11.843750000000 1.524002075195 211 211 211
13.875000000000 11.835937500000 1.545001983643 210 210 210
13.828125000000 11.812500000000 1.539001464844 228 228 228
13.359375000000 11.562500000000 1.262001037598 192 192 192
13.328125000000 11.539062500000 1.267002105713 189 189 189
13.312500000000 11.523437500000 1.283000946045 187 187 187
13.296875000000 11.523437500000 1.306999206543 176 176 176
13.703125000000 11.734375000000 1.590000152588 178 178 178
13.171875000000 11.453125000000 1.295001983643 165 165 165
13.265625000000 11.507812500000 1.376998901367 198 198 198
13.203125000000 11.468750000000 1.375999450684 212 212 212
13.203125000000 11.468750000000 1.407001495361 217 217 217
12.984375000000 11.343750000000 1.312000274658 199 199 199
12.968750000000 11.335937500000 1.338001251221 190 190 190
12.843750000000 11.273437500000 1.298000335693 206 206 206
12.890625000000 11.289062500000 1.354000091553 210 210 210
12.781250000000 11.234375000000 1.332000732422 210 210 210
12.765625000000 11.226562500000 1.355998992920 216 216 216
12.703125000000 11.195312500000 1.359001159668 208 208 208
12.625000000000 11.148437500000 1.341999053955 195 195 195
12.609375000000 11.132812500000 1.368000030518 194 194 194
12.671875000000 11.179687500000 1.839000701904 131 131 131
12.609375000000 11.148437500000 1.840000152588 178 178 178
12.578125000000 11.132812500000 1.863998413086 186 186 186
12.421875000000 11.062500000000 1.840000152588 214 214 214
15.968750000000 13.265625000000 1.388999938965 163 163 163
15.953125000000 13.257812500000 1.392002105713 164 164 164
15.937500000000 13.250000000000 1.388000488281 168 168 168
15.921875000000 13.242187500000 1.389999389648 163 163 163
15.906250000000 13.242187500000 1.386001586914 164 164 164
15.890625000000 13.226562500000 1.390998840332 158 158 158
15.875000000000 13.226562500000 1.389999389648 161 161 161
15.859375000000 13.210937500000 1.394001007080 171 171 171
15.828125000000 13.203125000000 1.388000488281 165 165 165
15.828125000000 13.195312500000 1.390998840332 170 170 170
15.812500000000 13.187500000000 1.388999938965 163 163 163
15.796875000000 13.179687500000 1.384998321533 165 165 165
15.781250000000 13.164062500000 1.380001068115 158 158 158
15.765625000000 13.164062500000 1.397998809814 167 167 167
15.750000000000 13.148437500000 1.395999908447 168 168 168
15.734375000000 13.148437500000 1.394001007080 165 165 165
15.718750000000 13.132812500000 1.393001556396 165 165 165
15.703125000000 13.132812500000 1.388999938965 160 160 160
15.671875000000 13.117187500000 1.389999389648 162 162 162
15.656250000000 13.109375000000 1.389999389648 157 157 157
15.656250000000 13.101562500000 1.392002105713 165 165 165
15.640625000000 13.093750000000 1.393001556396 167 167 167
15.625000000000 13.085937500000 1.388999938965 163 163 163
15.609375000000 13.078125000000 1.393001556396 161 161 161
15.593750000000 13.070312500000 1.392002105713 166 166 166
15.578125000000 13.062500000000 1.401000976563 174 174 174
15.546875000000 13.054687500000 1.388999938965 171 171 171
15.531250000000 13.039062500000 1.383998870850 166 166 166
15.484375000000 13.007812500000 1.332000732422 161 161 161
15.468750000000 13.000000000000 1.332000732422 164 164 164
15.437500000000 12.984375000000 1.332000732422 160 160 160
15.421875000000 12.976562500000 1.337001800537 155 155 155
15.406250000000 12.976562500000 1.340999603271 168 168 168
15.390625000000 12.960937500000 1.351001739502 173 173 173
15.359375000000 12.945312500000 1.339000701904 165 165 165
15.359375000000 12.945312500000 1.352001190186 169 169 169
15.328125000000 12.937500000000 1.347000122070 167 167 167
15.328125000000 12.929687500000 1.351001739502 184 184 184
15.312500000000 12.914062500000 1.347000122070 179 179 179
15.296875000000 12.914062500000 1.356998443604 169 169 169
15.281250000000 12.898437500000 1.354999542236 171 171 171
15.265625000000 12.898437500000 1.358001708984 179 179 179
15.234375000000 12.882812500000 1.354000091553 169 169 169
15.218750000000 12.875000000000 1.359001159668 164 164 164
15.187500000000 12.859375000000 1.354999542236 166 166 166
