10.093750000000 22.882812500000 4.946002960205 144 144 144
10.000000000000 22.890625000000 4.885997772217 138 138 138
9.906250000000 22.890625000000 4.826999664307 138 138 138
9.906250000000 22.890625000000 4.755001068115 154 154 154
9.171875000000 22.914062500000 4.759998321533 143 143 143
9.125000000000 22.914062500000 4.686000823975 145 145 145
9.171875000000 22.914062500000 4.607997894287 139 139 139
9.250000000000 22.906250000000 4.522998809814 123 123 123
9.265625000000 22.898437500000 4.446002960205 139 139 139
8.406250000000 22.929687500000 4.434001922607 114 114 114
8.468750000000 22.929687500000 4.350002288818 142 142 142
9.078125000000 22.914062500000 4.232997894287 169 169 169
10.000000000000 22.875000000000 4.103000640869 201 201 201
10.390625000000 22.867187500000 4.014003753662 151 151 151
10.375000000000 22.867187500000 3.947002410889 150 150 150
10.156250000000 22.875000000000 3.885997772217 147 147 147
9.921875000000 22.882812500000 3.824001312256 136 136 136
9.921875000000 22.882812500000 3.753002166748 143 143 143
9.937500000000 22.882812500000 3.682003021240 165 165 165
9.390625000000 22.898437500000 3.618999481201 140 140 140
9.375000000000 22.890625000000 3.545001983643 144 144 144
9.531250000000 22.890625000000 3.469997406006 141 141 141
9.562500000000 22.882812500000 3.396999359131 139 139 139
9.375000000000 22.890625000000 3.323001861572 153 153 153
9.500000000000 22.882812500000 3.250003814697 153 153 153
9.593750000000 22.875000000000 3.177997589111 152 152 152
9.250000000000 22.890625000000 3.097003936768 136 136 136
9.359375000000 22.898437500000 3.024997711182 137 137 137
9.562500000000 22.882812500000 2.958003997803 145 145 145
9.687500000000 22.882812500000 2.891002655029 144 144 144
9.765625000000 22.882812500000 2.822002410889 142 142 142
9.796875000000 22.882812500000 2.752002716064 141 141 141
9.781250000000 22.875000000000 2.678997039795 125 125 125
9.843750000000 22.875000000000 2.609996795654 142 142 142
9.843750000000 22.875000000000 2.538002014160 92 92 92
6.687500000000 22.992187500000 7.816997528076 76 76 76
5.421875000000 23.039062500000 7.552997589111 53 53 53
5.421875000000 23.023437500000 7.447002410889 22 22 22
9.578125000000 22.734375000000 9.286998748779 137 137 137
9.515625000000 22.726562500000 9.215000152588 127 127 127
9.468750000000 22.726562500000 9.148998260498 120 120 120
9.421875000000 22.734375000000 9.084003448486 140 140 140
9.390625000000 22.742187500000 9.012996673584 143 143 143
9.375000000000 22.734375000000 8.932003021240 148 148 148
9.125000000000 22.726562500000 8.676998138428 135 135 135
9.265625000000 22.734375000000 8.536998748779 125 125 125
9.265625000000 22.726562500000 8.446002960205 117 117 117
9.265625000000 22.726562500000 8.357997894287 128 128 128
9.281250000000 22.742187500000 8.270999908447 143 143 143
9.265625000000 22.726562500000 8.187000274658 150 150 150
8.953125000000 22.742187500000 8.219997406006 147 147 147
9.953125000000 22.710937500000 7.779003143311 150 150 150
9.984375000000 22.703125000000 7.685001373291 135 135 135
10.015625000000 22.710937500000 7.593997955322 131 131 131
10.015625000000 22.710937500000 7.516002655029 124 124 124
10.000000000000 22.710937500000 7.448001861572 127 127 127
10.000000000000 22.710937500000 7.368999481201 132 132 132
9.953125000000 22.703125000000 7.302997589111 144 144 144
9.312500000000 22.726562500000 7.423000335693 132 132 132
9.359375000000 22.726562500000 7.329998016357 130 130 130
9.359375000000 22.726562500000 7.250003814697 122 122 122
9.437500000000 22.726562500000 7.145000457764 131 131 131
9.359375000000 22.726562500000 7.087001800537 216 216 216
8.765625000000 22.742187500000 7.090000152588 209 209 209
8.859375000000 22.726562500000 6.979000091553 128 128 128
8.734375000000 22.734375000000 6.931003570557 138 138 138
8.796875000000 22.726562500000 6.834003448486 107 107 107
8.687500000000 22.734375000000 6.775997161865 73 73 73
5.703125000000 22.835937500000 7.419002532959 115 115 115
5.640625000000 22.835937500000 7.338001251221 125 125 125
8.718750000000 22.742187500000 6.520000457764 110 110 110
8.812500000000 22.734375000000 6.421001434326 118 118 118
8.828125000000 22.734375000000 6.338001251221 119 119 119
8.859375000000 22.726562500000 6.247997283936 119 119 119
9.328125000000 22.710937500000 6.070003509521 140 140 140
9.453125000000 22.710937500000 5.965000152588 133 133 133
9.515625000000 22.710937500000 5.879001617432 130 130 130
9.546875000000 22.703125000000 5.796001434326 140 140 140
9.578125000000 22.703125000000 5.714000701904 135 135 135
9.437500000000 22.710937500000 5.662998199463 123 123 123
9.390625000000 22.710937500000 5.595996856689 139 139 139
9.546875000000 22.703125000000 5.495998382568 145 145 145
9.687500000000 22.703125000000 5.395999908447 130 130 130
9.687500000000 22.703125000000 5.321002960205 141 141 141
9.359375000000 22.710937500000 5.295001983643 174 174 174
10.078125000000 22.679687500000 5.119998931885 192 192 192
10.218750000000 22.679687500000 5.029003143311 138 138 138
10.234375000000 22.679687500000 4.958003997803 154 154 154
9.953125000000 22.687500000000 4.920001983643 155 155 155
9.562500000000 22.695312500000 4.895000457764 138 138 138
9.437500000000 22.710937500000 4.834003448486 144 144 144
9.250000000000 22.710937500000 4.780002593994 123 123 123
9.671875000000 22.695312500000 4.662998199463 147 147 147
9.687500000000 22.703125000000 4.587001800537 145 145 145
9.281250000000 22.703125000000 4.551998138428 138 138 138
9.281250000000 22.703125000000 4.476001739502 142 142 142
9.296875000000 22.710937500000 4.397998809814 127 127 127
9.406250000000 22.695312500000 4.315998077393 218 218 218
9.593750000000 22.695312500000 4.229999542236 146 146 146
9.281250000000 22.703125000000 4.174999237061 155 155 155
9.093750000000 22.710937500000 4.109996795654 136 136 136
9.265625000000 22.695312500000 4.025997161865 132 132 132
9.468750000000 22.695312500000 3.941997528076 132 132 132
9.687500000000 22.695312500000 3.859996795654 145 145 145
9.859375000000 22.679687500000 3.783000946045 147 147 147
9.796875000000 22.679687500000 3.713001251221 143 143 143
9.796875000000 22.679687500000 3.642002105713 159 159 159
9.375000000000 22.695312500000 3.575000762939 147 147 147
9.390625000000 22.695312500000 3.500003814697 132 132 132
9.500000000000 22.695312500000 3.425998687744 145 145 145
9.453125000000 22.695312500000 3.353000640869 169 169 169
8.953125000000 22.710937500000 3.272998809814 147 147 147
8.937500000000 22.703125000000 3.196002960205 138 138 138
9.328125000000 22.695312500000 3.128002166748 133 133 133
9.468750000000 22.687500000000 3.058002471924 144 144 144
9.640625000000 22.679687500000 2.990001678467 142 142 142
9.671875000000 22.687500000000 2.919002532959 143 143 143
9.781250000000 22.679687500000 2.852001190186 142 142 142
9.640625000000 22.679687500000 2.771999359131 123 123 123
9.453125000000 22.679687500000 2.687999725342 94 94 94
5.640625000000 22.835937500000 7.746997833252 17 17 17
5.843750000000 22.820312500000 7.587001800537 25 25 25
5.921875000000 22.820312500000 7.467998504639 64 64 64
9.984375000000 22.523437500000 9.376003265381 141 141 141
10.000000000000 22.531250000000 9.284000396729 152 152 152
9.921875000000 22.523437500000 9.232997894287 127 127 127
9.718750000000 22.531250000000 9.248996734619 131 131 131
9.703125000000 22.531250000000 9.165996551514 130 130 130
9.687500000000 22.523437500000 9.088001251221 154 154 154
9.421875000000 22.539062500000 9.106998443604 189 189 189
9.453125000000 22.539062500000 8.747997283936 7 7 7
9.437500000000 22.539062500000 8.664997100830 133 133 133
9.437500000000 22.539062500000 8.577999114990 129 129 129
9.531250000000 22.539062500000 8.462001800537 123 123 123
9.578125000000 22.539062500000 8.357997894287 130 130 130
9.609375000000 22.523437500000 8.259998321533 132 132 132
9.578125000000 22.539062500000 8.190998077393 135 135 135
10.250000000000 22.507812500000 7.853000640869 180 180 180
10.468750000000 22.507812500000 7.699001312256 148 148 148
10.625000000000 22.492187500000 7.562999725342 139 139 139
10.593750000000 22.492187500000 7.493000030518 147 147 147
10.281250000000 22.492187500000 7.525997161865 136 136 136
10.296875000000 22.507812500000 7.447002410889 135 135 135
10.171875000000 22.507812500000 7.411998748779 133 133 133
10.187500000000 22.507812500000 7.329998016357 131 131 131
10.171875000000 22.507812500000 7.261997222900 135 135 135
10.078125000000 22.507812500000 7.212001800537 154 154 154
9.953125000000 22.507812500000 7.172000885010 199 199 199
9.265625000000 22.539062500000 7.302997589111 131 131 131
9.265625000000 22.531250000000 7.224002838135 118 118 118
9.296875000000 22.539062500000 7.137996673584 128 128 128
9.328125000000 22.539062500000 7.043003082275 130 130 130
9.296875000000 22.531250000000 6.974002838135 133 133 133
8.671875000000 22.554687500000 7.060001373291 91 91 91
8.968750000000 22.531250000000 6.894001007080 138 138 138
8.984375000000 22.539062500000 6.811000823975 127 127 127
9.046875000000 22.531250000000 6.711002349854 149 149 149
8.828125000000 22.539062500000 6.688999176025 135 135 135
8.671875000000 22.546875000000 6.640003204346 47 47 47
9.015625000000 22.531250000000 6.477001190186 128 128 128
9.171875000000 22.531250000000 6.366001129150 136 136 136
9.234375000000 22.539062500000 6.271999359131 141 141 141
9.078125000000 22.523437500000 6.227001190186 136 136 136
9.187500000000 22.523437500000 6.123996734619 139 139 139
9.187500000000 22.523437500000 6.046001434326 141 141 141
9.140625000000 22.531250000000 5.977001190186 135 135 135
8.984375000000 22.531250000000 5.926998138428 126 126 126
8.937500000000 22.531250000000 5.857997894287 125 125 125
8.906250000000 22.539062500000 5.785999298096 124 124 124
8.921875000000 22.531250000000 5.703998565674 122 122 122
8.921875000000 22.523437500000 5.621997833252 125 125 125
9.000000000000 22.523437500000 5.530002593994 133 133 133
9.000000000000 22.523437500000 5.452999114990 137 137 137
9.062500000000 22.523437500000 5.366001129150 139 139 139
8.984375000000 22.531250000000 5.298999786377 151 151 151
8.921875000000 22.523437500000 5.229999542236 162 162 162
10.203125000000 22.484375000000 4.983997344971 224 224 224
9.140625000000 22.523437500000 5.047000885010 143 143 143
9.343750000000 22.523437500000 4.943996429443 136 136 136
9.421875000000 22.507812500000 4.861003875732 139 139 139
9.515625000000 22.500000000000 4.774997711182 134 134 134
9.593750000000 22.507812500000 4.696002960205 137 137 137
9.578125000000 22.507812500000 4.622997283936 147 147 147
9.468750000000 22.507812500000 4.559001922607 137 137 137
9.359375000000 22.515625000000 4.493000030518 136 136 136
9.390625000000 22.507812500000 4.417003631592 133 133 133
9.468750000000 22.507812500000 4.336002349854 141 141 141
9.500000000000 22.507812500000 4.258998870850 145 145 145
9.484375000000 22.507812500000 4.187999725342 138 138 138
9.046875000000 22.523437500000 4.137996673584 163 163 163
8.906250000000 22.523437500000 4.068996429443 156 156 156
9.296875000000 22.507812500000 3.974002838135 147 147 147
9.468750000000 22.507812500000 3.893001556396 132 132 132
9.515625000000 22.500000000000 3.817996978760 150 150 150
9.546875000000 22.500000000000 3.743999481201 141 141 141
9.578125000000 22.492187500000 3.670001983643 144 144 144
9.593750000000 22.492187500000 3.597003936768 140 140 140
9.593750000000 22.492187500000 3.523998260498 150 150 150
9.515625000000 22.500000000000 3.451000213623 145 145 145
9.390625000000 22.507812500000 3.377002716064 132 132 132
8.625000000000 22.523437500000 3.296001434326 147 147 147
8.359375000000 22.523437500000 3.213001251221 93 93 93
8.968750000000 22.507812500000 3.145999908447 132 132 132
9.281250000000 22.507812500000 3.077999114990 130 130 130
9.640625000000 22.492187500000 3.015003204346 138 138 138
9.828125000000 22.492187500000 2.950000762939 138 138 138
9.906250000000 22.484375000000 2.881000518799 139 139 139
9.953125000000 22.484375000000 2.812999725342 141 141 141
9.906250000000 22.484375000000 2.739002227783 139 139 139
9.734375000000 22.492187500000 2.657001495361 43 43 43
5.921875000000 22.632812500000 7.798000335693 31 31 31
10.234375000000 22.320312500000 9.453998565674 151 151 151
10.203125000000 22.320312500000 9.390003204346 167 167 167
10.093750000000 22.328125000000 9.357997894287 135 135 135
9.968750000000 22.335937500000 9.337001800537 134 134 134
9.843750000000 22.335937500000 9.300998687744 129 129 129
9.781250000000 22.335937500000 9.246997833252 162 162 162
9.546875000000 22.335937500000 8.739002227783 193 193 193
9.703125000000 22.320312500000 8.590999603271 134 134 134
10.031250000000 22.320312500000 8.371997833252 154 154 154
9.781250000000 22.335937500000 8.390003204346 132 132 132
9.671875000000 22.335937500000 8.352001190186 137 137 137
9.593750000000 22.335937500000 8.304996490479 145 145 145
10.531250000000 22.304687500000 7.861003875732 220 220 220
10.718750000000 22.296875000000 7.709003448486 137 137 137
10.765625000000 22.289062500000 7.612003326416 140 140 140
10.765625000000 22.289062500000 7.540996551514 145 145 145
10.703125000000 22.296875000000 7.490001678467 140 140 140
10.531250000000 22.296875000000 7.473003387451 148 148 148
10.468750000000 22.304687500000 7.424999237061 143 143 143
10.156250000000 22.312500000000 7.451999664307 164 164 164
10.031250000000 22.320312500000 7.412998199463 168 168 168
9.250000000000 22.335937500000 7.591999053955 133 133 133
9.312500000000 22.335937500000 7.487003326416 125 125 125
9.406250000000 22.335937500000 7.372997283936 134 134 134
9.437500000000 22.335937500000 7.284999847412 126 126 126
9.390625000000 22.335937500000 7.224002838135 129 129 129
9.390625000000 22.335937500000 7.136997222900 134 134 134
9.328125000000 22.335937500000 7.075000762939 140 140 140
8.343750000000 22.367187500000 7.271999359131 47 47 47
8.187500000000 22.367187500000 7.227001190186 77 77 77
8.218750000000 22.367187500000 7.129001617432 96 96 96
8.328125000000 22.351562500000 7.015003204346 99 99 99
8.515625000000 22.351562500000 6.883998870850 126 126 126
8.609375000000 22.359375000000 6.773998260498 134 134 134
8.906250000000 22.335937500000 6.621997833252 149 149 149
9.250000000000 22.335937500000 6.456996917725 128 128 128
9.234375000000 22.328125000000 6.381999969482 134 134 134
9.171875000000 22.335937500000 6.314998626709 135 135 135
9.015625000000 22.335937500000 6.270999908447 140 140 140
9.093750000000 22.335937500000 6.175998687744 130 130 130
9.140625000000 22.328125000000 6.084003448486 139 139 139
9.093750000000 22.320312500000 6.016002655029 142 142 142
8.937500000000 22.335937500000 5.968997955322 132 132 132
8.796875000000 22.343750000000 5.915996551514 141 141 141
8.781250000000 22.335937500000 5.837001800537 138 138 138
8.953125000000 22.335937500000 5.728000640869 139 139 139
9.046875000000 22.328125000000 5.633998870850 134 134 134
9.078125000000 22.320312500000 5.548999786377 145 145 145
9.140625000000 22.328125000000 5.462001800537 135 135 135
9.109375000000 22.328125000000 5.391002655029 138 138 138
9.093750000000 22.320312500000 5.313999176025 136 136 136
9.093750000000 22.320312500000 5.236003875732 139 139 139
9.343750000000 22.320312500000 5.129001617432 146 146 146
9.375000000000 22.320312500000 5.048999786377 135 135 135
9.484375000000 22.312500000000 4.958003997803 147 147 147
9.562500000000 22.304687500000 4.877002716064 140 140 140
9.593750000000 22.304687500000 4.797000885010 141 141 141
9.609375000000 22.304687500000 4.722003936768 141 141 141
9.687500000000 22.304687500000 4.642002105713 140 140 140
9.718750000000 22.304687500000 4.566997528076 141 141 141
9.734375000000 22.304687500000 4.493000030518 140 140 140
9.687500000000 22.304687500000 4.423999786377 143 143 143
9.109375000000 22.320312500000 4.392002105713 152 152 152
8.578125000000 22.335937500000 4.352001190186 104 104 104
9.046875000000 22.320312500000 4.244998931885 143 143 143
8.953125000000 22.320312500000 4.174999237061 154 154 154
8.281250000000 22.343750000000 4.131000518799 159 159 159
8.265625000000 22.335937500000 4.051998138428 110 110 110
9.531250000000 22.304687500000 3.921001434326 133 133 133
9.609375000000 22.296875000000 3.844997406006 146 146 146
9.609375000000 22.296875000000 3.771999359131 146 146 146
9.656250000000 22.289062500000 3.698001861572 143 143 143
9.656250000000 22.289062500000 3.626003265381 141 141 141
9.640625000000 22.289062500000 3.552997589111 135 135 135
9.359375000000 22.304687500000 3.481998443604 156 156 156
9.390625000000 22.304687500000 3.408000946045 144 144 144
8.656250000000 22.328125000000 3.327999114990 62 62 62
8.640625000000 22.320312500000 3.171001434326 116 116 116
8.968750000000 22.320312500000 3.101001739502 135 135 135
9.343750000000 22.304687500000 3.035999298096 144 144 144
9.390625000000 22.304687500000 2.963001251221 143 143 143
9.562500000000 22.289062500000 2.896999359131 144 144 144
9.984375000000 22.273437500000 2.842998504639 143 143 143
10.171875000000 22.273437500000 2.782001495361 158 158 158
10.250000000000 22.273437500000 2.717998504639 130 130 130
5.796875000000 22.437500000000 7.980998992920 91 91 91
5.781250000000 22.445312500000 7.882999420166 55 55 55
9.750000000000 22.132812500000 9.308002471924 183 183 183
10.109375000000 22.117187500000 8.548000335693 143 143 143
9.937500000000 22.125000000000 8.533000946045 131 131 131
10.125000000000 22.117187500000 8.378002166748 146 146 146
9.734375000000 22.117187500000 8.451999664307 140 140 140
9.875000000000 22.117187500000 8.312999725342 139 139 139
9.687500000000 22.117187500000 8.308002471924 129 129 129
9.453125000000 22.132812500000 8.313999176025 138 138 138
9.453125000000 22.132812500000 8.222003936768 134 134 134
11.000000000000 22.085937500000 7.568996429443 200 200 200
11.031250000000 22.085937500000 7.479999542236 159 159 159
10.968750000000 22.085937500000 7.435001373291 199 199 199
9.109375000000 22.140625000000 8.011997222900 189 189 189
8.531250000000 22.156250000000 8.130001068115 129 129 129
8.546875000000 22.164062500000 8.033000946045 108 108 108
9.453125000000 22.125000000000 7.650997161865 133 133 133
9.421875000000 22.132812500000 7.574001312256 126 126 126
9.468750000000 22.117187500000 7.475002288818 137 137 137
9.453125000000 22.117187500000 7.399997711182 140 140 140
9.515625000000 22.125000000000 7.300998687744 169 169 169
9.531250000000 22.117187500000 7.214000701904 162 162 162
9.562500000000 22.117187500000 7.125003814697 12 12 12
8.171875000000 22.164062500000 7.451999664307 103 103 103
5.984375000000 22.226562500000 7.981998443604 116 116 116
8.125000000000 22.164062500000 7.286998748779 83 83 83
8.187500000000 22.164062500000 7.182003021240 71 71 71
8.250000000000 22.164062500000 7.084003448486 75 75 75
8.250000000000 22.156250000000 6.991001129150 99 99 99
8.265625000000 22.156250000000 6.901996612549 86 86 86
8.281250000000 22.148437500000 6.812999725342 109 109 109
8.296875000000 22.148437500000 6.723003387451 116 116 116
8.250000000000 22.148437500000 6.654003143311 11 11 11
8.265625000000 22.156250000000 6.562000274658 76 76 76
8.281250000000 22.148437500000 6.472003936768 127 127 127
8.781250000000 22.132812500000 6.283000946045 150 150 150
9.000000000000 22.132812500000 6.158000946045 147 147 147
9.187500000000 22.132812500000 6.039997100830 134 134 134
9.156250000000 22.117187500000 5.965999603271 142 142 142
9.187500000000 22.117187500000 5.881000518799 134 134 134
9.234375000000 22.125000000000 5.798999786377 133 133 133
9.203125000000 22.125000000000 5.725002288818 147 147 147
9.078125000000 22.117187500000 5.669002532959 139 139 139
8.937500000000 22.117187500000 5.615001678467 150 150 150
8.656250000000 22.132812500000 5.578998565674 148 148 148
8.625000000000 22.132812500000 5.505001068115 114 114 114
8.703125000000 22.132812500000 5.412998199463 135 135 135
8.734375000000 22.132812500000 5.329998016357 135 135 135
9.921875000000 22.085937500000 5.089000701904 150 150 150
10.328125000000 22.085937500000 4.963001251221 153 153 153
10.343750000000 22.085937500000 4.890003204346 158 158 158
10.234375000000 22.078125000000 4.833003997803 151 151 151
9.968750000000 22.085937500000 4.795001983643 155 155 155
9.546875000000 22.101562500000 4.769001007080 131 131 131
9.281250000000 22.101562500000 4.720996856689 133 133 133
9.734375000000 22.101562500000 4.603000640869 136 136 136
9.812500000000 22.085937500000 4.522998809814 142 142 142
9.828125000000 22.085937500000 4.449001312256 159 159 159
9.218750000000 22.109375000000 4.424999237061 169 169 169
9.078125000000 22.117187500000 4.358997344971 163 163 163
9.046875000000 22.117187500000 4.284000396729 177 177 177
9.218750000000 22.109375000000 4.199001312256 167 167 167
9.296875000000 22.101562500000 4.118999481201 157 157 157
9.328125000000 22.101562500000 4.042003631592 148 148 148
9.390625000000 22.101562500000 3.965999603271 140 140 140
9.656250000000 22.085937500000 3.881000518799 149 149 149
9.734375000000 22.093750000000 3.807003021240 140 140 140
9.750000000000 22.085937500000 3.733997344971 150 150 150
9.671875000000 22.085937500000 3.662998199463 179 179 179
9.734375000000 22.093750000000 3.590000152588 148 148 148
9.734375000000 22.085937500000 3.518001556396 144 144 144
8.859375000000 22.101562500000 3.448001861572 123 123 123
8.921875000000 22.109375000000 3.370998382568 115 115 115
8.875000000000 22.101562500000 3.294002532959 85 85 85
8.687500000000 22.117187500000 3.134998321533 85 85 85
8.859375000000 22.101562500000 3.062000274658 123 123 123
8.921875000000 22.101562500000 2.987003326416 126 126 126
8.984375000000 22.101562500000 2.911998748779 120 120 120
9.046875000000 22.101562500000 2.838001251221 147 147 147
9.140625000000 22.101562500000 2.767002105713 137 137 137
9.187500000000 22.093750000000 2.693996429443 138 138 138
9.187500000000 22.093750000000 2.618999481201 122 122 122
8.281250000000 22.164062500000 7.504001617432 111 111 111
5.828125000000 22.234375000000 7.923999786377 66 66 66
5.468750000000 22.242187500000 7.401996612549 15 15 15
9.140625000000 21.929687500000 8.564998626709 46 46 46
9.171875000000 21.929687500000 8.466999053955 117 117 117
9.140625000000 21.929687500000 8.387996673584 130 130 130
9.109375000000 21.929687500000 8.314998626709 133 133 133
9.093750000000 21.929687500000 8.231998443604 133 133 133
8.984375000000 21.929687500000 8.197002410889 148 148 148
8.890625000000 21.929687500000 8.139003753662 152 152 152
9.671875000000 21.906250000000 7.780002593994 225 225 225
9.796875000000 21.898437500000 7.654003143311 138 138 138
9.859375000000 21.898437500000 7.560001373291 138 138 138
9.750000000000 21.898437500000 7.510997772217 138 138 138
9.578125000000 21.906250000000 7.484996795654 153 153 153
9.687500000000 21.898437500000 7.371997833252 147 147 147
9.687500000000 21.898437500000 7.293003082275 152 152 152
9.562500000000 21.898437500000 7.250003814697 162 162 162
9.375000000000 21.914062500000 7.066997528076 140 140 140
8.000000000000 21.945312500000 7.369998931885 84 84 84
9.562500000000 21.898437500000 6.856998443604 206 206 206
9.453125000000 21.898437500000 6.804996490479 16 16 16
9.562500000000 21.898437500000 6.697002410889 191 191 191
8.187500000000 21.945312500000 6.973003387451 67 67 67
8.234375000000 21.937500000000 6.877002716064 85 85 85
8.218750000000 21.945312500000 6.792003631592 102 102 102
8.281250000000 21.929687500000 6.693996429443 104 104 104
8.312500000000 21.937500000000 6.600002288818 86 86 86
9.343750000000 21.898437500000 6.130001068115 132 132 132
9.390625000000 21.898437500000 6.040996551514 134 134 134
9.453125000000 21.898437500000 5.954998016357 138 138 138
9.187500000000 21.914062500000 5.925998687744 143 143 143
9.125000000000 21.906250000000 5.859996795654 135 135 135
9.109375000000 21.914062500000 5.785999298096 138 138 138
9.000000000000 21.914062500000 5.728000640869 134 134 134
8.828125000000 21.914062500000 5.675998687744 134 134 134
8.750000000000 21.914062500000 5.609996795654 150 150 150
8.859375000000 21.906250000000 5.511997222900 135 135 135
9.031250000000 21.914062500000 5.409000396729 137 137 137
9.796875000000 21.882812500000 5.219997406006 145 145 145
9.843750000000 21.882812500000 4.779003143311 141 141 141
9.718750000000 21.882812500000 4.716999053955 136 136 136
9.718750000000 21.882812500000 4.645999908447 136 136 136
9.718750000000 21.882812500000 4.572002410889 160 160 160
9.671875000000 21.890625000000 4.505001068115 164 164 164
9.500000000000 21.882812500000 4.446002960205 171 171 171
9.140625000000 21.898437500000 4.397998809814 166 166 166
8.968750000000 21.898437500000 4.334003448486 166 166 166
9.109375000000 21.898437500000 4.247997283936 185 185 185
9.703125000000 21.875000000000 3.921001434326 177 177 177
8.671875000000 21.898437500000 3.649997711182 111 111 111
8.750000000000 21.898437500000 3.571002960205 124 124 124
9.359375000000 21.875000000000 3.490001678467 168 168 168
9.453125000000 21.875000000000 3.415996551514 150 150 150
8.968750000000 21.898437500000 3.339000701904 136 136 136
9.390625000000 21.882812500000 3.268001556396 159 159 159
7.015625000000 21.945312500000 3.149997711182 38 38 38
8.718750000000 21.898437500000 3.103000640869 128 128 128
8.937500000000 21.882812500000 2.954998016357 124 124 124
9.640625000000 21.867187500000 2.908000946045 173 173 173
9.750000000000 21.867187500000 2.840000152588 158 158 158
9.109375000000 21.882812500000 2.733997344971 129 129 129
9.109375000000 21.882812500000 2.658000946045 102 102 102
9.234375000000 21.882812500000 2.590000152588 9 9 9
5.984375000000 22.007812500000 8.034999847412 14 14 14
8.234375000000 21.945312500000 7.133998870850 109 109 109
10.375000000000 25.820312500000 3.786998748779 30 30 30
10.531250000000 25.726562500000 3.706996917725 156 156 156
10.375000000000 25.820312500000 3.628002166748 86 86 86
10.750000000000 25.585937500000 2.937000274658 205 205 205
10.390625000000 25.585937500000 3.751003265381 159 159 159
10.437500000000 25.570312500000 3.672000885010 176 176 176
10.359375000000 25.617187500000 3.592998504639 213 213 213
10.625000000000 25.453125000000 3.048999786377 80 80 80
10.656250000000 25.429687500000 2.974002838135 154 154 154
10.625000000000 25.445312500000 2.894001007080 254 254 254
10.625000000000 25.453125000000 2.815998077393 18 18 18
10.453125000000 25.367187500000 5.693996429443 4 4 4
10.515625000000 25.320312500000 5.602001190186 152 152 152
10.390625000000 25.398437500000 5.545001983643 253 253 253
10.250000000000 25.476562500000 4.592998504639 178 178 178
10.296875000000 25.460937500000 4.509998321533 154 154 154
10.171875000000 25.531250000000 4.437999725342 168 168 168
10.156250000000 25.539062500000 4.356998443604 8 8 8
10.234375000000 25.476562500000 3.789997100830 149 149 149
10.312500000000 25.445312500000 3.709003448486 150 150 150
10.343750000000 25.429687500000 3.629001617432 148 148 148
10.343750000000 25.414062500000 3.549999237061 165 165 165
10.156250000000 25.539062500000 3.466999053955 211 211 211
10.453125000000 25.351562500000 3.076999664307 178 178 178
10.468750000000 25.320312500000 3.000003814697 242 242 242
10.468750000000 25.320312500000 2.921001434326 162 162 162
9.890625000000 25.695312500000 1.881000518799 144 144 144
9.640625000000 25.820312500000 1.675998687744 153 153 153
10.656250000000 25.062500000000 6.745998382568 28 28 28
10.531250000000 25.132812500000 6.695003509521 61 61 61
10.531250000000 25.132812500000 6.614002227783 82 82 82
10.328125000000 25.242187500000 5.673999786377 128 128 128
10.390625000000 25.210937500000 5.584003448486 153 153 153
10.406250000000 25.210937500000 5.502002716064 165 165 165
10.406250000000 25.210937500000 5.421001434326 172 172 172
10.078125000000 25.382812500000 4.644001007080 22 22 22
10.125000000000 25.367187500000 4.560001373291 148 148 148
10.187500000000 25.320312500000 4.474002838135 144 144 144
10.203125000000 25.304687500000 4.392002105713 148 148 148
10.046875000000 25.398437500000 4.320003509521 152 152 152
10.031250000000 25.406250000000 4.239002227783 160 160 160
9.812500000000 25.539062500000 4.165996551514 19 19 19
9.703125000000 25.601562500000 3.834003448486 199 199 199
10.140625000000 25.343750000000 3.747997283936 145 145 145
10.203125000000 25.296875000000 3.667003631592 145 145 145
10.203125000000 25.304687500000 3.586002349854 144 144 144
10.171875000000 25.328125000000 3.505001068115 134 134 134
10.078125000000 25.367187500000 3.423000335693 141 141 141
9.687500000000 25.617187500000 3.329998016357 223 223 223
10.265625000000 25.257812500000 3.186000823975 36 36 36
10.312500000000 25.242187500000 3.107997894287 151 151 151
10.359375000000 25.210937500000 3.030002593994 144 144 144
10.250000000000 25.273437500000 2.943996429443 242 242 242
10.312500000000 25.226562500000 2.868000030518 14 14 14
10.531250000000 24.945312500000 6.823001861572 102 102 102
10.500000000000 24.953125000000 6.747997283936 145 145 145
10.453125000000 24.976562500000 6.675998687744 159 159 159
10.390625000000 25.023437500000 6.608997344971 43 43 43
10.171875000000 25.140625000000 5.743999481201 77 77 77
10.203125000000 25.109375000000 5.653003692627 148 148 148
10.250000000000 25.085937500000 5.564998626709 136 136 136
10.265625000000 25.070312500000 5.479999542236 142 142 142
10.187500000000 25.117187500000 5.410999298096 133 133 133
10.000000000000 25.234375000000 4.530002593994 141 141 141
10.046875000000 25.210937500000 4.445003509521 150 150 150
10.078125000000 25.195312500000 4.362003326416 147 147 147
10.125000000000 25.164062500000 4.276996612549 143 143 143
10.078125000000 25.179687500000 4.198001861572 192 192 192
9.750000000000 25.390625000000 4.129001617432 156 156 156
9.703125000000 25.414062500000 4.046001434326 244 244 244
9.546875000000 25.515625000000 3.881000518799 196 196 196
10.000000000000 25.226562500000 3.790996551514 170 170 170
10.062500000000 25.195312500000 3.709003448486 133 133 133
10.062500000000 25.195312500000 3.628002166748 154 154 154
10.078125000000 25.179687500000 3.546001434326 143 143 143
9.906250000000 25.289062500000 3.462001800537 107 107 107
10.421875000000 24.976562500000 3.392002105713 79 79 79
10.156250000000 25.132812500000 3.223003387451 10 10 10
10.187500000000 25.117187500000 3.144001007080 162 162 162
10.234375000000 25.085937500000 3.065998077393 157 157 157
10.156250000000 25.117187500000 2.980998992920 198 198 198
10.296875000000 24.867187500000 6.926998138428 20 20 20
10.343750000000 24.851562500000 6.833003997803 133 133 133
11.359375000000 24.234375000000 6.483997344971 179 179 179
11.312500000000 24.242187500000 6.412998199463 198 198 198
10.250000000000 24.898437500000 6.602001190186 115 115 115
10.046875000000 25.023437500000 5.729000091553 144 144 144
10.031250000000 25.031250000000 5.647998809814 138 138 138
10.015625000000 25.039062500000 5.566997528076 140 140 140
9.984375000000 25.054687500000 5.487003326416 137 137 137
9.906250000000 25.101562500000 5.413997650146 149 149 149
9.843750000000 25.132812500000 5.338001251221 143 143 143
9.796875000000 25.164062500000 5.260997772217 212 212 212
9.781250000000 25.171875000000 5.178997039795 246 246 246
9.859375000000 25.117187500000 4.502002716064 163 163 163
9.890625000000 25.093750000000 4.415996551514 161 161 161
9.953125000000 25.070312500000 4.329998016357 145 145 145
9.921875000000 25.085937500000 4.248996734619 148 148 148
9.937500000000 25.070312500000 4.165996551514 130 130 130
9.953125000000 25.070312500000 4.083003997803 180 180 180
9.984375000000 25.039062500000 4.000003814697 100 100 100
9.890625000000 25.093750000000 3.754001617432 140 140 140
9.921875000000 25.085937500000 3.672000885010 140 140 140
9.937500000000 25.062500000000 3.589000701904 151 151 151
10.171875000000 24.929687500000 3.509998321533 151 151 151
10.390625000000 24.789062500000 3.434001922607 148 148 148
11.250000000000 24.257812500000 3.377002716064 208 208 208
11.406250000000 24.179687500000 3.309001922607 148 148 148
11.390625000000 24.195312500000 3.236003875732 221 221 221
10.109375000000 24.960937500000 3.102001190186 155 155 155
10.140625000000 24.945312500000 3.022998809814 150 150 150
10.125000000000 24.953125000000 2.940998077393 154 154 154
10.062500000000 24.992187500000 2.854999542236 199 199 199
10.718750000000 24.414062500000 8.017002105713 91 91 91
10.703125000000 24.429687500000 7.940998077393 99 99 99
11.046875000000 24.210937500000 7.724002838135 103 103 103
11.015625000000 24.242187500000 7.658000946045 143 143 143
10.906250000000 24.289062500000 7.605998992920 142 142 142
10.843750000000 24.335937500000 7.548999786377 115 115 115
10.734375000000 24.406250000000 7.507999420166 13 13 13
10.250000000000 24.703125000000 6.901996612549 131 131 131
11.187500000000 24.132812500000 6.563999176025 162 162 162
11.250000000000 24.085937500000 6.467998504639 157 157 157
11.250000000000 24.078125000000 6.387996673584 158 158 158
11.093750000000 24.171875000000 6.351001739502 161 161 161
11.125000000000 24.164062500000 6.270999908447 91 91 91
9.906250000000 24.898437500000 5.790996551514 133 133 133
9.906250000000 24.898437500000 5.706996917725 133 133 133
9.937500000000 24.867187500000 5.616001129150 146 146 146
9.921875000000 24.882812500000 5.534000396729 136 136 136
9.890625000000 24.898437500000 5.456996917725 139 139 139
9.765625000000 24.976562500000 5.391002655029 188 188 188
9.796875000000 24.960937500000 5.300998687744 175 175 175
9.609375000000 25.054687500000 4.558002471924 1 1 1
9.781250000000 24.968750000000 4.464000701904 138 138 138
9.796875000000 24.929687500000 4.377002716064 147 147 147
9.781250000000 24.945312500000 4.295001983643 140 140 140
9.843750000000 24.914062500000 4.209003448486 134 134 134
9.781250000000 24.945312500000 4.128002166748 177 177 177
9.671875000000 25.023437500000 4.048000335693 176 176 176
9.765625000000 24.976562500000 3.962001800537 142 142 142
9.609375000000 25.054687500000 3.881000518799 51 51 51
9.796875000000 24.945312500000 3.711002349854 160 160 160
9.890625000000 24.882812500000 3.628002166748 149 149 149
10.203125000000 24.695312500000 3.548999786377 148 148 148
10.296875000000 24.632812500000 3.469997406006 143 143 143
11.234375000000 24.070312500000 3.411998748779 157 157 157
11.281250000000 24.039062500000 3.340000152588 157 157 157
11.281250000000 24.039062500000 3.267002105713 163 163 163
11.234375000000 24.085937500000 3.189998626709 215 215 215
9.953125000000 24.835937500000 3.052997589111 152 152 152
9.984375000000 24.820312500000 2.973003387451 164 164 164
10.046875000000 24.781250000000 2.894001007080 153 153 153
10.015625000000 24.796875000000 2.810001373291 166 166 166
10.765625000000 24.203125000000 9.366001129150 128 128 128
10.671875000000 24.265625000000 9.325000762939 16 16 16
10.625000000000 24.281250000000 9.247997283936 101 101 101
10.484375000000 24.351562500000 8.148998260498 28 28 28
10.515625000000 24.320312500000 8.048999786377 151 151 151
10.484375000000 24.343750000000 7.970996856689 154 154 154
10.734375000000 24.195312500000 7.798000335693 141 141 141
10.765625000000 24.187500000000 7.703998565674 145 145 145
10.765625000000 24.187500000000 7.619998931885 142 142 142
10.718750000000 24.210937500000 7.553997039795 153 153 153
10.593750000000 24.273437500000 7.506999969482 150 150 150
10.468750000000 24.367187500000 7.466999053955 118 118 118
10.281250000000 24.476562500000 7.443996429443 90 90 90
9.250000000000 25.101562500000 7.681003570557 82 82 82
9.343750000000 25.039062500000 7.556003570557 135 135 135
9.375000000000 25.015625000000 7.453998565674 140 140 140
9.328125000000 25.054687500000 7.378002166748 82 82 82
10.078125000000 24.593750000000 6.988002777100 116 116 116
10.828125000000 24.132812500000 6.698001861572 186 186 186
10.984375000000 24.039062500000 6.575000762939 145 145 145
11.046875000000 23.992187500000 6.477001190186 142 142 142
11.031250000000 24.007812500000 6.404003143311 157 157 157
10.906250000000 24.070312500000 6.354000091553 156 156 156
10.859375000000 24.101562500000 6.284999847412 155 155 155
10.953125000000 24.062500000000 6.189998626709 116 116 116
9.781250000000 24.757812500000 5.853000640869 117 117 117
9.796875000000 24.742187500000 5.767002105713 138 138 138
9.812500000000 24.742187500000 5.678997039795 148 148 148
9.796875000000 24.742187500000 5.597003936768 132 132 132
9.812500000000 24.742187500000 5.509998321533 139 139 139
9.765625000000 24.757812500000 5.429996490479 152 152 152
9.828125000000 24.726562500000 5.255001068115 159 159 159
9.750000000000 24.773437500000 5.178997039795 232 232 232
9.953125000000 24.632812500000 4.573001861572 68 68 68
10.000000000000 24.601562500000 4.488002777100 56 56 56
9.625000000000 24.835937500000 4.428997039795 150 150 150
9.937500000000 24.656250000000 4.327999114990 152 152 152
9.750000000000 24.757812500000 4.254001617432 135 135 135
9.812500000000 24.726562500000 4.168003082275 137 137 137
9.812500000000 24.726562500000 4.085002899170 142 142 142
9.828125000000 24.710937500000 4.001003265381 150 150 150
9.859375000000 24.710937500000 3.918003082275 148 148 148
9.953125000000 24.632812500000 3.833003997803 141 141 141
9.812500000000 24.726562500000 3.752002716064 235 235 235
9.750000000000 24.773437500000 3.669002532959 133 133 133
10.078125000000 24.554687500000 3.587001800537 146 146 146
10.125000000000 24.531250000000 3.506999969482 127 127 127
11.046875000000 23.976562500000 3.443996429443 149 149 149
11.078125000000 23.945312500000 3.370998382568 147 147 147
11.156250000000 23.914062500000 3.298999786377 153 153 153
11.125000000000 23.929687500000 3.223003387451 151 151 151
10.859375000000 24.070312500000 3.136997222900 11 11 11
9.937500000000 24.640625000000 3.009998321533 152 152 152
10.046875000000 24.578125000000 2.934001922607 156 156 156
10.062500000000 24.570312500000 2.853000640869 154 154 154
9.984375000000 24.609375000000 2.766002655029 104 104 104
9.734375000000 24.757812500000 2.662998199463 23 23 23
9.843750000000 24.710937500000 3.087001800537 116 116 116
10.578125000000 24.101562500000 9.413997650146 74 74 74
10.578125000000 24.101562500000 9.313999176025 147 147 147
10.546875000000 24.125000000000 9.241001129150 133 133 133
10.437500000000 24.179687500000 9.199001312256 70 70 70
8.859375000000 25.156250000000 9.039997100830 113 113 113
8.828125000000 25.164062500000 8.943996429443 91 91 91
8.812500000000 25.171875000000 8.851001739502 131 131 131
8.750000000000 25.195312500000 8.772998809814 94 94 94
10.359375000000 24.226562500000 8.074001312256 139 139 139
10.375000000000 24.218750000000 7.978000640869 143 143 143
10.421875000000 24.179687500000 7.869998931885 148 148 148
10.484375000000 24.148437500000 7.765003204346 134 134 134
10.484375000000 24.148437500000 7.677997589111 139 139 139
10.453125000000 24.156250000000 7.598003387451 139 139 139
10.421875000000 24.179687500000 7.526996612549 139 139 139
10.234375000000 24.296875000000 7.503002166748 113 113 113
9.203125000000 24.914062500000 7.744998931885 81 81 81
9.250000000000 24.898437500000 7.633998870850 143 143 143
9.234375000000 24.906250000000 7.546001434326 132 132 132
9.171875000000 24.937500000000 7.473003387451 127 127 127
9.140625000000 24.953125000000 7.386997222900 116 116 116
9.140625000000 24.960937500000 7.298000335693 60 60 60
9.921875000000 24.484375000000 6.989002227783 114 114 114
9.921875000000 24.476562500000 6.899997711182 115 115 115
10.750000000000 23.984375000000 6.600002288818 138 138 138
10.812500000000 23.945312500000 6.505001068115 142 142 142
10.765625000000 23.960937500000 6.432003021240 146 146 146
10.765625000000 23.960937500000 6.354000091553 135 135 135
10.562500000000 24.078125000000 6.317996978760 147 147 147
10.546875000000 24.101562500000 6.242000579834 110 110 110
10.562500000000 24.085937500000 6.159000396729 96 96 96
10.437500000000 24.148437500000 6.102001190186 135 135 135
10.359375000000 24.210937500000 6.038997650146 116 116 116
10.359375000000 24.210937500000 5.960002899170 61 61 61
9.640625000000 24.648437500000 5.925998687744 19 19 19
9.640625000000 24.640625000000 5.839000701904 135 135 135
10.921875000000 23.851562500000 5.534999847412 158 158 158
10.812500000000 23.929687500000 5.477001190186 176 176 176
10.671875000000 24.007812500000 5.421001434326 162 162 162
10.609375000000 24.039062500000 5.350002288818 197 197 197
9.593750000000 24.664062500000 5.415996551514 175 175 175
9.562500000000 24.679687500000 5.333003997803 199 199 199
9.671875000000 24.617187500000 4.978000640869 20 20 20
9.765625000000 24.570312500000 4.886997222900 108 108 108
9.906250000000 24.476562500000 4.788997650146 133 133 133
9.953125000000 24.445312500000 4.701000213623 139 139 139
9.953125000000 24.429687500000 4.617000579834 142 142 142
9.984375000000 24.414062500000 4.533000946045 150 150 150
9.984375000000 24.414062500000 4.451000213623 149 149 149
10.015625000000 24.398437500000 4.368000030518 147 147 147
10.046875000000 24.375000000000 4.283000946045 153 153 153
10.078125000000 24.367187500000 4.201000213623 161 161 161
9.656250000000 24.601562500000 4.134998321533 142 142 142
9.703125000000 24.585937500000 4.048999786377 141 141 141
9.703125000000 24.593750000000 3.965999603271 148 148 148
9.640625000000 24.625000000000 3.882999420166 224 224 224
9.593750000000 24.648437500000 3.714000701904 135 135 135
9.890625000000 24.476562500000 3.631000518799 147 147 147
10.000000000000 24.398437500000 3.548999786377 129 129 129
10.890625000000 23.867187500000 3.481998443604 148 148 148
10.921875000000 23.835937500000 3.407001495361 149 149 149
10.953125000000 23.820312500000 3.333003997803 163 163 163
10.937500000000 23.828125000000 3.256999969482 155 155 155
11.031250000000 23.781250000000 3.185001373291 193 193 193
10.406250000000 24.148437500000 3.077999114990 169 169 169
9.921875000000 24.445312500000 2.970996856689 142 142 142
9.937500000000 24.437500000000 2.889003753662 141 141 141
9.812500000000 24.507812500000 2.798000335693 147 147 147
9.765625000000 24.539062500000 2.711002349854 108 108 108
10.312500000000 24.062500000000 9.406002044678 135 135 135
10.343750000000 24.039062500000 9.299999237061 134 134 134
10.375000000000 24.023437500000 9.187999725342 141 141 141
10.296875000000 24.070312500000 9.137996673584 69 69 69
8.843750000000 24.945312500000 9.092998504639 71 71 71
8.859375000000 24.945312500000 8.987003326416 131 131 131
8.828125000000 24.960937500000 8.901996612549 139 139 139
8.828125000000 24.960937500000 8.799999237061 158 158 158
10.078125000000 24.187500000000 8.219997406006 221 221 221
10.171875000000 24.132812500000 8.095996856689 143 143 143
10.203125000000 24.117187500000 8.001003265381 133 133 133
10.218750000000 24.101562500000 7.901996612549 142 142 142
10.218750000000 24.093750000000 7.812999725342 131 131 131
10.187500000000 24.117187500000 7.738002777100 166 166 166
10.203125000000 24.117187500000 7.648998260498 138 138 138
8.140625000000 25.359375000000 8.229999542236 23 23 23
10.203125000000 24.117187500000 7.473003387451 136 136 136
10.203125000000 24.117187500000 7.386997222900 164 164 164
9.000000000000 24.851562500000 7.673000335693 205 205 205
9.203125000000 24.718750000000 7.511997222900 115 115 115
9.390625000000 24.593750000000 7.364002227783 127 127 127
11.234375000000 23.476562500000 6.745998382568 42 42 42
11.234375000000 23.476562500000 6.668003082275 164 164 164
9.828125000000 24.335937500000 6.974002838135 127 127 127
10.406250000000 23.992187500000 6.736003875732 181 181 181
10.531250000000 23.898437500000 6.614002227783 143 143 143
10.531250000000 23.898437500000 6.534000396729 145 145 145
10.562500000000 23.882812500000 6.448001861572 146 146 146
10.546875000000 23.898437500000 6.367000579834 144 144 144
10.531250000000 23.898437500000 6.288997650146 144 144 144
10.500000000000 23.921875000000 6.215000152588 150 150 150
10.265625000000 24.070312500000 6.187999725342 104 104 104
10.281250000000 24.054687500000 6.101001739502 106 106 106
9.515625000000 24.500000000000 5.905002593994 131 131 131
9.546875000000 24.507812500000 5.816997528076 132 132 132
10.687500000000 23.796875000000 5.540996551514 148 148 148
10.656250000000 23.820312500000 5.465999603271 142 142 142
10.609375000000 23.851562500000 5.395000457764 149 149 149
10.562500000000 23.882812500000 5.323001861572 182 182 182
10.406250000000 23.968750000000 5.265003204346 172 172 172
9.546875000000 24.492187500000 5.211002349854 7 7 7
9.578125000000 24.460937500000 5.119998931885 149 149 149
9.625000000000 24.445312500000 5.030002593994 137 137 137
9.625000000000 24.445312500000 4.945003509521 137 137 137
9.687500000000 24.398437500000 4.854000091553 131 131 131
9.640625000000 24.429687500000 4.772998809814 140 140 140
9.609375000000 24.445312500000 4.690998077393 143 143 143
9.562500000000 24.476562500000 4.609996795654 140 140 140
11.062500000000 23.562500000000 4.422000885010 220 220 220
11.140625000000 23.523437500000 4.342998504639 145 145 145
9.453125000000 24.546875000000 4.361003875732 151 151 151
9.500000000000 24.523437500000 4.272998809814 143 143 143
9.515625000000 24.507812500000 4.187000274658 139 139 139
9.531250000000 24.492187500000 4.101001739502 150 150 150
9.515625000000 24.507812500000 4.017002105713 152 152 152
9.484375000000 24.523437500000 3.932003021240 143 143 143
9.453125000000 24.546875000000 3.847003936768 122 122 122
9.453125000000 24.546875000000 3.761997222900 112 112 112
9.562500000000 24.460937500000 3.675998687744 151 151 151
9.828125000000 24.320312500000 3.592998504639 143 143 143
10.671875000000 23.789062500000 3.520999908447 178 178 178
10.796875000000 23.734375000000 3.446002960205 145 145 145
10.828125000000 23.710937500000 3.369998931885 150 150 150
10.968750000000 23.625000000000 3.298999786377 140 140 140
11.000000000000 23.585937500000 3.225002288818 149 149 149
11.015625000000 23.570312500000 3.150997161865 154 154 154
9.687500000000 24.382812500000 3.004001617432 129 129 129
9.796875000000 24.320312500000 2.925998687744 147 147 147
9.781250000000 24.335937500000 2.840999603271 146 146 146
9.781250000000 24.335937500000 2.756999969482 145 145 145
9.734375000000 24.351562500000 2.671001434326 124 124 124
9.437500000000 24.578125000000 7.260997772217 115 115 115
8.437500000000 25.164062500000 5.348003387451 125 125 125
10.109375000000 23.984375000000 9.453998565674 118 118 118
10.187500000000 23.937500000000 9.326000213623 143 143 143
10.171875000000 23.945312500000 9.239002227783 139 139 139
10.078125000000 23.992187500000 9.178997039795 158 158 158
9.234375000000 24.507812500000 9.272998809814 151 151 151
8.875000000000 24.742187500000 9.032001495361 139 139 139
8.843750000000 24.757812500000 8.943996429443 146 146 146
8.750000000000 24.796875000000 8.876003265381 145 145 145
8.781250000000 24.789062500000 8.768001556396 142 142 142
10.046875000000 24.023437500000 8.192996978760 131 131 131
10.078125000000 23.992187500000 8.078998565674 129 129 129
10.062500000000 23.992187500000 7.997997283936 137 137 137
10.000000000000 24.054687500000 7.939998626709 152 152 152
10.062500000000 23.992187500000 7.822002410889 193 193 193
10.109375000000 23.976562500000 7.719997406006 137 137 137
10.687500000000 23.617187500000 7.437999725342 184 184 184
10.875000000000 23.507812500000 7.296001434326 152 152 152
10.859375000000 23.523437500000 7.224002838135 160 160 160
10.687500000000 23.617187500000 7.188999176025 190 190 190
10.484375000000 23.750000000000 7.173999786377 218 218 218
9.093750000000 24.585937500000 7.498996734619 134 134 134
9.109375000000 24.585937500000 7.403003692627 146 146 146
11.015625000000 23.414062500000 6.770000457764 67 67 67
9.109375000000 24.554687500000 7.208003997803 74 74 74
10.937500000000 23.460937500000 6.632999420166 171 171 171
10.875000000000 23.492187500000 6.568996429443 154 154 154
10.750000000000 23.570312500000 6.519001007080 161 161 161
10.281250000000 23.867187500000 6.554996490479 142 142 142
