27.500000000000 0.937500000000 55.238006591797 64 64 64
28.000000000000 0.937500000000 52.565994262695 72 72 72
28.343750000000 0.937500000000 54.001007080078 125 125 125
28.781250000000 0.937500000000 54.397003173828 160 160 160
27.218750000000 0.734375000000 49.947006225586 137 137 137
27.187500000000 0.734375000000 49.992004394531 174 174 174
26.906250000000 0.734375000000 50.035995483398 158 158 158
26.875000000000 0.734375000000 50.078002929688 175 175 175
26.750000000000 0.734375000000 50.119003295898 181 181 181
26.640625000000 0.718750000000 50.158996582031 179 179 179
26.781250000000 0.718750000000 50.201995849609 185 185 185
26.625000000000 0.734375000000 50.240005493164 140 140 140
26.640625000000 0.718750000000 50.281005859375 176 176 176
27.609375000000 0.718750000000 50.360000610352 122 122 122
27.656250000000 0.718750000000 50.408004760742 145 145 145
27.500000000000 0.718750000000 50.447006225586 52 52 52
26.937500000000 0.750000000000 50.460998535156 136 136 136
26.906250000000 0.734375000000 50.503005981445 172 172 172
26.968750000000 0.734375000000 50.548004150391 183 183 183
27.281250000000 0.718750000000 50.615005493164 185 185 185
27.437500000000 0.734375000000 50.673004150391 183 183 183
27.515625000000 0.718750000000 50.723999023438 165 165 165
27.921875000000 0.734375000000 50.807998657227 28 28 28
27.437500000000 0.734375000000 51.315994262695 64 64 64
27.343750000000 0.750000000000 51.347000122070 139 139 139
27.234375000000 0.734375000000 51.374008178711 147 147 147
27.796875000000 0.734375000000 51.869003295898 156 156 156
27.593750000000 0.718750000000 51.871994018555 185 185 185
27.437500000000 0.734375000000 51.882995605469 170 170 170
27.187500000000 0.734375000000 51.869995117188 194 194 194
27.109375000000 0.734375000000 51.897003173828 168 168 168
27.000000000000 0.718750000000 51.916000366211 178 178 178
26.828125000000 0.734375000000 51.919006347656 176 176 176
26.828125000000 0.734375000000 51.964004516602 170 170 170
26.718750000000 0.718750000000 51.975997924805 173 173 173
26.781250000000 0.734375000000 52.039001464844 214 214 214
26.812500000000 0.734375000000 52.095001220703 208 208 208
26.703125000000 0.734375000000 52.104003906250 172 172 172
27.906250000000 0.734375000000 52.507995605469 154 154 154
26.531250000000 0.718750000000 52.141998291016 177 177 177
26.500000000000 0.718750000000 52.180007934570 180 180 180
26.656250000000 0.734375000000 52.274002075195 164 164 164
26.562500000000 0.718750000000 52.285003662109 170 170 170
26.468750000000 0.718750000000 52.304000854492 176 176 176
26.437500000000 0.734375000000 52.332000732422 169 169 169
26.375000000000 0.734375000000 52.360000610352 174 174 174
26.375000000000 0.750000000000 52.401000976563 179 179 179
26.375000000000 0.750000000000 52.443008422852 175 175 175
26.375000000000 0.750000000000 52.488998413086 172 172 172
26.406250000000 0.734375000000 52.542007446289 175 175 175
27.125000000000 0.718750000000 52.856994628906 185 185 185
27.093750000000 0.718750000000 52.895004272461 178 178 178
27.062500000000 0.734375000000 52.932006835938 165 165 165
28.437500000000 0.734375000000 53.526000976563 27 27 27
28.406250000000 0.718750000000 53.576004028320 63 63 63
28.125000000000 0.718750000000 53.634994506836 118 118 118
28.109375000000 0.718750000000 53.688995361328 26 26 26
28.203125000000 0.718750000000 53.906997680664 115 115 115
28.187500000000 0.734375000000 53.958999633789 168 168 168
28.093750000000 0.734375000000 53.977996826172 144 144 144
28.093750000000 0.718750000000 54.033004760742 165 165 165
27.984375000000 0.718750000000 54.037994384766 172 172 172
27.812500000000 0.718750000000 54.016998291016 169 169 169
27.781250000000 0.734375000000 54.065002441406 104 104 104
27.687500000000 0.734375000000 54.078002929688 181 181 181
27.718750000000 0.718750000000 54.154006958008 183 183 183
27.656250000000 0.734375000000 54.173995971680 175 175 175
27.687500000000 0.718750000000 54.249008178711 175 175 175
27.906250000000 0.734375000000 54.425994873047 54 54 54
27.765625000000 0.718750000000 54.412994384766 102 102 102
27.906250000000 0.734375000000 54.548995971680 29 29 29
27.250000000000 0.515625000000 50.059997558594 70 70 70
27.187500000000 0.500000000000 50.104003906250 171 171 171
27.156250000000 0.515625000000 50.147003173828 186 186 186
27.343750000000 0.515625000000 50.194000244141 121 121 121
27.468750000000 0.515625000000 50.287994384766 14 14 14
27.531250000000 0.515625000000 50.335998535156 69 69 69
27.421875000000 0.515625000000 50.376998901367 139 139 139
27.421875000000 0.515625000000 50.423004150391 165 165 165
27.437500000000 0.515625000000 50.468994140625 165 165 165
27.468750000000 0.515625000000 50.516006469727 175 175 175
27.421875000000 0.515625000000 50.559005737305 161 161 161
27.343750000000 0.515625000000 50.598999023438 179 179 179
27.187500000000 0.500000000000 50.632003784180 174 174 174
27.187500000000 0.500000000000 50.675994873047 174 174 174
27.953125000000 0.515625000000 50.787994384766 110 110 110
27.781250000000 0.515625000000 51.891006469727 16 16 16
27.468750000000 0.531250000000 51.865997314453 37 37 37
27.250000000000 0.515625000000 51.867996215820 155 155 155
27.187500000000 0.500000000000 51.897003173828 164 164 164
27.000000000000 0.515625000000 51.895004272461 162 162 162
26.984375000000 0.500000000000 51.940002441406 179 179 179
27.250000000000 0.531250000000 52.052001953125 58 58 58
27.234375000000 0.500000000000 52.096008300781 137 137 137
27.218750000000 0.515625000000 52.139999389648 178 178 178
27.187500000000 0.500000000000 52.180007934570 183 183 183
26.859375000000 0.515625000000 52.132995605469 179 179 179
26.875000000000 0.531250000000 52.180999755859 184 184 184
26.906250000000 0.515625000000 52.236007690430 182 182 182
26.750000000000 0.531250000000 52.235000610352 169 169 169
26.718750000000 0.515625000000 52.272003173828 180 180 180
26.687500000000 0.515625000000 52.305007934570 173 173 173
26.656250000000 0.515625000000 52.343002319336 169 169 169
27.375000000000 0.531250000000 52.624008178711 131 131 131
26.562500000000 0.515625000000 52.404006958008 167 167 167
26.546875000000 0.515625000000 52.442001342773 175 175 175
27.375000000000 0.515625000000 52.779998779297 157 157 157
26.515625000000 0.515625000000 52.520004272461 189 189 189
26.437500000000 0.515625000000 52.537002563477 184 184 184
26.390625000000 0.531250000000 52.565002441406 176 176 176
26.359375000000 0.531250000000 52.595001220703 171 171 171
26.390625000000 0.531250000000 52.652999877930 176 176 176
26.406250000000 0.531250000000 52.706008911133 184 184 184
26.406250000000 0.515625000000 52.757003784180 124 124 124
27.968750000000 0.500000000000 54.072006225586 91 91 91
27.937500000000 0.531250000000 54.113998413086 113 113 113
27.984375000000 0.500000000000 54.253997802734 159 159 159
27.859375000000 0.515625000000 54.255004882813 177 177 177
27.828125000000 0.531250000000 54.300994873047 174 174 174
27.828125000000 0.531250000000 54.360000610352 182 182 182
27.984375000000 0.500000000000 54.503005981445 172 172 172
27.906250000000 0.515625000000 54.524002075195 184 184 184
27.906250000000 0.515625000000 54.583999633789 178 178 178
28.000000000000 0.515625000000 54.695999145508 115 115 115
28.031250000000 0.531250000000 54.781005859375 11 11 11
27.484375000000 0.281250000000 50.134002685547 21 21 21
27.468750000000 0.296875000000 50.179000854492 166 166 166
27.468750000000 0.296875000000 50.225006103516 167 167 167
27.531250000000 0.281250000000 50.272003173828 144 144 144
27.500000000000 0.281250000000 50.317001342773 150 150 150
27.531250000000 0.281250000000 50.363998413086 132 132 132
27.093750000000 0.281250000000 50.391006469727 165 165 165
27.046875000000 0.296875000000 50.430999755859 177 177 177
27.000000000000 0.296875000000 50.472000122070 184 184 184
27.218750000000 0.296875000000 50.527999877930 188 188 188
27.296875000000 0.296875000000 50.578994750977 172 172 172
27.375000000000 0.296875000000 50.628997802734 171 171 171
27.437500000000 0.312500000000 50.680007934570 174 174 174
27.640625000000 0.296875000000 50.742996215820 167 167 167
27.781250000000 0.296875000000 50.803009033203 167 167 167
27.812500000000 0.296875000000 50.852996826172 61 61 61
27.140625000000 0.281250000000 52.007003784180 17 17 17
27.187500000000 0.281250000000 52.063995361328 145 145 145
27.437500000000 0.312500000000 52.180007934570 132 132 132
27.250000000000 0.296875000000 52.175994873047 92 92 92
26.921875000000 0.312500000000 52.132003784180 113 113 113
26.875000000000 0.312500000000 52.162994384766 106 106 106
26.875000000000 0.312500000000 52.206008911133 179 179 179
26.843750000000 0.312500000000 52.246994018555 187 187 187
26.781250000000 0.296875000000 52.270996093750 172 172 172
26.750000000000 0.312500000000 52.311004638672 116 116 116
27.625000000000 0.296875000000 52.738006591797 139 139 139
27.562500000000 0.296875000000 52.768997192383 185 185 185
27.359375000000 0.312500000000 52.751998901367 182 182 182
27.312500000000 0.312500000000 52.787002563477 170 170 170
27.250000000000 0.312500000000 52.859008789063 155 155 155
27.140625000000 0.281250000000 52.873001098633 183 183 183
27.125000000000 0.296875000000 52.915008544922 185 185 185
27.265625000000 0.312500000000 53.022003173828 146 146 146
27.343750000000 0.296875000000 53.102996826172 138 138 138
27.375000000000 0.296875000000 53.167007446289 124 124 124
27.375000000000 0.296875000000 53.222000122070 13 13 13
27.312500000000 0.093750000000 50.201995849609 63 63 63
27.281250000000 0.078125000000 50.246002197266 165 165 165
27.265625000000 0.093750000000 50.290008544922 177 177 177
27.390625000000 0.093750000000 50.339004516602 161 161 161
27.312500000000 0.093750000000 50.380996704102 161 161 161
27.468750000000 0.078125000000 50.432998657227 128 128 128
27.328125000000 0.078125000000 50.471008300781 183 183 183
27.250000000000 0.078125000000 50.511001586914 178 178 178
27.203125000000 0.078125000000 50.553009033203 179 179 179
27.203125000000 0.078125000000 50.597000122070 190 190 190
27.312500000000 0.078125000000 50.651000976563 189 189 189
27.625000000000 0.078125000000 50.722000122070 136 136 136
27.375000000000 0.078125000000 52.986999511719 24 24 24
27.343750000000 0.093750000000 53.029998779297 135 135 135
27.328125000000 0.078125000000 53.074996948242 169 169 169
27.312500000000 0.093750000000 53.119995117188 184 184 184
27.312500000000 0.093750000000 53.175003051758 164 164 164
27.312500000000 0.078125000000 53.229003906250 92 92 92
27.453125000000 0.000000000000 50.623001098633 108 108 108
27.578125000000 0.000000000000 50.445999145508 21 21 21
27.218750000000 0.328125000000 53.216995239258 40 40 40
27.218750000000 0.343750000000 53.171005249023 59 59 59
27.234375000000 0.343750000000 53.123001098633 113 113 113
27.187500000000 0.343750000000 53.057006835938 147 147 147
27.031250000000 0.343750000000 52.938003540039 179 179 179
27.062500000000 0.343750000000 52.904006958008 184 184 184
27.140625000000 0.343750000000 52.880004882813 154 154 154
27.250000000000 0.343750000000 52.824996948242 128 128 128
27.281250000000 0.343750000000 52.781005859375 165 165 165
27.390625000000 0.328125000000 52.770004272461 171 171 171
27.500000000000 0.343750000000 52.761001586914 93 93 93
26.718750000000 0.359375000000 52.350006103516 162 162 162
26.718750000000 0.359375000000 52.305007934570 174 174 174
26.750000000000 0.359375000000 52.275009155273 176 176 176
26.781250000000 0.359375000000 52.238006591797 176 176 176
26.781250000000 0.359375000000 52.192001342773 90 90 90
26.828125000000 0.343750000000 52.158004760742 169 169 169
26.968750000000 0.343750000000 52.156997680664 170 170 170
27.281250000000 0.343750000000 52.193008422852 175 175 175
27.093750000000 0.343750000000 52.098999023438 195 195 195
27.015625000000 0.343750000000 52.027999877930 130 130 130
27.000000000000 0.343750000000 51.977996826172 45 45 45
27.468750000000 0.343750000000 50.731994628906 131 131 131
27.312500000000 0.359375000000 50.675003051758 179 179 179
27.218750000000 0.359375000000 50.623001098633 172 172 172
27.250000000000 0.343750000000 50.580001831055 170 170 170
27.031250000000 0.343750000000 50.522003173828 163 163 163
26.984375000000 0.359375000000 50.475997924805 172 172 172
27.031250000000 0.359375000000 50.434997558594 163 163 163
27.125000000000 0.359375000000 50.395996093750 147 147 147
27.406250000000 0.343750000000 50.363006591797 162 162 162
27.546875000000 0.359375000000 50.322006225586 91 91 91
27.484375000000 0.343750000000 50.274002075195 91 91 91
27.437500000000 0.343750000000 50.227996826172 95 95 95
27.437500000000 0.343750000000 50.182006835938 61 61 61
27.875000000000 0.687500000000 54.706008911133 84 84 84
27.890625000000 0.687500000000 54.652008056641 164 164 164
27.875000000000 0.687500000000 54.578994750977 173 173 173
27.812500000000 0.687500000000 54.488998413086 169 169 169
27.843750000000 0.687500000000 54.442001342773 153 153 153
27.937500000000 0.687500000000 54.425003051758 166 166 166
27.906250000000 0.687500000000 54.350997924805 147 147 147
27.843750000000 0.687500000000 54.255004882813 156 156 156
27.875000000000 0.687500000000 54.212005615234 132 132 132
27.937500000000 0.687500000000 54.180007934570 148 148 148
28.093750000000 0.687500000000 54.194000244141 156 156 156
28.156250000000 0.671875000000 54.167999267578 143 143 143
28.062500000000 0.687500000000 54.065002441406 25 25 25
28.140625000000 0.687500000000 54.035003662109 145 145 145
28.156250000000 0.671875000000 53.986999511719 111 111 111
28.093750000000 0.687500000000 53.662994384766 6 6 6
26.312500000000 0.734375000000 52.679000854492 111 111 111
26.343750000000 0.718750000000 52.647994995117 152 152 152
26.343750000000 0.718750000000 52.597000122070 180 180 180
26.343750000000 0.718750000000 52.554000854492 182 182 182
26.375000000000 0.718750000000 52.522003173828 178 178 178
26.375000000000 0.718750000000 52.473999023438 175 175 175
26.390625000000 0.734375000000 52.440002441406 180 180 180
26.328125000000 0.718750000000 52.375000000000 181 181 181
26.343750000000 0.718750000000 52.335006713867 177 177 177
26.406250000000 0.718750000000 52.313995361328 177 177 177
26.468750000000 0.718750000000 52.289001464844 163 163 163
26.640625000000 0.718750000000 52.300003051758 173 173 173
27.703125000000 0.687500000000 52.587997436523 160 160 160
27.718750000000 0.687500000000 52.540008544922 165 165 165
26.937500000000 0.718750000000 52.257995605469 192 192 192
26.656250000000 0.718750000000 52.130996704102 172 172 172
26.687500000000 0.718750000000 52.089004516602 174 174 174
27.062500000000 0.718750000000 52.152008056641 168 168 168
27.203125000000 0.703125000000 52.143005371094 146 146 146
26.875000000000 0.718750000000 52.007003784180 159 159 159
26.812500000000 0.718750000000 51.947006225586 168 168 168
26.906250000000 0.718750000000 51.923004150391 164 164 164
27.015625000000 0.718750000000 51.908004760742 172 172 172
27.312500000000 0.718750000000 51.934997558594 177 177 177
27.343750000000 0.718750000000 51.893005371094 163 163 163
27.609375000000 0.703125000000 51.908996582031 178 178 178
27.750000000000 0.703125000000 51.895004272461 127 127 127
27.156250000000 0.718750000000 51.436996459961 55 55 55
27.234375000000 0.703125000000 51.406997680664 147 147 147
27.359375000000 0.718750000000 51.382003784180 123 123 123
27.359375000000 0.718750000000 51.335006713867 79 79 79
27.890625000000 0.703125000000 50.787002563477 140 140 140
27.421875000000 0.718750000000 50.701004028320 176 176 176
27.500000000000 0.718750000000 50.660003662109 165 165 165
26.937500000000 0.734375000000 50.576004028320 187 187 187
26.968750000000 0.734375000000 50.535003662109 164 164 164
26.968750000000 0.718750000000 50.492004394531 143 143 143
27.500000000000 0.718750000000 50.475997924805 92 92 92
27.609375000000 0.718750000000 50.434997558594 138 138 138
27.656250000000 0.718750000000 50.391006469727 64 64 64
27.468750000000 0.718750000000 50.337997436523 43 43 43
27.468750000000 0.718750000000 50.292007446289 15 15 15
26.750000000000 0.734375000000 50.229003906250 173 173 173
26.812500000000 0.750000000000 50.188995361328 169 169 169
26.796875000000 0.734375000000 50.147003173828 170 170 170
26.812500000000 0.734375000000 50.104995727539 166 166 166
26.937500000000 0.750000000000 50.063003540039 163 163 163
27.156250000000 0.734375000000 50.018997192383 167 167 167
27.187500000000 0.734375000000 49.975006103516 162 162 162
27.187500000000 0.718750000000 49.930999755859 64 64 64
27.406250000000 1.062500000000 55.275009155273 69 69 69
27.390625000000 1.062500000000 55.205001831055 162 162 162
27.406250000000 1.062500000000 55.152999877930 166 166 166
27.437500000000 1.046875000000 55.100997924805 171 171 171
27.343750000000 1.062500000000 54.988006591797 172 172 172
27.375000000000 1.062500000000 54.943008422852 174 174 174
27.375000000000 1.062500000000 54.876998901367 180 180 180
27.437500000000 1.062500000000 54.850997924805 179 179 179
27.531250000000 1.062500000000 54.841003417969 167 167 167
27.437500000000 1.062500000000 54.725997924805 170 170 170
27.468750000000 1.062500000000 54.686996459961 111 111 111
27.609375000000 1.062500000000 54.647003173828 87 87 87
27.656250000000 1.062500000000 54.613006591797 166 166 166
27.687500000000 1.062500000000 54.563995361328 95 95 95
27.890625000000 1.062500000000 54.488998413086 56 56 56
27.890625000000 1.062500000000 54.430999755859 146 146 146
27.937500000000 1.062500000000 54.387008666992 164 164 164
27.812500000000 1.062500000000 54.264007568359 160 160 160
27.531250000000 1.062500000000 54.065002441406 168 168 168
27.562500000000 1.062500000000 54.026000976563 168 168 168
27.593750000000 1.078125000000 53.979995727539 171 171 171
27.750000000000 1.062500000000 54.001007080078 147 147 147
26.937500000000 1.078125000000 53.554000854492 197 197 197
26.796875000000 1.078125000000 53.432998657227 168 168 168
26.765625000000 1.078125000000 53.371002197266 182 182 182
26.890625000000 1.078125000000 53.378997802734 185 185 185
26.937500000000 1.078125000000 53.343994140625 171 171 171
26.953125000000 1.093750000000 53.305007934570 178 178 178
27.062500000000 1.078125000000 53.292999267578 166 166 166
27.000000000000 1.093750000000 53.216003417969 172 172 172
27.031250000000 1.078125000000 53.179000854492 182 182 182
27.015625000000 1.078125000000 53.125000000000 172 172 172
27.062500000000 1.078125000000 53.093994140625 175 175 175
27.171875000000 1.062500000000 53.085006713867 169 169 169
27.156250000000 1.078125000000 53.029998779297 166 166 166
27.437500000000 1.062500000000 53.085006713867 167 167 167
27.406250000000 1.078125000000 53.027008056641 153 153 153
27.406250000000 1.078125000000 52.970001220703 146 146 146
27.375000000000 1.078125000000 52.912994384766 146 146 146
27.656250000000 1.078125000000 52.962005615234 161 161 161
27.828125000000 1.062500000000 52.972000122070 77 77 77
27.796875000000 1.062500000000 52.850006103516 104 104 104
26.578125000000 1.093750000000 52.391006469727 179 179 179
26.578125000000 1.093750000000 52.347000122070 180 180 180
26.625000000000 1.078125000000 52.313995361328 169 169 169
26.656250000000 1.093750000000 52.277999877930 172 172 172
26.750000000000 1.078125000000 52.266998291016 183 183 183
26.843750000000 1.093750000000 52.251007080078 166 166 166
26.718750000000 1.093750000000 52.166000366211 176 176 176
26.750000000000 1.093750000000 52.132995605469 161 161 161
26.531250000000 1.093750000000 52.027008056641 164 164 164
26.531250000000 1.093750000000 51.981994628906 174 174 174
26.593750000000 1.093750000000 51.953994750977 174 174 174
26.687500000000 1.093750000000 51.934005737305 156 156 156
26.687500000000 1.093750000000 51.891998291016 171 171 171
26.750000000000 1.093750000000 51.860000610352 171 171 171
26.875000000000 1.093750000000 51.850006103516 130 130 130
27.000000000000 1.093750000000 51.833007812500 120 120 120
26.968750000000 1.093750000000 51.781005859375 164 164 164
27.031250000000 1.093750000000 51.751998901367 159 159 159
26.843750000000 1.093750000000 51.667999267578 176 176 176
26.859375000000 1.093750000000 51.625000000000 171 171 171
26.875000000000 1.093750000000 51.583007812500 172 172 172
26.984375000000 1.093750000000 51.561004638672 170 170 170
28.453125000000 1.062500000000 51.807006835938 12 12 12
28.437500000000 1.062500000000 51.699005126953 37 37 37
28.531250000000 1.062500000000 51.660995483398 26 26 26
26.656250000000 1.093750000000 51.281005859375 153 153 153
26.656250000000 1.093750000000 51.242004394531 142 142 142
27.140625000000 1.078125000000 51.276000976563 63 63 63
27.281250000000 1.078125000000 51.251007080078 100 100 100
27.312500000000 1.093750000000 51.210998535156 148 148 148
27.312500000000 1.078125000000 51.167007446289 96 96 96
28.062500000000 1.078125000000 51.123001098633 11 11 11
28.078125000000 1.093750000000 51.074996948242 161 161 161
28.093750000000 1.093750000000 51.026000976563 105 105 105
28.281250000000 1.078125000000 50.998001098633 18 18 18
26.937500000000 1.093750000000 50.680007934570 163 163 163
26.750000000000 1.093750000000 50.624008178711 184 184 184
26.765625000000 1.093750000000 50.583007812500 174 174 174
26.812500000000 1.109375000000 50.544998168945 159 159 159
26.937500000000 1.109375000000 50.509994506836 157 157 157
27.078125000000 1.109375000000 50.475006103516 164 164 164
27.156250000000 1.093750000000 50.434997558594 139 139 139
27.250000000000 1.093750000000 50.395996093750 122 122 122
27.234375000000 1.093750000000 50.350006103516 169 169 169
27.234375000000 1.093750000000 50.305999755859 155 155 155
27.250000000000 1.093750000000 50.262008666992 156 156 156
26.781250000000 1.109375000000 50.208007812500 173 173 173
26.781250000000 1.109375000000 50.166000366211 174 174 174
26.796875000000 1.093750000000 50.125000000000 164 164 164
26.812500000000 1.109375000000 50.083007812500 170 170 170
26.843750000000 1.109375000000 50.041000366211 158 158 158
26.968750000000 1.125000000000 49.998001098633 140 140 140
26.968750000000 1.093750000000 49.955001831055 164 164 164
26.937500000000 1.109375000000 49.912994384766 154 154 154
26.937500000000 1.125000000000 49.871002197266 101 101 101
28.484375000000 1.406250000000 55.753997802734 76 76 76
27.437500000000 1.437500000000 55.014007568359 173 173 173
27.437500000000 1.437500000000 54.958007812500 114 114 114
27.640625000000 1.437500000000 54.947006225586 12 12 12
27.765625000000 1.437500000000 54.964996337891 169 169 169
27.578125000000 1.453125000000 54.783996582031 174 174 174
27.750000000000 1.453125000000 54.826004028320 202 202 202
27.750000000000 1.437500000000 54.764007568359 197 197 197
27.656250000000 1.437500000000 54.649002075195 171 171 171
27.843750000000 1.437500000000 54.678009033203 161 161 161
27.796875000000 1.453125000000 54.595001220703 154 154 154
27.859375000000 1.421875000000 54.565994262695 158 158 158
27.859375000000 1.437500000000 54.511001586914 173 173 173
28.281250000000 1.437500000000 54.673004150391 88 88 88
28.031250000000 1.437500000000 54.408996582031 150 150 150
28.000000000000 1.437500000000 54.339004516602 166 166 166
28.062500000000 1.437500000000 54.309005737305 157 157 157
28.031250000000 1.437500000000 54.234008789063 161 161 161
27.718750000000 1.437500000000 54.013000488281 184 184 184
27.687500000000 1.453125000000 53.944000244141 183 183 183
27.421875000000 1.437500000000 53.755996704102 171 171 171
27.468750000000 1.437500000000 53.722000122070 164 164 164
27.500000000000 1.437500000000 53.692001342773 155 155 155
27.109375000000 1.468750000000 53.451995849609 171 171 171
27.125000000000 1.453125000000 53.412002563477 146 146 146
26.937500000000 1.468750000000 53.270004272461 164 164 164
26.890625000000 1.468750000000 53.203002929688 176 176 176
26.937500000000 1.468750000000 53.173004150391 177 177 177
27.000000000000 1.453125000000 53.147994995117 177 177 177
27.109375000000 1.468750000000 53.145004272461 159 159 159
27.156250000000 1.468750000000 53.109008789063 161 161 161
27.078125000000 1.468750000000 53.026000976563 160 160 160
27.156250000000 1.453125000000 53.014007568359 148 148 148
27.359375000000 1.453125000000 53.039001464844 145 145 145
27.875000000000 1.437500000000 53.179000854492 141 141 141
27.656250000000 1.437500000000 53.048995971680 112 112 112
27.625000000000 1.437500000000 52.979995727539 139 139 139
27.359375000000 1.453125000000 52.833007812500 150 150 150
27.328125000000 1.437500000000 52.770004272461 162 162 162
27.375000000000 1.437500000000 52.733001708984 151 151 151
27.000000000000 1.453125000000 52.559005737305 197 197 197
26.906250000000 1.453125000000 52.481002807617 168 168 168
26.937500000000 1.468750000000 52.443008422852 162 162 162
26.968750000000 1.468750000000 52.404998779297 161 161 161
27.250000000000 1.453125000000 52.447006225586 185 185 185
27.281250000000 1.453125000000 52.408004760742 168 168 168
27.406250000000 1.453125000000 52.395004272461 143 143 143
26.093750000000 1.484375000000 51.962005615234 120 120 120
26.109375000000 1.484375000000 51.925994873047 174 174 174
26.171875000000 1.484375000000 51.902999877930 192 192 192
26.265625000000 1.468750000000 51.889007568359 180 180 180
26.281250000000 1.468750000000 51.854003906250 165 165 165
26.343750000000 1.468750000000 51.822006225586 221 221 221
26.156250000000 1.484375000000 51.733001708984 166 166 166
26.156250000000 1.500000000000 51.695999145508 175 175 175
26.281250000000 1.468750000000 51.684997558594 178 178 178
26.281250000000 1.484375000000 51.645004272461 179 179 179
26.265625000000 1.468750000000 51.598999023438 161 161 161
26.468750000000 1.468750000000 51.604003906250 208 208 208
26.687500000000 1.468750000000 51.611999511719 157 157 157
26.687500000000 1.468750000000 51.568008422852 161 161 161
26.625000000000 1.484375000000 51.512008666992 166 166 166
26.656250000000 1.500000000000 51.475006103516 165 165 165
26.843750000000 1.468750000000 51.468002319336 155 155 155
26.750000000000 1.468750000000 51.410003662109 167 167 167
26.843750000000 1.468750000000 51.382995605469 165 165 165
26.937500000000 1.468750000000 51.356002807617 161 161 161
26.843750000000 1.468750000000 51.296005249023 157 157 157
26.671875000000 1.484375000000 51.225006103516 166 166 166
26.671875000000 1.484375000000 51.182998657227 163 163 163
28.515625000000 1.437500000000 51.423004150391 72 72 72
28.468750000000 1.437500000000 51.361007690430 96 96 96
27.937500000000 1.453125000000 51.136001586914 43 43 43
28.812500000000 1.437500000000 51.195007324219 19 19 19
28.734375000000 1.453125000000 51.132003784180 88 88 88
27.406250000000 1.468750000000 50.930999755859 156 156 156
27.500000000000 1.468750000000 50.895004272461 168 168 168
28.890625000000 1.437500000000 50.986007690430 75 75 75
28.187500000000 1.468750000000 50.865997314453 49 49 49
28.156250000000 1.468750000000 50.811996459961 82 82 82
28.125000000000 1.453125000000 50.759994506836 130 130 130
28.437500000000 1.453125000000 50.734008789063 75 75 75
27.468750000000 1.468750000000 50.615005493164 153 153 153
27.453125000000 1.468750000000 50.568008422852 177 177 177
27.437500000000 1.468750000000 50.520996093750 177 177 177
27.437500000000 1.468750000000 50.475997924805 158 158 158
27.406250000000 1.468750000000 50.429000854492 176 176 176
27.218750000000 1.468750000000 50.375000000000 153 153 153
27.125000000000 1.484375000000 50.328002929688 168 168 168
27.078125000000 1.468750000000 50.283004760742 168 168 168
27.062500000000 1.484375000000 50.238998413086 171 171 171
27.062500000000 1.484375000000 50.195999145508 171 171 171
27.187500000000 1.484375000000 50.154006958008 177 177 177
27.328125000000 1.468750000000 50.111007690430 132 132 132
27.312500000000 1.468750000000 50.065994262695 124 124 124
27.312500000000 1.468750000000 50.020996093750 130 130 130
27.296875000000 1.468750000000 49.977005004883 125 125 125
27.156250000000 1.484375000000 49.934005737305 172 172 172
27.125000000000 1.484375000000 49.891006469727 165 165 165
27.156250000000 1.484375000000 49.847000122070 81 81 81
27.484375000000 1.453125000000 52.373001098633 134 134 134
28.312500000000 1.812500000000 56.416000366211 57 57 57
28.281250000000 1.812500000000 56.328002929688 67 67 67
28.265625000000 1.812500000000 56.081008911133 61 61 61
27.437500000000 1.812500000000 55.444000244141 166 166 166
27.437500000000 1.812500000000 55.371002197266 171 171 171
28.250000000000 1.812500000000 55.850997924805 121 121 121
27.906250000000 1.828125000000 55.552001953125 93 93 93
27.125000000000 1.828125000000 54.966995239258 184 184 184
27.078125000000 1.828125000000 54.880004882813 178 178 178
27.109375000000 1.828125000000 54.839004516602 176 176 176
27.109375000000 1.828125000000 54.779998779297 179 179 179
27.125000000000 1.828125000000 54.729995727539 175 175 175
27.203125000000 1.828125000000 54.716003417969 174 174 174
27.296875000000 1.828125000000 54.708007812500 190 190 190
27.843750000000 1.812500000000 54.981994628906 156 156 156
27.796875000000 1.812500000000 54.882003784180 155 155 155
27.656250000000 1.812500000000 54.738998413086 170 170 170
27.421875000000 1.812500000000 54.540008544922 177 177 177
27.375000000000 1.828125000000 54.457000732422 165 165 165
27.031250000000 1.828125000000 54.208007812500 174 174 174
26.906250000000 1.828125000000 54.074996948242 181 181 181
26.906250000000 1.828125000000 54.024002075195 175 175 175
26.968750000000 1.828125000000 54.005996704102 194 194 194
26.843750000000 1.843750000000 53.887008666992 126 126 126
26.937500000000 1.828125000000 53.875000000000 183 183 183
27.515625000000 1.828125000000 54.119003295898 162 162 162
27.125000000000 1.828125000000 53.865997314453 178 178 178
26.906250000000 1.828125000000 53.701004028320 181 181 181
26.937500000000 1.828125000000 53.666000366211 164 164 164
27.000000000000 1.828125000000 53.643005371094 155 155 155
27.093750000000 1.828125000000 53.630996704102 160 160 160
27.109375000000 1.828125000000 53.585998535156 163 163 163
27.187500000000 1.828125000000 53.572998046875 186 186 186
27.468750000000 1.828125000000 53.643005371094 180 180 180
27.968750000000 1.812500000000 53.817001342773 107 107 107
27.703125000000 1.812500000000 53.641006469727 148 148 148
27.046875000000 1.828125000000 53.296005249023 206 206 206
27.062500000000 1.828125000000 53.251007080078 154 154 154
27.203125000000 1.828125000000 53.259994506836 157 157 157
27.218750000000 1.843750000000 53.214996337891 157 157 157
27.218750000000 1.843750000000 53.160995483398 131 131 131
27.375000000000 1.828125000000 53.119003295898 113 113 113
27.375000000000 1.828125000000 53.072006225586 167 167 167
27.453125000000 1.812500000000 53.048004150391 129 129 129
27.531250000000 1.812500000000 53.024002075195 115 115 115
27.515625000000 1.828125000000 52.968002319336 101 101 101
27.546875000000 1.828125000000 52.925003051758 110 110 110
25.843750000000 1.843750000000 52.270996093750 187 187 187
25.843750000000 1.859375000000 52.227996826172 130 130 130
25.843750000000 1.843750000000 52.192001342773 183 183 183
25.843750000000 1.843750000000 52.147994995117 186 186 186
25.843750000000 1.859375000000 52.106002807617 181 181 181
25.828125000000 1.859375000000 52.063003540039 184 184 184
25.843750000000 1.843750000000 52.031005859375 182 182 182
25.890625000000 1.843750000000 52.003005981445 178 178 178
25.937500000000 1.843750000000 51.977005004883 176 176 176
26.000000000000 1.859375000000 51.953002929688 176 176 176
26.031250000000 1.859375000000 51.925994873047 167 167 167
26.125000000000 1.859375000000 51.908996582031 171 171 171
26.218750000000 1.859375000000 51.901000976563 166 166 166
26.250000000000 1.859375000000 51.863998413086 171 171 171
26.500000000000 1.843750000000 51.886001586914 183 183 183
26.125000000000 1.875000000000 51.746002197266 86 86 86
26.093750000000 1.859375000000 51.697998046875 166 166 166
26.015625000000 1.843750000000 51.643005371094 183 183 183
26.046875000000 1.859375000000 51.609008789063 169 169 169
26.109375000000 1.875000000000 51.583999633789 167 167 167
26.187500000000 1.875000000000 51.563995361328 159 159 159
26.218750000000 1.859375000000 51.529998779297 149 149 149
26.281250000000 1.875000000000 51.501998901367 197 197 197
26.796875000000 1.843750000000 51.570999145508 163 163 163
26.656250000000 1.859375000000 51.496994018555 174 174 174
26.593750000000 1.843750000000 51.444000244141 192 192 192
26.750000000000 1.843750000000 51.430999755859 186 186 186
26.671875000000 1.843750000000 51.373001098633 158 158 158
26.843750000000 1.859375000000 51.360000610352 157 157 157
26.859375000000 1.843750000000 51.320999145508 157 157 157
26.796875000000 1.843750000000 51.268005371094 133 133 133
26.734375000000 1.859375000000 51.214004516602 132 132 132
26.687500000000 1.859375000000 51.164001464844 168 168 168
26.734375000000 1.859375000000 51.128997802734 178 178 178
27.406250000000 1.828125000000 51.186004638672 158 158 158
28.187500000000 1.812500000000 51.244995117188 53 53 53
27.281250000000 1.859375000000 51.074005126953 164 164 164
27.062500000000 1.859375000000 51.001998901367 163 163 163
27.031250000000 1.843750000000 50.955001831055 159 159 159
27.031250000000 1.843750000000 50.908996582031 159 159 159
27.125000000000 1.859375000000 50.878005981445 101 101 101
27.250000000000 1.843750000000 50.845001220703 143 143 143
27.328125000000 1.843750000000 50.809005737305 125 125 125
27.484375000000 1.843750000000 50.777999877930 192 192 192
27.703125000000 1.843750000000 50.751007080078 184 184 184
27.359375000000 1.843750000000 50.675994873047 165 165 165
27.375000000000 1.828125000000 50.632003784180 157 157 157
27.437500000000 1.843750000000 50.591003417969 79 79 79
27.625000000000 1.843750000000 50.557006835938 68 68 68
27.390625000000 1.843750000000 50.496002197266 146 146 146
27.250000000000 1.843750000000 50.444000244141 178 178 178
27.234375000000 1.859375000000 50.399002075195 175 175 175
27.390625000000 1.843750000000 50.361007690430 146 146 146
27.406250000000 1.843750000000 50.315994262695 154 154 154
27.468750000000 1.843750000000 50.272003173828 138 138 138
27.375000000000 1.843750000000 50.225006103516 125 125 125
27.296875000000 1.859375000000 50.179000854492 165 165 165
27.265625000000 1.859375000000 50.134002685547 171 171 171
27.187500000000 1.859375000000 50.089004516602 181 181 181
27.187500000000 1.859375000000 50.044998168945 177 177 177
27.218750000000 1.859375000000 50.001007080078 169 169 169
27.218750000000 1.859375000000 49.956008911133 159 159 159
27.062500000000 1.843750000000 49.915008544922 159 159 159
27.171875000000 1.859375000000 49.869003295898 89 89 89
28.187500000000 1.843750000000 49.792999267578 58 58 58
28.015625000000 1.843750000000 49.503997802734 29 29 29
28.000000000000 1.843750000000 49.457000732422 15 15 15
27.703125000000 1.812500000000 54.341003417969 139 139 139
28.312500000000 1.828125000000 53.488998413086 135 135 135
28.531250000000 1.796875000000 53.167007446289 54 54 54
26.937500000000 1.843750000000 51.957000732422 145 145 145
28.031250000000 2.187500000000 56.475997924805 84 84 84
28.062500000000 2.187500000000 56.421997070313 128 128 128
28.093750000000 2.171875000000 56.369003295898 158 158 158
28.093750000000 2.171875000000 56.287002563477 160 160 160
27.703125000000 2.171875000000 55.929000854492 165 165 165
26.968750000000 2.203125000000 55.337997436523 219 219 219
26.953125000000 2.187500000000 55.257003784180 202 202 202
26.937500000000 2.187500000000 55.186996459961 175 175 175
26.984375000000 2.187500000000 55.154998779297 175 175 175
27.078125000000 2.187500000000 55.152008056641 127 127 127
26.968750000000 2.187500000000 55.009994506836 180 180 180
26.968750000000 2.203125000000 54.958007812500 176 176 176
27.015625000000 2.203125000000 54.927001953125 173 173 173
27.062500000000 2.187500000000 54.886001586914 177 177 177
27.125000000000 2.187500000000 54.869995117188 163 163 163
27.312500000000 2.187500000000 54.923995971680 168 168 168
27.062500000000 2.187500000000 54.716003417969 172 172 172
27.000000000000 2.218750000000 54.611999511719 174 174 174
26.781250000000 2.203125000000 54.427001953125 195 195 195
26.593750000000 2.187500000000 54.257003784180 182 182 182
26.625000000000 2.203125000000 54.216995239258 174 174 174
26.687500000000 2.203125000000 54.188003540039 165 165 165
26.718750000000 2.203125000000 54.156005859375 170 170 170
26.765625000000 2.203125000000 54.128005981445 169 169 169
26.812500000000 2.203125000000 54.104003906250 172 172 172
26.875000000000 2.203125000000 54.080001831055 168 168 168
26.968750000000 2.203125000000 54.072998046875 172 172 172
26.843750000000 2.203125000000 53.962997436523 168 168 168
26.953125000000 2.218750000000 53.960006713867 195 195 195
26.953125000000 2.218750000000 53.904006958008 167 167 167
27.000000000000 2.203125000000 53.884002685547 187 187 187
27.000000000000 2.203125000000 53.826004028320 170 170 170
27.031250000000 2.203125000000 53.781997680664 173 173 173
27.000000000000 2.203125000000 53.714996337891 162 162 162
27.125000000000 2.203125000000 53.718994140625 164 164 164
26.937500000000 2.203125000000 53.578002929688 175 175 175
26.906250000000 2.218750000000 53.511001586914 175 175 175
26.968750000000 2.203125000000 53.485000610352 161 161 161
27.000000000000 2.203125000000 53.458007812500 162 162 162
27.125000000000 2.187500000000 53.453994750977 177 177 177
27.046875000000 2.187500000000 53.367996215820 155 155 155
26.843750000000 2.203125000000 53.223999023438 221 221 221
26.781250000000 2.203125000000 53.152008056641 168 168 168
26.875000000000 2.218750000000 53.137008666992 160 160 160
26.906250000000 2.203125000000 53.106994628906 160 160 160
26.812500000000 2.218750000000 53.020004272461 176 176 176
26.781250000000 2.218750000000 52.951004028320 173 173 173
26.765625000000 2.203125000000 52.897994995117 182 182 182
26.781250000000 2.203125000000 52.863998413086 175 175 175
26.875000000000 2.203125000000 52.843994140625 143 143 143
26.921875000000 2.203125000000 52.815002441406 141 141 141
26.937500000000 2.218750000000 52.772003173828 154 154 154
26.937500000000 2.218750000000 52.725997924805 176 176 176
27.000000000000 2.218750000000 52.697006225586 164 164 164
27.531250000000 2.203125000000 52.792007446289 154 154 154
27.781250000000 2.187500000000 52.820999145508 133 133 133
27.687500000000 2.187500000000 52.736999511719 100 100 100
28.703125000000 2.171875000000 53.014007568359 9 9 9
27.265625000000 2.203125000000 52.494995117188 64 64 64
27.234375000000 2.203125000000 52.438995361328 166 166 166
27.234375000000 2.203125000000 52.391006469727 162 162 162
26.968750000000 2.218750000000 52.259994506836 170 170 170
26.828125000000 2.203125000000 52.175994873047 167 167 167
26.906250000000 2.218750000000 52.145996093750 161 161 161
26.218750000000 2.218750000000 51.915008544922 126 126 126
26.250000000000 2.218750000000 51.882995605469 186 186 186
26.281250000000 2.218750000000 51.846008300781 184 184 184
26.968750000000 2.218750000000 51.986007690430 184 184 184
26.968750000000 2.218750000000 51.938003540039 163 163 163
26.906250000000 2.218750000000 51.878997802734 199 199 199
26.781250000000 2.218750000000 51.805999755859 162 162 162
26.343750000000 2.234375000000 51.654006958008 182 182 182
26.343750000000 2.234375000000 51.613006591797 182 182 182
26.343750000000 2.234375000000 51.570007324219 174 174 174
26.375000000000 2.234375000000 51.540008544922 170 170 170
26.468750000000 2.218750000000 51.514999389648 166 166 166
26.531250000000 2.203125000000 51.488998413086 166 166 166
26.687500000000 2.218750000000 51.475006103516 181 181 181
26.781250000000 2.218750000000 51.456008911133 165 165 165
26.875000000000 2.218750000000 51.429000854492 195 195 195
27.765625000000 2.203125000000 51.546997070313 127 127 127
26.500000000000 2.218750000000 51.275009155273 169 169 169
26.515625000000 2.218750000000 51.236999511719 170 170 170
26.562500000000 2.218750000000 51.203994750977 169 169 169
26.562500000000 2.218750000000 51.162002563477 139 139 139
28.031250000000 2.187500000000 51.343994140625 16 16 16
28.078125000000 2.187500000000 51.302001953125 49 49 49
27.968750000000 2.203125000000 51.236999511719 131 131 131
27.921875000000 2.203125000000 51.179000854492 200 200 200
26.828125000000 2.218750000000 50.988998413086 174 174 174
26.843750000000 2.218750000000 50.949005126953 165 165 165
26.968750000000 2.218750000000 50.921997070313 185 185 185
27.156250000000 2.218750000000 50.899002075195 144 144 144
27.375000000000 2.218750000000 50.878005981445 139 139 139
29.093750000000 2.187500000000 51.001998901367 25 25 25
28.437500000000 2.187500000000 50.886001586914 50 50 50
28.312500000000 2.187500000000 50.822006225586 166 166 166
27.921875000000 2.203125000000 50.740005493164 85 85 85
27.843750000000 2.203125000000 50.686004638672 149 149 149
28.046875000000 2.187500000000 50.651000976563 121 121 121
27.859375000000 2.218750000000 50.589996337891 112 112 112
27.718750000000 2.203125000000 50.533996582031 118 118 118
27.750000000000 2.203125000000 50.488998413086 110 110 110
26.750000000000 2.218750000000 50.393997192383 167 167 167
26.781250000000 2.234375000000 50.354003906250 166 166 166
26.859375000000 2.234375000000 50.315002441406 168 168 168
26.906250000000 2.234375000000 50.274002075195 167 167 167
26.875000000000 2.218750000000 50.231002807617 168 168 168
26.906250000000 2.234375000000 50.188995361328 169 169 169
26.953125000000 2.218750000000 50.147003173828 169 169 169
27.093750000000 2.218750000000 50.106002807617 166 166 166
27.062500000000 2.218750000000 50.061996459961 168 168 168
27.015625000000 2.218750000000 50.018997192383 165 165 165
27.109375000000 2.218750000000 49.975006103516 166 166 166
27.156250000000 2.218750000000 49.930999755859 125 125 125
28.812500000000 2.203125000000 49.848007202148 20 20 20
28.906250000000 2.203125000000 49.792007446289 37 37 37
28.812500000000 2.187500000000 49.742004394531 16 16 16
28.500000000000 2.203125000000 49.701004028320 115 115 115
28.062500000000 2.203125000000 49.669006347656 38 38 38
27.718750000000 2.218750000000 49.638000488281 39 39 39
28.562500000000 2.187500000000 49.121994018555 17 17 17
27.656250000000 2.171875000000 55.554000854492 148 148 148
27.093750000000 2.203125000000 52.158004760742 147 147 147
27.312500000000 2.531250000000 55.406997680664 98 98 98
27.015625000000 2.562500000000 55.130996704102 175 175 175
27.000000000000 2.562500000000 55.061004638672 175 175 175
27.000000000000 2.562500000000 54.994003295898 179 179 179
27.015625000000 2.562500000000 54.945999145508 182 182 182
27.031250000000 2.562500000000 54.895996093750 177 177 177
27.031250000000 2.546875000000 54.826995849609 181 181 181
27.031250000000 2.562500000000 54.772003173828 175 175 175
26.593750000000 2.562500000000 54.432006835938 201 201 201
26.593750000000 2.562500000000 54.374008178711 188 188 188
26.562500000000 2.578125000000 54.309005737305 172 172 172
26.562500000000 2.578125000000 54.253997802734 177 177 177
26.593750000000 2.562500000000 54.212005615234 175 175 175
26.625000000000 2.578125000000 54.169006347656 173 173 173
26.625000000000 2.562500000000 54.128997802734 172 172 172
27.781250000000 2.546875000000 54.727996826172 126 126 126
26.656250000000 2.562500000000 54.042999267578 184 184 184
26.562500000000 2.578125000000 53.932006835938 180 180 180
26.640625000000 2.578125000000 53.919998168945 161 161 161
26.578125000000 2.578125000000 53.830001831055 162 162 162
26.531250000000 2.562500000000 53.761001586914 178 178 178
26.531250000000 2.578125000000 53.697006225586 176 176 176
26.562500000000 2.578125000000 53.671005249023 213 213 213
26.593750000000 2.562500000000 53.628005981445 180 180 180
26.625000000000 2.578125000000 53.587997436523 171 171 171
26.718750000000 2.562500000000 53.597000122070 179 179 179
26.734375000000 2.562500000000 53.546997070313 167 167 167
26.843750000000 2.578125000000 53.548004150391 169 169 169
26.984375000000 2.562500000000 53.563995361328 189 189 189
27.000000000000 2.562500000000 53.518997192383 183 183 183
26.875000000000 2.562500000000 53.410995483398 161 161 161
26.906250000000 2.562500000000 53.378997802734 163 163 163
27.453125000000 2.562500000000 53.568008422852 141 141 141
27.375000000000 2.562500000000 53.483001708984 154 154 154
27.781250000000 2.546875000000 53.598007202148 164 164 164
27.187500000000 2.562500000000 53.292007446289 169 169 169
27.171875000000 2.562500000000 53.229995727539 157 157 157
27.187500000000 2.562500000000 53.188995361328 143 143 143
27.156250000000 2.562500000000 53.119003295898 171 171 171
26.812500000000 2.562500000000 52.934997558594 167 167 167
26.765625000000 2.562500000000 52.867004394531 186 186 186
26.765625000000 2.562500000000 52.820007324219 175 175 175
26.796875000000 2.578125000000 52.783004760742 175 175 175
26.796875000000 2.578125000000 52.733001708984 182 182 182
26.843750000000 2.578125000000 52.706008911133 170 170 170
26.515625000000 2.578125000000 52.537994384766 187 187 187
26.468750000000 2.578125000000 52.479003906250 181 181 181
26.453125000000 2.593750000000 52.430007934570 168 168 168
26.593750000000 2.578125000000 52.434005737305 179 179 179
26.656250000000 2.578125000000 52.406997680664 183 183 183
26.640625000000 2.578125000000 52.361007690430 144 144 144
26.750000000000 2.562500000000 52.350997924805 136 136 136
26.875000000000 2.578125000000 52.339004516602 157 157 157
26.984375000000 2.562500000000 52.328002929688 167 167 167
26.906250000000 2.562500000000 52.257003784180 167 167 167
26.937500000000 2.578125000000 52.222000122070 156 156 156
27.000000000000 2.578125000000 52.192001342773 156 156 156
27.921875000000 2.562500000000 52.406997680664 98 98 98
27.250000000000 2.562500000000 52.169006347656 138 138 138
27.250000000000 2.562500000000 52.126998901367 161 161 161
27.093750000000 2.578125000000 52.031005859375 179 179 179
27.062500000000 2.593750000000 51.979003906250 153 153 153
27.125000000000 2.578125000000 51.947006225586 144 144 144
27.343750000000 2.562500000000 51.953002929688 96 96 96
27.437500000000 2.562500000000 51.929000854492 147 147 147
27.500000000000 2.562500000000 51.899002075195 121 121 121
27.593750000000 2.562500000000 51.869003295898 21 21 21
27.890625000000 2.562500000000 51.887008666992 114 114 114
27.125000000000 2.578125000000 51.671005249023 181 181 181
27.062500000000 2.593750000000 51.613998413086 171 171 171
27.078125000000 2.578125000000 51.570999145508 145 145 145
27.171875000000 2.562500000000 51.544006347656 146 146 146
27.390625000000 2.578125000000 51.540008544922 103 103 103
27.421875000000 2.562500000000 51.500000000000 103 103 103
27.218750000000 2.578125000000 51.417999267578 56 56 56
27.281250000000 2.562500000000 51.382003784180 184 184 184
27.062500000000 2.578125000000 51.300994873047 152 152 152
27.000000000000 2.593750000000 51.246994018555 163 163 163
26.937500000000 2.578125000000 51.194000244141 177 177 177
27.140625000000 2.578125000000 51.177001953125 130 130 130
28.593750000000 2.562500000000 50.865005493164 58 58 58
28.156250000000 2.562500000000 50.775009155273 76 76 76
28.343750000000 2.562500000000 50.740005493164 40 40 40
28.234375000000 2.562500000000 50.680999755859 53 53 53
28.187500000000 2.578125000000 50.626998901367 35 35 35
28.125000000000 2.578125000000 50.574996948242 42 42 42
27.937500000000 2.562500000000 50.514007568359 123 123 123
27.750000000000 2.562500000000 50.457000732422 165 165 165
26.812500000000 2.593750000000 50.369003295898 108 108 108
26.781250000000 2.593750000000 50.324996948242 164 164 164
26.750000000000 2.593750000000 50.283004760742 163 163 163
26.796875000000 2.593750000000 50.242996215820 176 176 176
26.812500000000 2.593750000000 50.201004028320 170 170 170
27.015625000000 2.593750000000 50.162002563477 177 177 177
26.843750000000 2.593750000000 50.117996215820 153 153 153
27.046875000000 2.593750000000 50.076004028320 177 177 177
