38.062500000000 19.453125000000 7.948989868164 190 190 190
37.984375000000 19.468750000000 7.837997436523 137 137 137
38.000000000000 19.468750000000 7.748992919922 160 160 160
36.781250000000 19.562500000000 7.416992187500 20 20 20
37.968750000000 19.484375000000 7.558990478516 125 125 125
36.562500000000 19.578125000000 7.207992553711 140 140 140
36.687500000000 19.562500000000 7.145996093750 100 100 100
36.203125000000 19.625000000000 6.979995727539 129 129 129
36.015625000000 19.625000000000 6.866989135742 147 147 147
36.093750000000 19.625000000000 6.802001953125 156 156 156
36.062500000000 19.625000000000 6.718002319336 164 164 164
36.171875000000 19.609375000000 6.654998779297 251 251 251
36.281250000000 19.625000000000 6.590988159180 248 248 248
36.187500000000 19.625000000000 6.498001098633 168 168 168
36.218750000000 19.609375000000 6.422988891602 186 186 186
36.546875000000 19.593750000000 6.384002685547 233 233 233
36.937500000000 19.578125000000 6.349990844727 220 220 220
37.015625000000 19.562500000000 6.276992797852 157 157 157
36.562500000000 19.593750000000 6.142990112305 205 205 205
36.500000000000 19.609375000000 6.054992675781 204 204 204
37.250000000000 19.546875000000 6.047988891602 36 36 36
36.703125000000 19.593750000000 5.912994384766 133 133 133
36.703125000000 19.593750000000 5.832000732422 105 105 105
37.453125000000 19.531250000000 5.722991943359 129 129 129
37.484375000000 19.546875000000 5.639999389648 165 165 165
37.375000000000 19.546875000000 5.547988891602 133 133 133
37.437500000000 19.546875000000 5.464996337891 100 100 100
37.562500000000 19.531250000000 5.386993408203 136 136 136
38.062500000000 19.500000000000 5.321990966797 121 121 121
38.187500000000 19.484375000000 5.237991333008 66 66 66
37.546875000000 19.531250000000 5.127990722656 198 198 198
38.062500000000 19.500000000000 5.054992675781 149 149 149
37.875000000000 19.515625000000 4.962997436523 116 116 116
38.140625000000 19.484375000000 4.789993286133 219 219 219
38.062500000000 19.500000000000 4.699996948242 179 179 179
38.000000000000 19.515625000000 4.611999511719 156 156 156
37.968750000000 19.515625000000 4.524002075195 153 153 153
37.593750000000 19.546875000000 4.440994262695 174 174 174
37.593750000000 19.546875000000 4.354995727539 161 161 161
37.531250000000 19.562500000000 4.270996093750 159 159 159
37.468750000000 19.562500000000 4.186996459961 172 172 172
37.531250000000 19.546875000000 4.098999023438 149 149 149
37.609375000000 19.546875000000 4.009994506836 137 137 137
37.515625000000 19.562500000000 3.927993774414 148 148 148
37.453125000000 19.578125000000 3.845993041992 146 146 146
37.484375000000 19.562500000000 3.757995605469 143 143 143
37.531250000000 19.546875000000 3.668991088867 128 128 128
37.562500000000 19.562500000000 3.580993652344 131 131 131
37.671875000000 19.562500000000 3.486999511719 146 146 146
37.750000000000 19.562500000000 3.391998291016 153 153 153
37.625000000000 19.562500000000 3.315994262695 150 150 150
37.656250000000 19.562500000000 3.225997924805 153 153 153
37.500000000000 19.578125000000 3.154998779297 157 157 157
37.500000000000 19.578125000000 3.067993164063 141 141 141
37.250000000000 19.593750000000 3.011001586914 157 157 157
37.609375000000 19.562500000000 2.881988525391 128 128 128
37.953125000000 19.484375000000 7.646987915039 122 122 122
37.687500000000 19.687500000000 11.672988891602 18 18 18
37.796875000000 19.687500000000 11.617996215820 131 131 131
37.843750000000 19.687500000000 11.524993896484 144 144 144
37.984375000000 19.671875000000 11.485992431641 136 136 136
38.109375000000 19.671875000000 11.437988281250 150 150 150
38.453125000000 19.640625000000 11.483001708984 138 138 138
38.437500000000 19.640625000000 11.367996215820 178 178 178
38.531250000000 19.640625000000 11.302001953125 142 142 142
38.156250000000 19.671875000000 11.042999267578 178 178 178
38.062500000000 19.671875000000 10.891998291016 176 176 176
37.953125000000 19.703125000000 10.744995117188 137 137 137
37.937500000000 19.687500000000 10.638992309570 146 146 146
37.625000000000 19.718750000000 10.313995361328 211 211 211
37.625000000000 19.718750000000 10.216995239258 159 159 159
37.531250000000 19.718750000000 10.082000732422 143 143 143
37.562500000000 19.734375000000 9.993988037109 143 143 143
37.406250000000 19.734375000000 9.845993041992 154 154 154
37.312500000000 19.750000000000 9.713989257813 140 140 140
37.437500000000 19.734375000000 9.668991088867 239 239 239
37.593750000000 19.734375000000 9.625991821289 221 221 221
37.968750000000 19.703125000000 9.651992797852 133 133 133
37.765625000000 19.718750000000 9.392990112305 101 101 101
38.015625000000 19.718750000000 9.371002197266 85 85 85
37.968750000000 19.718750000000 9.164993286133 125 125 125
38.015625000000 19.718750000000 9.082992553711 138 138 138
37.703125000000 19.734375000000 8.901000976563 132 132 132
37.875000000000 19.734375000000 8.853988647461 162 162 162
37.750000000000 19.734375000000 8.725997924805 141 141 141
37.750000000000 19.734375000000 8.631988525391 138 138 138
37.843750000000 19.718750000000 8.563995361328 150 150 150
38.250000000000 19.687500000000 8.574996948242 5 5 5
38.406250000000 19.687500000000 8.321990966797 238 238 238
36.765625000000 19.828125000000 7.852996826172 112 112 112
36.828125000000 19.812500000000 7.779998779297 123 123 123
37.078125000000 19.796875000000 7.750991821289 170 170 170
37.031250000000 19.812500000000 7.652999877930 200 200 200
36.734375000000 19.828125000000 7.509002685547 138 138 138
36.812500000000 19.812500000000 7.437988281250 184 184 184
36.718750000000 19.843750000000 7.333999633789 189 189 189
36.343750000000 19.859375000000 7.183990478516 142 142 142
36.390625000000 19.875000000000 7.108001708984 141 141 141
36.562500000000 19.843750000000 7.055999755859 122 122 122
36.718750000000 19.828125000000 7.002990722656 160 160 160
36.609375000000 19.843750000000 6.901000976563 158 158 158
36.140625000000 19.890625000000 6.744995117188 212 212 212
36.078125000000 19.906250000000 6.655990600586 143 143 143
37.531250000000 19.765625000000 6.787002563477 219 219 219
37.375000000000 19.781250000000 6.677993774414 225 225 225
37.234375000000 19.796875000000 6.572998046875 198 198 198
38.640625000000 19.703125000000 6.479995727539 136 136 136
37.671875000000 19.765625000000 6.192001342773 175 175 175
37.531250000000 19.796875000000 6.091995239258 124 124 124
37.546875000000 19.781250000000 6.005996704102 85 85 85
37.421875000000 19.796875000000 5.909988403320 120 120 120
37.500000000000 19.796875000000 5.830993652344 95 95 95
37.500000000000 19.796875000000 5.744995117188 62 62 62
38.187500000000 19.734375000000 5.614990234375 145 145 145
38.234375000000 19.734375000000 5.527999877930 128 128 128
38.531250000000 19.734375000000 5.453002929688 16 16 16
38.593750000000 19.718750000000 5.363998413086 92 92 92
37.828125000000 19.781250000000 5.242996215820 117 117 117
37.968750000000 19.765625000000 5.159988403320 47 47 47
38.218750000000 19.765625000000 4.449996948242 198 198 198
37.781250000000 19.796875000000 4.194992065430 143 143 143
37.718750000000 19.812500000000 4.110000610352 160 160 160
37.781250000000 19.796875000000 4.020996093750 149 149 149
37.812500000000 19.796875000000 3.930999755859 143 143 143
37.812500000000 19.812500000000 3.843994140625 120 120 120
38.062500000000 19.781250000000 3.651992797852 124 124 124
38.078125000000 19.781250000000 3.561996459961 142 142 142
38.093750000000 19.765625000000 3.472000122070 63 63 63
37.953125000000 19.796875000000 3.392990112305 82 82 82
37.828125000000 19.828125000000 3.317001342773 133 133 133
37.781250000000 19.828125000000 3.233001708984 143 143 143
37.562500000000 19.828125000000 3.166992187500 158 158 158
37.515625000000 19.828125000000 3.084991455078 164 164 164
37.562500000000 19.828125000000 2.993988037109 186 186 186
37.718750000000 19.828125000000 2.888992309570 153 153 153
37.593750000000 19.984375000000 10.832000732422 161 161 161
37.500000000000 20.000000000000 10.692993164063 140 140 140
37.578125000000 19.984375000000 10.626998901367 159 159 159
37.703125000000 19.984375000000 10.578002929688 157 157 157
38.000000000000 19.968750000000 10.487991333008 175 175 175
38.031250000000 19.968750000000 10.402999877930 188 188 188
37.656250000000 20.000000000000 10.158996582031 150 150 150
37.515625000000 20.015625000000 10.011993408203 148 148 148
37.500000000000 20.000000000000 9.904998779297 143 143 143
37.531250000000 20.015625000000 9.821990966797 152 152 152
38.000000000000 19.984375000000 9.888000488281 180 180 180
38.328125000000 19.953125000000 9.902999877930 142 142 142
38.218750000000 19.953125000000 9.768997192383 145 145 145
37.968750000000 19.984375000000 9.585998535156 143 143 143
37.843750000000 19.984375000000 9.450988769531 145 145 145
37.890625000000 19.984375000000 9.367996215820 160 160 160
38.484375000000 19.953125000000 9.449996948242 130 130 130
38.437500000000 19.953125000000 9.336990356445 145 145 145
38.031250000000 19.984375000000 9.121002197266 161 161 161
37.953125000000 20.000000000000 9.001998901367 138 138 138
38.218750000000 19.968750000000 8.981994628906 125 125 125
38.125000000000 19.968750000000 8.860992431641 138 138 138
37.890625000000 20.015625000000 8.699996948242 170 170 170
37.906250000000 20.015625000000 8.608001708984 150 150 150
37.906250000000 20.000000000000 8.517990112305 141 141 141
38.625000000000 19.953125000000 8.505996704102 157 157 157
38.484375000000 19.953125000000 8.277999877930 210 210 210
37.000000000000 20.093750000000 7.845993041992 246 246 246
36.859375000000 20.109375000000 7.731002807617 142 142 142
36.812500000000 20.109375000000 7.636993408203 158 158 158
36.796875000000 20.109375000000 7.546997070313 154 154 154
36.765625000000 20.109375000000 7.457992553711 168 168 168
36.687500000000 20.109375000000 7.356994628906 148 148 148
36.750000000000 20.109375000000 7.284988403320 149 149 149
36.796875000000 20.109375000000 7.209991455078 147 147 147
36.812500000000 20.109375000000 7.128997802734 159 159 159
36.656250000000 20.125000000000 7.019989013672 164 164 164
37.703125000000 20.046875000000 7.108001708984 115 115 115
36.171875000000 20.171875000000 6.776992797852 172 172 172
36.125000000000 20.171875000000 6.690994262695 161 161 161
36.390625000000 20.140625000000 6.651000976563 65 65 65
37.375000000000 20.062500000000 6.707992553711 226 226 226
37.437500000000 20.062500000000 6.629989624023 245 245 245
37.921875000000 20.031250000000 6.162002563477 207 207 207
38.000000000000 20.031250000000 5.811996459961 19 19 19
38.578125000000 20.000000000000 5.764999389648 16 16 16
38.625000000000 20.000000000000 5.675994873047 94 94 94
38.531250000000 20.000000000000 5.576995849609 37 37 37
38.531250000000 20.000000000000 5.485992431641 108 108 108
38.562500000000 20.000000000000 5.395996093750 28 28 28
38.218750000000 20.031250000000 5.110992431641 210 210 210
38.156250000000 20.062500000000 3.412994384766 16 16 16
38.203125000000 20.046875000000 3.317001342773 94 94 94
38.250000000000 20.046875000000 3.041000366211 25 25 25
37.796875000000 20.078125000000 2.912994384766 123 123 123
37.500000000000 20.312500000000 10.555999755859 53 53 53
37.531250000000 20.312500000000 10.470993041992 36 36 36
38.468750000000 20.234375000000 10.735992431641 51 51 51
38.484375000000 20.234375000000 10.638000488281 122 122 122
38.406250000000 20.250000000000 10.503997802734 122 122 122
38.515625000000 20.234375000000 10.442993164063 136 136 136
38.000000000000 20.296875000000 9.080993652344 80 80 80
38.125000000000 20.281250000000 9.018997192383 39 39 39
38.265625000000 20.281250000000 8.962997436523 81 81 81
38.437500000000 20.265625000000 8.912002563477 119 119 119
38.375000000000 20.265625000000 8.800994873047 145 145 145
38.515625000000 20.265625000000 8.738998413086 164 164 164
38.265625000000 20.281250000000 8.578002929688 142 142 142
37.906250000000 20.312500000000 8.391998291016 174 174 174
37.812500000000 20.328125000000 8.277999877930 147 147 147
37.703125000000 20.328125000000 8.160995483398 145 145 145
37.718750000000 20.359375000000 8.070999145508 166 166 166
38.312500000000 20.296875000000 8.112991333008 170 170 170
38.406250000000 20.296875000000 8.041992187500 245 245 245
38.437500000000 20.281250000000 7.950988769531 231 231 231
38.531250000000 20.281250000000 7.876998901367 179 179 179
37.687500000000 20.359375000000 7.167999267578 87 87 87
37.625000000000 20.359375000000 7.069000244141 137 137 137
37.625000000000 20.359375000000 6.979995727539 159 159 159
37.718750000000 20.359375000000 6.906997680664 186 186 186
37.890625000000 20.328125000000 6.843002319336 220 220 220
37.781250000000 20.328125000000 6.740997314453 196 196 196
37.671875000000 20.375000000000 6.460998535156 68 68 68
37.750000000000 20.359375000000 6.381988525391 55 55 55
37.781250000000 20.359375000000 6.296997070313 141 141 141
37.765625000000 20.343750000000 6.207992553711 148 148 148
37.718750000000 20.359375000000 6.114990234375 140 140 140
37.921875000000 20.359375000000 6.046997070313 111 111 111
38.062500000000 20.343750000000 5.970001220703 76 76 76
38.671875000000 20.578125000000 9.056991577148 95 95 95
38.656250000000 20.578125000000 8.951995849609 144 144 144
38.156250000000 20.625000000000 8.629989624023 208 208 208
38.031250000000 20.640625000000 8.500000000000 160 160 160
38.062500000000 20.625000000000 8.416000366211 164 164 164
38.625000000000 20.578125000000 8.453994750977 134 134 134
38.578125000000 20.593750000000 8.347991943359 141 141 141
38.593750000000 20.593750000000 8.253997802734 84 84 84
38.671875000000 20.593750000000 8.080993652344 180 180 180
38.640625000000 20.578125000000 7.978988647461 129 129 129
34.500000000000 17.578125000000 10.796997070313 183 183 183
34.468750000000 17.593750000000 10.688995361328 158 158 158
34.546875000000 17.531250000000 10.636993408203 173 173 173
34.718750000000 17.421875000000 10.530990600586 184 184 184
34.609375000000 17.484375000000 10.386993408203 161 161 161
34.734375000000 17.390625000000 10.353988647461 231 231 231
34.875000000000 17.656250000000 11.222000122070 233 233 233
34.812500000000 17.703125000000 11.090988159180 20 20 20
35.000000000000 17.562500000000 10.998001098633 146 146 146
34.937500000000 17.593750000000 10.871994018555 163 163 163
34.812500000000 17.687500000000 10.711990356445 150 150 150
34.890625000000 17.609375000000 10.662002563477 174 174 174
34.781250000000 17.671875000000 10.515991210938 181 181 181
34.875000000000 17.625000000000 10.463989257813 186 186 186
35.062500000000 17.500000000000 10.451995849609 155 155 155
35.015625000000 17.515625000000 10.151000976563 194 194 194
35.031250000000 17.484375000000 10.061996459961 251 251 251
35.250000000000 17.312500000000 9.882995605469 97 97 97
35.250000000000 17.703125000000 11.087997436523 196 196 196
35.312500000000 17.671875000000 11.019989013672 230 230 230
35.562500000000 17.500000000000 10.944000244141 163 163 163
35.343750000000 17.640625000000 10.741989135742 181 181 181
35.375000000000 17.609375000000 10.660995483398 243 243 243
35.171875000000 17.765625000000 10.463989257813 97 97 97
35.156250000000 17.750000000000 10.367996215820 91 91 91
34.968750000000 17.859375000000 10.194000244141 100 100 100
35.031250000000 17.828125000000 10.121994018555 165 165 165
35.125000000000 17.765625000000 10.067993164063 162 162 162
35.218750000000 17.703125000000 10.013992309570 149 149 149
35.359375000000 17.593750000000 9.981994628906 243 243 243
35.421875000000 17.531250000000 9.912994384766 235 235 235
35.078125000000 17.734375000000 8.867996215820 137 137 137
35.125000000000 17.703125000000 8.791992187500 162 162 162
35.312500000000 17.578125000000 8.759002685547 61 61 61
35.765625000000 17.703125000000 11.826995849609 198 198 198
35.765625000000 17.703125000000 11.716995239258 184 184 184
35.656250000000 17.796875000000 11.554000854492 156 156 156
35.468750000000 17.906250000000 11.360000610352 199 199 199
35.531250000000 17.875000000000 11.283996582031 210 210 210
35.500000000000 17.875000000000 11.171997070313 184 184 184
35.562500000000 17.843750000000 11.098999023438 142 142 142
35.593750000000 17.812500000000 11.017990112305 231 231 231
35.265625000000 18.031250000000 10.757995605469 134 134 134
35.390625000000 17.937500000000 10.722000122070 188 188 188
35.515625000000 17.843750000000 10.683990478516 216 216 216
35.812500000000 17.640625000000 10.720993041992 244 244 244
35.968750000000 17.546875000000 10.683990478516 59 59 59
35.578125000000 17.781250000000 10.321990966797 171 171 171
35.609375000000 17.765625000000 10.233993530273 132 132 132
35.562500000000 17.796875000000 10.121002197266 157 157 157
35.562500000000 17.796875000000 10.021987915039 185 185 185
35.796875000000 17.625000000000 10.019989013672 193 193 193
34.875000000000 18.234375000000 9.291000366211 121 121 121
34.937500000000 18.187500000000 9.222991943359 152 152 152
34.906250000000 18.203125000000 9.125991821289 191 191 191
35.046875000000 18.109375000000 9.085998535156 231 231 231
34.859375000000 18.218750000000 8.935989379883 155 155 155
34.906250000000 18.203125000000 8.862991333008 109 109 109
35.203125000000 18.000000000000 8.777999877930 71 71 71
35.203125000000 17.984375000000 8.688995361328 133 133 133
35.359375000000 17.859375000000 8.651000976563 127 127 127
35.359375000000 17.859375000000 8.557998657227 100 100 100
36.140625000000 17.312500000000 8.218994140625 100 100 100
36.156250000000 17.296875000000 8.127990722656 130 130 130
36.156250000000 17.296875000000 8.033996582031 96 96 96
36.078125000000 17.359375000000 7.918991088867 121 121 121
35.921875000000 17.453125000000 7.793991088867 142 142 142
35.953125000000 17.437500000000 7.707000732422 21 21 21
34.734375000000 18.265625000000 7.276000976563 92 92 92
34.718750000000 18.281250000000 7.188995361328 96 96 96
35.812500000000 17.984375000000 11.682998657227 197 197 197
35.828125000000 17.968750000000 11.582992553711 183 183 183
36.234375000000 17.687500000000 11.692001342773 234 234 234
35.953125000000 17.859375000000 11.338989257813 194 194 194
35.921875000000 17.890625000000 11.215988159180 167 167 167
35.843750000000 17.921875000000 11.084991455078 158 158 158
35.484375000000 18.171875000000 10.802993774414 192 192 192
35.640625000000 18.078125000000 10.776992797852 225 225 225
35.609375000000 18.093750000000 10.664001464844 158 158 158
35.671875000000 18.046875000000 10.593002319336 172 172 172
35.656250000000 18.031250000000 10.493988037109 178 178 178
35.718750000000 18.000000000000 10.414001464844 97 97 97
35.968750000000 17.828125000000 10.424987792969 38 38 38
35.781250000000 17.937500000000 10.251998901367 202 202 202
35.687500000000 18.015625000000 10.110000610352 185 185 185
35.031250000000 18.437500000000 9.751998901367 20 20 20
35.125000000000 18.375000000000 9.692001342773 196 196 196
36.203125000000 17.671875000000 10.020996093750 146 146 146
35.046875000000 18.421875000000 9.483001708984 179 179 179
34.968750000000 18.453125000000 9.363998413086 156 156 156
35.140625000000 18.359375000000 9.338989257813 149 149 149
35.062500000000 18.390625000000 9.218002319336 136 136 136
34.609375000000 18.703125000000 8.966995239258 181 181 181
34.609375000000 18.687500000000 8.882995605469 154 154 154
34.687500000000 18.640625000000 8.823989868164 186 186 186
34.921875000000 18.484375000000 8.810989379883 145 145 145
34.906250000000 18.484375000000 8.718002319336 90 90 90
35.843750000000 17.859375000000 8.925994873047 55 55 55
36.093750000000 17.656250000000 8.149993896484 183 183 183
36.140625000000 17.609375000000 8.067993164063 163 163 163
36.000000000000 17.703125000000 7.940002441406 162 162 162
35.875000000000 17.796875000000 7.819992065430 115 115 115
35.906250000000 17.765625000000 7.735992431641 139 139 139
34.953125000000 18.421875000000 7.269989013672 60 60 60
34.937500000000 18.421875000000 7.182998657227 129 129 129
35.250000000000 18.187500000000 7.156997680664 85 85 85
35.984375000000 17.703125000000 7.198989868164 105 105 105
35.937500000000 17.703125000000 7.099990844727 119 119 119
36.093750000000 17.625000000000 7.030990600586 108 108 108
36.062500000000 17.750000000000 10.169998168945 136 136 136
36.484375000000 17.796875000000 11.847000122070 172 172 172
36.078125000000 18.078125000000 11.531997680664 169 169 169
36.093750000000 18.078125000000 11.427001953125 184 184 184
36.250000000000 17.953125000000 11.399993896484 182 182 182
36.093750000000 18.046875000000 11.223999023438 251 251 251
35.937500000000 18.140625000000 11.049987792969 185 185 185
35.890625000000 18.171875000000 10.918991088867 180 180 180
35.906250000000 18.156250000000 10.828002929688 147 147 147
36.156250000000 17.984375000000 10.839996337891 180 180 180
36.015625000000 18.078125000000 10.671997070313 184 184 184
35.937500000000 18.125000000000 10.534988403320 171 171 171
35.906250000000 18.140625000000 10.427001953125 208 208 208
35.937500000000 18.109375000000 10.343994140625 9 9 9
36.171875000000 17.968750000000 10.335998535156 190 190 190
36.171875000000 17.953125000000 10.238998413086 120 120 120
36.515625000000 17.734375000000 10.269989013672 174 174 174
35.281250000000 18.562500000000 9.688995361328 168 168 168
35.078125000000 18.671875000000 9.515991210938 183 183 183
35.203125000000 18.593750000000 9.470993041992 198 198 198
34.968750000000 18.750000000000 9.289993286133 164 164 164
34.906250000000 18.796875000000 9.182998657227 164 164 164
35.125000000000 18.640625000000 9.164993286133 204 204 204
34.875000000000 18.796875000000 8.994995117188 160 160 160
34.906250000000 18.765625000000 8.918991088867 172 172 172
35.125000000000 18.609375000000 8.904998779297 150 150 150
35.203125000000 18.593750000000 8.834991455078 124 124 124
35.062500000000 18.656250000000 8.705001831055 181 181 181
35.984375000000 18.000000000000 7.957992553711 89 89 89
35.984375000000 18.000000000000 7.864990234375 148 148 148
36.890625000000 17.359375000000 7.677001953125 71 71 71
34.937500000000 18.687500000000 7.203994750977 104 104 104
34.921875000000 18.703125000000 7.116989135742 112 112 112
35.062500000000 18.609375000000 7.056991577148 155 155 155
34.906250000000 18.703125000000 6.946990966797 149 149 149
36.609375000000 17.484375000000 6.185989379883 15 15 15
36.765625000000 17.375000000000 6.103988647461 21 21 21
36.687500000000 17.953125000000 11.871002197266 255 255 255
36.750000000000 17.906250000000 11.789993286133 219 219 219
36.625000000000 17.984375000000 11.509002685547 149 149 149
36.593750000000 18.000000000000 11.386001586914 176 176 176
36.625000000000 17.968750000000 11.293991088867 164 164 164
36.609375000000 18.000000000000 11.175994873047 153 153 153
36.468750000000 18.062500000000 11.013000488281 201 201 201
35.968750000000 18.406250000000 10.679992675781 194 194 194
36.109375000000 18.296875000000 10.639999389648 181 181 181
36.078125000000 18.296875000000 10.526992797852 170 170 170
36.390625000000 18.109375000000 10.556991577148 210 210 210
35.859375000000 18.453125000000 10.235992431641 171 171 171
35.984375000000 18.375000000000 10.183990478516 187 187 187
35.812500000000 18.484375000000 10.021987915039 202 202 202
35.687500000000 18.562500000000 9.873992919922 22 22 22
36.593750000000 17.937500000000 10.128997802734 99 99 99
35.125000000000 18.921875000000 9.472000122070 160 160 160
35.312500000000 18.796875000000 9.442993164063 146 146 146
35.546875000000 18.656250000000 9.438995361328 149 149 149
36.031250000000 18.312500000000 9.419998168945 109 109 109
35.531250000000 18.640625000000 9.152999877930 184 184 184
35.140625000000 18.890625000000 8.931991577148 199 199 199
35.015625000000 18.984375000000 8.802993774414 180 180 180
35.562500000000 18.609375000000 8.886001586914 169 169 169
35.484375000000 18.671875000000 8.768997192383 153 153 153
36.046875000000 18.265625000000 8.849990844727 132 132 132
35.375000000000 18.734375000000 8.552993774414 147 147 147
35.281250000000 18.796875000000 8.437988281250 136 136 136
36.156250000000 18.187500000000 8.597000122070 31 31 31
37.359375000000 17.359375000000 8.830001831055 212 212 212
36.843750000000 17.703125000000 8.586990356445 226 226 226
36.890625000000 17.640625000000 7.903991699219 204 204 204
36.906250000000 17.640625000000 7.807998657227 29 29 29
35.390625000000 18.671875000000 7.403991699219 149 149 149
35.406250000000 18.656250000000 7.231994628906 145 145 145
35.437500000000 18.625000000000 7.149993896484 127 127 127
37.500000000000 17.203125000000 7.418991088867 19 19 19
36.234375000000 18.062500000000 7.106002807617 103 103 103
36.281250000000 18.031250000000 7.020996093750 106 106 106
36.312500000000 18.000000000000 6.931991577148 67 67 67
37.250000000000 17.375000000000 6.972000122070 237 237 237
37.234375000000 17.359375000000 6.871002197266 39 39 39
36.546875000000 17.828125000000 6.586990356445 8 8 8
36.578125000000 17.796875000000 6.496002197266 47 47 47
36.671875000000 17.734375000000 6.412002563477 6 6 6
36.812500000000 17.640625000000 6.328994750977 29 29 29
36.984375000000 17.515625000000 5.957000732422 34 34 34
36.968750000000 17.515625000000 5.858001708984 188 188 188
36.656250000000 17.718750000000 5.742996215820 160 160 160
36.531250000000 17.812500000000 5.640991210938 135 135 135
36.562500000000 17.781250000000 5.547988891602 17 17 17
37.421875000000 17.265625000000 7.503997802734 20 20 20
37.593750000000 17.687500000000 13.483001708984 23 23 23
37.656250000000 17.640625000000 13.391998291016 61 61 61
37.531250000000 17.734375000000 13.195999145508 112 112 112
37.546875000000 17.718750000000 13.083999633789 148 148 148
37.328125000000 17.828125000000 12.021987915039 139 139 139
37.437500000000 17.734375000000 11.968002319336 202 202 202
37.546875000000 17.671875000000 11.557998657227 6 6 6
37.593750000000 17.640625000000 11.459991455078 170 170 170
36.265625000000 18.515625000000 10.756988525391 254 254 254
36.218750000000 18.531250000000 10.638992309570 200 200 200
36.296875000000 18.468750000000 10.569000244141 203 203 203
36.953125000000 18.046875000000 10.740997314453 190 190 190
36.500000000000 18.328125000000 10.449996948242 159 159 159
35.906250000000 18.734375000000 10.108993530273 155 155 155
35.843750000000 18.765625000000 9.981002807617 165 165 165
35.921875000000 18.734375000000 9.912002563477 174 174 174
36.453125000000 18.343750000000 10.017990112305 152 152 152
36.296875000000 18.437500000000 9.863998413086 170 170 170
35.968750000000 18.671875000000 9.639999389648 241 241 241
35.890625000000 18.718750000000 9.514999389648 133 133 133
36.000000000000 18.640625000000 9.455993652344 148 148 148
35.515625000000 18.968750000000 9.192001342773 164 164 164
35.468750000000 19.000000000000 9.082000732422 138 138 138
35.515625000000 18.953125000000 9.009994506836 148 148 148
35.437500000000 19.000000000000 8.889999389648 162 162 162
35.406250000000 19.015625000000 8.791000366211 144 144 144
35.500000000000 18.968750000000 8.725997924805 177 177 177
35.468750000000 18.968750000000 8.628997802734 12 12 12
36.328125000000 18.390625000000 8.787994384766 80 80 80
36.359375000000 18.375000000000 8.703002929688 143 143 143
36.718750000000 18.109375000000 8.705993652344 81 81 81
37.156250000000 17.812500000000 8.621994018555 67 67 67
36.890625000000 17.953125000000 7.955993652344 31 31 31
36.921875000000 17.921875000000 7.863998413086 38 38 38
36.937500000000 17.921875000000 7.765991210938 29 29 29
37.203125000000 17.750000000000 7.618988037109 33 33 33
35.656250000000 18.796875000000 7.235992431641 125 125 125
35.609375000000 18.828125000000 7.138000488281 154 154 154
35.656250000000 18.796875000000 7.056991577148 165 165 165
35.875000000000 18.640625000000 7.002990722656 137 137 137
36.031250000000 18.515625000000 6.937988281250 166 166 166
35.718750000000 18.734375000000 6.800994873047 158 158 158
35.812500000000 18.656250000000 6.725997924805 176 176 176
36.375000000000 18.281250000000 6.709991455078 120 120 120
35.859375000000 18.625000000000 6.550994873047 144 144 144
35.750000000000 18.703125000000 6.446990966797 153 153 153
36.500000000000 18.156250000000 6.444000244141 167 167 167
36.468750000000 18.187500000000 6.345993041992 1 1 1
36.375000000000 18.234375000000 6.242996215820 51 51 51
36.718750000000 18.000000000000 6.180999755859 26 26 26
36.625000000000 18.062500000000 6.078002929688 159 159 159
36.328125000000 18.265625000000 5.959991455078 155 155 155
36.312500000000 18.281250000000 5.865997314453 174 174 174
36.578125000000 18.093750000000 5.789001464844 152 152 152
36.406250000000 18.203125000000 5.685989379883 160 160 160
36.687500000000 18.015625000000 5.606002807617 144 144 144
36.484375000000 18.140625000000 5.408996582031 114 114 114
36.453125000000 18.171875000000 5.313995361328 69 69 69
36.625000000000 18.046875000000 5.034988403320 62 62 62
36.796875000000 17.906250000000 4.843994140625 21 21 21
36.796875000000 18.515625000000 11.599990844727 20 20 20
37.875000000000 17.796875000000 11.895996093750 90 90 90
36.937500000000 18.406250000000 11.343994140625 238 238 238
37.015625000000 18.359375000000 11.268997192383 212 212 212
37.625000000000 17.921875000000 11.436996459961 151 151 151
38.015625000000 17.671875000000 11.496994018555 156 156 156
37.609375000000 17.921875000000 11.200988769531 165 165 165
37.546875000000 17.968750000000 11.058990478516 145 145 145
37.375000000000 18.078125000000 10.764999389648 132 132 132
36.671875000000 18.546875000000 10.268997192383 173 173 173
36.437500000000 18.703125000000 10.073989868164 173 173 173
36.500000000000 18.640625000000 10.001998901367 138 138 138
36.406250000000 18.718750000000 9.858001708984 145 145 145
36.312500000000 18.765625000000 9.727996826172 86 86 86
36.343750000000 18.734375000000 9.639999389648 143 143 143
36.093750000000 18.921875000000 9.448989868164 129 129 129
35.906250000000 19.031250000000 9.293991088867 156 156 156
36.296875000000 18.765625000000 9.328994750977 142 142 142
36.375000000000 18.718750000000 9.254989624023 105 105 105
36.468750000000 18.640625000000 9.183990478516 91 91 91
36.468750000000 18.640625000000 9.089996337891 68 68 68
36.375000000000 18.703125000000 8.959991455078 144 144 144
36.375000000000 18.703125000000 8.863998413086 147 147 147
36.296875000000 18.734375000000 8.746994018555 218 218 218
36.296875000000 18.750000000000 8.644989013672 138 138 138
37.125000000000 18.171875000000 8.778991699219 43 43 43
36.468750000000 18.609375000000 8.500000000000 127 127 127
36.500000000000 18.578125000000 8.414993286133 77 77 77
36.562500000000 18.546875000000 8.332000732422 33 33 33
36.546875000000 18.546875000000 8.231994628906 64 64 64
37.062500000000 18.171875000000 7.957000732422 11 11 11
37.843750000000 17.640625000000 8.020996093750 107 107 107
35.968750000000 18.921875000000 7.535995483398 72 72 72
36.031250000000 18.875000000000 7.455993652344 12 12 12
38.093750000000 17.468750000000 7.753997802734 56 56 56
35.859375000000 19.000000000000 7.239990234375 192 192 192
35.718750000000 19.093750000000 7.126998901367 169 169 169
36.031250000000 18.859375000000 7.089996337891 154 154 154
35.906250000000 18.937500000000 6.979995727539 163 163 163
36.312500000000 18.671875000000 6.948989868164 127 127 127
36.406250000000 18.609375000000 6.869995117188 132 132 132
36.062500000000 18.828125000000 6.728988647461 164 164 164
36.500000000000 18.531250000000 6.694992065430 153 153 153
36.765625000000 18.343750000000 6.631988525391 79 79 79
36.062500000000 18.812500000000 6.363998413086 230 230 230
37.875000000000 17.546875000000 6.460998535156 24 24 24
35.953125000000 18.875000000000 6.171997070313 66 66 66
35.937500000000 18.875000000000 6.082000732422 101 101 101
36.125000000000 18.765625000000 6.005996704102 228 228 228
36.921875000000 18.203125000000 5.974990844727 154 154 154
36.375000000000 18.562500000000 5.748001098633 45 45 45
37.156250000000 18.031250000000 5.696990966797 38 38 38
36.640625000000 18.375000000000 5.386001586914 127 127 127
36.656250000000 18.359375000000 5.291000366211 133 133 133
36.828125000000 18.234375000000 5.199996948242 58 58 58
36.890625000000 18.171875000000 5.007995605469 32 32 32
36.968750000000 18.125000000000 4.910995483398 92 92 92
36.968750000000 18.140625000000 4.813995361328 110 110 110
37.812500000000 17.656250000000 7.912002563477 24 24 24
38.046875000000 17.484375000000 7.849990844727 86 86 86
37.937500000000 17.531250000000 6.360992431641 95 95 95
38.281250000000 17.281250000000 6.287994384766 40 40 40
36.781250000000 18.859375000000 11.983993530273 38 38 38
36.812500000000 18.859375000000 11.884002685547 22 22 22
36.937500000000 18.734375000000 11.623001098633 13 13 13
36.875000000000 18.765625000000 11.479995727539 128 128 128
37.062500000000 18.640625000000 11.455993652344 220 220 220
37.500000000000 18.343750000000 11.550994873047 150 150 150
37.531250000000 18.312500000000 11.455993652344 148 148 148
37.125000000000 18.578125000000 11.159988403320 173 173 173
37.265625000000 18.484375000000 11.111999511719 209 209 209
37.312500000000 18.453125000000 11.022994995117 191 191 191
37.187500000000 18.546875000000 10.852996826172 152 152 152
37.062500000000 18.609375000000 10.695999145508 159 159 159
37.171875000000 18.546875000000 10.631988525391 210 210 210
37.156250000000 18.546875000000 10.518997192383 24 24 24
37.109375000000 18.578125000000 10.397994995117 149 149 149
37.296875000000 18.453125000000 10.354995727539 126 126 126
37.843750000000 18.062500000000 10.457000732422 212 212 212
36.656250000000 18.875000000000 9.909988403320 31 31 31
36.750000000000 18.796875000000 9.839996337891 123 123 123
37.218750000000 18.484375000000 9.902999877930 127 127 127
36.593750000000 18.890625000000 9.586990356445 147 147 147
36.312500000000 19.093750000000 9.386993408203 156 156 156
36.281250000000 19.109375000000 9.274993896484 155 155 155
36.250000000000 19.140625000000 9.167999267578 131 131 131
38.500000000000 17.578125000000 9.787994384766 20 20 20
38.531250000000 17.562500000000 9.679992675781 79 79 79
36.890625000000 18.671875000000 9.074996948242 20 20 20
37.093750000000 18.546875000000 9.033996582031 6 6 6
36.468750000000 18.968750000000 8.746002197266 5 5 5
36.500000000000 18.937500000000 8.657989501953 86 86 86
37.812500000000 18.015625000000 8.494995117188 40 40 40
37.687500000000 18.093750000000 8.257995605469 3 3 3
38.562500000000 17.484375000000 8.345001220703 11 11 11
38.296875000000 17.671875000000 8.179000854492 16 16 16
38.265625000000 17.671875000000 8.062988281250 29 29 29
37.406250000000 18.265625000000 7.782989501953 50 50 50
37.468750000000 18.218750000000 7.589996337891 127 127 127
37.562500000000 18.140625000000 7.506988525391 130 130 130
37.578125000000 18.140625000000 7.406997680664 136 136 136
37.593750000000 18.109375000000 7.306991577148 146 146 146
36.781250000000 18.671875000000 7.076995849609 3 3 3
36.500000000000 18.859375000000 6.841995239258 161 161 161
36.937500000000 18.546875000000 6.807998657227 206 206 206
37.031250000000 18.500000000000 6.722991943359 150 150 150
37.046875000000 18.468750000000 6.625991821289 150 150 150
36.250000000000 19.015625000000 6.437988281250 199 199 199
37.046875000000 18.453125000000 6.431991577148 208 208 208
37.000000000000 18.484375000000 6.328994750977 151 151 151
36.218750000000 19.015625000000 6.159988403320 206 206 206
36.671875000000 18.718750000000 6.011001586914 223 223 223
37.625000000000 18.046875000000 5.985000610352 158 158 158
37.343750000000 18.250000000000 5.864990234375 122 122 122
37.250000000000 18.281250000000 5.759994506836 134 134 134
37.328125000000 18.250000000000 5.664993286133 166 166 166
37.531250000000 18.093750000000 5.171997070313 22 22 22
37.406250000000 18.171875000000 4.970001220703 130 130 130
37.312500000000 18.234375000000 4.871002197266 133 133 133
37.421875000000 18.140625000000 4.669998168945 107 107 107
38.046875000000 17.953125000000 10.879989624023 39 39 39
38.000000000000 17.953125000000 10.412002563477 145 145 145
38.343750000000 17.671875000000 9.403991699219 134 134 134
37.781250000000 17.984375000000 7.235992431641 11 11 11
37.062500000000 18.984375000000 12.399002075195 13 13 13
37.015625000000 19.000000000000 12.259002685547 99 99 99
36.937500000000 19.046875000000 12.104995727539 114 114 114
36.953125000000 19.046875000000 12.002990722656 148 148 148
36.937500000000 19.046875000000 11.884994506836 133 133 133
37.015625000000 18.984375000000 11.806991577148 24 24 24
37.625000000000 18.578125000000 11.996994018555 20 20 20
37.140625000000 18.890625000000 11.649002075195 225 225 225
37.265625000000 18.796875000000 11.593994140625 200 200 200
37.109375000000 18.921875000000 11.410995483398 202 202 202
36.953125000000 19.015625000000 11.228988647461 150 150 150
37.093750000000 18.906250000000 11.182998657227 188 188 188
37.937500000000 18.328125000000 11.328994750977 157 157 157
38.031250000000 18.250000000000 11.257995605469 125 125 125
37.406250000000 18.687500000000 10.876998901367 161 161 161
37.343750000000 18.734375000000 10.748992919922 186 186 186
37.328125000000 18.734375000000 10.630996704102 173 173 173
36.843750000000 19.046875000000 10.330001831055 121 121 121
36.765625000000 19.093750000000 10.194992065430 152 152 152
36.828125000000 19.062500000000 10.113998413086 153 153 153
36.750000000000 19.109375000000 9.981994628906 153 153 153
36.796875000000 19.078125000000 9.895996093750 156 156 156
36.750000000000 19.093750000000 9.776992797852 156 156 156
36.390625000000 19.328125000000 9.447998046875 185 185 185
38.296875000000 18.046875000000 9.988998413086 59 59 59
36.359375000000 19.343750000000 9.241989135742 50 50 50
36.312500000000 19.390625000000 9.126998901367 152 152 152
38.343750000000 17.984375000000 9.666992187500 34 34 34
38.062500000000 18.171875000000 8.919998168945 39 39 39
38.531250000000 17.812500000000 8.488998413086 10 10 10
38.046875000000 18.140625000000 8.274002075195 133 133 133
38.015625000000 18.156250000000 8.158996582031 70 70 70
38.000000000000 18.156250000000 8.048995971680 45 45 45
38.046875000000 18.109375000000 7.634994506836 120 120 120
38.062500000000 18.093750000000 7.529998779297 141 141 141
37.984375000000 18.140625000000 7.410995483398 105 105 105
37.968750000000 18.156250000000 7.304000854492 158 158 158
37.000000000000 18.812500000000 7.052993774414 146 146 146
37.062500000000 18.765625000000 6.960998535156 112 112 112
36.406250000000 19.218750000000 6.771987915039 176 176 176
37.062500000000 18.765625000000 6.766998291016 124 124 124
37.906250000000 18.171875000000 6.771987915039 48 48 48
36.234375000000 19.328125000000 6.472991943359 148 148 148
38.062500000000 18.062500000000 6.582000732422 26 26 26
36.453125000000 19.171875000000 6.312988281250 172 172 172
35.968750000000 19.484375000000 6.171997070313 134 134 134
36.796875000000 18.921875000000 6.154998779297 129 129 129
38.125000000000 18.000000000000 6.167999267578 83 83 83
37.968750000000 18.093750000000 6.050994873047 125 125 125
37.593750000000 18.359375000000 5.921997070313 130 130 130
37.687500000000 18.296875000000 5.825988769531 135 135 135
37.437500000000 18.468750000000 5.710998535156 121 121 121
37.687500000000 18.265625000000 5.112991333008 16 16 16
37.468750000000 18.421875000000 4.909988403320 112 112 112
38.312500000000 18.015625000000 9.884002685547 57 57 57
37.531250000000 18.953125000000 12.805999755859 25 25 25
37.531250000000 18.953125000000 12.694000244141 106 106 106
37.250000000000 19.140625000000 12.417999267578 140 140 140
37.218750000000 19.140625000000 12.293991088867 137 137 137
37.281250000000 19.109375000000 12.199996948242 124 124 124
37.234375000000 19.140625000000 12.065002441406 148 148 148
37.343750000000 19.031250000000 12.011001586914 164 164 164
37.234375000000 19.109375000000 11.837997436523 133 133 133
37.343750000000 19.031250000000 11.782989501953 116 116 116
37.093750000000 19.203125000000 11.552993774414 138 138 138
37.046875000000 19.234375000000 11.412002563477 147 147 147
37.000000000000 19.265625000000 11.287994384766 159 159 159
37.312500000000 19.031250000000 11.319000244141 6 6 6
38.062500000000 18.531250000000 11.533996582031 212 212 212
37.625000000000 18.843750000000 11.228988647461 181 181 181
37.265625000000 19.046875000000 10.965988159180 184 184 184
37.218750000000 19.093750000000 10.833999633789 143 143 143
36.843750000000 19.328125000000 10.574996948242 171 171 171
36.812500000000 19.359375000000 10.453994750977 146 146 146
36.906250000000 19.296875000000 10.386993408203 153 153 153
36.781250000000 19.390625000000 10.231002807617 136 136 136
36.765625000000 19.390625000000 10.121002197266 142 142 142
37.062500000000 19.171875000000 10.129989624023 149 149 149
36.968750000000 19.234375000000 9.988998413086 227 227 227
38.578125000000 18.125000000000 10.468002319336 106 106 106
37.437500000000 18.890625000000 9.735992431641 30 30 30
37.500000000000 18.859375000000 9.649993896484 190 190 190
37.015625000000 19.171875000000 9.386993408203 106 106 106
37.062500000000 19.125000000000 9.299987792969 36 36 36
37.906250000000 18.531250000000 9.022994995117 40 40 40
37.281250000000 18.968750000000 8.641998291016 14 14 14
38.375000000000 18.187500000000 8.491989135742 18 18 18
38.359375000000 18.203125000000 8.378997802734 114 114 114
38.234375000000 18.281250000000 8.239990234375 74 74 74
38.156250000000 18.328125000000 8.115997314453 51 51 51
38.140625000000 18.343750000000 8.003997802734 75 75 75
38.296875000000 18.203125000000 7.388992309570 184 184 184
36.078125000000 19.734375000000 6.940002441406 61 61 61
36.062500000000 19.734375000000 6.847000122070 151 151 151
36.093750000000 19.718750000000 6.759002685547 155 155 155
36.203125000000 19.640625000000 6.680999755859 136 136 136
36.390625000000 19.500000000000 6.612991333008 158 158 158
36.234375000000 19.609375000000 6.501998901367 145 145 145
36.078125000000 19.703125000000 6.392990112305 165 165 165
36.031250000000 19.734375000000 6.295989990234 155 155 155
36.515625000000 19.390625000000 6.253997802734 193 193 193
36.375000000000 19.484375000000 6.146987915039 173 173 173
36.484375000000 19.406250000000 6.063995361328 168 168 168
36.328125000000 19.515625000000 5.957992553711 165 165 165
36.671875000000 19.265625000000 5.889999389648 23 23 23
36.593750000000 19.328125000000 5.789001464844 123 123 123
38.062500000000 18.343750000000 7.246994018555 26 26 26
37.812500000000 18.484375000000 5.968002319336 125 125 125
37.625000000000 19.171875000000 12.789001464844 12 12 12
37.671875000000 19.140625000000 12.688995361328 89 89 89
37.671875000000 19.140625000000 12.569992065430 23 23 23
37.500000000000 19.250000000000 12.365997314453 125 125 125
37.421875000000 19.296875000000 12.207992553711 142 142 142
37.593750000000 19.171875000000 12.172988891602 127 127 127
37.750000000000 19.078125000000 12.136001586914 31 31 31
37.625000000000 19.140625000000 11.962997436523 224 224 224
37.578125000000 19.171875000000 11.820999145508 152 152 152
37.546875000000 19.171875000000 11.694000244141 157 157 157
37.437500000000 19.250000000000 11.527999877930 196 196 196
37.406250000000 19.265625000000 11.402999877930 149 149 149
37.390625000000 19.265625000000 11.283996582031 166 166 166
37.359375000000 19.281250000000 11.160995483398 169 169 169
37.390625000000 19.265625000000 11.062988281250 184 184 184
37.750000000000 19.015625000000 11.106002807617 180 180 180
37.421875000000 19.234375000000 10.853988647461 193 193 193
37.375000000000 19.265625000000 10.725997924805 145 145 145
37.390625000000 19.250000000000 10.621994018555 173 173 173
37.093750000000 19.437500000000 10.399993896484 157 157 157
37.046875000000 19.484375000000 10.271987915039 147 147 147
37.062500000000 19.468750000000 10.173995971680 171 171 171
37.093750000000 19.421875000000 9.976989746094 141 141 141
37.093750000000 19.421875000000 9.873992919922 184 184 184
37.296875000000 19.265625000000 9.835998535156 49 49 49
37.125000000000 19.390625000000 9.671997070313 191 191 191
37.031250000000 19.468750000000 9.534988403320 143 143 143
37.250000000000 19.296875000000 9.503997802734 136 136 136
37.359375000000 19.234375000000 9.436996459961 98 98 98
37.218750000000 19.328125000000 9.283996582031 116 116 116
37.109375000000 19.390625000000 9.149002075195 138 138 138
37.156250000000 19.343750000000 9.063995361328 92 92 92
37.843750000000 18.890625000000 9.154998779297 40 40 40
37.671875000000 18.984375000000 8.682998657227 13 13 13
37.718750000000 18.921875000000 8.591995239258 46 46 46
37.765625000000 18.890625000000 8.498001098633 35 35 35
38.546875000000 18.343750000000 8.134002685547 13 13 13
36.593750000000 19.671875000000 7.248001098633 104 104 104
36.453125000000 19.750000000000 7.131988525391 135 135 135
38.156250000000 18.578125000000 7.305999755859 22 22 22
36.781250000000 19.531250000000 6.990997314453 39 39 39
36.437500000000 19.765625000000 6.847000122070 130 130 130
38.312500000000 18.453125000000 7.009002685547 27 27 27
36.171875000000 19.937500000000 6.625000000000 108 108 108
36.437500000000 19.734375000000 6.567001342773 33 33 33
36.328125000000 19.828125000000 6.460998535156 140 140 140
36.750000000000 19.515625000000 6.412994384766 47 47 47
37.031250000000 19.328125000000 6.345993041992 93 93 93
37.125000000000 19.265625000000 6.255996704102 63 63 63
36.625000000000 19.609375000000 6.114990234375 184 184 184
36.703125000000 19.546875000000 6.026992797852 186 186 186
36.921875000000 19.390625000000 5.947998046875 163 163 163
36.828125000000 19.453125000000 5.845001220703 174 174 174
37.031250000000 19.296875000000 5.761993408203 171 171 171
37.281250000000 19.140625000000 5.677001953125 178 178 178
38.078125000000 18.562500000000 5.403991699219 104 104 104
38.312500000000 18.375000000000 5.197998046875 92 92 92
37.750000000000 18.781250000000 5.086990356445 167 167 167
37.406250000000 19.000000000000 4.784988403320 130 130 130
37.406250000000 19.000000000000 4.684997558594 64 64 64
38.031250000000 19.203125000000 12.464996337891 207 207 207
38.000000000000 19.203125000000 12.332992553711 162 162 162
37.890625000000 19.296875000000 12.152999877930 173 173 173
37.906250000000 19.265625000000 11.927001953125 25 25 25
37.921875000000 19.265625000000 11.817001342773 166 166 166
37.812500000000 19.328125000000 11.649993896484 227 227 227
37.968750000000 19.203125000000 11.606994628906 212 212 212
37.656250000000 19.406250000000 11.351989746094 144 144 144
37.812500000000 19.296875000000 11.307998657227 169 169 169
38.125000000000 19.093750000000 11.324996948242 140 140 140
38.515625000000 18.796875000000 11.373992919922 150 150 150
38.140625000000 19.078125000000 11.101989746094 187 187 187
37.718750000000 19.359375000000 10.700988769531 179 179 179
37.578125000000 19.437500000000 10.535995483398 144 144 144
37.515625000000 19.484375000000 10.401000976563 150 150 150
37.671875000000 19.375000000000 10.349990844727 144 144 144
37.765625000000 19.312500000000 10.276000976563 22 22 22
37.859375000000 19.234375000000 10.203002929688 124 124 124
37.406250000000 19.546875000000 9.927993774414 125 125 125
37.375000000000 19.546875000000 9.812988281250 140 140 140
37.312500000000 19.562500000000 9.690994262695 137 137 137
37.359375000000 19.546875000000 9.597000122070 146 146 146
37.390625000000 19.515625000000 9.500991821289 157 157 157
37.437500000000 19.484375000000 9.408996582031 41 41 41
37.406250000000 19.500000000000 9.296997070313 134 134 134
37.421875000000 19.500000000000 9.194992065430 192 192 192
37.531250000000 19.421875000000 9.125000000000 155 155 155
37.546875000000 19.406250000000 9.024993896484 85 85 85
37.546875000000 19.390625000000 8.920989990234 35 35 35
37.875000000000 19.156250000000 8.904998779297 5 5 5
37.625000000000 19.343750000000 8.726989746094 109 109 109
36.843750000000 19.843750000000 7.832000732422 143 143 143
36.875000000000 19.812500000000 7.746002197266 116 116 116
36.828125000000 19.843750000000 7.634994506836 104 104 104
36.781250000000 19.859375000000 7.531997680664 120 120 120
