16.125000000000 9.484375000000 57.139003753662 94 94 94
16.093750000000 9.484375000000 57.131000518799 141 141 141
15.562500000000 9.500000000000 56.232997894287 73 73 73
14.562500000000 9.515625000000 57.097003936768 128 128 128
15.187500000000 9.500000000000 55.445999145508 102 102 102
15.125000000000 9.515625000000 55.437000274658 160 160 160
18.343750000000 9.765625000000 55.192001342773 61 61 61
18.375000000000 9.765625000000 56.203998565674 66 66 66
16.093750000000 9.796875000000 57.130001068115 138 138 138
16.062500000000 9.796875000000 57.120998382568 32 32 32
15.562500000000 9.812500000000 56.235004425049 91 91 91
14.593750000000 9.828125000000 57.098003387451 84 84 84
14.562500000000 9.828125000000 57.077999114990 100 100 100
15.140625000000 9.828125000000 55.440002441406 148 148 148
15.125000000000 9.828125000000 55.423000335693 145 145 145
18.343750000000 10.062500000000 55.151000976563 254 254 254
18.390625000000 10.078125000000 56.265003204346 72 72 72
18.343750000000 10.078125000000 56.264003753662 83 83 83
16.093750000000 10.109375000000 57.115001678467 147 147 147
15.562500000000 10.140625000000 56.204998016357 79 79 79
14.562500000000 10.140625000000 57.083003997803 119 119 119
14.531250000000 10.140625000000 57.075000762939 26 26 26
15.140625000000 10.140625000000 55.422000885010 158 158 158
15.093750000000 10.140625000000 55.430000305176 125 125 125
18.343750000000 10.390625000000 55.172000885010 247 247 247
18.343750000000 10.390625000000 56.250003814697 93 93 93
16.093750000000 10.421875000000 57.120998382568 42 42 42
16.062500000000 10.421875000000 57.107997894287 152 152 152
15.562500000000 10.437500000000 56.205997467041 68 68 68
14.531250000000 10.453125000000 57.077999114990 130 130 130
15.140625000000 10.453125000000 55.414001464844 161 161 161
15.062500000000 10.437500000000 55.445999145508 91 91 91
18.343750000000 10.703125000000 55.156002044678 254 254 254
18.312500000000 10.703125000000 55.159999847412 95 95 95
18.343750000000 10.703125000000 56.249004364014 71 71 71
16.093750000000 10.734375000000 57.103000640869 128 128 128
16.046875000000 10.734375000000 57.086002349854 95 95 95
15.593750000000 10.750000000000 56.203998565674 94 94 94
14.531250000000 10.765625000000 57.055004119873 124 124 124
15.125000000000 10.765625000000 55.400001525879 167 167 167
18.343750000000 11.015625000000 55.148002624512 254 254 254
18.359375000000 11.015625000000 56.243000030518 93 93 93
18.343750000000 11.015625000000 56.231998443604 52 52 52
16.062500000000 11.062500000000 57.088001251221 129 129 129
15.593750000000 11.062500000000 56.202999114990 53 53 53
15.562500000000 11.078125000000 56.188999176025 73 73 73
14.562500000000 11.078125000000 57.048999786377 97 97 97
14.500000000000 11.078125000000 57.043003082275 89 89 89
15.125000000000 11.078125000000 55.408000946045 56 56 56
15.125000000000 11.078125000000 55.374000549316 159 159 159
18.343750000000 11.328125000000 55.153999328613 254 254 254
18.312500000000 11.328125000000 55.153999328613 254 254 254
18.343750000000 11.328125000000 56.219997406006 90 90 90
16.046875000000 11.390625000000 57.083003997803 142 142 142
15.593750000000 11.375000000000 56.184001922607 62 62 62
14.531250000000 11.390625000000 57.043003082275 124 124 124
14.500000000000 11.390625000000 57.021999359131 41 41 41
15.125000000000 11.390625000000 55.381999969482 81 81 81
15.093750000000 11.390625000000 55.374000549316 157 157 157
18.312500000000 11.640625000000 55.156002044678 254 254 254
18.312500000000 11.640625000000 55.149002075195 123 123 123
18.312500000000 11.640625000000 56.223003387451 85 85 85
16.062500000000 11.671875000000 57.057003021240 109 109 109
16.031250000000 11.687500000000 57.059001922607 118 118 118
15.593750000000 11.703125000000 56.190998077393 84 84 84
14.500000000000 11.703125000000 57.032001495361 130 130 130
15.093750000000 11.703125000000 55.388000488281 148 148 148
15.093750000000 11.703125000000 55.352001190186 131 131 131
18.312500000000 11.953125000000 55.145999908447 138 138 138
18.312500000000 11.953125000000 55.143001556396 254 254 254
18.312500000000 11.953125000000 56.224002838135 102 102 102
18.312500000000 11.953125000000 56.209003448486 41 41 41
16.031250000000 12.000000000000 57.063999176025 143 143 143
15.609375000000 12.015625000000 56.178997039795 82 82 82
15.593750000000 12.015625000000 56.172000885010 47 47 47
14.531250000000 12.015625000000 57.041004180908 29 29 29
14.500000000000 12.031250000000 57.013004302979 114 114 114
15.093750000000 12.015625000000 55.357002258301 158 158 158
15.093750000000 12.015625000000 55.346000671387 85 85 85
18.312500000000 12.265625000000 55.139999389648 254 254 254
18.281250000000 12.265625000000 55.151000976563 254 254 254
18.312500000000 12.265625000000 56.199001312256 61 61 61
16.031250000000 12.328125000000 57.047000885010 147 147 147
15.609375000000 12.328125000000 56.163997650146 82 82 82
14.500000000000 12.328125000000 57.014003753662 112 112 112
14.500000000000 12.328125000000 56.992000579834 69 69 69
15.093750000000 12.328125000000 55.346000671387 160 160 160
18.312500000000 12.578125000000 55.144001007080 80 80 80
18.281250000000 12.578125000000 55.145999908447 254 254 254
18.281250000000 12.578125000000 55.146999359131 147 147 147
18.281250000000 12.593750000000 56.187000274658 85 85 85
16.031250000000 12.640625000000 57.038997650146 103 103 103
16.000000000000 12.640625000000 57.032001495361 132 132 132
15.609375000000 12.640625000000 56.164997100830 69 69 69
14.500000000000 12.656250000000 57.004001617432 122 122 122
15.093750000000 12.640625000000 55.343002319336 54 54 54
15.093750000000 12.640625000000 55.332000732422 161 161 161
18.312500000000 12.890625000000 55.136001586914 122 122 122
18.281250000000 12.890625000000 55.138999938965 254 254 254
18.312500000000 12.906250000000 56.251003265381 91 91 91
16.031250000000 12.953125000000 57.031002044678 149 149 149
16.000000000000 12.953125000000 57.020999908447 23 23 23
15.625000000000 12.953125000000 56.157001495361 91 91 91
14.500000000000 12.968750000000 56.979999542236 126 126 126
15.062500000000 12.953125000000 55.336002349854 112 112 112
15.062500000000 12.953125000000 55.323001861572 158 158 158
18.281250000000 13.203125000000 55.141002655029 209 209 209
18.265625000000 13.203125000000 55.148002624512 254 254 254
18.281250000000 13.203125000000 56.159000396729 61 61 61
16.000000000000 13.265625000000 57.019001007080 145 145 145
15.656250000000 13.265625000000 56.147998809814 79 79 79
15.625000000000 13.265625000000 56.140003204346 49 49 49
14.500000000000 13.281250000000 56.993999481201 97 97 97
14.453125000000 13.281250000000 56.967998504639 93 93 93
15.062500000000 13.265625000000 55.326000213623 143 143 143
15.062500000000 13.265625000000 55.302001953125 113 113 113
18.281250000000 13.531250000000 55.146999359131 77 77 77
18.281250000000 13.531250000000 55.145000457764 254 254 254
18.250000000000 13.531250000000 55.183002471924 254 254 254
18.265625000000 13.546875000000 56.159000396729 82 82 82
16.031250000000 13.578125000000 57.019001007080 93 93 93
15.984375000000 13.578125000000 57.005001068115 143 143 143
15.625000000000 13.578125000000 56.130001068115 82 82 82
14.468750000000 13.609375000000 56.978000640869 125 125 125
15.062500000000 13.578125000000 55.311000823975 157 157 157
15.031250000000 13.593750000000 55.292999267578 58 58 58
18.281250000000 13.843750000000 55.145999908447 113 113 113
18.281250000000 13.843750000000 55.151000976563 254 254 254
18.250000000000 13.859375000000 55.151000976563 93 93 93
16.000000000000 13.890625000000 57.005001068115 156 156 156
15.968750000000 13.890625000000 56.995998382568 37 37 37
15.640625000000 13.890625000000 56.132999420166 72 72 72
14.468750000000 13.921875000000 56.955997467041 121 121 121
15.062500000000 13.906250000000 55.298000335693 165 165 165
18.250000000000 14.156250000000 55.145999908447 152 152 152
18.234375000000 14.156250000000 55.158000946045 254 254 254
18.250000000000 14.171875000000 56.144001007080 64 64 64
15.968750000000 14.203125000000 56.995998382568 143 143 143
15.656250000000 14.203125000000 56.133998870850 84 84 84
14.468750000000 14.234375000000 56.971004486084 76 76 76
14.437500000000 14.218750000000 56.937999725342 105 105 105
15.031250000000 14.203125000000 55.308002471924 72 72 72
15.031250000000 14.203125000000 55.283000946045 161 161 161
18.281250000000 14.484375000000 55.136001586914 67 67 67
18.250000000000 14.484375000000 55.148002624512 254 254 254
18.218750000000 14.484375000000 55.163002014160 254 254 254
18.218750000000 14.484375000000 56.124004364014 68 68 68
16.000000000000 14.515625000000 56.980998992920 93 93 93
15.968750000000 14.515625000000 56.983997344971 147 147 147
15.656250000000 14.515625000000 56.129001617432 90 90 90
14.437500000000 14.546875000000 56.947002410889 124 124 124
14.406250000000 14.546875000000 56.949001312256 21 21 21
15.031250000000 14.531250000000 55.289001464844 131 131 131
15.015625000000 14.546875000000 55.277000427246 139 139 139
18.250000000000 14.796875000000 55.143001556396 96 96 96
18.218750000000 14.796875000000 55.150001525879 253 253 253
18.218750000000 14.796875000000 55.205001831055 151 151 151
15.968750000000 14.828125000000 56.982997894287 151 151 151
15.937500000000 14.828125000000 56.979999542236 30 30 30
15.656250000000 14.828125000000 56.126003265381 46 46 46
15.656250000000 14.828125000000 56.115001678467 81 81 81
14.437500000000 14.859375000000 56.923000335693 119 119 119
15.031250000000 14.859375000000 55.277999877930 154 154 154
15.000000000000 14.843750000000 55.267002105713 72 72 72
18.234375000000 15.109375000000 55.151000976563 146 146 146
18.218750000000 15.109375000000 55.166000366211 254 254 254
18.218750000000 15.109375000000 56.117000579834 79 79 79
15.937500000000 15.140625000000 56.969997406006 133 133 133
15.656250000000 15.156250000000 56.098003387451 82 82 82
14.437500000000 15.171875000000 56.949001312256 46 46 46
14.406250000000 15.171875000000 56.921001434326 121 121 121
15.031250000000 15.171875000000 55.262001037598 159 159 159
18.250000000000 15.421875000000 55.145000457764 42 42 42
18.218750000000 15.421875000000 55.139999389648 254 254 254
18.218750000000 15.421875000000 55.184001922607 254 254 254
18.218750000000 15.421875000000 56.099002838135 45 45 45
15.953125000000 15.453125000000 56.980998992920 90 90 90
15.937500000000 15.453125000000 56.959003448486 147 147 147
15.671875000000 15.468750000000 56.105998992920 78 78 78
14.437500000000 15.484375000000 56.922000885010 122 122 122
14.375000000000 15.484375000000 56.909999847412 60 60 60
15.031250000000 15.484375000000 55.266002655029 54 54 54
15.000000000000 15.484375000000 55.246002197266 157 157 157
18.234375000000 15.734375000000 55.141002655029 87 87 87
18.187500000000 15.734375000000 55.167999267578 254 254 254
18.187500000000 15.734375000000 55.191001892090 149 149 149
15.937500000000 15.781250000000 56.964000701904 181 181 181
15.906250000000 15.781250000000 56.953998565674 57 57 57
15.687500000000 15.765625000000 56.104000091553 89 89 89
14.421875000000 15.796875000000 56.904003143311 120 120 120
15.000000000000 15.796875000000 55.259002685547 128 128 128
14.984375000000 15.796875000000 55.236000061035 144 144 144
18.218750000000 16.046875000000 55.145999908447 143 143 143
18.187500000000 16.046875000000 55.163002014160 254 254 254
18.187500000000 16.046875000000 56.070003509521 86 86 86
15.906250000000 16.078125000000 56.949001312256 147 147 147
15.718750000000 16.109375000000 56.091999053955 99 99 99
15.687500000000 16.109375000000 56.074001312256 31 31 31
14.406250000000 16.109375000000 56.923000335693 47 47 47
14.375000000000 16.109375000000 56.898998260498 114 114 114
15.000000000000 16.109375000000 55.244998931885 160 160 160
14.968750000000 16.109375000000 55.225002288818 79 79 79
18.187500000000 16.359375000000 55.150001525879 254 254 254
18.171875000000 16.375000000000 55.195999145508 254 254 254
15.937500000000 16.421875000000 56.953998565674 111 111 111
15.906250000000 16.421875000000 56.928997039795 135 135 135
15.718750000000 16.421875000000 56.099002838135 60 60 60
15.687500000000 16.421875000000 56.088001251221 81 81 81
14.437500000000 16.421875000000 56.890003204346 117 117 117
14.375000000000 16.437500000000 56.874004364014 49 49 49
14.968750000000 16.421875000000 55.236999511719 164 164 164
18.187500000000 16.671875000000 55.152999877930 91 91 91
18.187500000000 16.671875000000 55.145000457764 249 249 249
18.156250000000 16.671875000000 55.208000183105 129 129 129
15.906250000000 16.734375000000 56.935001373291 141 141 141
15.687500000000 16.734375000000 56.071002960205 87 87 87
14.375000000000 16.734375000000 56.881999969482 121 121 121
14.984375000000 16.734375000000 55.250999450684 87 87 87
14.968750000000 16.734375000000 55.222999572754 160 160 160
18.187500000000 16.984375000000 55.150001525879 175 175 175
18.156250000000 16.984375000000 55.159000396729 254 254 254
18.156250000000 17.000000000000 56.055004119873 72 72 72
15.906250000000 17.046875000000 56.918003082275 153 153 153
15.718750000000 17.046875000000 56.068004608154 78 78 78
14.375000000000 17.046875000000 56.899997711182 49 49 49
14.375000000000 17.046875000000 56.868999481201 112 112 112
14.968750000000 17.062500000000 55.228000640869 149 149 149
14.968750000000 17.046875000000 55.205001831055 141 141 141
18.187500000000 17.328125000000 55.137001037598 116 116 116
18.187500000000 17.328125000000 55.149002075195 254 254 254
18.156250000000 17.328125000000 55.166999816895 254 254 254
15.906250000000 17.359375000000 56.916004180908 154 154 154
15.875000000000 17.359375000000 56.907001495361 127 127 127
15.718750000000 17.359375000000 56.077999114990 82 82 82
14.375000000000 17.375000000000 56.877002716064 123 123 123
14.343750000000 17.375000000000 56.862003326416 45 45 45
14.937500000000 17.375000000000 55.216999053955 167 167 167
14.937500000000 17.375000000000 55.202999114990 52 52 52
18.156250000000 17.625000000000 55.145000457764 91 91 91
18.156250000000 17.625000000000 55.162002563477 254 254 254
15.890625000000 17.671875000000 56.913997650146 132 132 132
15.750000000000 17.671875000000 56.065998077393 95 95 95
14.375000000000 17.703125000000 56.857997894287 122 122 122
14.937500000000 17.687500000000 55.201999664307 166 166 166
18.156250000000 17.953125000000 55.148002624512 165 165 165
18.125000000000 17.953125000000 55.180000305176 254 254 254
15.906250000000 17.984375000000 56.904003143311 44 44 44
15.875000000000 17.984375000000 56.895000457764 144 144 144
15.765625000000 17.984375000000 56.060001373291 72 72 72
15.718750000000 17.984375000000 56.061000823975 68 68 68
14.375000000000 18.000000000000 56.868999481201 61 61 61
14.343750000000 18.015625000000 56.848003387451 111 111 111
14.937500000000 18.015625000000 55.207000732422 127 127 127
14.937500000000 18.015625000000 55.187999725342 155 155 155
18.156250000000 18.265625000000 55.128002166748 50 50 50
18.140625000000 18.265625000000 55.151000976563 254 254 254
18.125000000000 18.265625000000 55.146999359131 168 168 168
15.875000000000 18.296875000000 56.895000457764 145 145 145
15.843750000000 18.296875000000 56.888004302979 62 62 62
15.734375000000 18.296875000000 56.038997650146 81 81 81
14.343750000000 18.328125000000 56.856998443604 126 126 126
14.312500000000 18.328125000000 56.835002899170 22 22 22
14.937500000000 18.328125000000 55.187999725342 166 166 166
14.906250000000 18.312500000000 55.176002502441 89 89 89
18.140625000000 18.578125000000 55.157001495361 104 104 104
18.125000000000 18.578125000000 55.180000305176 239 239 239
18.125000000000 18.578125000000 56.015003204346 78 78 78
15.875000000000 18.625000000000 56.884998321533 139 139 139
15.765625000000 18.625000000000 56.036998748779 82 82 82
14.328125000000 18.640625000000 56.844997406006 124 124 124
14.906250000000 18.625000000000 55.178001403809 168 168 168
18.156250000000 18.890625000000 55.131000518799 49 49 49
18.125000000000 18.906250000000 55.149002075195 254 254 254
18.125000000000 18.890625000000 55.160999298096 254 254 254
15.859375000000 18.921875000000 56.889003753662 131 131 131
15.843750000000 18.937500000000 56.875003814697 146 146 146
15.750000000000 18.937500000000 56.043003082275 80 80 80
14.343750000000 18.953125000000 56.841999053955 83 83 83
14.312500000000 18.953125000000 56.826000213623 92 92 92
14.937500000000 18.953125000000 55.179000854492 127 127 127
14.906250000000 18.953125000000 55.159999847412 174 174 174
18.125000000000 19.203125000000 55.138999938965 102 102 102
18.093750000000 19.203125000000 55.143001556396 254 254 254
18.078125000000 19.218750000000 55.158000946045 147 147 147
15.843750000000 19.265625000000 56.880001068115 139 139 139
15.781250000000 19.250000000000 56.049999237061 87 87 87
14.343750000000 19.265625000000 56.826999664307 121 121 121
14.906250000000 19.265625000000 55.176002502441 166 166 166
14.906250000000 19.265625000000 55.150001525879 107 107 107
18.125000000000 19.515625000000 55.146999359131 180 180 180
18.093750000000 19.531250000000 55.152000427246 254 254 254
15.875000000000 19.562500000000 56.871997833252 28 28 28
15.843750000000 19.562500000000 56.867000579834 153 153 153
15.781250000000 19.562500000000 56.030002593994 96 96 96
14.312500000000 19.578125000000 56.810001373291 115 115 115
14.906250000000 19.578125000000 55.164001464844 160 160 160
18.093750000000 19.843750000000 55.142002105713 122 122 122
18.093750000000 19.828125000000 55.136001586914 254 254 254
18.093750000000 19.828125000000 55.148002624512 254 254 254
15.843750000000 19.875000000000 56.862003326416 164 164 164
15.812500000000 19.859375000000 56.852001190186 93 93 93
15.781250000000 19.875000000000 56.031002044678 93 93 93
15.781250000000 19.875000000000 56.018001556396 43 43 43
14.312500000000 19.890625000000 56.812000274658 110 110 110
14.281250000000 19.890625000000 56.793003082275 66 66 66
14.906250000000 19.890625000000 55.178001403809 116 116 116
14.906250000000 19.890625000000 55.145999908447 167 167 167
18.093750000000 20.156250000000 55.145999908447 142 142 142
18.093750000000 20.171875000000 55.159000396729 254 254 254
18.062500000000 20.156250000000 55.198001861572 132 132 132
15.812500000000 20.203125000000 56.862003326416 142 142 142
15.812500000000 20.187500000000 56.022998809814 86 86 86
15.781250000000 20.203125000000 56.018001556396 68 68 68
14.296875000000 20.203125000000 56.800998687744 123 123 123
14.906250000000 20.203125000000 55.152999877930 163 163 163
14.843750000000 20.203125000000 55.138000488281 113 113 113
18.093750000000 20.468750000000 55.157001495361 234 234 234
18.062500000000 20.468750000000 55.153999328613 254 254 254
15.843750000000 20.515625000000 56.840000152588 140 140 140
15.796875000000 20.515625000000 56.850002288818 158 158 158
15.812500000000 20.515625000000 56.037998199463 63 63 63
15.781250000000 20.515625000000 56.021999359131 78 78 78
14.312500000000 20.531250000000 56.805004119873 66 66 66
14.281250000000 20.515625000000 56.789997100830 103 103 103
14.875000000000 20.515625000000 55.143001556396 161 161 161
18.093750000000 20.796875000000 55.144001007080 95 95 95
18.062500000000 20.796875000000 55.152000427246 254 254 254
18.031250000000 20.781250000000 55.152999877930 161 161 161
15.812500000000 20.828125000000 56.848003387451 137 137 137
15.812500000000 20.828125000000 56.009998321533 69 69 69
14.281250000000 20.828125000000 56.800998687744 126 126 126
14.859375000000 20.828125000000 55.160999298096 116 116 116
14.859375000000 20.828125000000 55.127002716064 167 167 167
18.062500000000 21.109375000000 55.138000488281 161 161 161
18.046875000000 21.093750000000 55.184001922607 254 254 254
15.812500000000 21.140625000000 56.855998992920 32 32 32
15.781250000000 21.140625000000 56.832004547119 155 155 155
15.812500000000 21.140625000000 56.013004302979 75 75 75
14.265625000000 21.156250000000 56.783000946045 118 118 118
14.875000000000 21.140625000000 55.134002685547 177 177 177
14.843750000000 21.156250000000 55.112998962402 116 116 116
18.062500000000 21.421875000000 55.129001617432 45 45 45
18.062500000000 21.421875000000 55.138999938965 254 254 254
18.031250000000 21.421875000000 55.158000946045 254 254 254
15.812500000000 21.453125000000 56.830997467041 174 174 174
15.781250000000 21.453125000000 56.820003509521 88 88 88
15.812500000000 21.453125000000 56.011997222900 80 80 80
14.281250000000 21.468750000000 56.792003631592 95 95 95
14.250000000000 21.453125000000 56.770999908447 78 78 78
14.843750000000 21.453125000000 55.125999450684 168 168 168
18.062500000000 21.734375000000 55.131999969482 112 112 112
18.046875000000 21.734375000000 55.172000885010 254 254 254
18.000000000000 21.734375000000 55.202999114990 111 111 111
15.781250000000 21.765625000000 56.823001861572 133 133 133
15.843750000000 21.765625000000 55.994998931885 85 85 85
14.250000000000 21.781250000000 56.767002105713 123 123 123
14.843750000000 21.781250000000 55.137001037598 131 131 131
14.843750000000 21.796875000000 55.114002227783 172 172 172
18.031250000000 22.046875000000 55.141002655029 206 206 206
18.031250000000 22.046875000000 55.157001495361 254 254 254
15.781250000000 22.078125000000 56.824001312256 134 134 134
15.750000000000 22.093750000000 56.814998626709 114 114 114
15.843750000000 22.078125000000 55.997997283936 90 90 90
14.265625000000 22.109375000000 56.774997711182 59 59 59
14.218750000000 22.093750000000 56.765003204346 111 111 111
14.843750000000 22.093750000000 55.111999511719 177 177 177
14.812500000000 22.093750000000 55.097999572754 88 88 88
18.062500000000 22.359375000000 55.145999908447 87 87 87
18.031250000000 22.359375000000 55.151000976563 254 254 254
18.000000000000 22.359375000000 55.145000457764 164 164 164
15.765625000000 22.390625000000 56.820003509521 124 124 124
15.843750000000 22.390625000000 56.008998870850 86 86 86
14.250000000000 22.406250000000 56.767002105713 122 122 122
14.812500000000 22.406250000000 55.107002258301 171 171 171
18.031250000000 22.671875000000 55.146999359131 148 148 148
18.000000000000 22.671875000000 55.157001495361 254 254 254
15.781250000000 22.703125000000 56.820003509521 73 73 73
15.750000000000 22.703125000000 56.807003021240 156 156 156
15.843750000000 22.703125000000 56.008998870850 105 105 105
14.218750000000 22.718750000000 56.756999969482 118 118 118
14.828125000000 22.734375000000 55.104000091553 146 146 146
14.812500000000 22.734375000000 55.091999053955 162 162 162
18.031250000000 22.984375000000 55.125999450684 52 52 52
18.000000000000 22.984375000000 55.145000457764 254 254 254
18.000000000000 23.000000000000 55.145000457764 254 254 254
15.750000000000 23.015625000000 56.815998077393 164 164 164
15.718750000000 23.031250000000 56.803997039795 32 32 32
15.859375000000 23.015625000000 55.996997833252 100 100 100
15.843750000000 23.031250000000 55.992000579834 59 59 59
14.250000000000 23.046875000000 56.756000518799 104 104 104
14.203125000000 23.046875000000 56.740001678467 74 74 74
14.812500000000 23.031250000000 55.096000671387 188 188 188
14.781250000000 23.046875000000 55.083000183105 78 78 78
18.000000000000 23.296875000000 55.143001556396 112 112 112
18.000000000000 23.296875000000 55.152999877930 254 254 254
17.968750000000 23.296875000000 55.145999908447 92 92 92
15.734375000000 23.343750000000 56.796001434326 150 150 150
15.875000000000 23.328125000000 55.993999481201 95 95 95
15.843750000000 23.328125000000 55.971004486084 68 68 68
14.218750000000 23.359375000000 56.753002166748 121 121 121
14.812500000000 23.343750000000 55.116001129150 70 70 70
14.781250000000 23.359375000000 55.096000671387 156 156 156
18.000000000000 23.625000000000 55.144001007080 194 194 194
17.968750000000 23.640625000000 55.153999328613 254 254 254
15.750000000000 23.656250000000 56.798000335693 167 167 167
15.718750000000 23.656250000000 56.791004180908 105 105 105
15.875000000000 23.640625000000 55.981998443604 69 69 69
15.875000000000 23.656250000000 55.968997955322 82 82 82
14.218750000000 23.671875000000 56.752002716064 62 62 62
14.187500000000 23.671875000000 56.732997894287 106 106 106
14.781250000000 23.671875000000 55.094001770020 156 156 156
14.781250000000 23.671875000000 55.075000762939 130 130 130
18.000000000000 23.937500000000 55.157001495361 79 79 79
17.968750000000 23.937500000000 55.156002044678 254 254 254
17.953125000000 23.937500000000 55.145999908447 138 138 138
15.718750000000 23.984375000000 56.796001434326 132 132 132
15.890625000000 23.968750000000 55.983997344971 56 56 56
15.843750000000 23.953125000000 55.977001190186 90 90 90
14.187500000000 23.984375000000 56.744998931885 124 124 124
14.781250000000 23.984375000000 55.083000183105 162 162 162
17.968750000000 24.250000000000 55.151000976563 135 135 135
17.953125000000 24.265625000000 55.159999847412 246 246 246
15.750000000000 24.281250000000 56.786998748779 115 115 115
15.687500000000 24.281250000000 56.774997711182 164 164 164
15.875000000000 24.265625000000 55.973003387451 73 73 73
14.187500000000 24.296875000000 56.724002838135 121 121 121
14.781250000000 24.296875000000 55.102001190186 83 83 83
14.781250000000 24.296875000000 55.062999725342 183 183 183
17.968750000000 24.578125000000 55.151000976563 68 68 68
17.968750000000 24.578125000000 55.159999847412 254 254 254
17.937500000000 24.578125000000 55.144001007080 181 181 181
15.718750000000 24.593750000000 56.785999298096 130 130 130
15.875000000000 24.609375000000 55.964000701904 82 82 82
14.187500000000 24.609375000000 56.731998443604 118 118 118
14.156250000000 24.609375000000 56.716999053955 48 48 48
14.781250000000 24.609375000000 55.079002380371 184 184 184
14.750000000000 24.609375000000 55.062999725342 92 92 92
17.968750000000 24.890625000000 55.156002044678 132 132 132
17.953125000000 24.890625000000 55.151000976563 232 232 232
15.718750000000 24.921875000000 56.784000396729 116 116 116
15.687500000000 24.921875000000 56.782001495361 146 146 146
15.890625000000 24.921875000000 55.963001251221 83 83 83
14.156250000000 24.921875000000 56.718997955322 116 116 116
14.750000000000 24.921875000000 55.089000701904 50 50 50
14.750000000000 24.921875000000 55.061000823975 171 171 171
17.968750000000 25.203125000000 55.145000457764 46 46 46
17.937500000000 25.203125000000 55.144001007080 254 254 254
17.906250000000 25.203125000000 55.159000396729 228 228 228
15.687500000000 25.234375000000 56.774997711182 134 134 134
15.906250000000 25.234375000000 55.965999603271 76 76 76
14.187500000000 25.234375000000 56.723003387451 106 106 106
14.156250000000 25.234375000000 56.701999664307 67 67 67
14.750000000000 25.234375000000 55.072002410889 170 170 170
14.750000000000 25.234375000000 55.039001464844 127 127 127
17.953125000000 25.515625000000 55.157001495361 108 108 108
17.937500000000 25.515625000000 55.153999328613 237 237 237
15.687500000000 25.546875000000 56.775997161865 100 100 100
15.656250000000 25.546875000000 56.763004302979 156 156 156
15.906250000000 25.546875000000 55.965999603271 71 71 71
14.156250000000 25.562500000000 56.704998016357 115 115 115
14.750000000000 25.562500000000 55.062000274658 167 167 167
17.921875000000 25.828125000000 55.148002624512 205 205 205
17.906250000000 25.828125000000 55.159000396729 245 245 245
15.687500000000 25.859375000000 56.775997161865 154 154 154
15.906250000000 25.859375000000 55.973003387451 59 59 59
14.156250000000 25.859375000000 56.719997406006 65 65 65
14.125000000000 25.890625000000 56.701000213623 103 103 103
14.750000000000 25.859375000000 55.061000823975 108 108 108
14.718750000000 25.859375000000 55.045001983643 172 172 172
17.937500000000 26.140625000000 55.158000946045 109 109 109
17.906250000000 26.140625000000 55.166999816895 254 254 254
15.687500000000 26.171875000000 56.773998260498 97 97 97
15.656250000000 26.171875000000 56.758998870850 163 163 163
15.906250000000 26.171875000000 55.962001800537 71 71 71
14.140625000000 26.187500000000 56.700000762939 116 116 116
14.750000000000 26.171875000000 55.058002471924 174 174 174
14.718750000000 26.187500000000 55.038002014160 27 27 27
18.437500000000 0.109375000000 55.170001983643 185 185 185
18.437500000000 0.093750000000 55.165000915527 98 98 98
18.468750000000 0.421875000000 55.180000305176 93 93 93
18.437500000000 0.421875000000 55.166999816895 201 201 201
18.437500000000 0.421875000000 55.160999298096 182 182 182
18.468750000000 0.750000000000 55.180999755859 231 231 231
18.437500000000 0.734375000000 55.173999786377 225 225 225
18.468750000000 1.062500000000 55.215000152588 130 130 130
18.437500000000 1.046875000000 55.184001922607 216 216 216
18.437500000000 1.359375000000 55.166000366211 170 170 170
18.437500000000 1.359375000000 55.163002014160 54 54 54
18.453125000000 1.687500000000 55.169002532959 179 179 179
18.437500000000 1.687500000000 55.180999755859 102 102 102
18.468750000000 2.015625000000 55.174999237061 177 177 177
18.453125000000 2.000000000000 55.173000335693 179 179 179
18.468750000000 2.328125000000 55.184001922607 125 125 125
18.437500000000 2.328125000000 55.170001983643 199 199 199
18.437500000000 2.640625000000 55.176002502441 173 173 173
18.437500000000 2.640625000000 55.177001953125 55 55 55
18.453125000000 2.953125000000 55.167999267578 180 180 180
18.437500000000 2.953125000000 55.171001434326 112 112 112
18.468750000000 3.265625000000 55.170001983643 201 201 201
18.453125000000 3.265625000000 55.167999267578 193 193 193
18.468750000000 3.609375000000 55.177001953125 171 171 171
18.437500000000 3.578125000000 55.169002532959 196 196 196
18.468750000000 3.921875000000 55.194000244141 88 88 88
18.437500000000 3.906250000000 55.177001953125 188 188 188
18.453125000000 4.234375000000 55.174999237061 169 169 169
18.437500000000 4.203125000000 55.191001892090 117 117 117
18.453125000000 4.546875000000 55.166000366211 189 189 189
18.453125000000 4.546875000000 55.170001983643 175 175 175
18.468750000000 4.859375000000 55.180000305176 168 168 168
18.453125000000 4.859375000000 55.173000335693 190 190 190
18.468750000000 5.203125000000 55.176002502441 104 104 104
18.453125000000 5.171875000000 55.177001953125 180 180 180
18.468750000000 5.484375000000 55.179000854492 167 167 167
18.468750000000 6.125000000000 55.169002532959 190 190 190
18.437500000000 6.109375000000 55.187000274658 164 164 164
18.468750000000 6.437500000000 55.185001373291 56 56 56
18.437500000000 6.421875000000 55.174999237061 206 206 206
18.421875000000 6.421875000000 55.236000061035 96 96 96
18.437500000000 6.750000000000 55.166999816895 166 166 166
18.437500000000 6.734375000000 55.165000915527 196 196 196
18.437500000000 7.062500000000 55.169002532959 201 201 201
18.406250000000 7.046875000000 55.166000366211 198 198 198
18.406250000000 7.359375000000 55.166000366211 201 201 201
18.406250000000 7.359375000000 55.166999816895 177 177 177
18.406250000000 7.671875000000 55.159999847412 191 191 191
18.375000000000 7.671875000000 55.165000915527 114 114 114
18.406250000000 7.984375000000 55.171001434326 190 190 190
18.406250000000 8.312500000000 55.159999847412 188 188 188
18.375000000000 8.296875000000 55.159000396729 213 213 213
18.406250000000 8.609375000000 55.166000366211 212 212 212
18.375000000000 8.609375000000 55.157001495361 204 204 204
18.375000000000 8.921875000000 55.162002563477 201 201 201
18.343750000000 8.921875000000 55.159999847412 143 143 143
18.375000000000 9.234375000000 55.166999816895 202 202 202
18.343750000000 9.234375000000 55.164001464844 52 52 52
18.343750000000 9.546875000000 55.157001495361 175 175 175
18.343750000000 9.546875000000 55.167999267578 219 219 219
18.343750000000 9.859375000000 55.187999725342 249 249 249
18.343750000000 9.859375000000 55.153999328613 242 242 242
18.343750000000 10.171875000000 55.184001922607 252 252 252
18.312500000000 10.171875000000 55.159000396729 193 193 193
18.343750000000 10.484375000000 55.282001495361 160 160 160
18.312500000000 10.484375000000 55.177001953125 230 230 230
18.312500000000 10.484375000000 55.171001434326 62 62 62
18.343750000000 10.812500000000 55.236000061035 162 162 162
18.312500000000 10.796875000000 55.159000396729 218 218 218
18.281250000000 10.796875000000 55.151000976563 45 45 45
18.312500000000 11.109375000000 55.204002380371 252 252 252
18.312500000000 11.109375000000 55.160999298096 249 249 249
18.312500000000 11.453125000000 56.229000091553 98 98 98
18.312500000000 11.421875000000 55.188999176025 252 252 252
18.281250000000 11.421875000000 55.152999877930 183 183 183
18.281250000000 11.765625000000 56.300998687744 91 91 91
18.281250000000 11.734375000000 55.156002044678 217 217 217
18.281250000000 11.734375000000 55.157001495361 124 124 124
18.281250000000 12.046875000000 55.159000396729 152 152 152
18.281250000000 12.046875000000 55.158000946045 227 227 227
18.250000000000 12.031250000000 55.148002624512 49 49 49
18.281250000000 12.390625000000 56.204998016357 92 92 92
18.281250000000 12.359375000000 55.186000823975 252 252 252
18.281250000000 12.359375000000 55.153999328613 233 233 233
18.250000000000 12.703125000000 56.196002960205 100 100 100
18.250000000000 12.671875000000 55.157001495361 252 252 252
18.250000000000 12.671875000000 55.143001556396 200 200 200
18.250000000000 12.984375000000 55.144001007080 224 224 224
18.250000000000 12.984375000000 55.150001525879 141 141 141
18.250000000000 13.328125000000 56.167003631592 55 55 55
18.250000000000 13.296875000000 55.157001495361 155 155 155
18.250000000000 13.296875000000 55.152999877930 239 239 239
18.218750000000 13.265625000000 55.149002075195 69 69 69
18.250000000000 13.640625000000 56.166004180908 103 103 103
18.250000000000 13.609375000000 55.157001495361 243 243 243
18.218750000000 13.609375000000 55.142002105713 223 223 223
18.218750000000 13.937500000000 56.159000396729 95 95 95
18.250000000000 13.921875000000 55.145999908447 239 239 239
18.218750000000 13.921875000000 55.145999908447 187 187 187
18.218750000000 14.265625000000 56.148998260498 39 39 39
18.187500000000 14.250000000000 56.229000091553 104 104 104
18.218750000000 14.234375000000 55.152999877930 211 211 211
18.187500000000 14.218750000000 55.150001525879 103 103 103
18.218750000000 14.578125000000 56.142002105713 101 101 101
18.218750000000 14.546875000000 55.183002471924 247 247 247
18.218750000000 14.546875000000 55.153999328613 252 252 252
18.187500000000 14.546875000000 55.142002105713 53 53 53
18.187500000000 14.890625000000 56.140003204346 93 93 93
18.218750000000 14.859375000000 55.153999328613 252 252 252
18.187500000000 14.843750000000 55.155002593994 212 212 212
18.187500000000 15.187500000000 56.199001312256 97 97 97
18.187500000000 15.171875000000 55.158000946045 238 238 238
18.187500000000 15.156250000000 55.152999877930 147 147 147
18.187500000000 15.515625000000 56.110004425049 107 107 107
18.187500000000 15.484375000000 55.166000366211 152 152 152
18.187500000000 15.484375000000 55.146999359131 252 252 252
18.187500000000 15.484375000000 55.146999359131 100 100 100
18.187500000000 15.828125000000 56.097003936768 94 94 94
18.187500000000 15.796875000000 55.151000976563 252 252 252
18.156250000000 15.796875000000 55.141002655029 250 250 250
18.156250000000 16.140625000000 56.092998504639 41 41 41
18.156250000000 16.140625000000 56.146999359131 96 96 96
18.187500000000 16.109375000000 55.151000976563 252 252 252
18.156250000000 16.109375000000 55.152000427246 169 169 169
18.156250000000 16.453125000000 56.074001312256 100 100 100
18.187500000000 16.437500000000 55.192001342773 150 150 150
18.156250000000 16.421875000000 55.153999328613 245 245 245
18.125000000000 16.421875000000 55.153999328613 125 125 125
18.156250000000 16.765625000000 56.073001861572 100 100 100
18.156250000000 16.734375000000 55.152000427246 245 245 245
18.156250000000 16.734375000000 55.146999359131 252 252 252
18.125000000000 16.734375000000 55.145999908447 68 68 68
18.156250000000 17.078125000000 56.064998626709 64 64 64
18.125000000000 17.078125000000 56.133998870850 108 108 108
18.156250000000 17.046875000000 55.148002624512 252 252 252
18.125000000000 17.046875000000 55.143001556396 184 184 184
18.125000000000 17.390625000000 56.050998687744 108 108 108
18.140625000000 17.375000000000 55.166999816895 140 140 140
18.125000000000 17.359375000000 55.143001556396 252 252 252
18.109375000000 17.359375000000 55.153999328613 139 139 139
18.125000000000 17.703125000000 56.045001983643 96 96 96
18.125000000000 17.687500000000 55.149002075195 249 249 249
18.125000000000 17.671875000000 55.139999389648 252 252 252
18.093750000000 17.671875000000 55.152999877930 59 59 59
18.125000000000 18.031250000000 56.029003143311 64 64 64
18.093750000000 18.015625000000 56.073001861572 113 113 113
18.109375000000 17.984375000000 55.152000427246 252 252 252
18.093750000000 17.984375000000 55.138000488281 193 193 193
18.125000000000 18.328125000000 56.022998809814 113 113 113
18.125000000000 18.328125000000 55.185001373291 136 136 136
18.109375000000 18.312500000000 55.152999877930 239 239 239
18.093750000000 18.296875000000 55.152999877930 105 105 105
18.093750000000 18.640625000000 56.013004302979 103 103 103
18.109375000000 18.640625000000 55.151000976563 252 252 252
18.093750000000 18.625000000000 55.143001556396 251 251 251
18.093750000000 18.968750000000 56.017002105713 85 85 85
18.062500000000 18.953125000000 56.064998626709 98 98 98
18.093750000000 18.937500000000 55.145000457764 252 252 252
18.062500000000 18.921875000000 55.152999877930 225 225 225
18.062500000000 19.265625000000 55.993999481201 107 107 107
18.093750000000 19.265625000000 55.151000976563 151 151 151
18.062500000000 19.265625000000 55.145999908447 252 252 252
18.062500000000 19.234375000000 55.144001007080 144 144 144
18.062500000000 19.578125000000 56.006000518799 107 107 107
18.062500000000 19.578125000000 55.144001007080 252 252 252
18.062500000000 19.562500000000 55.135002136230 252 252 252
18.062500000000 19.906250000000 55.987003326416 107 107 107
18.062500000000 19.890625000000 55.177001953125 141 141 141
18.062500000000 19.890625000000 55.143001556396 252 252 252
18.062500000000 19.875000000000 55.138000488281 163 163 163
18.046875000000 20.218750000000 55.989002227783 100 100 100
18.062500000000 20.203125000000 55.149002075195 185 185 185
18.031250000000 20.203125000000 55.144001007080 252 252 252
18.031250000000 20.187500000000 55.148002624512 140 140 140
18.046875000000 20.531250000000 55.988002777100 57 57 57
18.031250000000 20.515625000000 56.009998321533 104 104 104
18.062500000000 20.515625000000 55.136001586914 252 252 252
18.031250000000 20.515625000000 55.146999359131 252 252 252
18.031250000000 20.843750000000 55.972003936768 113 113 113
18.062500000000 20.843750000000 55.149002075195 135 135 135
18.031250000000 20.828125000000 55.142002105713 252 252 252
18.000000000000 20.812500000000 55.141002655029 156 156 156
18.015625000000 21.140625000000 55.975002288818 108 108 108
18.031250000000 21.140625000000 55.145999908447 252 252 252
18.031250000000 21.140625000000 55.141002655029 252 252 252
18.000000000000 21.140625000000 55.134002685547 85 85 85
18.015625000000 21.468750000000 55.979000091553 98 98 98
18.000000000000 21.453125000000 55.139999389648 252 252 252
18.000000000000 21.453125000000 55.151000976563 237 237 237
18.000000000000 21.781250000000 55.953998565674 97 97 97
18.031250000000 21.765625000000 55.157001495361 108 108 108
18.000000000000 21.765625000000 55.151000976563 252 252 252
18.000000000000 21.750000000000 55.149002075195 118 118 118
18.000000000000 22.109375000000 55.947002410889 65 65 65
18.000000000000 22.093750000000 55.951000213623 104 104 104
18.000000000000 22.078125000000 55.145000457764 252 252 252
18.000000000000 22.078125000000 55.143001556396 252 252 252
17.968750000000 22.062500000000 55.152999877930 47 47 47
18.000000000000 22.421875000000 55.946002960205 118 118 118
18.000000000000 22.390625000000 55.179000854492 101 101 101
18.000000000000 22.390625000000 55.144001007080 252 252 252
17.968750000000 22.390625000000 55.145999908447 155 155 155
17.968750000000 22.734375000000 55.930004119873 103 103 103
18.000000000000 22.718750000000 55.156002044678 141 141 141
17.968750000000 22.703125000000 55.145000457764 252 252 252
17.968750000000 22.687500000000 55.150001525879 98 98 98
17.968750000000 23.046875000000 55.941997528076 94 94 94
17.937500000000 23.031250000000 55.937000274658 93 93 93
17.968750000000 23.015625000000 55.152999877930 252 252 252
17.968750000000 23.015625000000 55.143001556396 252 252 252
17.968750000000 23.359375000000 55.928997039795 100 100 100
18.000000000000 23.343750000000 55.169002532959 104 104 104
17.968750000000 23.328125000000 55.142002105713 252 252 252
17.937500000000 23.328125000000 55.143001556396 113 113 113
17.968750000000 23.671875000000 55.951999664307 68 68 68
17.937500000000 23.671875000000 55.911998748779 106 106 106
17.953125000000 23.656250000000 55.153999328613 252 252 252
17.937500000000 23.640625000000 55.144001007080 252 252 252
17.937500000000 23.640625000000 55.146999359131 52 52 52
17.937500000000 23.984375000000 55.921001434326 111 111 111
17.968750000000 23.984375000000 55.199001312256 87 87 87
17.937500000000 23.953125000000 55.145999908447 252 252 252
17.921875000000 23.953125000000 55.145000457764 194 194 194
17.937500000000 24.296875000000 55.917003631592 107 107 107
17.937500000000 24.281250000000 55.166000366211 171 171 171
17.937500000000 24.265625000000 55.149002075195 252 252 252
17.921875000000 24.265625000000 55.155002593994 97 97 97
17.937500000000 24.625000000000 55.923000335693 108 108 108
17.937500000000 24.609375000000 55.148002624512 252 252 252
17.906250000000 24.578125000000 55.152000427246 213 213 213
17.906250000000 24.921875000000 55.909000396729 108 108 108
17.937500000000 24.921875000000 55.164001464844 119 119 119
17.921875000000 24.906250000000 55.146999359131 252 252 252
17.906250000000 24.890625000000 55.148002624512 100 100 100
17.906250000000 25.250000000000 55.900997161865 106 106 106
17.890625000000 25.234375000000 55.879001617432 85 85 85
17.921875000000 25.234375000000 55.150001525879 252 252 252
17.890625000000 25.203125000000 55.150001525879 252 252 252
17.890625000000 25.562500000000 55.904003143311 108 108 108
17.906250000000 25.546875000000 55.153999328613 134 134 134
17.906250000000 25.546875000000 55.145999908447 252 252 252
17.875000000000 25.546875000000 55.155002593994 88 88 88
17.890625000000 25.875000000000 55.883998870850 108 108 108
17.875000000000 25.859375000000 55.879001617432 78 78 78
17.875000000000 25.859375000000 55.149002075195 252 252 252
17.875000000000 25.859375000000 55.142002105713 245 245 245
17.875000000000 26.171875000000 55.880001068115 104 104 104
17.906250000000 26.171875000000 55.166000366211 131 131 131
17.875000000000 26.171875000000 55.149002075195 252 252 252
17.875000000000 26.171875000000 55.150001525879 128 128 128
18.468750000000 0.078125000000 55.176002502441 252 252 252
18.484375000000 0.078125000000 55.171001434326 205 205 205
18.468750000000 0.390625000000 55.178001403809 38 38 38
18.468750000000 0.390625000000 55.162002563477 190 190 190
18.500000000000 0.390625000000 55.281002044678 146 146 146
18.468750000000 0.703125000000 55.179000854492 131 131 131
18.500000000000 0.703125000000 55.193000793457 230 230 230
18.468750000000 1.015625000000 55.171001434326 208 208 208
18.468750000000 1.015625000000 55.188999176025 252 252 252
18.468750000000 1.328125000000 55.176002502441 252 252 252
18.500000000000 1.328125000000 55.179000854492 252 252 252
18.468750000000 1.640625000000 55.184001922607 224 224 224
18.484375000000 1.640625000000 55.194999694824 111 111 111
18.468750000000 1.953125000000 55.191001892090 86 86 86
18.468750000000 1.953125000000 55.179000854492 203 203 203
18.500000000000 1.953125000000 55.181999206543 39 39 39
18.468750000000 2.265625000000 55.177001953125 177 177 177
18.500000000000 2.265625000000 55.187000274658 226 226 226
18.484375000000 2.578125000000 55.187999725342 231 231 231
18.500000000000 2.578125000000 55.178001403809 209 209 209
18.468750000000 2.890625000000 55.183002471924 230 230 230
18.500000000000 2.875000000000 55.183002471924 139 139 139
18.468750000000 3.203125000000 55.193000793457 44 44 44
18.500000000000 3.203125000000 55.178001403809 188 188 188
18.468750000000 3.515625000000 55.183002471924 135 135 135
18.468750000000 3.515625000000 55.164001464844 203 203 203
18.468750000000 3.828125000000 55.173000335693 209 209 209
18.500000000000 3.828125000000 55.170001983643 214 214 214
18.484375000000 4.140625000000 55.181999206543 229 229 229
18.500000000000 4.125000000000 55.172000885010 184 184 184
18.500000000000 4.453125000000 55.164001464844 194 194 194
18.500000000000 4.453125000000 55.184001922607 60 60 60
18.468750000000 4.765625000000 55.218002319336 155 155 155
18.500000000000 4.765625000000 55.165000915527 197 197 197
18.484375000000 5.078125000000 55.171001434326 195 195 195
18.500000000000 5.078125000000 55.167999267578 206 206 206
18.468750000000 5.390625000000 55.220001220703 252 252 252
18.500000000000 5.390625000000 55.183002471924 184 184 184
18.484375000000 5.687500000000 56.447002410889 99 99 99
18.468750000000 5.703125000000 55.171001434326 198 198 198
18.500000000000 5.687500000000 55.192001342773 65 65 65
18.421875000000 6.046875000000 56.360004425049 98 98 98
18.468750000000 6.015625000000 55.266002655029 253 253 253
18.500000000000 6.015625000000 55.253002166748 253 253 253
18.468750000000 6.328125000000 55.193000793457 154 154 154
18.484375000000 6.328125000000 55.166999816895 203 203 203
18.453125000000 6.640625000000 55.236000061035 68 68 68
18.468750000000 6.640625000000 55.162002563477 188 188 188
18.468750000000 6.968750000000 55.174999237061 217 217 217
18.468750000000 6.953125000000 55.174999237061 145 145 145
18.468750000000 7.281250000000 55.179000854492 220 220 220
18.468750000000 7.265625000000 55.171001434326 196 196 196
18.421875000000 7.593750000000 55.164001464844 203 203 203
18.437500000000 7.578125000000 55.163002014160 201 201 201
18.406250000000 7.921875000000 55.164001464844 167 167 167
18.437500000000 7.921875000000 55.167999267578 211 211 211
18.406250000000 8.234375000000 55.190002441406 76 76 76
18.406250000000 8.234375000000 55.160999298096 200 200 200
18.406250000000 8.546875000000 55.180000305176 252 252 252
18.437500000000 8.531250000000 55.169002532959 154 154 154
18.375000000000 8.859375000000 55.173000335693 243 243 243
18.406250000000 8.859375000000 55.173999786377 220 220 220
18.375000000000 9.187500000000 55.158000946045 201 201 201
18.406250000000 9.171875000000 55.171001434326 246 246 246
18.375000000000 9.500000000000 55.159000396729 140 140 140
18.375000000000 9.484375000000 55.207000732422 252 252 252
18.343750000000 9.828125000000 55.181999206543 51 51 51
18.375000000000 9.828125000000 55.166000366211 212 212 212
18.375000000000 9.796875000000 55.250999450684 155 155 155
18.375000000000 10.140625000000 55.173000335693 229 229 229
18.375000000000 10.125000000000 55.153999328613 195 195 195
18.343750000000 10.453125000000 55.155002593994 201 201 201
18.375000000000 10.453125000000 55.204002380371 252 252 252
18.375000000000 10.421875000000 56.264003753662 52 52 52
18.343750000000 10.765625000000 55.151000976563 154 154 154
18.359375000000 10.765625000000 55.199001312256 248 248 248
18.375000000000 10.734375000000 56.265003204346 100 100 100
18.312500000000 11.078125000000 55.159000396729 61 61 61
18.343750000000 11.078125000000 55.151000976563 199 199 199
18.343750000000 11.062500000000 56.323001861572 107 107 107
18.343750000000 11.390625000000 55.169002532959 240 240 240
18.343750000000 11.390625000000 55.144001007080 166 166 166
18.312500000000 11.718750000000 55.166000366211 239 239 239
18.312500000000 11.703125000000 55.197002410889 252 252 252
18.343750000000 11.703125000000 56.215000152588 77 77 77
18.296875000000 12.046875000000 55.156002044678 186 186 186
18.312500000000 12.031250000000 55.172000885010 252 252 252
