19.687500000000 14.000000000000 57.322021484375 214 214 214
19.687500000000 14.000000000000 57.252014160156 173 173 173
19.125000000000 14.375000000000 57.361999511719 211 211 211
19.125000000000 14.375000000000 57.300018310547 211 211 211
19.687500000000 14.125000000000 57.387023925781 193 193 193
19.687500000000 14.125000000000 57.317016601563 214 214 214
19.750000000000 14.125000000000 57.238006591797 151 151 151
19.125000000000 14.500000000000 57.361022949219 211 211 211
19.125000000000 14.500000000000 57.303009033203 207 207 207
19.125000000000 14.500000000000 57.240997314453 40 40 40
19.687500000000 14.250000000000 57.382019042969 196 196 196
19.687500000000 14.250000000000 57.313018798828 214 214 214
19.687500000000 14.250000000000 57.236999511719 154 154 154
19.062500000000 14.625000000000 57.363006591797 142 142 142
19.062500000000 14.625000000000 57.302001953125 147 147 147
19.062500000000 14.625000000000 57.246002197266 115 115 115
19.687500000000 14.500000000000 57.381011962891 196 196 196
19.687500000000 14.500000000000 57.309997558594 213 213 213
19.750000000000 14.375000000000 57.227020263672 155 155 155
19.062500000000 14.875000000000 57.364013671875 144 144 144
19.062500000000 14.875000000000 57.301025390625 144 144 144
19.062500000000 14.875000000000 57.243011474609 120 120 120
19.687500000000 14.500000000000 57.377014160156 204 204 204
19.687500000000 14.500000000000 57.309020996094 213 213 213
19.687500000000 14.500000000000 57.240020751953 179 179 179
19.062500000000 14.875000000000 57.368011474609 129 129 129
19.062500000000 14.875000000000 57.307006835938 132 132 132
19.062500000000 14.875000000000 57.245025634766 135 135 135
19.687500000000 14.750000000000 57.377014160156 129 129 129
19.687500000000 14.750000000000 57.309020996094 129 129 129
19.187500000000 15.000000000000 57.388000488281 149 149 149
19.000000000000 15.000000000000 57.368011474609 142 142 142
19.000000000000 15.000000000000 57.307006835938 148 148 148
19.000000000000 15.000000000000 57.248016357422 141 141 141
19.187500000000 15.000000000000 57.141021728516 156 156 156
19.125000000000 15.000000000000 57.079010009766 162 162 162
19.125000000000 15.000000000000 57.013000488281 165 165 165
19.125000000000 15.000000000000 56.950012207031 167 167 167
19.125000000000 15.000000000000 56.889007568359 166 166 166
19.125000000000 15.000000000000 56.819000244141 166 166 166
19.125000000000 15.000000000000 56.755004882813 163 163 163
19.625000000000 14.875000000000 57.391998291016 127 127 127
19.187500000000 15.125000000000 57.447998046875 156 156 156
19.125000000000 15.125000000000 57.395019531250 167 167 167
19.000000000000 15.125000000000 57.374023437500 146 146 146
19.000000000000 15.125000000000 57.311004638672 148 148 148
19.000000000000 15.125000000000 57.249023437500 141 141 141
19.125000000000 15.125000000000 57.149017333984 149 149 149
19.125000000000 15.125000000000 57.078002929688 180 180 180
19.125000000000 15.125000000000 57.015014648438 199 199 199
19.187500000000 15.125000000000 56.947998046875 178 178 178
19.125000000000 15.125000000000 56.886016845703 183 183 183
19.125000000000 15.125000000000 56.824005126953 155 155 155
19.125000000000 15.125000000000 56.756011962891 160 160 160
19.375000000000 15.125000000000 57.447998046875 119 119 119
19.187500000000 15.250000000000 57.445007324219 149 149 149
19.125000000000 15.250000000000 57.397003173828 169 169 169
19.000000000000 15.375000000000 57.367004394531 145 145 145
19.000000000000 15.375000000000 57.333007812500 117 117 117
18.937500000000 15.375000000000 57.277008056641 116 116 116
18.937500000000 15.500000000000 57.225006103516 115 115 115
19.125000000000 15.250000000000 57.082000732422 169 169 169
19.125000000000 15.250000000000 57.019012451172 169 169 169
19.125000000000 15.250000000000 56.955017089844 168 168 168
19.125000000000 15.250000000000 56.890014648438 171 171 171
19.125000000000 15.250000000000 56.826019287109 170 170 170
19.125000000000 15.250000000000 56.762023925781 168 168 168
19.250000000000 15.250000000000 56.645996093750 159 159 159
19.250000000000 15.250000000000 56.574005126953 155 155 155
19.250000000000 15.250000000000 56.506011962891 149 149 149
19.250000000000 15.250000000000 56.437011718750 151 151 151
19.437500000000 15.250000000000 57.443023681641 121 121 121
19.187500000000 15.375000000000 57.441009521484 154 154 154
19.125000000000 15.375000000000 57.391021728516 168 168 168
19.125000000000 15.375000000000 57.331024169922 170 170 170
18.937500000000 15.500000000000 57.352020263672 147 147 147
18.875000000000 15.500000000000 57.298004150391 146 146 146
18.875000000000 15.500000000000 57.239013671875 150 150 150
19.062500000000 15.500000000000 57.115020751953 179 179 179
19.125000000000 15.375000000000 57.016998291016 169 169 169
19.125000000000 15.375000000000 56.953002929688 170 170 170
19.125000000000 15.375000000000 56.890014648438 172 172 172
19.125000000000 15.375000000000 56.825012207031 172 172 172
19.125000000000 15.375000000000 56.757019042969 171 171 171
19.375000000000 15.250000000000 56.500000000000 150 150 150
19.437500000000 15.250000000000 56.421020507813 141 141 141
19.375000000000 15.375000000000 56.378997802734 108 108 108
19.437500000000 15.375000000000 57.440002441406 144 144 144
19.375000000000 15.375000000000 57.394012451172 168 168 168
19.375000000000 15.375000000000 57.326995849609 178 178 178
19.437500000000 15.375000000000 57.251007080078 141 141 141
18.812500000000 15.750000000000 57.389007568359 134 134 134
18.812500000000 15.750000000000 57.334014892578 140 140 140
18.812500000000 15.750000000000 57.277008056641 135 135 135
18.812500000000 15.750000000000 57.214996337891 140 140 140
19.375000000000 15.375000000000 56.936004638672 156 156 156
19.375000000000 15.375000000000 56.871002197266 154 154 154
19.375000000000 15.375000000000 56.802001953125 159 159 159
19.375000000000 15.375000000000 56.734008789063 158 158 158
19.750000000000 15.375000000000 57.367004394531 171 171 171
19.750000000000 15.375000000000 57.299011230469 175 175 175
19.750000000000 15.375000000000 57.227996826172 169 169 169
18.750000000000 15.875000000000 57.393005371094 141 141 141
18.750000000000 15.875000000000 57.334014892578 145 145 145
18.750000000000 15.875000000000 57.281005859375 140 140 140
18.750000000000 15.875000000000 57.220001220703 144 144 144
19.750000000000 15.500000000000 57.352020263672 163 163 163
19.750000000000 15.500000000000 57.283020019531 170 170 170
19.750000000000 15.500000000000 57.212005615234 161 161 161
19.750000000000 15.625000000000 57.352020263672 147 147 147
19.812500000000 15.625000000000 57.278015136719 145 145 145
19.750000000000 15.625000000000 57.210021972656 138 138 138
19.875000000000 15.750000000000 57.408020019531 63 63 63
19.750000000000 15.750000000000 57.350006103516 142 142 142
19.750000000000 15.750000000000 57.279998779297 139 139 139
19.750000000000 15.750000000000 57.209014892578 149 149 149
19.812500000000 15.750000000000 57.402008056641 43 43 43
19.812500000000 15.875000000000 57.348022460938 140 140 140
19.812500000000 15.875000000000 57.276000976563 145 145 145
19.812500000000 15.875000000000 57.208007812500 146 146 146
19.812500000000 16.000000000000 57.335021972656 159 159 159
19.812500000000 16.000000000000 57.261016845703 152 152 152
19.812500000000 16.000000000000 57.192016601563 153 153 153
19.562500000000 10.625000000000 57.450012207031 226 226 226
19.562500000000 10.625000000000 57.395019531250 226 226 226
19.625000000000 10.875000000000 57.601013183594 156 156 156
19.625000000000 10.875000000000 57.546020507813 183 183 183
19.625000000000 10.875000000000 57.492004394531 101 101 101
19.500000000000 10.750000000000 57.447998046875 239 239 239
19.500000000000 10.750000000000 57.393005371094 233 233 233
19.562500000000 10.875000000000 57.334014892578 71 71 71
19.625000000000 11.000000000000 57.601013183594 177 177 177
19.625000000000 11.000000000000 57.544006347656 177 177 177
19.625000000000 11.000000000000 57.486022949219 154 154 154
19.500000000000 11.000000000000 57.447998046875 229 229 229
19.500000000000 11.000000000000 57.391998291016 236 236 236
19.562500000000 11.000000000000 57.333007812500 79 79 79
19.500000000000 11.125000000000 57.500000000000 100 100 100
19.500000000000 11.125000000000 57.455017089844 236 236 236
19.500000000000 11.125000000000 57.399017333984 224 224 224
19.500000000000 11.125000000000 57.346008300781 206 206 206
19.562500000000 11.250000000000 57.490020751953 24 24 24
19.500000000000 11.250000000000 57.454010009766 230 230 230
19.500000000000 11.250000000000 57.400024414063 226 226 226
19.500000000000 11.250000000000 57.345001220703 216 216 216
19.562500000000 11.375000000000 57.485015869141 35 35 35
19.500000000000 11.375000000000 57.451995849609 240 240 240
19.437500000000 11.375000000000 57.401000976563 223 223 223
19.437500000000 11.375000000000 57.343017578125 223 223 223
19.500000000000 11.500000000000 57.451995849609 229 229 229
19.437500000000 11.500000000000 57.399017333984 225 225 225
19.500000000000 11.500000000000 57.343017578125 226 226 226
19.625000000000 11.750000000000 57.469024658203 36 36 36
19.437500000000 11.625000000000 57.454010009766 229 229 229
19.437500000000 11.625000000000 57.398010253906 229 229 229
19.375000000000 11.625000000000 57.345001220703 227 227 227
19.625000000000 11.875000000000 57.464019775391 25 25 25
19.437500000000 11.750000000000 57.454010009766 228 228 228
19.437500000000 11.750000000000 57.400024414063 228 228 228
19.437500000000 11.750000000000 57.345001220703 227 227 227
19.437500000000 12.000000000000 57.454010009766 223 223 223
19.375000000000 12.000000000000 57.402008056641 229 229 229
19.375000000000 12.000000000000 57.347015380859 227 227 227
19.375000000000 12.000000000000 57.451995849609 227 227 227
19.375000000000 12.000000000000 57.406005859375 226 226 226
19.375000000000 12.000000000000 57.351013183594 226 226 226
19.500000000000 12.250000000000 57.441009521484 236 236 236
19.375000000000 12.250000000000 57.408996582031 227 227 227
19.375000000000 12.250000000000 57.356018066406 224 224 224
19.562500000000 12.375000000000 57.411010742188 231 231 231
19.375000000000 12.375000000000 57.410003662109 223 223 223
19.375000000000 12.375000000000 57.357025146484 223 223 223
19.375000000000 12.375000000000 57.304016113281 157 157 157
19.625000000000 12.500000000000 57.404998779297 223 223 223
19.375000000000 12.500000000000 57.411010742188 225 225 225
19.312500000000 12.500000000000 57.361022949219 218 218 218
19.312500000000 12.500000000000 57.307006835938 180 180 180
19.625000000000 12.625000000000 57.401000976563 223 223 223
19.312500000000 12.625000000000 57.416015625000 225 225 225
19.312500000000 12.625000000000 57.361999511719 227 227 227
19.312500000000 12.625000000000 57.309020996094 211 211 211
19.625000000000 12.750000000000 57.394012451172 222 222 222
19.250000000000 12.750000000000 57.417999267578 227 227 227
19.250000000000 12.750000000000 57.364013671875 227 227 227
19.250000000000 12.750000000000 57.309997558594 224 224 224
19.687500000000 12.875000000000 57.441009521484 21 21 21
19.625000000000 12.875000000000 57.390014648438 223 223 223
19.250000000000 12.875000000000 57.420013427734 227 227 227
19.250000000000 12.875000000000 57.365020751953 224 224 224
19.250000000000 12.875000000000 57.312011718750 228 228 228
19.687500000000 13.125000000000 57.440002441406 53 53 53
19.625000000000 13.125000000000 57.385009765625 228 228 228
19.250000000000 13.000000000000 57.419006347656 230 230 230
19.250000000000 13.000000000000 57.368011474609 226 226 226
19.250000000000 13.000000000000 57.314025878906 229 229 229
19.625000000000 13.125000000000 57.434997558594 45 45 45
19.625000000000 13.125000000000 57.381011962891 228 228 228
19.250000000000 13.250000000000 57.421020507813 226 226 226
19.250000000000 13.250000000000 57.365020751953 236 236 236
19.250000000000 13.250000000000 57.315002441406 228 228 228
19.687500000000 13.250000000000 57.433013916016 81 81 81
19.625000000000 13.375000000000 57.377014160156 221 221 221
19.250000000000 13.375000000000 57.421997070313 232 232 232
19.250000000000 13.375000000000 57.370025634766 225 225 225
19.250000000000 13.375000000000 57.317016601563 224 224 224
19.687500000000 13.500000000000 57.428009033203 79 79 79
19.625000000000 13.500000000000 57.375000000000 212 212 212
19.187500000000 13.375000000000 57.424011230469 227 227 227
19.250000000000 13.500000000000 57.370025634766 218 218 218
19.187500000000 13.375000000000 57.319000244141 215 215 215
19.687500000000 13.625000000000 57.423004150391 76 76 76
19.687500000000 13.625000000000 57.371002197266 204 204 204
19.187500000000 13.500000000000 57.423004150391 221 221 221
19.187500000000 13.500000000000 57.375000000000 224 224 224
19.187500000000 13.500000000000 57.321014404297 231 231 231
19.187500000000 13.500000000000 57.266998291016 102 102 102
19.687500000000 13.750000000000 57.421020507813 40 40 40
19.625000000000 13.750000000000 57.368011474609 222 222 222
19.250000000000 13.750000000000 57.406005859375 255 255 255
19.187500000000 13.750000000000 57.376007080078 230 230 230
19.187500000000 13.750000000000 57.322021484375 230 230 230
19.125000000000 13.750000000000 57.273010253906 179 179 179
19.687500000000 13.875000000000 57.364013671875 226 226 226
19.562500000000 13.875000000000 57.325012207031 228 228 228
19.125000000000 13.875000000000 57.378021240234 231 231 231
19.125000000000 13.875000000000 57.328002929688 224 224 224
19.125000000000 13.875000000000 57.273010253906 214 214 214
19.687500000000 14.000000000000 57.363006591797 215 215 215
19.625000000000 14.000000000000 57.312011718750 236 236 236
19.125000000000 14.000000000000 57.381011962891 226 226 226
19.125000000000 14.000000000000 57.329010009766 233 233 233
19.125000000000 14.000000000000 57.275024414063 225 225 225
19.687500000000 14.125000000000 57.361999511719 226 226 226
19.687500000000 14.125000000000 57.305999755859 228 228 228
19.125000000000 14.125000000000 57.382995605469 232 232 232
19.125000000000 14.125000000000 57.331024169922 228 228 228
19.125000000000 14.125000000000 57.279998779297 226 226 226
19.687500000000 14.250000000000 57.359008789063 227 227 227
19.687500000000 14.250000000000 57.301025390625 229 229 229
19.125000000000 14.250000000000 57.386016845703 231 231 231
19.125000000000 14.250000000000 57.333007812500 224 224 224
19.125000000000 14.250000000000 57.279998779297 230 230 230
19.687500000000 14.500000000000 57.359008789063 224 224 224
19.687500000000 14.500000000000 57.301025390625 224 224 224
19.125000000000 14.375000000000 57.388000488281 231 231 231
19.125000000000 14.375000000000 57.335998535156 224 224 224
19.125000000000 14.500000000000 57.286010742188 222 222 222
19.687500000000 14.500000000000 57.355010986328 224 224 224
19.687500000000 14.500000000000 57.296020507813 228 228 228
19.062500000000 14.625000000000 57.388000488281 229 229 229
19.062500000000 14.625000000000 57.337005615234 223 223 223
19.062500000000 14.625000000000 57.285003662109 223 223 223
19.750000000000 14.750000000000 57.408996582031 39 39 39
19.687500000000 14.750000000000 57.355010986328 138 138 138
19.687500000000 14.750000000000 57.298004150391 160 160 160
19.000000000000 14.750000000000 57.393005371094 183 183 183
19.000000000000 14.750000000000 57.339996337891 188 188 188
19.000000000000 14.750000000000 57.288024902344 176 176 176
19.000000000000 14.750000000000 57.235015869141 137 137 137
19.750000000000 14.875000000000 57.406005859375 20 20 20
19.687500000000 14.875000000000 57.354003906250 163 163 163
19.687500000000 14.875000000000 57.292022705078 166 166 166
19.000000000000 14.875000000000 57.393005371094 183 183 183
19.062500000000 14.875000000000 57.339996337891 189 189 189
19.000000000000 14.875000000000 57.289001464844 178 178 178
19.000000000000 14.875000000000 57.236022949219 154 154 154
19.625000000000 15.000000000000 57.355010986328 184 184 184
19.375000000000 15.000000000000 57.360015869141 195 195 195
19.000000000000 15.000000000000 57.390014648438 174 174 174
19.000000000000 15.000000000000 57.341003417969 185 185 185
19.000000000000 15.000000000000 57.289001464844 172 172 172
19.000000000000 15.000000000000 57.235015869141 168 168 168
19.187500000000 15.000000000000 57.141021728516 159 159 159
19.187500000000 15.000000000000 57.088012695313 165 165 165
19.187500000000 15.000000000000 57.033996582031 169 169 169
19.187500000000 15.000000000000 56.979003906250 174 174 174
19.187500000000 15.000000000000 56.921997070313 175 175 175
19.187500000000 15.000000000000 56.865020751953 178 178 178
19.187500000000 15.000000000000 56.811004638672 177 177 177
19.125000000000 15.000000000000 56.756011962891 178 178 178
19.500000000000 15.125000000000 57.444000244141 106 106 106
19.250000000000 15.125000000000 57.449005126953 135 135 135
19.187500000000 15.125000000000 57.412017822266 184 184 184
19.000000000000 15.125000000000 57.393005371094 166 166 166
19.062500000000 15.125000000000 57.338012695313 173 173 173
19.000000000000 15.125000000000 57.289001464844 175 175 175
19.000000000000 15.125000000000 57.236022949219 172 172 172
19.187500000000 15.125000000000 57.143005371094 179 179 179
19.187500000000 15.125000000000 57.087005615234 198 198 198
19.187500000000 15.125000000000 57.033996582031 202 202 202
19.187500000000 15.125000000000 56.977996826172 194 194 194
19.187500000000 15.125000000000 56.921997070313 203 203 203
19.125000000000 15.125000000000 56.868011474609 208 208 208
19.125000000000 15.125000000000 56.815002441406 165 165 165
19.125000000000 15.125000000000 56.753997802734 179 179 179
19.250000000000 15.125000000000 56.647003173828 120 120 120
19.250000000000 15.125000000000 56.585998535156 127 127 127
19.250000000000 15.125000000000 56.526000976563 145 145 145
19.250000000000 15.125000000000 56.467010498047 143 143 143
19.250000000000 15.125000000000 56.406005859375 142 142 142
19.500000000000 15.250000000000 57.443023681641 96 96 96
19.250000000000 15.250000000000 57.445007324219 138 138 138
19.125000000000 15.250000000000 57.411010742188 185 185 185
19.000000000000 15.250000000000 57.391021728516 147 147 147
19.000000000000 15.250000000000 57.344024658203 163 163 163
19.000000000000 15.250000000000 57.292022705078 160 160 160
19.000000000000 15.250000000000 57.243011474609 159 159 159
19.125000000000 15.250000000000 57.144012451172 184 184 184
19.125000000000 15.250000000000 57.089019775391 181 181 181
19.125000000000 15.250000000000 57.035003662109 179 179 179
19.125000000000 15.250000000000 56.979003906250 180 180 180
19.125000000000 15.250000000000 56.923004150391 180 180 180
19.125000000000 15.250000000000 56.869018554688 183 183 183
19.125000000000 15.250000000000 56.813018798828 181 181 181
19.125000000000 15.250000000000 56.753997802734 182 182 182
19.250000000000 15.250000000000 56.650024414063 135 135 135
19.250000000000 15.250000000000 56.589019775391 124 124 124
19.250000000000 15.250000000000 56.531005859375 119 119 119
19.250000000000 15.250000000000 56.466003417969 118 118 118
19.250000000000 15.250000000000 56.403015136719 121 121 121
19.500000000000 15.375000000000 57.443023681641 51 51 51
19.250000000000 15.375000000000 57.438018798828 135 135 135
19.125000000000 15.375000000000 57.411010742188 177 177 177
19.125000000000 15.375000000000 57.360015869141 178 178 178
19.000000000000 15.375000000000 57.355010986328 153 153 153
18.937500000000 15.375000000000 57.305023193359 154 154 154
18.937500000000 15.375000000000 57.253997802734 151 151 151
19.000000000000 15.375000000000 57.180023193359 175 175 175
19.125000000000 15.375000000000 57.091003417969 176 176 176
19.125000000000 15.375000000000 57.035003662109 180 180 180
19.125000000000 15.375000000000 56.980010986328 180 180 180
19.125000000000 15.375000000000 56.924011230469 182 182 182
19.125000000000 15.375000000000 56.869018554688 180 180 180
19.125000000000 15.375000000000 56.813018798828 181 181 181
19.125000000000 15.375000000000 56.760009765625 178 178 178
19.812500000000 15.500000000000 57.376007080078 49 49 49
19.812500000000 15.625000000000 57.320007324219 187 187 187
19.812500000000 15.625000000000 57.260009765625 180 180 180
19.812500000000 15.625000000000 57.199005126953 161 161 161
18.875000000000 15.500000000000 57.369018554688 168 168 168
18.875000000000 15.500000000000 57.319000244141 165 165 165
18.875000000000 15.500000000000 57.266021728516 167 167 167
18.875000000000 15.500000000000 57.218017578125 155 155 155
19.812500000000 15.750000000000 57.372009277344 137 137 137
19.750000000000 15.750000000000 57.322021484375 181 181 181
19.812500000000 15.750000000000 57.261016845703 186 186 186
19.750000000000 15.750000000000 57.200012207031 172 172 172
18.812500000000 15.625000000000 57.397003173828 189 189 189
18.750000000000 15.625000000000 57.348999023438 192 192 192
18.750000000000 15.625000000000 57.299011230469 190 190 190
18.750000000000 15.625000000000 57.249023437500 182 182 182
18.750000000000 15.625000000000 57.200012207031 187 187 187
19.812500000000 15.750000000000 57.373016357422 176 176 176
19.812500000000 15.875000000000 57.322998046875 183 183 183
19.812500000000 15.875000000000 57.264007568359 179 179 179
19.812500000000 15.875000000000 57.201019287109 174 174 174
18.750000000000 15.750000000000 57.400024414063 196 196 196
18.750000000000 15.750000000000 57.352020263672 194 194 194
18.750000000000 15.750000000000 57.300018310547 196 196 196
18.750000000000 15.750000000000 57.252014160156 191 191 191
18.750000000000 15.750000000000 57.204010009766 186 186 186
19.875000000000 16.000000000000 57.374023437500 170 170 170
19.812500000000 16.000000000000 57.324005126953 194 194 194
19.812500000000 16.000000000000 57.263000488281 172 172 172
19.750000000000 15.875000000000 57.204010009766 184 184 184
18.750000000000 15.875000000000 57.402008056641 181 181 181
18.750000000000 15.875000000000 57.352996826172 195 195 195
18.750000000000 15.875000000000 57.305023193359 196 196 196
18.750000000000 15.875000000000 57.253997802734 188 188 188
18.750000000000 15.875000000000 57.205017089844 192 192 192
19.500000000000 10.625000000000 57.369018554688 192 192 192
19.562500000000 10.750000000000 57.425018310547 225 225 225
19.562500000000 10.750000000000 57.493011474609 193 193 193
19.687500000000 10.750000000000 57.514007568359 75 75 75
19.687500000000 10.750000000000 57.581024169922 58 58 58
19.500000000000 10.875000000000 57.364013671875 200 200 200
19.500000000000 10.875000000000 57.427001953125 223 223 223
19.562500000000 10.875000000000 57.489013671875 192 192 192
19.625000000000 10.875000000000 57.536010742188 179 179 179
19.625000000000 10.875000000000 57.598022460938 161 161 161
19.625000000000 10.875000000000 57.664001464844 99 99 99
19.500000000000 11.000000000000 57.364013671875 202 202 202
19.500000000000 11.000000000000 57.426025390625 223 223 223
19.562500000000 11.000000000000 57.486022949219 180 180 180
19.500000000000 11.125000000000 57.374023437500 204 204 204
19.500000000000 11.125000000000 57.434997558594 203 203 203
19.500000000000 11.125000000000 57.489013671875 175 175 175
19.500000000000 11.250000000000 57.374023437500 210 210 210
19.500000000000 11.250000000000 57.439025878906 207 207 207
19.500000000000 11.250000000000 57.486022949219 144 144 144
19.437500000000 11.375000000000 57.374023437500 217 217 217
19.437500000000 11.375000000000 57.439025878906 210 210 210
19.500000000000 11.375000000000 57.483001708984 133 133 133
19.437500000000 11.500000000000 57.375000000000 208 208 208
19.437500000000 11.500000000000 57.439025878906 214 214 214
19.562500000000 11.625000000000 57.473999023438 180 180 180
19.437500000000 11.625000000000 57.378021240234 215 215 215
19.437500000000 11.625000000000 57.441009521484 213 213 213
19.562500000000 11.750000000000 57.463012695313 192 192 192
19.437500000000 11.750000000000 57.381011962891 216 216 216
19.437500000000 11.750000000000 57.445007324219 212 212 212
19.625000000000 11.875000000000 57.460021972656 191 191 191
19.375000000000 11.875000000000 57.326019287109 95 95 95
19.375000000000 11.875000000000 57.384002685547 215 215 215
19.375000000000 11.875000000000 57.446014404297 213 213 213
19.625000000000 12.000000000000 57.458007812500 189 189 189
19.375000000000 12.000000000000 57.326019287109 178 178 178
19.375000000000 12.000000000000 57.389007568359 213 213 213
19.375000000000 12.000000000000 57.451019287109 214 214 214
19.625000000000 12.125000000000 57.455017089844 187 187 187
19.375000000000 12.125000000000 57.334014892578 198 198 198
19.375000000000 12.125000000000 57.393005371094 215 215 215
19.375000000000 12.125000000000 57.453002929688 212 212 212
19.625000000000 12.375000000000 57.450012207031 181 181 181
19.312500000000 12.250000000000 57.335998535156 208 208 208
19.375000000000 12.250000000000 57.395996093750 214 214 214
19.375000000000 12.250000000000 57.454010009766 210 210 210
19.625000000000 12.500000000000 57.447021484375 187 187 187
19.312500000000 12.375000000000 57.334014892578 214 214 214
19.312500000000 12.375000000000 57.398010253906 213 213 213
19.375000000000 12.500000000000 57.449005126953 212 212 212
19.625000000000 12.500000000000 57.443023681641 186 186 186
19.312500000000 12.500000000000 57.342010498047 209 209 209
19.312500000000 12.500000000000 57.401000976563 214 214 214
19.375000000000 12.625000000000 57.436004638672 217 217 217
19.625000000000 12.750000000000 57.439025878906 189 189 189
19.250000000000 12.625000000000 57.342010498047 214 214 214
19.250000000000 12.625000000000 57.404022216797 212 212 212
19.500000000000 12.750000000000 57.407012939453 213 213 213
19.625000000000 12.875000000000 57.434020996094 192 192 192
19.250000000000 12.750000000000 57.344024658203 217 217 217
19.250000000000 12.750000000000 57.408020019531 213 213 213
19.562500000000 13.000000000000 57.380004882813 207 207 207
19.625000000000 13.000000000000 57.432006835938 197 197 197
19.250000000000 12.875000000000 57.347015380859 213 213 213
19.250000000000 12.875000000000 57.408996582031 215 215 215
19.625000000000 13.125000000000 57.363006591797 202 202 202
19.625000000000 13.125000000000 57.426025390625 195 195 195
19.250000000000 13.000000000000 57.290008544922 69 69 69
19.250000000000 13.000000000000 57.348022460938 215 215 215
19.250000000000 13.000000000000 57.412017822266 213 213 213
19.625000000000 13.250000000000 57.358001708984 205 205 205
19.625000000000 13.250000000000 57.424011230469 195 195 195
19.187500000000 13.125000000000 57.296020507813 119 119 119
19.250000000000 13.250000000000 57.352996826172 217 217 217
19.250000000000 13.250000000000 57.414001464844 210 210 210
19.625000000000 13.500000000000 57.354003906250 187 187 187
19.625000000000 13.500000000000 57.421020507813 196 196 196
19.187500000000 13.250000000000 57.298004150391 189 189 189
19.250000000000 13.375000000000 57.355010986328 214 214 214
19.250000000000 13.375000000000 57.417999267578 215 215 215
19.687500000000 13.625000000000 57.348999023438 184 184 184
19.687500000000 13.625000000000 57.417022705078 197 197 197
19.187500000000 13.375000000000 57.299011230469 209 209 209
19.187500000000 13.375000000000 57.359008789063 215 215 215
19.187500000000 13.375000000000 57.423004150391 212 212 212
19.625000000000 13.750000000000 57.348022460938 205 205 205
19.625000000000 13.750000000000 57.414001464844 194 194 194
19.187500000000 13.500000000000 57.302001953125 212 212 212
19.187500000000 13.500000000000 57.361999511719 211 211 211
19.187500000000 13.500000000000 57.424011230469 209 209 209
19.625000000000 13.875000000000 57.344024658203 207 207 207
19.625000000000 13.875000000000 57.408996582031 192 192 192
19.187500000000 13.750000000000 57.305023193359 217 217 217
19.187500000000 13.750000000000 57.365020751953 214 214 214
19.187500000000 13.750000000000 57.425018310547 210 210 210
19.687500000000 14.000000000000 57.341003417969 202 202 202
19.687500000000 14.000000000000 57.408020019531 190 190 190
19.125000000000 13.875000000000 57.305999755859 217 217 217
19.125000000000 13.875000000000 57.367004394531 217 217 217
19.187500000000 13.875000000000 57.421020507813 225 225 225
19.687500000000 14.125000000000 57.335998535156 205 205 205
19.687500000000 14.125000000000 57.404998779297 193 193 193
19.125000000000 14.000000000000 57.308013916016 213 213 213
19.125000000000 14.000000000000 57.368011474609 214 214 214
19.187500000000 14.000000000000 57.413024902344 239 239 239
19.625000000000 14.375000000000 57.333007812500 205 205 205
19.625000000000 14.375000000000 57.400024414063 193 193 193
19.125000000000 14.125000000000 57.308013916016 215 215 215
19.125000000000 14.125000000000 57.372009277344 212 212 212
19.687500000000 14.500000000000 57.253021240234 192 192 192
19.625000000000 14.500000000000 57.328002929688 206 206 206
19.625000000000 14.500000000000 57.395996093750 193 193 193
19.125000000000 14.250000000000 57.311004638672 211 211 211
19.125000000000 14.250000000000 57.371002197266 211 211 211
19.687500000000 14.625000000000 57.247009277344 196 196 196
19.687500000000 14.500000000000 57.326019287109 205 205 205
19.687500000000 14.500000000000 57.395019531250 191 191 191
19.125000000000 14.375000000000 57.249023437500 76 76 76
19.125000000000 14.375000000000 57.309997558594 215 215 215
19.125000000000 14.375000000000 57.370025634766 211 211 211
19.250000000000 14.500000000000 57.387023925781 156 156 156
19.687500000000 14.750000000000 57.324005126953 127 127 127
19.687500000000 14.750000000000 57.389007568359 121 121 121
19.125000000000 14.500000000000 57.252014160156 147 147 147
19.062500000000 14.500000000000 57.313018798828 207 207 207
19.125000000000 14.500000000000 57.371002197266 213 213 213
19.625000000000 14.875000000000 57.257019042969 121 121 121
19.687500000000 14.875000000000 57.320007324219 118 118 118
19.687500000000 14.875000000000 57.388000488281 121 121 121
19.062500000000 14.625000000000 57.249023437500 140 140 140
19.062500000000 14.625000000000 57.309997558594 158 158 158
19.062500000000 14.625000000000 57.372009277344 163 163 163
19.625000000000 15.000000000000 57.251007080078 130 130 130
19.625000000000 15.000000000000 57.318023681641 121 121 121
19.625000000000 15.000000000000 57.386016845703 122 122 122
19.375000000000 15.000000000000 56.755004882813 146 146 146
19.375000000000 15.000000000000 56.820007324219 146 146 146
19.375000000000 15.000000000000 56.884002685547 149 149 149
19.375000000000 15.000000000000 56.947998046875 147 147 147
19.375000000000 14.875000000000 57.014007568359 148 148 148
19.375000000000 14.875000000000 57.076995849609 148 148 148
19.000000000000 14.750000000000 57.256011962891 147 147 147
19.062500000000 14.750000000000 57.314025878906 160 160 160
19.062500000000 14.750000000000 57.373016357422 154 154 154
19.375000000000 15.000000000000 57.331024169922 178 178 178
19.437500000000 15.000000000000 57.391998291016 169 169 169
19.437500000000 15.000000000000 57.442016601563 136 136 136
19.312500000000 15.125000000000 56.413024902344 126 126 126
19.312500000000 15.125000000000 56.479003906250 121 121 121
19.312500000000 15.125000000000 56.552001953125 115 115 115
19.312500000000 15.000000000000 56.625000000000 115 115 115
19.125000000000 15.000000000000 56.765014648438 178 178 178
19.125000000000 15.000000000000 56.831024169922 179 179 179
19.187500000000 15.000000000000 56.895019531250 179 179 179
19.187500000000 15.000000000000 56.960021972656 179 179 179
19.187500000000 15.000000000000 57.026000976563 179 179 179
19.125000000000 15.000000000000 57.091003417969 179 179 179
19.187500000000 15.000000000000 57.151000976563 181 181 181
19.000000000000 14.875000000000 57.253997802734 146 146 146
19.000000000000 14.875000000000 57.315002441406 144 144 144
19.000000000000 14.875000000000 57.378021240234 143 143 143
19.187500000000 15.000000000000 57.397003173828 177 177 177
19.250000000000 15.000000000000 57.445007324219 154 154 154
19.437500000000 15.125000000000 57.447998046875 116 116 116
19.187500000000 15.125000000000 56.377014160156 149 149 149
19.250000000000 15.125000000000 56.444000244141 146 146 146
19.250000000000 15.125000000000 56.518005371094 143 143 143
19.250000000000 15.125000000000 56.585998535156 143 143 143
19.250000000000 15.250000000000 56.652008056641 150 150 150
19.125000000000 15.125000000000 56.762023925781 176 176 176
19.125000000000 15.125000000000 56.831024169922 172 172 172
19.125000000000 15.125000000000 56.899017333984 188 188 188
19.187500000000 15.125000000000 56.953002929688 170 170 170
19.125000000000 15.125000000000 57.028015136719 191 191 191
19.125000000000 15.125000000000 57.088012695313 183 183 183
19.187500000000 15.125000000000 57.150024414063 174 174 174
19.062500000000 15.000000000000 57.257995605469 153 153 153
19.062500000000 15.000000000000 57.318023681641 160 160 160
19.062500000000 15.000000000000 57.380004882813 151 151 151
19.187500000000 15.125000000000 57.400024414063 177 177 177
19.187500000000 15.125000000000 57.453002929688 143 143 143
19.437500000000 15.250000000000 57.447021484375 114 114 114
19.125000000000 15.250000000000 56.765014648438 176 176 176
19.125000000000 15.250000000000 56.830017089844 179 179 179
19.125000000000 15.250000000000 56.895019531250 179 179 179
19.125000000000 15.250000000000 56.959014892578 176 176 176
19.125000000000 15.250000000000 57.025024414063 178 178 178
19.125000000000 15.250000000000 57.085021972656 178 178 178
19.125000000000 15.250000000000 57.150024414063 175 175 175
19.062500000000 15.125000000000 57.257019042969 145 145 145
19.062500000000 15.125000000000 57.317016601563 152 152 152
19.062500000000 15.125000000000 57.377014160156 145 145 145
19.125000000000 15.250000000000 57.401000976563 179 179 179
19.187500000000 15.375000000000 57.447998046875 142 142 142
19.750000000000 15.625000000000 57.350006103516 143 143 143
19.875000000000 15.750000000000 57.403015136719 54 54 54
19.125000000000 15.375000000000 56.766021728516 167 167 167
19.125000000000 15.375000000000 56.831024169922 174 174 174
19.125000000000 15.375000000000 56.895996093750 174 174 174
19.125000000000 15.375000000000 56.960998535156 168 168 168
19.125000000000 15.375000000000 57.024017333984 171 171 171
19.125000000000 15.375000000000 57.087005615234 161 161 161
19.062500000000 15.375000000000 57.171020507813 163 163 163
18.937500000000 15.250000000000 57.275024414063 180 180 180
18.937500000000 15.250000000000 57.335021972656 179 179 179
19.000000000000 15.250000000000 57.390014648438 167 167 167
19.125000000000 15.375000000000 57.395996093750 162 162 162
19.750000000000 15.750000000000 57.278015136719 154 154 154
19.750000000000 15.750000000000 57.351013183594 140 140 140
19.875000000000 15.750000000000 57.402008056641 25 25 25
18.875000000000 15.375000000000 57.227996826172 138 138 138
18.937500000000 15.500000000000 57.281005859375 164 164 164
18.937500000000 15.375000000000 57.339019775391 166 166 166
18.875000000000 15.375000000000 57.408996582031 78 78 78
19.750000000000 15.875000000000 57.208007812500 143 143 143
19.750000000000 15.875000000000 57.278015136719 137 137 137
19.750000000000 15.875000000000 57.348999023438 134 134 134
18.875000000000 15.500000000000 57.227996826172 155 155 155
18.875000000000 15.500000000000 57.291015625000 153 153 153
18.875000000000 15.500000000000 57.348022460938 155 155 155
18.812500000000 15.625000000000 57.201019287109 80 80 80
18.875000000000 15.625000000000 57.249023437500 146 146 146
18.875000000000 15.625000000000 57.304016113281 141 141 141
18.875000000000 15.625000000000 57.361022949219 143 143 143
18.750000000000 15.750000000000 57.209014892578 146 146 146
18.750000000000 15.750000000000 57.270019531250 143 143 143
18.750000000000 15.750000000000 57.328002929688 147 147 147
18.750000000000 15.750000000000 57.382019042969 136 136 136
18.875000000000 15.750000000000 57.427001953125 89 89 89
18.750000000000 15.875000000000 57.210998535156 147 147 147
18.750000000000 15.875000000000 57.268005371094 152 152 152
18.750000000000 15.875000000000 57.325012207031 151 151 151
18.750000000000 15.875000000000 57.380004882813 157 157 157
18.812500000000 15.875000000000 57.427001953125 47 47 47
18.750000000000 15.875000000000 57.205017089844 146 146 146
18.750000000000 15.875000000000 57.261016845703 154 154 154
18.750000000000 15.875000000000 57.317016601563 162 162 162
18.750000000000 15.875000000000 57.374023437500 157 157 157
18.750000000000 15.875000000000 57.421020507813 133 133 133
18.750000000000 15.750000000000 57.201019287109 156 156 156
18.750000000000 15.750000000000 57.260009765625 145 145 145
18.750000000000 15.750000000000 57.317016601563 155 155 155
18.750000000000 15.750000000000 57.374023437500 150 150 150
18.812500000000 15.750000000000 57.426025390625 123 123 123
18.812500000000 15.625000000000 57.191009521484 47 47 47
18.812500000000 15.625000000000 57.244018554688 150 150 150
18.812500000000 15.625000000000 57.298004150391 153 153 153
18.812500000000 15.625000000000 57.356018066406 148 148 148
18.812500000000 15.625000000000 57.416015625000 110 110 110
18.875000000000 15.500000000000 57.227996826172 132 132 132
18.875000000000 15.500000000000 57.279022216797 155 155 155
18.875000000000 15.500000000000 57.339996337891 157 157 157
18.875000000000 15.500000000000 57.408020019531 97 97 97
18.875000000000 15.375000000000 57.221008300781 65 65 65
18.937500000000 15.375000000000 57.266998291016 172 172 172
18.937500000000 15.375000000000 57.326019287109 169 169 169
18.875000000000 15.375000000000 57.388000488281 164 164 164
19.750000000000 15.875000000000 57.186004638672 146 146 146
19.750000000000 15.875000000000 57.261016845703 149 149 149
19.750000000000 15.875000000000 57.331024169922 140 140 140
19.812500000000 15.875000000000 57.389007568359 135 135 135
19.125000000000 15.375000000000 56.750000000000 179 179 179
19.125000000000 15.375000000000 56.818023681641 176 176 176
19.125000000000 15.375000000000 56.880004882813 177 177 177
19.125000000000 15.375000000000 56.944000244141 179 179 179
19.125000000000 15.375000000000 57.010009765625 178 178 178
19.125000000000 15.375000000000 57.076019287109 178 178 178
19.125000000000 15.375000000000 57.139007568359 179 179 179
19.000000000000 15.250000000000 57.257995605469 185 185 185
19.000000000000 15.250000000000 57.316009521484 183 183 183
19.000000000000 15.250000000000 57.374023437500 180 180 180
19.125000000000 15.375000000000 57.388000488281 178 178 178
19.187500000000 15.375000000000 57.442016601563 173 173 173
19.750000000000 15.750000000000 57.332000732422 145 145 145
19.812500000000 15.750000000000 57.391021728516 147 147 147
19.187500000000 15.250000000000 56.371002197266 120 120 120
19.312500000000 15.375000000000 56.378021240234 129 129 129
19.125000000000 15.250000000000 56.749023437500 172 172 172
19.125000000000 15.250000000000 56.819000244141 146 146 146
19.125000000000 15.250000000000 56.880004882813 177 177 177
19.125000000000 15.250000000000 56.946014404297 175 175 175
19.125000000000 15.250000000000 57.011016845703 178 178 178
19.125000000000 15.250000000000 57.072998046875 175 175 175
19.125000000000 15.250000000000 57.136016845703 175 175 175
19.000000000000 15.125000000000 57.242004394531 144 144 144
19.000000000000 15.125000000000 57.303009033203 152 152 152
19.000000000000 15.125000000000 57.368011474609 148 148 148
19.125000000000 15.125000000000 57.407012939453 160 160 160
19.125000000000 15.250000000000 57.442016601563 176 176 176
19.375000000000 15.375000000000 57.451019287109 119 119 119
19.187500000000 15.125000000000 56.377014160156 129 129 129
19.250000000000 15.125000000000 56.426025390625 173 173 173
19.250000000000 15.125000000000 56.498016357422 177 177 177
19.250000000000 15.125000000000 56.561004638672 177 177 177
19.250000000000 15.125000000000 56.631011962891 175 175 175
19.125000000000 15.000000000000 56.751007080078 174 174 174
19.125000000000 15.000000000000 56.819000244141 179 179 179
19.125000000000 15.000000000000 56.882019042969 176 176 176
19.125000000000 15.000000000000 56.946014404297 179 179 179
19.125000000000 15.000000000000 57.010009765625 179 179 179
19.125000000000 15.000000000000 57.074005126953 180 180 180
19.125000000000 15.000000000000 57.138000488281 180 180 180
19.000000000000 15.000000000000 57.240020751953 152 152 152
19.000000000000 15.000000000000 57.305999755859 149 149 149
19.000000000000 15.000000000000 57.363006591797 152 152 152
19.125000000000 15.000000000000 57.390014648438 172 172 172
19.187500000000 15.000000000000 57.444000244141 174 174 174
19.375000000000 15.125000000000 57.451019287109 119 119 119
19.375000000000 15.000000000000 56.380004882813 129 129 129
19.375000000000 15.000000000000 56.658020019531 255 255 255
19.187500000000 14.875000000000 56.792022705078 145 145 145
19.250000000000 14.875000000000 56.856018066406 141 141 141
19.250000000000 14.875000000000 56.919006347656 144 144 144
19.250000000000 14.875000000000 56.977020263672 144 144 144
19.250000000000 14.875000000000 57.042999267578 146 146 146
19.250000000000 14.875000000000 57.104003906250 146 146 146
19.000000000000 14.875000000000 57.240997314453 133 133 133
19.062500000000 14.875000000000 57.300018310547 152 152 152
19.000000000000 14.875000000000 57.364013671875 160 160 160
19.125000000000 14.875000000000 57.389007568359 139 139 139
19.312500000000 15.000000000000 57.410003662109 156 156 156
19.375000000000 15.000000000000 57.451995849609 127 127 127
19.500000000000 15.000000000000 56.749023437500 151 151 151
19.500000000000 15.000000000000 56.821014404297 153 153 153
19.500000000000 15.000000000000 56.887023925781 148 148 148
19.500000000000 15.000000000000 56.951019287109 149 149 149
19.500000000000 15.000000000000 57.016998291016 146 146 146
19.000000000000 14.750000000000 57.240020751953 139 139 139
19.000000000000 14.750000000000 57.303009033203 155 155 155
19.000000000000 14.750000000000 57.364013671875 160 160 160
19.125000000000 14.750000000000 57.412017822266 139 139 139
19.562500000000 15.000000000000 57.330017089844 139 139 139
19.625000000000 15.125000000000 57.375000000000 158 158 158
19.062500000000 14.500000000000 57.303009033203 219 219 219
19.062500000000 14.500000000000 57.364013671875 214 214 214
19.125000000000 14.500000000000 57.417022705078 164 164 164
19.625000000000 14.875000000000 57.309997558594 135 135 135
19.625000000000 14.875000000000 57.378021240234 130 130 130
19.062500000000 14.375000000000 57.304016113281 211 211 211
19.062500000000 14.375000000000 57.361999511719 220 220 220
19.062500000000 14.375000000000 57.425018310547 193 193 193
19.625000000000 14.750000000000 57.312011718750 130 130 130
19.625000000000 14.750000000000 57.382019042969 123 123 123
19.125000000000 14.250000000000 57.304016113281 217 217 217
19.125000000000 14.250000000000 57.363006591797 215 215 215
19.125000000000 14.250000000000 57.414001464844 231 231 231
19.625000000000 14.625000000000 57.318023681641 205 205 205
19.625000000000 14.625000000000 57.388000488281 193 193 193
19.125000000000 14.125000000000 57.302001953125 216 216 216
19.125000000000 14.125000000000 57.360015869141 218 218 218
19.125000000000 14.125000000000 57.421997070313 213 213 213
19.625000000000 14.500000000000 57.321014404297 207 207 207
19.625000000000 14.500000000000 57.389007568359 194 194 194
19.125000000000 14.000000000000 57.296997070313 217 217 217
19.125000000000 14.000000000000 57.360015869141 216 216 216
19.125000000000 14.000000000000 57.419006347656 212 212 212
19.625000000000 14.375000000000 57.324005126953 209 209 209
19.625000000000 14.375000000000 57.391998291016 193 193 193
19.125000000000 13.750000000000 57.299011230469 205 205 205
19.125000000000 13.750000000000 57.358001708984 212 212 212
19.125000000000 13.750000000000 57.416015625000 219 219 219
19.687500000000 14.125000000000 57.325012207031 207 207 207
19.625000000000 14.125000000000 57.394012451172 193 193 193
19.125000000000 13.625000000000 57.295013427734 196 196 196
19.125000000000 13.625000000000 57.354003906250 217 217 217
19.125000000000 13.625000000000 57.415008544922 217 217 217
19.625000000000 14.000000000000 57.331024169922 208 208 208
19.625000000000 14.000000000000 57.400024414063 197 197 197
19.125000000000 13.500000000000 57.291015625000 181 181 181
19.125000000000 13.500000000000 57.350006103516 214 214 214
19.125000000000 13.500000000000 57.411010742188 214 214 214
19.625000000000 13.875000000000 57.335021972656 207 207 207
19.625000000000 13.875000000000 57.402008056641 196 196 196
19.187500000000 13.375000000000 57.288024902344 117 117 117
19.187500000000 13.375000000000 57.347015380859 219 219 219
19.187500000000 13.375000000000 57.408996582031 215 215 215
19.625000000000 13.625000000000 57.337005615234 206 206 206
19.625000000000 13.625000000000 57.406005859375 196 196 196
19.187500000000 13.250000000000 57.345001220703 211 211 211
19.187500000000 13.250000000000 57.407012939453 211 211 211
19.562500000000 13.375000000000 57.355010986328 128 128 128
19.625000000000 13.500000000000 57.408996582031 192 192 192
19.250000000000 13.125000000000 57.339996337891 217 217 217
19.250000000000 13.125000000000 57.403015136719 215 215 215
19.562500000000 13.250000000000 57.352020263672 205 205 205
19.625000000000 13.375000000000 57.411010742188 195 195 195
19.250000000000 12.875000000000 57.338012695313 214 214 214
19.250000000000 12.875000000000 57.399017333984 214 214 214
19.437500000000 13.125000000000 57.403015136719 218 218 218
19.625000000000 13.125000000000 57.417022705078 197 197 197
19.250000000000 12.750000000000 57.335021972656 224 224 224
19.250000000000 12.750000000000 57.399017333984 216 216 216
19.312500000000 12.875000000000 57.441009521484 223 223 223
19.625000000000 13.000000000000 57.424011230469 199 199 199
19.250000000000 12.625000000000 57.333007812500 217 217 217
19.250000000000 12.625000000000 57.395996093750 214 214 214
19.312500000000 12.625000000000 57.449005126953 215 215 215
19.625000000000 12.875000000000 57.428009033203 197 197 197
19.312500000000 12.500000000000 57.331024169922 210 210 210
19.312500000000 12.500000000000 57.391998291016 218 218 218
19.312500000000 12.500000000000 57.454010009766 214 214 214
19.625000000000 12.750000000000 57.434020996094 194 194 194
19.312500000000 12.375000000000 57.329010009766 193 193 193
19.312500000000 12.375000000000 57.390014648438 216 216 216
19.312500000000 12.375000000000 57.451995849609 212 212 212
19.562500000000 12.500000000000 57.439025878906 195 195 195
19.375000000000 12.250000000000 57.322021484375 162 162 162
19.375000000000 12.250000000000 57.385009765625 215 215 215
19.375000000000 12.250000000000 57.449005126953 216 216 216
19.625000000000 12.375000000000 57.443023681641 192 192 192
19.375000000000 12.000000000000 57.311004638672 57 57 57
19.375000000000 12.125000000000 57.382019042969 216 216 216
19.375000000000 12.000000000000 57.443023681641 218 218 218
19.625000000000 12.250000000000 57.446014404297 196 196 196
19.375000000000 12.000000000000 57.378997802734 215 215 215
19.375000000000 12.000000000000 57.441009521484 217 217 217
19.562500000000 12.000000000000 57.449005126953 195 195 195
19.375000000000 11.750000000000 57.373016357422 213 213 213
19.375000000000 11.750000000000 57.438018798828 215 215 215
19.562500000000 11.875000000000 57.453002929688 195 195 195
19.375000000000 11.625000000000 57.371002197266 215 215 215
19.375000000000 11.625000000000 57.434997558594 216 216 216
19.562500000000 11.750000000000 57.458007812500 193 193 193
19.437500000000 11.500000000000 57.369018554688 212 212 212
19.437500000000 11.500000000000 57.430023193359 215 215 215
19.500000000000 11.500000000000 57.482025146484 195 195 195
19.437500000000 11.375000000000 57.367004394531 215 215 215
19.437500000000 11.375000000000 57.429016113281 214 214 214
19.500000000000 11.375000000000 57.488006591797 189 189 189
19.500000000000 11.250000000000 57.364013671875 212 212 212
