18.062500000000 5.937500000000 55.443000793457 136 136 136
18.453125000000 6.015625000000 56.368000030518 163 163 163
18.468750000000 6.015625000000 56.360004425049 160 160 160
18.531250000000 5.968750000000 56.358997344971 163 163 163
18.562500000000 5.953125000000 56.380001068115 165 165 165
18.593750000000 5.953125000000 56.395000457764 133 133 133
18.625000000000 5.921875000000 55.422000885010 138 138 138
18.640625000000 5.921875000000 55.419002532959 172 172 172
18.656250000000 5.921875000000 55.412002563477 165 165 165
18.656250000000 5.890625000000 55.426002502441 99 99 99
18.687500000000 5.890625000000 55.268001556396 144 144 144
18.718750000000 5.890625000000 55.271999359131 145 145 145
19.187500000000 5.921875000000 55.485000610352 107 107 107
19.187500000000 5.921875000000 55.430000305176 145 145 145
19.203125000000 5.921875000000 55.430000305176 162 162 162
19.218750000000 5.906250000000 55.423000335693 161 161 161
19.250000000000 5.890625000000 55.429000854492 129 129 129
19.250000000000 5.890625000000 55.354999542236 161 161 161
19.250000000000 5.890625000000 55.336002349854 159 159 159
19.281250000000 5.875000000000 55.340000152588 150 150 150
19.296875000000 5.859375000000 55.337001800537 138 138 138
14.937500000000 5.953125000000 56.899997711182 62 62 62
14.875000000000 5.984375000000 56.903003692627 117 117 117
14.812500000000 6.015625000000 56.917003631592 141 141 141
14.781250000000 6.031250000000 56.912998199463 140 140 140
14.750000000000 6.046875000000 56.919002532959 146 146 146
14.718750000000 6.078125000000 56.905002593994 134 134 134
14.687500000000 6.078125000000 56.881999969482 83 83 83
15.000000000000 5.921875000000 55.933002471924 50 50 50
15.000000000000 5.921875000000 55.892002105713 130 130 130
14.890625000000 5.984375000000 55.941997528076 146 146 146
14.843750000000 6.015625000000 55.944004058838 136 136 136
14.812500000000 6.031250000000 55.941997528076 146 146 146
14.781250000000 6.046875000000 55.920001983643 127 127 127
14.765625000000 6.062500000000 55.890003204346 85 85 85
15.437500000000 5.953125000000 57.251003265381 71 71 71
15.437500000000 5.953125000000 57.185001373291 85 85 85
15.453125000000 5.953125000000 57.090000152588 99 99 99
15.484375000000 5.921875000000 56.964000701904 138 138 138
15.484375000000 5.921875000000 56.902004241943 147 147 147
15.453125000000 5.953125000000 56.884998321533 154 154 154
15.437500000000 5.953125000000 56.854999542236 129 129 129
15.437500000000 5.953125000000 56.770999908447 135 135 135
15.437500000000 5.953125000000 56.709003448486 134 134 134
15.437500000000 5.953125000000 56.646999359131 139 139 139
15.468750000000 5.921875000000 56.543003082275 143 143 143
15.468750000000 5.921875000000 56.478000640869 147 147 147
15.468750000000 5.937500000000 56.437999725342 166 166 166
15.468750000000 5.953125000000 56.388004302979 142 142 142
15.468750000000 5.953125000000 56.329998016357 172 172 172
15.468750000000 5.953125000000 56.294002532959 180 180 180
15.468750000000 5.953125000000 56.253002166748 187 187 187
15.468750000000 5.953125000000 56.198001861572 190 190 190
15.468750000000 5.953125000000 56.143001556396 186 186 186
15.468750000000 5.953125000000 56.092998504639 184 184 184
15.468750000000 5.953125000000 56.046001434326 192 192 192
15.468750000000 5.953125000000 55.992000579834 190 190 190
15.468750000000 5.953125000000 55.947002410889 192 192 192
15.468750000000 5.953125000000 55.893001556396 190 190 190
15.468750000000 5.953125000000 55.851001739502 175 175 175
15.468750000000 5.953125000000 55.789997100830 163 163 163
15.468750000000 5.953125000000 55.743999481201 180 180 180
15.468750000000 5.953125000000 55.700000762939 186 186 186
15.468750000000 5.953125000000 55.655002593994 190 190 190
15.484375000000 5.953125000000 55.607002258301 186 186 186
15.484375000000 5.953125000000 55.566001892090 185 185 185
15.468750000000 5.953125000000 55.527999877930 186 186 186
15.468750000000 5.968750000000 55.482002258301 194 194 194
15.484375000000 5.953125000000 55.437999725342 193 193 193
15.484375000000 5.953125000000 55.389999389648 190 190 190
15.468750000000 5.968750000000 55.357002258301 190 190 190
15.484375000000 5.953125000000 55.311000823975 191 191 191
15.484375000000 5.953125000000 55.271999359131 191 191 191
15.484375000000 5.953125000000 55.228000640869 191 191 191
15.484375000000 5.953125000000 55.191001892090 198 198 198
15.500000000000 5.953125000000 55.149002075195 197 197 197
15.484375000000 5.953125000000 55.112998962402 195 195 195
15.484375000000 5.953125000000 55.074001312256 190 190 190
15.484375000000 5.953125000000 55.038002014160 192 192 192
15.531250000000 5.953125000000 54.959999084473 190 190 190
15.562500000000 5.921875000000 54.893001556396 176 176 176
15.593750000000 5.921875000000 54.833999633789 162 162 162
15.562500000000 5.921875000000 54.813999176025 156 156 156
15.562500000000 5.921875000000 54.784000396729 158 158 158
15.531250000000 5.921875000000 54.774002075195 160 160 160
15.531250000000 5.953125000000 54.756999969482 161 161 161
15.500000000000 5.953125000000 54.744998931885 169 169 169
15.500000000000 5.968750000000 54.722999572754 207 207 207
15.500000000000 5.953125000000 54.685001373291 204 204 204
15.500000000000 5.953125000000 54.653999328613 207 207 207
15.500000000000 5.953125000000 54.621002197266 203 203 203
15.500000000000 5.953125000000 54.590999603271 208 208 208
15.500000000000 5.953125000000 54.555000305176 206 206 206
15.500000000000 5.953125000000 54.526000976563 200 200 200
15.500000000000 5.953125000000 54.494998931885 193 193 193
15.500000000000 5.968750000000 54.468002319336 197 197 197
15.500000000000 5.953125000000 54.436000823975 201 201 201
15.500000000000 5.953125000000 54.402999877930 209 209 209
15.531250000000 5.968750000000 54.371002197266 208 208 208
15.531250000000 5.968750000000 54.343002319336 209 209 209
16.125000000000 5.859375000000 57.209003448486 58 58 58
16.125000000000 5.859375000000 57.145000457764 72 72 72
16.125000000000 5.859375000000 57.069004058838 71 71 71
16.093750000000 5.890625000000 57.032001495361 68 68 68
16.093750000000 5.890625000000 56.911998748779 59 59 59
16.062500000000 5.906250000000 56.913997650146 135 135 135
16.000000000000 5.921875000000 56.928997039795 160 160 160
15.968750000000 5.953125000000 56.931003570557 164 164 164
15.968750000000 5.953125000000 56.900997161865 165 165 165
16.000000000000 5.921875000000 56.725002288818 166 166 166
16.031250000000 5.921875000000 56.591999053955 137 137 137
16.031250000000 5.921875000000 56.551998138428 141 141 141
16.000000000000 5.953125000000 56.552997589111 154 154 154
15.968750000000 5.953125000000 56.531002044678 155 155 155
15.937500000000 5.984375000000 56.552997589111 149 149 149
15.906250000000 5.984375000000 56.558002471924 144 144 144
15.875000000000 6.015625000000 56.563999176025 132 132 132
15.843750000000 6.046875000000 56.575000762939 94 94 94
16.156250000000 5.890625000000 55.186000823975 151 151 151
16.156250000000 5.890625000000 55.142002105713 141 141 141
16.156250000000 5.890625000000 55.108001708984 157 157 157
16.125000000000 5.890625000000 55.103000640869 159 159 159
16.109375000000 5.921875000000 55.093002319336 170 170 170
16.093750000000 5.921875000000 55.080001831055 206 206 206
16.093750000000 5.921875000000 55.053001403809 150 150 150
16.062500000000 5.953125000000 55.054000854492 141 141 141
16.031250000000 5.953125000000 55.051002502441 127 127 127
16.031250000000 5.953125000000 55.019001007080 110 110 110
15.984375000000 5.984375000000 55.006999969482 78 78 78
16.500000000000 5.953125000000 56.534999847412 112 112 112
16.468750000000 5.984375000000 56.551998138428 158 158 158
16.656250000000 5.890625000000 55.426002502441 91 91 91
16.625000000000 5.890625000000 55.422000885010 143 143 143
16.625000000000 5.906250000000 55.391002655029 163 163 163
16.625000000000 5.921875000000 55.379001617432 162 162 162
16.609375000000 5.921875000000 55.371002197266 140 140 140
16.578125000000 5.953125000000 55.379001617432 78 78 78
17.062500000000 5.953125000000 56.481998443604 69 69 69
17.031250000000 5.968750000000 56.482997894287 144 144 144
17.000000000000 5.984375000000 56.487003326416 114 114 114
17.156250000000 5.890625000000 55.680999755859 138 138 138
17.156250000000 5.906250000000 55.659999847412 161 161 161
17.125000000000 5.921875000000 55.658000946045 169 169 169
17.140625000000 5.906250000000 55.553001403809 163 163 163
17.156250000000 5.906250000000 55.435001373291 156 156 156
17.125000000000 5.906250000000 55.421001434326 153 153 153
17.125000000000 5.921875000000 55.435001373291 100 100 100
17.703125000000 5.890625000000 55.960002899170 65 65 65
17.687500000000 5.890625000000 55.948001861572 145 145 145
17.671875000000 5.906250000000 55.860004425049 160 160 160
17.703125000000 5.890625000000 55.448001861572 162 162 162
17.687500000000 5.890625000000 55.419002532959 164 164 164
17.671875000000 5.906250000000 55.420001983643 148 148 148
17.656250000000 5.921875000000 55.424999237061 38 38 38
18.250000000000 5.890625000000 55.417999267578 144 144 144
18.250000000000 5.890625000000 55.416999816895 168 168 168
18.218750000000 5.890625000000 55.423999786377 153 153 153
18.218750000000 5.890625000000 56.252002716064 151 151 151
18.187500000000 5.906250000000 56.191997528076 161 161 161
18.156250000000 5.921875000000 56.183002471924 153 153 153
18.125000000000 5.937500000000 56.189998626709 85 85 85
18.125000000000 5.953125000000 56.417003631592 32 32 32
18.093750000000 5.968750000000 56.391002655029 148 148 148
18.062500000000 5.984375000000 56.398998260498 139 139 139
18.031250000000 5.890625000000 55.423999786377 51 51 51
18.031250000000 5.890625000000 55.422000885010 145 145 145
18.062500000000 5.906250000000 55.419002532959 162 162 162
18.062500000000 5.921875000000 55.444999694824 158 158 158
18.078125000000 5.937500000000 56.122997283936 141 141 141
18.093750000000 5.953125000000 56.132999420166 87 87 87
18.093750000000 5.968750000000 56.395999908447 46 46 46
18.125000000000 5.984375000000 56.397998809814 148 148 148
18.156250000000 5.984375000000 56.409999847412 124 124 124
17.500000000000 5.890625000000 55.424999237061 120 120 120
17.531250000000 5.921875000000 55.433002471924 163 163 163
17.562500000000 5.921875000000 55.422000885010 138 138 138
17.531250000000 5.921875000000 55.649002075195 115 115 115
17.515625000000 5.921875000000 55.848003387451 152 152 152
17.531250000000 5.921875000000 55.860004425049 163 163 163
17.562500000000 5.953125000000 55.881999969482 145 145 145
17.578125000000 5.953125000000 55.894001007080 67 67 67
17.593750000000 5.984375000000 56.437000274658 123 123 123
17.593750000000 5.984375000000 56.443004608154 149 149 149
17.000000000000 5.921875000000 55.420001983643 110 110 110
17.031250000000 5.921875000000 55.422000885010 161 161 161
17.031250000000 5.937500000000 55.473999023438 155 155 155
17.031250000000 5.921875000000 55.586002349854 166 166 166
17.031250000000 5.953125000000 55.596000671387 164 164 164
17.046875000000 5.953125000000 55.611000061035 138 138 138
17.062500000000 5.953125000000 55.631999969482 49 49 49
17.031250000000 5.968750000000 56.500003814697 36 36 36
17.062500000000 5.984375000000 56.481998443604 131 131 131
17.093750000000 5.984375000000 56.487003326416 125 125 125
16.468750000000 5.921875000000 55.309001922607 66 66 66
16.500000000000 5.921875000000 55.313999176025 131 131 131
16.500000000000 5.937500000000 55.325000762939 159 159 159
16.531250000000 5.953125000000 55.325000762939 161 161 161
16.531250000000 5.953125000000 55.343002319336 135 135 135
16.562500000000 5.953125000000 55.361000061035 66 66 66
16.500000000000 5.984375000000 56.544002532959 91 91 91
16.531250000000 5.984375000000 56.535999298096 137 137 137
15.906250000000 5.890625000000 54.965999603271 88 88 88
15.968750000000 5.921875000000 54.975002288818 128 128 128
15.953125000000 5.921875000000 55.009002685547 124 124 124
15.968750000000 5.921875000000 55.010002136230 152 152 152
16.000000000000 5.937500000000 55.019001007080 146 146 146
16.000000000000 5.953125000000 55.041000366211 176 176 176
16.062500000000 5.968750000000 55.031002044678 157 157 157
16.046875000000 5.984375000000 55.069000244141 150 150 150
16.062500000000 5.984375000000 55.073001861572 141 141 141
16.078125000000 6.000000000000 55.079002380371 126 126 126
15.843750000000 5.921875000000 56.590999603271 74 74 74
15.906250000000 5.953125000000 56.566997528076 112 112 112
15.937500000000 5.953125000000 56.556003570557 129 129 129
15.968750000000 5.984375000000 56.561000823975 142 142 142
16.000000000000 6.000000000000 56.543003082275 146 146 146
16.031250000000 6.015625000000 56.553997039795 148 148 148
16.031250000000 6.031250000000 56.555004119873 134 134 134
16.062500000000 6.046875000000 56.599002838135 132 132 132
16.062500000000 6.046875000000 56.636997222900 147 147 147
15.968750000000 6.000000000000 56.919002532959 163 163 163
16.031250000000 6.015625000000 56.916004180908 158 158 158
16.031250000000 6.046875000000 56.911998748779 95 95 95
15.500000000000 5.953125000000 54.341999053955 210 210 210
15.500000000000 5.953125000000 54.369998931885 210 210 210
15.500000000000 5.953125000000 54.401000976563 208 208 208
15.500000000000 5.953125000000 54.430000305176 208 208 208
15.500000000000 5.953125000000 54.463001251221 201 201 201
15.500000000000 5.953125000000 54.489002227783 200 200 200
15.500000000000 5.953125000000 54.520000457764 199 199 199
15.500000000000 5.953125000000 54.554000854492 195 195 195
15.500000000000 5.953125000000 54.580001831055 193 193 193
15.500000000000 5.953125000000 54.614002227783 207 207 207
15.500000000000 5.953125000000 54.644001007080 205 205 205
15.500000000000 5.953125000000 54.680000305176 206 206 206
15.500000000000 5.953125000000 54.712001800537 205 205 205
15.500000000000 5.953125000000 54.744998931885 188 188 188
15.531250000000 5.984375000000 54.755001068115 176 176 176
15.562500000000 5.984375000000 54.767002105713 158 158 158
15.562500000000 5.984375000000 54.798000335693 161 161 161
15.531250000000 5.984375000000 54.845001220703 167 167 167
15.531250000000 5.984375000000 54.886001586914 179 179 179
15.500000000000 5.968750000000 54.957000732422 192 192 192
15.500000000000 5.968750000000 54.986999511719 196 196 196
15.500000000000 5.968750000000 55.020000457764 194 194 194
15.500000000000 5.968750000000 55.061000823975 191 191 191
15.500000000000 5.968750000000 55.095001220703 193 193 193
15.500000000000 5.984375000000 55.138000488281 198 198 198
15.500000000000 5.984375000000 55.177001953125 202 202 202
15.500000000000 5.984375000000 55.211002349854 194 194 194
15.500000000000 5.984375000000 55.253002166748 193 193 193
15.500000000000 5.984375000000 55.292999267578 191 191 191
15.500000000000 5.984375000000 55.333999633789 195 195 195
15.500000000000 5.984375000000 55.369998931885 193 193 193
15.500000000000 5.984375000000 55.417999267578 191 191 191
15.500000000000 5.984375000000 55.454002380371 194 194 194
15.500000000000 5.984375000000 55.500999450684 189 189 189
15.468750000000 5.984375000000 55.549999237061 184 184 184
15.500000000000 5.984375000000 55.581001281738 182 182 182
15.500000000000 5.984375000000 55.631000518799 187 187 187
15.468750000000 5.984375000000 55.680000305176 192 192 192
15.500000000000 5.984375000000 55.721004486084 190 190 190
15.500000000000 5.984375000000 55.757999420166 179 179 179
15.468750000000 5.984375000000 55.819004058838 172 172 172
15.468750000000 5.984375000000 55.866001129150 192 192 192
15.468750000000 5.984375000000 55.910999298096 192 192 192
15.468750000000 5.984375000000 55.966999053955 193 193 193
15.468750000000 5.984375000000 56.020999908447 191 191 191
15.468750000000 5.984375000000 56.065998077393 192 192 192
15.468750000000 5.984375000000 56.117000579834 187 187 187
15.468750000000 5.984375000000 56.161998748779 191 191 191
15.468750000000 5.984375000000 56.219997406006 194 194 194
15.468750000000 5.984375000000 56.278003692627 190 190 190
15.468750000000 6.000000000000 56.312000274658 185 185 185
15.468750000000 6.015625000000 56.363002777100 170 170 170
15.468750000000 6.015625000000 56.412998199463 142 142 142
15.500000000000 6.015625000000 56.439998626709 151 151 151
15.531250000000 6.031250000000 56.479000091553 151 151 151
15.531250000000 6.031250000000 56.533000946045 158 158 158
15.500000000000 6.015625000000 56.634998321533 131 131 131
15.468750000000 6.015625000000 56.718997955322 135 135 135
15.468750000000 6.015625000000 56.774997711182 130 130 130
15.453125000000 6.015625000000 56.862003326416 133 133 133
15.468750000000 6.015625000000 56.905002593994 155 155 155
15.515625000000 6.046875000000 56.899997711182 161 161 161
15.531250000000 6.062500000000 56.911998748779 143 143 143
15.515625000000 6.046875000000 57.011997222900 95 95 95
15.437500000000 6.015625000000 57.203998565674 71 71 71
15.437500000000 6.015625000000 57.274997711182 62 62 62
14.875000000000 5.953125000000 55.906002044678 97 97 97
14.875000000000 5.953125000000 55.937999725342 150 150 150
15.000000000000 6.015625000000 55.946002960205 148 148 148
15.031250000000 6.046875000000 55.928997039795 122 122 122
15.078125000000 6.062500000000 55.928997039795 54 54 54
14.843750000000 5.984375000000 56.868999481201 36 36 36
14.875000000000 5.984375000000 56.888004302979 123 123 123
14.906250000000 6.015625000000 56.916004180908 146 146 146
14.906250000000 6.015625000000 56.921001434326 145 145 145
14.968750000000 6.046875000000 56.919002532959 146 146 146
15.015625000000 6.078125000000 56.900997161865 134 134 134
14.562500000000 6.078125000000 55.921001434326 61 61 61
14.531250000000 6.078125000000 55.979999542236 18 18 18
14.562500000000 6.093750000000 56.048999786377 73 73 73
14.593750000000 6.109375000000 56.079998016357 66 66 66
14.593750000000 6.109375000000 56.140003204346 30 30 30
14.593750000000 6.140625000000 56.995998382568 47 47 47
14.593750000000 6.140625000000 57.050998687744 31 31 31
14.593750000000 6.140625000000 57.112003326416 17 17 17
18.906250000000 5.906250000000 56.552997589111 116 116 116
18.875000000000 5.906250000000 56.535999298096 139 139 139
18.843750000000 5.906250000000 56.518001556396 136 136 136
18.812500000000 5.906250000000 56.506000518799 133 133 133
18.781250000000 5.906250000000 56.443004608154 131 131 131
18.750000000000 5.906250000000 56.280002593994 138 138 138
18.718750000000 5.906250000000 56.181003570557 136 136 136
18.687500000000 5.906250000000 56.205997467041 134 134 134
18.656250000000 5.906250000000 56.243000030518 138 138 138
18.656250000000 5.921875000000 56.323001861572 138 138 138
18.625000000000 5.921875000000 56.368000030518 130 130 130
18.593750000000 5.906250000000 56.406002044678 125 125 125
18.562500000000 5.921875000000 56.382999420166 127 127 127
18.500000000000 5.906250000000 55.163002014160 181 181 181
18.468750000000 5.890625000000 55.194000244141 254 254 254
18.468750000000 5.890625000000 55.170001983643 161 161 161
18.468750000000 5.906250000000 56.318004608154 118 118 118
18.406250000000 5.906250000000 56.315998077393 116 116 116
18.406250000000 5.906250000000 56.303997039795 112 112 112
18.390625000000 5.906250000000 55.500000000000 120 120 120
18.343750000000 5.921875000000 56.286998748779 91 91 91
18.312500000000 5.921875000000 56.254001617432 102 102 102
18.281250000000 5.906250000000 56.239002227783 97 97 97
18.265625000000 5.921875000000 56.237003326416 100 100 100
18.250000000000 5.921875000000 56.213001251221 101 101 101
18.218750000000 5.921875000000 56.213001251221 98 98 98
18.187500000000 5.906250000000 56.195003509521 93 93 93
18.156250000000 5.921875000000 56.172000885010 89 89 89
18.125000000000 5.921875000000 56.168003082275 91 91 91
18.125000000000 5.921875000000 56.150997161865 85 85 85
18.093750000000 5.921875000000 56.143001556396 81 81 81
18.062500000000 5.921875000000 56.121997833252 81 81 81
18.031250000000 5.921875000000 56.113002777100 82 82 82
18.000000000000 5.921875000000 56.110004425049 74 74 74
18.000000000000 5.921875000000 56.097003936768 71 71 71
17.968750000000 5.921875000000 56.084003448486 73 73 73
17.937500000000 5.921875000000 56.062000274658 67 67 67
17.906250000000 5.921875000000 56.068004608154 67 67 67
17.875000000000 5.921875000000 56.058002471924 57 57 57
18.531250000000 5.921875000000 56.363002777100 151 151 151
18.468750000000 5.906250000000 56.386997222900 149 149 149
14.531250000000 6.109375000000 55.944004058838 66 66 66
14.531250000000 6.109375000000 55.987003326416 33 33 33
14.531250000000 6.109375000000 56.080997467041 70 70 70
14.562500000000 6.109375000000 56.103000640869 62 62 62
14.562500000000 6.109375000000 56.147998809814 43 43 43
14.562500000000 6.109375000000 56.200000762939 33 33 33
14.562500000000 6.109375000000 56.913997650146 59 59 59
14.546875000000 6.125000000000 57.045001983643 97 97 97
14.578125000000 6.140625000000 57.049999237061 97 97 97
14.578125000000 6.140625000000 57.113002777100 88 88 88
14.578125000000 6.140625000000 57.173000335693 82 82 82
14.578125000000 6.140625000000 57.236003875732 63 63 63
14.875000000000 5.953125000000 55.936000823975 93 93 93
14.906250000000 5.984375000000 55.964000701904 144 144 144
14.984375000000 6.015625000000 55.961002349854 146 146 146
15.015625000000 6.015625000000 55.972003936768 148 148 148
15.062500000000 6.046875000000 55.954998016357 124 124 124
15.093750000000 6.078125000000 55.961002349854 71 71 71
14.859375000000 5.984375000000 56.980998992920 145 145 145
14.921875000000 6.015625000000 56.950000762939 144 144 144
14.937500000000 6.015625000000 56.960002899170 150 150 150
15.000000000000 6.046875000000 56.944004058838 146 146 146
15.031250000000 6.078125000000 56.940998077393 137 137 137
15.500000000000 5.937500000000 54.369998931885 210 210 210
15.500000000000 5.937500000000 54.396999359131 208 208 208
15.500000000000 5.937500000000 54.423000335693 208 208 208
15.500000000000 5.937500000000 54.455001831055 208 208 208
15.500000000000 5.937500000000 54.490001678467 207 207 207
15.468750000000 5.921875000000 54.520999908447 206 206 206
15.500000000000 5.937500000000 54.549999237061 204 204 204
15.500000000000 5.937500000000 54.580001831055 205 205 205
15.500000000000 5.937500000000 54.609001159668 198 198 198
15.500000000000 5.937500000000 54.642002105713 197 197 197
15.500000000000 5.937500000000 54.673000335693 196 196 196
15.500000000000 5.937500000000 54.708000183105 198 198 198
15.500000000000 5.953125000000 54.739002227783 195 195 195
15.500000000000 5.953125000000 54.771999359131 179 179 179
15.500000000000 5.953125000000 54.783000946045 172 172 172
15.531250000000 5.953125000000 54.795001983643 159 159 159
15.562500000000 5.984375000000 54.805999755859 159 159 159
15.562500000000 5.984375000000 54.824001312256 160 160 160
15.562500000000 5.984375000000 54.846000671387 162 162 162
15.562500000000 5.984375000000 54.875000000000 157 157 157
15.531250000000 5.968750000000 54.959999084473 185 185 185
15.468750000000 5.937500000000 55.051002502441 191 191 191
15.468750000000 5.953125000000 55.090999603271 191 191 191
15.468750000000 5.953125000000 55.125999450684 193 193 193
15.468750000000 5.953125000000 55.166000366211 192 192 192
15.468750000000 5.953125000000 55.205001831055 185 185 185
15.468750000000 5.953125000000 55.240001678467 183 183 183
15.468750000000 5.953125000000 55.280002593994 186 186 186
15.468750000000 5.953125000000 55.317001342773 176 176 176
15.468750000000 5.953125000000 55.358001708984 170 170 170
15.468750000000 5.953125000000 55.403999328613 180 180 180
15.468750000000 5.953125000000 55.445999145508 186 186 186
15.468750000000 5.953125000000 55.487998962402 180 180 180
15.468750000000 5.953125000000 55.520999908447 175 175 175
15.468750000000 5.953125000000 55.572002410889 174 174 174
15.468750000000 5.953125000000 55.610000610352 173 173 173
15.468750000000 5.953125000000 55.657001495361 167 167 167
15.453125000000 5.953125000000 55.708003997803 171 171 171
15.468750000000 5.953125000000 55.744998931885 170 170 170
15.468750000000 5.953125000000 55.794002532959 169 169 169
15.437500000000 5.953125000000 55.851001739502 154 154 154
15.437500000000 5.953125000000 55.892002105713 158 158 158
15.468750000000 5.953125000000 55.934001922607 160 160 160
15.437500000000 5.953125000000 55.985004425049 158 158 158
15.437500000000 5.953125000000 56.037998199463 173 173 173
15.468750000000 5.953125000000 56.080997467041 156 156 156
15.437500000000 5.953125000000 56.141002655029 146 146 146
15.437500000000 5.953125000000 56.193004608154 136 136 136
15.437500000000 5.953125000000 56.249004364014 155 155 155
15.437500000000 5.953125000000 56.301998138428 168 168 168
15.468750000000 5.968750000000 56.336002349854 182 182 182
15.468750000000 5.968750000000 56.381000518799 170 170 170
15.468750000000 5.968750000000 56.451000213623 97 97 97
15.468750000000 5.984375000000 56.474002838135 168 168 168
15.500000000000 5.984375000000 56.486003875732 145 145 145
15.531250000000 6.015625000000 56.503002166748 140 140 140
15.562500000000 6.015625000000 56.513004302979 141 141 141
15.562500000000 6.015625000000 56.558002471924 152 152 152
15.562500000000 6.031250000000 56.606998443604 156 156 156
15.453125000000 5.984375000000 56.861003875732 110 110 110
15.453125000000 5.984375000000 56.919002532959 157 157 157
15.468750000000 5.984375000000 56.953998565674 165 165 165
15.515625000000 6.015625000000 56.952999114990 158 158 158
15.531250000000 6.015625000000 56.958003997803 163 163 163
15.593750000000 6.046875000000 56.948001861572 157 157 157
15.625000000000 6.062500000000 56.950000762939 133 133 133
15.625000000000 6.078125000000 56.979999542236 29 29 29
16.000000000000 5.921875000000 55.072002410889 98 98 98
16.000000000000 5.921875000000 55.102001190186 87 87 87
16.031250000000 5.921875000000 55.098999023438 100 100 100
16.093750000000 5.953125000000 55.084999084473 147 147 147
16.093750000000 5.953125000000 55.125999450684 164 164 164
16.093750000000 5.953125000000 55.131000518799 180 180 180
16.125000000000 5.968750000000 55.131000518799 166 166 166
16.125000000000 5.984375000000 55.149002075195 165 165 165
16.156250000000 5.984375000000 55.176002502441 147 147 147
16.156250000000 5.984375000000 55.198001861572 138 138 138
16.000000000000 5.937500000000 56.611003875732 88 88 88
16.031250000000 5.953125000000 56.588001251221 114 114 114
16.062500000000 5.984375000000 56.588001251221 135 135 135
16.093750000000 5.984375000000 56.574001312256 136 136 136
16.125000000000 6.015625000000 56.569004058838 153 153 153
16.156250000000 6.015625000000 56.576999664307 147 147 147
16.156250000000 6.031250000000 56.618000030518 133 133 133
16.062500000000 5.984375000000 56.949001312256 163 163 163
16.062500000000 5.984375000000 56.976001739502 168 168 168
16.109375000000 6.015625000000 56.969997406006 170 170 170
16.140625000000 6.031250000000 56.964000701904 158 158 158
16.156250000000 6.046875000000 56.953998565674 128 128 128
16.156250000000 6.046875000000 57.038997650146 138 138 138
16.171875000000 6.046875000000 57.086002349854 145 145 145
16.171875000000 6.046875000000 57.175998687744 146 146 146
16.171875000000 6.046875000000 57.256000518799 123 123 123
16.187500000000 6.062500000000 57.306003570557 154 154 154
16.625000000000 5.921875000000 55.436000823975 98 98 98
16.625000000000 5.921875000000 55.437999725342 147 147 147
16.656250000000 5.953125000000 55.449001312256 164 164 164
16.687500000000 5.953125000000 55.456001281738 159 159 159
16.687500000000 5.953125000000 55.473999023438 132 132 132
16.718750000000 5.968750000000 55.490001678467 52 52 52
16.687500000000 5.984375000000 56.545001983643 42 42 42
16.687500000000 6.000000000000 56.546001434326 140 140 140
16.718750000000 6.015625000000 56.546001434326 99 99 99
17.187500000000 5.921875000000 55.464000701904 53 53 53
17.218750000000 5.921875000000 55.452999114990 130 130 130
17.250000000000 5.921875000000 55.461002349854 159 159 159
17.250000000000 5.937500000000 55.485000610352 140 140 140
17.218750000000 5.921875000000 55.687999725342 134 134 134
17.250000000000 5.937500000000 55.729999542236 163 163 163
17.250000000000 5.953125000000 55.749004364014 164 164 164
17.250000000000 5.953125000000 55.760997772217 142 142 142
17.281250000000 5.953125000000 55.778003692627 70 70 70
17.281250000000 5.984375000000 56.497997283936 128 128 128
17.312500000000 6.000000000000 56.509998321533 142 142 142
17.765625000000 5.890625000000 55.470001220703 40 40 40
17.781250000000 5.906250000000 55.464000701904 137 137 137
17.812500000000 5.921875000000 55.455001831055 162 162 162
17.828125000000 5.921875000000 55.471000671387 151 151 151
17.812500000000 5.921875000000 56.036998748779 164 164 164
17.843750000000 5.953125000000 56.048999786377 153 153 153
17.843750000000 5.953125000000 56.062999725342 98 98 98
17.859375000000 5.984375000000 56.455997467041 100 100 100
17.875000000000 5.984375000000 56.455997467041 157 157 157
17.906250000000 6.015625000000 56.448001861572 106 106 106
19.218750000000 5.937500000000 55.462001800537 32 32 32
19.250000000000 5.921875000000 55.465000152588 143 143 143
19.265625000000 5.921875000000 55.444000244141 172 172 172
19.281250000000 5.906250000000 55.434001922607 172 172 172
19.281250000000 5.906250000000 55.373001098633 164 164 164
19.312500000000 5.890625000000 55.378002166748 135 135 135
18.468750000000 6.046875000000 56.469997406006 146 146 146
18.531250000000 6.015625000000 56.419002532959 158 158 158
18.531250000000 6.015625000000 56.301998138428 110 110 110
18.562500000000 6.000000000000 56.315998077393 142 142 142
18.593750000000 5.984375000000 56.399997711182 163 163 163
18.625000000000 5.968750000000 56.440998077393 162 162 162
18.625000000000 5.953125000000 56.465000152588 113 113 113
18.671875000000 5.953125000000 55.461002349854 126 126 126
18.687500000000 5.921875000000 55.449001312256 172 172 172
18.718750000000 5.921875000000 55.458000183105 166 166 166
18.734375000000 5.921875000000 55.468002319336 87 87 87
18.750000000000 5.890625000000 55.319999694824 141 141 141
18.781250000000 5.890625000000 55.310001373291 130 130 130
17.937500000000 6.031250000000 56.436000823975 145 145 145
17.968750000000 6.015625000000 56.445003509521 141 141 141
18.031250000000 6.000000000000 56.155002593994 66 66 66
18.093750000000 5.953125000000 55.493000030518 153 153 153
18.125000000000 5.953125000000 55.444000244141 165 165 165
18.125000000000 5.921875000000 55.445999145508 166 166 166
18.156250000000 5.921875000000 55.458000183105 105 105 105
18.437500000000 5.953125000000 56.409999847412 157 157 157
18.390625000000 5.953125000000 56.405002593994 160 160 160
18.375000000000 5.953125000000 56.409999847412 156 156 156
18.343750000000 5.953125000000 56.404003143311 159 159 159
18.312500000000 5.953125000000 56.414997100830 156 156 156
18.281250000000 5.953125000000 56.416004180908 157 157 157
18.250000000000 5.953125000000 56.419002532959 155 155 155
18.234375000000 5.953125000000 56.416004180908 152 152 152
18.218750000000 5.953125000000 56.413997650146 154 154 154
18.171875000000 5.953125000000 56.422000885010 154 154 154
18.156250000000 5.953125000000 56.428997039795 158 158 158
18.125000000000 5.953125000000 56.427997589111 154 154 154
18.093750000000 5.953125000000 56.418003082275 150 150 150
18.062500000000 5.953125000000 56.431003570557 156 156 156
18.031250000000 5.953125000000 56.430004119873 157 157 157
18.000000000000 5.953125000000 56.436000823975 158 158 158
17.968750000000 5.968750000000 56.432003021240 156 156 156
17.968750000000 5.953125000000 56.445003509521 154 154 154
17.937500000000 5.953125000000 56.439998626709 161 161 161
17.906250000000 5.953125000000 56.437999725342 155 155 155
17.875000000000 5.953125000000 56.447002410889 162 162 162
17.843750000000 5.953125000000 56.449001312256 158 158 158
17.812500000000 5.953125000000 56.450000762939 158 158 158
17.781250000000 5.953125000000 56.453998565674 159 159 159
17.765625000000 5.953125000000 56.451999664307 158 158 158
17.718750000000 5.953125000000 56.460002899170 157 157 157
17.718750000000 5.953125000000 56.460002899170 161 161 161
17.687500000000 5.953125000000 56.465000152588 160 160 160
17.656250000000 5.968750000000 56.465999603271 159 159 159
17.625000000000 5.953125000000 56.460002899170 154 154 154
17.593750000000 5.953125000000 56.463001251221 155 155 155
17.562500000000 5.968750000000 56.471004486084 153 153 153
17.531250000000 5.953125000000 56.466999053955 156 156 156
17.500000000000 5.953125000000 56.473003387451 155 155 155
17.468750000000 5.953125000000 56.475002288818 153 153 153
17.468750000000 5.968750000000 56.478000640869 152 152 152
17.421875000000 5.953125000000 56.476001739502 152 152 152
17.375000000000 5.953125000000 56.475002288818 148 148 148
17.359375000000 5.953125000000 56.490001678467 149 149 149
17.343750000000 5.953125000000 56.482997894287 145 145 145
17.312500000000 5.953125000000 56.493000030518 142 142 142
17.281250000000 5.953125000000 56.492000579834 143 143 143
17.234375000000 5.953125000000 56.494998931885 141 141 141
17.218750000000 5.953125000000 56.499004364014 142 142 142
17.187500000000 5.953125000000 56.488002777100 134 134 134
17.156250000000 5.953125000000 56.496997833252 135 135 135
17.125000000000 5.953125000000 56.496997833252 130 130 130
17.093750000000 5.953125000000 56.502002716064 129 129 129
17.093750000000 5.953125000000 56.506999969482 129 129 129
17.031250000000 5.953125000000 56.513004302979 126 126 126
17.000000000000 5.953125000000 56.514003753662 128 128 128
16.968750000000 5.953125000000 56.504001617432 116 116 116
16.953125000000 5.953125000000 56.506999969482 116 116 116
16.906250000000 5.953125000000 56.517002105713 117 117 117
16.890625000000 5.953125000000 56.517002105713 112 112 112
16.843750000000 5.953125000000 56.510997772217 108 108 108
16.828125000000 5.953125000000 56.530002593994 108 108 108
16.812500000000 5.953125000000 56.522998809814 105 105 105
16.765625000000 5.953125000000 56.522998809814 99 99 99
16.718750000000 5.953125000000 56.537998199463 99 99 99
16.718750000000 5.953125000000 56.530002593994 96 96 96
16.687500000000 5.953125000000 56.537998199463 93 93 93
16.625000000000 5.953125000000 56.533000946045 85 85 85
16.593750000000 5.953125000000 56.546001434326 86 86 86
16.562500000000 5.953125000000 56.548999786377 79 79 79
16.562500000000 5.953125000000 56.557003021240 75 75 75
16.812500000000 5.953125000000 55.483001708984 92 92 92
16.750000000000 5.953125000000 55.556999206543 193 193 193
16.718750000000 5.953125000000 55.549999237061 194 194 194
16.718750000000 5.953125000000 55.493000030518 104 104 104
16.125000000000 5.968750000000 56.969997406006 136 136 136
16.625000000000 5.953125000000 55.632999420166 217 217 217
16.156250000000 5.953125000000 56.673000335693 134 134 134
16.156250000000 5.953125000000 56.635997772217 129 129 129
16.125000000000 5.953125000000 56.612003326416 123 123 123
16.093750000000 5.953125000000 56.625003814697 116 116 116
16.062500000000 5.953125000000 56.597003936768 113 113 113
16.015625000000 5.953125000000 56.629001617432 115 115 115
16.531250000000 5.953125000000 55.395999908447 85 85 85
16.500000000000 5.953125000000 55.401000976563 94 94 94
16.500000000000 5.953125000000 55.375000000000 98 98 98
16.468750000000 5.953125000000 55.362998962402 97 97 97
16.468750000000 5.953125000000 55.359001159668 107 107 107
16.437500000000 5.953125000000 55.339000701904 107 107 107
16.437500000000 5.953125000000 55.323001861572 108 108 108
16.375000000000 5.953125000000 55.347999572754 183 183 183
16.375000000000 5.953125000000 55.334999084473 177 177 177
16.343750000000 5.953125000000 55.319999694824 171 171 171
16.312500000000 5.937500000000 55.306999206543 163 163 163
16.312500000000 5.953125000000 55.295001983643 164 164 164
16.281250000000 5.953125000000 55.289001464844 169 169 169
16.250000000000 5.953125000000 55.259002685547 166 166 166
16.250000000000 5.937500000000 55.252002716064 158 158 158
16.218750000000 5.953125000000 55.237998962402 154 154 154
16.218750000000 5.937500000000 55.208999633789 152 152 152
16.218750000000 5.953125000000 55.185001373291 150 150 150
16.187500000000 5.953125000000 55.180000305176 159 159 159
16.156250000000 5.953125000000 55.169002532959 155 155 155
16.156250000000 5.953125000000 55.145999908447 158 158 158
16.125000000000 5.953125000000 55.121002197266 167 167 167
16.093750000000 5.937500000000 55.121002197266 166 166 166
16.093750000000 5.953125000000 55.110000610352 175 175 175
16.093750000000 5.953125000000 55.081001281738 154 154 154
16.046875000000 5.953125000000 55.083000183105 167 167 167
16.031250000000 5.937500000000 55.065002441406 155 155 155
16.000000000000 5.953125000000 55.055999755859 170 170 170
15.984375000000 5.953125000000 55.041999816895 152 152 152
15.968750000000 5.953125000000 55.032001495361 176 176 176
15.937500000000 5.953125000000 55.032001495361 164 164 164
15.937500000000 5.953125000000 55.010002136230 169 169 169
15.906250000000 5.953125000000 55.018001556396 172 172 172
15.875000000000 5.953125000000 54.991001129150 164 164 164
15.843750000000 5.953125000000 54.989002227783 165 165 165
15.843750000000 5.953125000000 54.964000701904 163 163 163
15.812500000000 5.937500000000 54.965000152588 171 171 171
15.781250000000 5.937500000000 54.950000762939 166 166 166
15.781250000000 5.953125000000 54.955001831055 162 162 162
15.734375000000 5.937500000000 54.945999145508 157 157 157
15.718750000000 5.937500000000 54.941001892090 157 157 157
15.718750000000 5.937500000000 54.909000396729 148 148 148
15.687500000000 5.937500000000 54.899002075195 146 146 146
15.687500000000 5.937500000000 54.869998931885 147 147 147
15.656250000000 5.937500000000 54.847999572754 158 158 158
15.656250000000 5.937500000000 54.832000732422 158 158 158
15.625000000000 5.953125000000 54.833000183105 153 153 153
15.593750000000 5.937500000000 54.830001831055 149 149 149
15.562500000000 5.937500000000 54.830001831055 151 151 151
15.562500000000 5.953125000000 54.811000823975 158 158 158
15.531250000000 5.953125000000 54.797000885010 160 160 160
15.500000000000 5.937500000000 54.784999847412 171 171 171
15.500000000000 5.937500000000 54.763000488281 183 183 183
15.500000000000 5.937500000000 54.723999023438 197 197 197
15.500000000000 5.937500000000 54.694999694824 203 203 203
15.500000000000 5.937500000000 54.659999847412 201 201 201
15.500000000000 5.937500000000 54.618999481201 187 187 187
15.500000000000 5.937500000000 54.588001251221 191 191 191
15.500000000000 5.937500000000 54.547000885010 200 200 200
15.500000000000 5.937500000000 54.516002655029 202 202 202
15.500000000000 5.937500000000 54.483001708984 203 203 203
15.500000000000 5.937500000000 54.452999114990 205 205 205
15.500000000000 5.937500000000 54.414001464844 205 205 205
15.500000000000 5.937500000000 54.386001586914 208 208 208
15.500000000000 5.937500000000 54.359001159668 207 207 207
16.218750000000 5.968750000000 57.101001739502 124 124 124
16.156250000000 5.968750000000 56.973003387451 101 101 101
15.968750000000 5.953125000000 56.621997833252 110 110 110
15.953125000000 5.953125000000 56.617000579834 114 114 114
15.937500000000 5.953125000000 56.606998443604 105 105 105
15.875000000000 5.968750000000 56.622997283936 109 109 109
15.828125000000 5.953125000000 56.635997772217 104 104 104
15.812500000000 5.968750000000 56.618999481201 101 101 101
15.781250000000 5.968750000000 56.636997222900 104 104 104
18.218750000000 5.968750000000 56.419002532959 79 79 79
18.218750000000 5.953125000000 56.418003082275 158 158 158
18.187500000000 5.953125000000 56.423000335693 112 112 112
18.156250000000 5.921875000000 56.239002227783 118 118 118
18.125000000000 5.906250000000 56.227001190186 164 164 164
18.125000000000 5.890625000000 56.211002349854 164 164 164
18.156250000000 5.890625000000 55.466999053955 125 125 125
18.125000000000 5.890625000000 55.456001281738 165 165 165
18.125000000000 5.875000000000 55.456001281738 156 156 156
18.093750000000 5.859375000000 55.458999633789 68 68 68
18.093750000000 5.890625000000 56.247997283936 138 138 138
18.687500000000 5.890625000000 55.456001281738 101 101 101
18.671875000000 5.875000000000 55.452999114990 162 162 162
18.656250000000 5.859375000000 55.449001312256 161 161 161
18.625000000000 5.843750000000 55.331001281738 148 148 148
18.625000000000 5.828125000000 55.305000305176 154 154 154
18.656250000000 5.890625000000 56.544002532959 137 137 137
18.656250000000 5.890625000000 56.504001617432 90 90 90
19.218750000000 5.875000000000 55.450000762939 132 132 132
19.187500000000 5.859375000000 55.423000335693 147 147 147
19.187500000000 5.828125000000 55.375000000000 157 157 157
19.156250000000 5.828125000000 55.412002563477 103 103 103
19.156250000000 5.828125000000 55.454002380371 37 37 37
18.343750000000 5.937500000000 56.320003509521 137 137 137
18.343750000000 5.937500000000 56.326000213623 69 69 69
18.281250000000 5.968750000000 56.432003021240 128 128 128
18.250000000000 5.984375000000 56.416004180908 157 157 157
18.250000000000 5.984375000000 56.433002471924 82 82 82
17.875000000000 5.890625000000 55.609001159668 136 136 136
17.875000000000 5.890625000000 55.476001739502 153 153 153
17.875000000000 5.890625000000 55.462001800537 163 163 163
17.843750000000 5.906250000000 55.457000732422 150 150 150
17.718750000000 5.968750000000 56.495998382568 144 144 144
17.687500000000 5.984375000000 56.455997467041 157 157 157
17.656250000000 5.984375000000 56.471004486084 67 67 67
17.125000000000 5.953125000000 56.510997772217 126 126 126
17.093750000000 5.984375000000 56.548999786377 136 136 136
17.250000000000 5.906250000000 55.779003143311 147 147 147
17.250000000000 5.921875000000 55.746997833252 156 156 156
17.218750000000 5.921875000000 55.739002227783 164 164 164
17.250000000000 5.921875000000 55.601001739502 163 163 163
17.250000000000 5.921875000000 55.472999572754 155 155 155
17.250000000000 5.921875000000 55.451000213623 155 155 155
17.218750000000 5.921875000000 55.459999084473 127 127 127
16.531250000000 5.984375000000 56.565998077393 124 124 124
16.500000000000 5.984375000000 56.559001922607 142 142 142
16.687500000000 5.890625000000 55.485000610352 56 56 56
16.656250000000 5.906250000000 55.468002319336 129 129 129
16.656250000000 5.921875000000 55.448001861572 158 158 158
16.625000000000 5.921875000000 55.437000274658 162 162 162
16.625000000000 5.937500000000 55.423999786377 157 157 157
16.593750000000 5.953125000000 55.421001434326 125 125 125
16.125000000000 5.875000000000 57.264003753662 67 67 67
16.125000000000 5.890625000000 57.211002349854 99 99 99
16.125000000000 5.890625000000 57.119998931885 92 92 92
16.093750000000 5.890625000000 57.073001861572 98 98 98
16.093750000000 5.906250000000 57.057003021240 82 82 82
16.062500000000 5.921875000000 56.937999725342 116 116 116
16.031250000000 5.937500000000 56.946002960205 152 152 152
16.000000000000 5.953125000000 56.961002349854 162 162 162
15.937500000000 5.968750000000 56.966999053955 164 164 164
15.968750000000 5.968750000000 56.852001190186 164 164 164
16.031250000000 5.953125000000 56.697002410889 151 151 151
16.031250000000 5.937500000000 56.594997406006 133 133 133
16.000000000000 5.953125000000 56.588001251221 146 146 146
15.968750000000 5.968750000000 56.580997467041 150 150 150
15.937500000000 5.984375000000 56.574001312256 159 159 159
15.937500000000 6.000000000000 56.576999664307 144 144 144
15.890625000000 6.031250000000 56.597003936768 136 136 136
15.843750000000 6.046875000000 56.613002777100 135 135 135
15.843750000000 6.062500000000 56.594997406006 45 45 45
16.109375000000 5.921875000000 55.256000518799 152 152 152
16.125000000000 5.890625000000 55.171001434326 135 135 135
16.125000000000 5.890625000000 55.144001007080 154 154 154
16.109375000000 5.921875000000 55.141002655029 158 158 158
16.093750000000 5.921875000000 55.131000518799 177 177 177
16.078125000000 5.921875000000 55.110000610352 155 155 155
16.078125000000 5.921875000000 55.079002380371 175 175 175
16.031250000000 5.953125000000 55.095001220703 155 155 155
16.031250000000 5.953125000000 55.060001373291 145 145 145
16.000000000000 5.984375000000 55.079002380371 85 85 85
15.968750000000 5.984375000000 55.068000793457 122 122 122
15.968750000000 5.984375000000 55.023002624512 72 72 72
15.421875000000 5.953125000000 57.292003631592 24 24 24
15.406250000000 5.953125000000 57.253002166748 74 74 74
15.406250000000 5.953125000000 57.177997589111 77 77 77
15.468750000000 5.921875000000 57.006000518799 141 141 141
15.453125000000 5.937500000000 56.965999603271 139 139 139
15.453125000000 5.937500000000 56.908000946045 151 151 151
15.421875000000 5.953125000000 56.892002105713 92 92 92
15.437500000000 5.953125000000 56.805004119873 112 112 112
15.437500000000 5.953125000000 56.732997894287 136 136 136
15.437500000000 5.953125000000 56.678997039795 159 159 159
15.468750000000 5.921875000000 56.569004058838 154 154 154
15.468750000000 5.921875000000 56.505001068115 166 166 166
15.453125000000 5.937500000000 56.477001190186 164 164 164
15.468750000000 5.921875000000 56.382999420166 166 166 166
15.468750000000 5.921875000000 56.325000762939 178 178 178
15.453125000000 5.937500000000 56.314998626709 178 178 178
15.437500000000 5.953125000000 56.274997711182 172 172 172
15.437500000000 5.953125000000 56.217998504639 173 173 173
15.453125000000 5.937500000000 56.163997650146 169 169 169
15.453125000000 5.953125000000 56.107997894287 177 177 177
15.437500000000 5.953125000000 56.063999176025 179 179 179
15.453125000000 5.953125000000 56.011997222900 181 181 181
15.453125000000 5.953125000000 55.963001251221 179 179 179
15.453125000000 5.953125000000 55.917003631592 182 182 182
15.453125000000 5.953125000000 55.860004425049 168 168 168
15.453125000000 5.953125000000 55.822002410889 172 172 172
15.453125000000 5.953125000000 55.766002655029 184 184 184
15.453125000000 5.953125000000 55.722003936768 187 187 187
15.468750000000 5.937500000000 55.676002502441 183 183 183
15.468750000000 5.937500000000 55.624000549316 189 189 189
15.468750000000 5.921875000000 55.581001281738 190 190 190
15.468750000000 5.937500000000 55.540000915527 183 183 183
15.468750000000 5.937500000000 55.503002166748 191 191 191
15.468750000000 5.921875000000 55.454002380371 193 193 193
15.468750000000 5.921875000000 55.412002563477 191 191 191
15.468750000000 5.921875000000 55.369998931885 189 189 189
15.468750000000 5.921875000000 55.330001831055 186 186 186
15.468750000000 5.921875000000 55.294002532959 193 193 193
15.468750000000 5.937500000000 55.249000549316 194 194 194
15.468750000000 5.937500000000 55.215000152588 198 198 198
15.468750000000 5.937500000000 55.174999237061 195 195 195
15.468750000000 5.937500000000 55.137001037598 200 200 200
15.468750000000 5.937500000000 55.097999572754 199 199 199
15.468750000000 5.921875000000 55.060001373291 199 199 199
15.468750000000 5.921875000000 55.025001525879 205 205 205
15.468750000000 5.921875000000 54.987998962402 202 202 202
15.468750000000 5.921875000000 54.952999114990 204 204 204
15.468750000000 5.921875000000 54.913002014160 196 196 196
15.500000000000 5.921875000000 54.854000091553 158 158 158
15.500000000000 5.921875000000 54.833000183105 144 144 144
15.500000000000 5.921875000000 54.794002532959 163 163 163
15.468750000000 5.921875000000 54.781002044678 176 176 176
15.484375000000 5.921875000000 54.743000030518 197 197 197
15.484375000000 5.921875000000 54.708999633789 204 204 204
15.468750000000 5.921875000000 54.679000854492 202 202 202
15.484375000000 5.921875000000 54.644001007080 202 202 202
15.484375000000 5.921875000000 54.615001678467 196 196 196
15.484375000000 5.921875000000 54.582000732422 206 206 206
15.484375000000 5.921875000000 54.548999786377 206 206 206
15.484375000000 5.921875000000 54.517002105713 208 208 208
15.484375000000 5.921875000000 54.486000061035 208 208 208
15.500000000000 5.921875000000 54.454002380371 208 208 208
15.484375000000 5.921875000000 54.429000854492 210 210 210
