25.203125000000 19.062500000000 4.285003662109 156 156 156
25.203125000000 19.062500000000 4.261001586914 170 170 170
25.203125000000 19.078125000000 4.236000061035 165 165 165
25.078125000000 19.062500000000 4.239002227783 161 161 161
25.046875000000 19.062500000000 4.216003417969 162 162 162
25.046875000000 19.062500000000 4.190002441406 170 170 170
25.078125000000 19.062500000000 4.159000396729 170 170 170
25.046875000000 19.062500000000 4.137001037598 164 164 164
25.046875000000 19.062500000000 4.109001159668 176 176 176
25.046875000000 19.062500000000 4.082000732422 159 159 159
25.187500000000 19.078125000000 4.020000457764 170 170 170
25.203125000000 19.078125000000 3.989002227783 167 167 167
25.203125000000 19.078125000000 3.962001800537 167 167 167
25.187500000000 19.078125000000 3.936000823975 169 169 169
25.187500000000 19.078125000000 3.909000396729 166 166 166
25.187500000000 19.078125000000 3.880001068115 173 173 173
25.187500000000 19.078125000000 3.850002288818 168 168 168
25.187500000000 19.078125000000 3.822002410889 168 168 168
25.203125000000 19.078125000000 3.792003631592 169 169 169
25.187500000000 19.078125000000 3.767002105713 170 170 170
25.187500000000 19.078125000000 3.737003326416 170 170 170
25.187500000000 19.078125000000 3.709003448486 168 168 168
25.171875000000 19.093750000000 3.682003021240 171 171 171
25.187500000000 19.078125000000 3.651000976563 169 169 169
25.187500000000 19.093750000000 3.619003295898 169 169 169
25.187500000000 19.093750000000 3.589000701904 171 171 171
25.546875000000 19.359375000000 4.307003021240 83 83 83
25.421875000000 19.359375000000 4.305000305176 105 105 105
25.296875000000 19.359375000000 4.304000854492 121 121 121
25.203125000000 19.343750000000 4.297000885010 164 164 164
25.203125000000 19.343750000000 4.269001007080 172 172 172
25.203125000000 19.359375000000 4.245002746582 172 172 172
25.171875000000 19.359375000000 4.222000122070 168 168 168
25.031250000000 19.359375000000 4.233001708984 138 138 138
25.015625000000 19.359375000000 4.208000183105 147 147 147
25.031250000000 19.359375000000 4.180000305176 146 146 146
25.015625000000 19.375000000000 4.154003143311 141 141 141
25.015625000000 19.375000000000 4.128002166748 143 143 143
25.031250000000 19.359375000000 4.100002288818 137 137 137
25.078125000000 19.375000000000 4.064002990723 149 149 149
25.203125000000 19.359375000000 3.996002197266 172 172 172
25.203125000000 19.359375000000 3.971000671387 171 171 171
25.234375000000 19.359375000000 3.938003540039 171 171 171
25.203125000000 19.359375000000 3.912002563477 172 172 172
25.234375000000 19.359375000000 3.881000518799 172 172 172
25.203125000000 19.359375000000 3.856002807617 170 170 170
25.203125000000 19.359375000000 3.827003479004 170 170 170
25.203125000000 19.359375000000 3.800003051758 172 172 172
25.203125000000 19.359375000000 3.770000457764 171 171 171
25.203125000000 19.359375000000 3.742000579834 171 171 171
25.203125000000 19.359375000000 3.712001800537 173 173 173
25.203125000000 19.359375000000 3.684001922607 171 171 171
25.203125000000 19.375000000000 3.659000396729 169 169 169
25.203125000000 19.375000000000 3.626003265381 169 169 169
25.203125000000 19.375000000000 3.597000122070 172 172 172
25.500000000000 19.375000000000 3.225002288818 132 132 132
25.421875000000 19.375000000000 3.225002288818 134 134 134
25.359375000000 19.375000000000 3.221000671387 139 139 139
25.859375000000 19.656250000000 4.226001739502 131 131 131
25.859375000000 19.656250000000 4.197002410889 168 168 168
25.859375000000 19.656250000000 4.164001464844 161 161 161
25.859375000000 19.640625000000 4.135002136230 166 166 166
25.859375000000 19.656250000000 4.105003356934 161 161 161
25.859375000000 19.656250000000 4.074001312256 156 156 156
24.984375000000 19.656250000000 4.232002258301 136 136 136
25.000000000000 19.656250000000 4.201000213623 161 161 161
24.984375000000 19.656250000000 4.176002502441 156 156 156
24.984375000000 19.656250000000 4.150001525879 167 167 167
24.984375000000 19.656250000000 4.123001098633 164 164 164
24.984375000000 19.656250000000 4.097000122070 165 165 165
24.984375000000 19.656250000000 4.071002960205 150 150 150
24.953125000000 19.656250000000 4.057003021240 62 62 62
25.953125000000 19.937500000000 4.258003234863 57 57 57
25.921875000000 19.937500000000 4.232002258301 150 150 150
25.859375000000 19.937500000000 4.211002349854 157 157 157
25.859375000000 19.937500000000 4.177001953125 170 170 170
25.859375000000 19.937500000000 4.149002075195 163 163 163
25.859375000000 19.937500000000 4.117000579834 164 164 164
25.859375000000 19.937500000000 4.087001800537 163 163 163
25.859375000000 19.937500000000 4.056003570557 144 144 144
24.921875000000 19.953125000000 4.260002136230 140 140 140
24.890625000000 19.937500000000 4.239002227783 173 173 173
24.890625000000 19.937500000000 4.213001251221 178 178 178
24.890625000000 19.937500000000 4.188003540039 172 172 172
24.890625000000 19.937500000000 4.163002014160 176 176 176
24.890625000000 19.937500000000 4.137001037598 173 173 173
24.890625000000 19.937500000000 4.110000610352 171 171 171
24.890625000000 19.937500000000 4.085002899170 174 174 174
24.890625000000 19.937500000000 4.061000823975 171 171 171
24.890625000000 19.937500000000 4.032001495361 165 165 165
15.640625000000 9.968750000000 4.306003570557 159 159 159
15.687500000000 9.984375000000 4.283000946045 157 157 157
15.687500000000 9.984375000000 4.253002166748 172 172 172
15.687500000000 9.984375000000 4.222000122070 172 172 172
15.687500000000 9.984375000000 4.190002441406 174 174 174
15.687500000000 9.984375000000 4.160003662109 172 172 172
15.640625000000 9.968750000000 4.123001098633 161 161 161
16.671875000000 9.984375000000 4.323001861572 148 148 148
16.671875000000 9.968750000000 4.300003051758 163 163 163
16.671875000000 9.984375000000 4.272003173828 160 160 160
16.671875000000 9.968750000000 4.249000549316 159 159 159
16.671875000000 9.984375000000 4.222000122070 161 161 161
16.671875000000 9.968750000000 4.197002410889 158 158 158
16.687500000000 9.984375000000 4.174003601074 160 160 160
16.671875000000 9.968750000000 4.145999908447 157 157 157
16.671875000000 9.984375000000 4.120002746582 162 162 162
16.671875000000 9.984375000000 4.093002319336 162 162 162
15.671875000000 10.281250000000 4.301002502441 93 93 93
15.703125000000 10.296875000000 4.272003173828 175 175 175
15.703125000000 10.296875000000 4.242000579834 172 172 172
15.703125000000 10.296875000000 4.212001800537 174 174 174
15.703125000000 10.296875000000 4.180000305176 176 176 176
15.703125000000 10.296875000000 4.149002075195 176 176 176
15.703125000000 10.312500000000 4.120002746582 111 111 111
16.562500000000 10.296875000000 4.291000366211 159 159 159
16.546875000000 10.312500000000 4.263000488281 170 170 170
16.562500000000 10.296875000000 4.239002227783 165 165 165
16.546875000000 10.312500000000 4.211002349854 170 170 170
16.562500000000 10.296875000000 4.187000274658 163 163 163
16.546875000000 10.312500000000 4.158000946045 161 161 161
16.562500000000 10.296875000000 4.134002685547 154 154 154
16.609375000000 10.296875000000 4.120002746582 54 54 54
16.046875000000 10.625000000000 4.358001708984 128 128 128
16.171875000000 10.593750000000 4.358001708984 131 131 131
16.296875000000 10.609375000000 4.356002807617 157 157 157
16.343750000000 10.609375000000 4.337001800537 177 177 177
16.359375000000 10.625000000000 4.311000823975 178 178 178
16.453125000000 10.609375000000 4.307003021240 200 200 200
16.484375000000 10.625000000000 4.287002563477 177 177 177
16.484375000000 10.609375000000 4.259002685547 184 184 184
16.484375000000 10.609375000000 4.233001708984 179 179 179
16.484375000000 10.625000000000 4.208000183105 176 176 176
16.468750000000 10.609375000000 4.179000854492 187 187 187
16.484375000000 10.625000000000 4.155002593994 178 178 178
16.390625000000 10.625000000000 4.104000091553 177 177 177
16.359375000000 10.609375000000 4.067001342773 174 174 174
16.359375000000 10.625000000000 4.039001464844 180 180 180
16.328125000000 10.625000000000 4.006000518799 187 187 187
16.328125000000 10.625000000000 3.979000091553 187 187 187
16.328125000000 10.625000000000 3.950000762939 201 201 201
16.328125000000 10.625000000000 3.921001434326 217 217 217
16.359375000000 10.625000000000 3.897003173828 191 191 191
16.328125000000 10.625000000000 3.867000579834 191 191 191
16.328125000000 10.625000000000 3.837001800537 188 188 188
16.328125000000 10.625000000000 3.809001922607 189 189 189
16.359375000000 10.625000000000 3.784000396729 191 191 191
16.328125000000 10.625000000000 3.752002716064 190 190 190
16.359375000000 10.625000000000 3.727001190186 170 170 170
16.328125000000 10.625000000000 3.694000244141 173 173 173
16.328125000000 10.625000000000 3.663002014160 167 167 167
16.265625000000 10.609375000000 3.608001708984 167 167 167
16.250000000000 10.609375000000 3.571002960205 164 164 164
16.250000000000 10.609375000000 3.538002014160 163 163 163
16.250000000000 10.609375000000 3.509002685547 158 158 158
16.250000000000 10.609375000000 3.479000091553 159 159 159
16.250000000000 10.609375000000 3.449001312256 160 160 160
16.250000000000 10.609375000000 3.417003631592 159 159 159
16.250000000000 10.609375000000 3.386001586914 160 160 160
16.250000000000 10.609375000000 3.356002807617 160 160 160
15.828125000000 10.937500000000 4.303001403809 170 170 170
15.859375000000 10.937500000000 4.276000976563 172 172 172
15.859375000000 10.937500000000 4.246002197266 174 174 174
15.859375000000 10.937500000000 4.215000152588 179 179 179
15.859375000000 10.937500000000 4.188003540039 145 145 145
16.468750000000 10.937500000000 4.299003601074 180 180 180
16.468750000000 10.937500000000 4.273002624512 172 172 172
16.468750000000 10.937500000000 4.246002197266 177 177 177
16.468750000000 10.937500000000 4.220001220703 171 171 171
16.468750000000 10.937500000000 4.191001892090 176 176 176
16.468750000000 10.937500000000 4.166000366211 172 172 172
16.468750000000 10.937500000000 4.140003204346 137 137 137
15.828125000000 11.250000000000 4.314002990723 65 65 65
15.875000000000 11.250000000000 4.294002532959 199 199 199
15.875000000000 11.250000000000 4.263999938965 210 210 210
15.890625000000 11.250000000000 4.240001678467 169 169 169
15.890625000000 11.250000000000 4.207000732422 193 193 193
16.453125000000 11.250000000000 4.307003021240 211 211 211
16.484375000000 11.250000000000 4.282001495361 230 230 230
16.453125000000 11.250000000000 4.254001617432 226 226 226
16.484375000000 11.250000000000 4.229000091553 223 223 223
16.453125000000 11.250000000000 4.200000762939 229 229 229
16.484375000000 11.250000000000 4.176002502441 222 222 222
16.484375000000 11.250000000000 4.150001525879 157 157 157
15.921875000000 11.562500000000 4.315002441406 189 189 189
15.921875000000 11.562500000000 4.285003662109 213 213 213
15.890625000000 11.562500000000 4.254001617432 229 229 229
15.890625000000 11.562500000000 4.225002288818 225 225 225
16.359375000000 11.562500000000 4.301002502441 252 252 252
16.453125000000 11.562500000000 4.294002532959 225 225 225
16.453125000000 11.562500000000 4.266002655029 232 232 232
16.453125000000 11.562500000000 4.242000579834 225 225 225
16.453125000000 11.562500000000 4.214000701904 231 231 231
16.453125000000 11.562500000000 4.189002990723 226 226 226
16.484375000000 11.562500000000 4.165000915527 197 197 197
15.921875000000 11.875000000000 4.310001373291 204 204 204
15.921875000000 11.875000000000 4.278003692627 227 227 227
15.921875000000 11.875000000000 4.249000549316 227 227 227
15.953125000000 11.875000000000 4.225002288818 224 224 224
16.453125000000 11.875000000000 4.308002471924 225 225 225
16.453125000000 11.875000000000 4.282001495361 227 227 227
16.453125000000 11.875000000000 4.254001617432 227 227 227
16.453125000000 11.875000000000 4.227001190186 232 232 232
16.453125000000 11.875000000000 4.201000213623 230 230 230
16.453125000000 11.875000000000 4.175003051758 227 227 227
15.953125000000 12.187500000000 4.331001281738 142 142 142
15.984375000000 12.187500000000 4.304000854492 205 205 205
15.953125000000 12.187500000000 4.273002624512 230 230 230
15.953125000000 12.187500000000 4.244003295898 227 227 227
16.390625000000 12.187500000000 4.312000274658 240 240 240
16.421875000000 12.187500000000 4.294002532959 232 232 232
16.437500000000 12.187500000000 4.269001007080 217 217 217
16.421875000000 12.187500000000 4.240001678467 234 234 234
16.421875000000 12.187500000000 4.215000152588 221 221 221
16.421875000000 12.187500000000 4.188003540039 228 228 228
16.484375000000 12.187500000000 4.170001983643 111 111 111
15.984375000000 12.515625000000 4.325000762939 199 199 199
15.984375000000 12.515625000000 4.295001983643 219 219 219
15.984375000000 12.515625000000 4.267002105713 226 226 226
16.281250000000 12.500000000000 4.300003051758 244 244 244
16.421875000000 12.500000000000 4.306003570557 224 224 224
16.421875000000 12.500000000000 4.279003143311 227 227 227
16.421875000000 12.500000000000 4.253002166748 225 225 225
16.421875000000 12.515625000000 4.227001190186 221 221 221
16.421875000000 12.500000000000 4.198001861572 228 228 228
16.437500000000 12.500000000000 4.177001953125 168 168 168
16.015625000000 12.828125000000 4.342002868652 99 99 99
16.046875000000 12.812500000000 4.317001342773 206 206 206
16.046875000000 12.828125000000 4.288002014160 224 224 224
16.171875000000 12.828125000000 4.287002563477 233 233 233
16.421875000000 12.828125000000 4.314002990723 230 230 230
16.406250000000 12.843750000000 4.285003662109 235 235 235
16.421875000000 12.828125000000 4.261001586914 228 228 228
16.421875000000 12.828125000000 4.234001159668 230 230 230
16.406250000000 12.843750000000 4.205001831055 234 234 234
16.421875000000 12.828125000000 4.186000823975 175 175 175
16.078125000000 13.156250000000 4.337001800537 185 185 185
16.078125000000 13.156250000000 4.308002471924 221 221 221
16.109375000000 13.156250000000 4.289001464844 230 230 230
16.390625000000 13.156250000000 4.321002960205 223 223 223
16.390625000000 13.156250000000 4.294002532959 227 227 227
16.390625000000 13.156250000000 4.268001556396 223 223 223
16.390625000000 13.156250000000 4.241001129150 229 229 229
16.390625000000 13.156250000000 4.213001251221 228 228 228
16.390625000000 13.156250000000 4.190002441406 189 189 189
16.140625000000 13.468750000000 4.335002899170 196 196 196
16.109375000000 13.468750000000 4.305000305176 224 224 224
16.328125000000 13.468750000000 4.326000213623 222 222 222
16.375000000000 13.468750000000 4.306003570557 222 222 222
16.375000000000 13.468750000000 4.278003692627 227 227 227
16.375000000000 13.468750000000 4.251003265381 228 228 228
16.375000000000 13.468750000000 4.226001739502 226 226 226
16.359375000000 13.468750000000 4.196002960205 219 219 219
16.171875000000 13.781250000000 4.333000183105 192 192 192
16.296875000000 13.781250000000 4.330001831055 223 223 223
16.359375000000 13.781250000000 4.317001342773 227 227 227
16.359375000000 13.781250000000 4.290000915527 233 233 233
16.359375000000 13.781250000000 4.263000488281 228 228 228
16.359375000000 13.781250000000 4.238002777100 228 228 228
16.359375000000 13.781250000000 4.210002899170 221 221 221
16.203125000000 14.093750000000 4.353000640869 130 130 130
16.218750000000 14.093750000000 4.329002380371 217 217 217
16.359375000000 14.093750000000 4.329002380371 223 223 223
16.359375000000 14.093750000000 4.302001953125 234 234 234
16.328125000000 14.093750000000 4.274002075195 230 230 230
16.359375000000 14.093750000000 4.249000549316 226 226 226
16.359375000000 14.093750000000 4.221000671387 230 230 230
16.375000000000 14.093750000000 4.202003479004 76 76 76
16.281250000000 14.406250000000 4.355003356934 185 185 185
16.328125000000 14.406250000000 4.341003417969 221 221 221
16.328125000000 14.406250000000 4.313003540039 220 220 220
16.328125000000 14.421875000000 4.285003662109 234 234 234
16.328125000000 14.406250000000 4.260002136230 219 219 219
16.328125000000 14.406250000000 4.233001708984 231 231 231
16.359375000000 14.406250000000 4.212001800537 149 149 149
16.296875000000 14.718750000000 4.345001220703 217 217 217
16.296875000000 14.718750000000 4.318000793457 230 230 230
16.281250000000 14.718750000000 4.288002014160 234 234 234
16.296875000000 14.734375000000 4.263000488281 230 230 230
16.281250000000 14.718750000000 4.234001159668 235 235 235
16.296875000000 14.718750000000 4.211002349854 101 101 101
15.609375000000 9.890625000000 4.315002441406 96 96 96
15.609375000000 9.890625000000 4.282001495361 152 152 152
15.671875000000 9.859375000000 4.256999969482 145 145 145
15.656250000000 9.859375000000 4.219001770020 141 141 141
15.656250000000 9.859375000000 4.184001922607 127 127 127
15.656250000000 9.859375000000 4.147003173828 136 136 136
15.640625000000 9.875000000000 4.109001159668 130 130 130
15.609375000000 9.890625000000 4.064002990723 60 60 60
15.671875000000 10.156250000000 4.279003143311 149 149 149
15.671875000000 10.156250000000 4.244003295898 153 153 153
15.671875000000 10.156250000000 4.206001281738 151 151 151
15.671875000000 10.156250000000 4.171001434326 151 151 151
15.671875000000 10.156250000000 4.134002685547 149 149 149
15.734375000000 10.437500000000 4.278003692627 163 163 163
15.734375000000 10.437500000000 4.243000030518 161 161 161
15.750000000000 10.437500000000 4.209003448486 158 158 158
15.734375000000 10.437500000000 4.172000885010 156 156 156
15.734375000000 10.437500000000 4.136001586914 158 158 158
16.609375000000 9.968750000000 4.313003540039 149 149 149
16.640625000000 9.937500000000 4.295001983643 155 155 155
16.656250000000 9.937500000000 4.267002105713 155 155 155
16.656250000000 9.937500000000 4.237003326416 155 155 155
16.656250000000 9.937500000000 4.207000732422 154 154 154
16.671875000000 9.937500000000 4.179000854492 155 155 155
16.640625000000 9.937500000000 4.147003173828 155 155 155
16.656250000000 9.937500000000 4.118000030518 154 154 154
16.656250000000 9.937500000000 4.088001251221 161 161 161
15.984375000000 10.593750000000 4.359001159668 128 128 128
16.078125000000 10.562500000000 4.350002288818 129 129 129
16.234375000000 10.484375000000 4.349002838135 133 133 133
16.296875000000 10.437500000000 4.340000152588 157 157 157
16.328125000000 10.421875000000 4.316001892090 166 166 166
16.328125000000 10.437500000000 4.282001495361 164 164 164
16.328125000000 10.406250000000 4.255001068115 163 163 163
16.546875000000 10.312500000000 4.284000396729 147 147 147
16.546875000000 10.312500000000 4.251003265381 154 154 154
16.546875000000 10.312500000000 4.221000671387 153 153 153
16.546875000000 10.312500000000 4.191001892090 150 150 150
16.546875000000 10.296875000000 4.161003112793 152 152 152
16.546875000000 10.312500000000 4.131999969482 150 150 150
16.390625000000 10.406250000000 4.044002532959 162 162 162
16.328125000000 10.437500000000 3.994003295898 166 166 166
16.328125000000 10.421875000000 3.963001251221 167 167 167
16.328125000000 10.421875000000 3.931003570557 167 167 167
16.328125000000 10.421875000000 3.897003173828 168 168 168
16.328125000000 10.421875000000 3.865001678467 165 165 165
16.328125000000 10.437500000000 3.830001831055 163 163 163
16.328125000000 10.406250000000 3.802001953125 164 164 164
16.328125000000 10.437500000000 3.763999938965 166 166 166
16.328125000000 10.437500000000 3.729000091553 167 167 167
16.328125000000 10.437500000000 3.697002410889 165 165 165
16.328125000000 10.421875000000 3.665000915527 165 165 165
16.296875000000 10.437500000000 3.625000000000 165 165 165
16.156250000000 10.531250000000 3.524002075195 127 127 127
16.140625000000 10.531250000000 3.484001159668 135 135 135
16.156250000000 10.531250000000 3.453002929688 132 132 132
16.156250000000 10.531250000000 3.415000915527 142 142 142
16.156250000000 10.531250000000 3.381000518799 135 135 135
16.140625000000 10.531250000000 3.341003417969 139 139 139
15.828125000000 11.015625000000 4.304000854492 150 150 150
15.859375000000 11.000000000000 4.274002075195 154 154 154
16.328125000000 10.750000000000 4.360000610352 160 160 160
16.328125000000 10.750000000000 4.333000183105 172 172 172
16.328125000000 10.734375000000 4.302001953125 175 175 175
16.421875000000 10.671875000000 4.299003601074 153 153 153
16.453125000000 10.656250000000 4.275001525879 162 162 162
16.453125000000 10.656250000000 4.246002197266 162 162 162
16.453125000000 10.656250000000 4.215000152588 159 159 159
16.453125000000 10.656250000000 4.184001922607 161 161 161
16.453125000000 10.656250000000 4.151000976563 158 158 158
16.359375000000 10.703125000000 4.097000122070 165 165 165
16.328125000000 10.718750000000 4.051002502441 166 166 166
16.328125000000 10.734375000000 4.016002655029 169 169 169
16.328125000000 10.734375000000 3.985000610352 167 167 167
16.328125000000 10.734375000000 3.952003479004 166 166 166
16.328125000000 10.718750000000 3.922000885010 166 166 166
16.328125000000 10.734375000000 3.888000488281 166 166 166
16.328125000000 10.734375000000 3.854000091553 167 167 167
16.328125000000 10.734375000000 3.822002410889 167 167 167
16.328125000000 10.734375000000 3.788002014160 166 166 166
16.328125000000 10.734375000000 3.754001617432 167 167 167
16.328125000000 10.718750000000 3.725002288818 158 158 158
16.328125000000 10.718750000000 3.690002441406 166 166 166
16.328125000000 10.718750000000 3.658000946045 168 168 168
15.859375000000 11.312500000000 4.297000885010 193 193 193
15.859375000000 11.312500000000 4.265003204346 170 170 170
15.890625000000 11.312500000000 4.235000610352 168 168 168
15.890625000000 11.312500000000 4.201000213623 172 172 172
16.390625000000 11.000000000000 4.309001922607 100 100 100
16.453125000000 10.968750000000 4.294002532959 158 158 158
16.453125000000 10.968750000000 4.262001037598 157 157 157
16.453125000000 10.968750000000 4.231002807617 154 154 154
16.453125000000 10.968750000000 4.201000213623 156 156 156
16.453125000000 10.968750000000 4.171001434326 155 155 155
16.390625000000 11.015625000000 4.119003295898 0 0 0
15.828125000000 11.343750000000 4.150001525879 162 162 162
15.890625000000 11.625000000000 4.317001342773 139 139 139
15.890625000000 11.625000000000 4.288002014160 212 212 212
15.906250000000 11.609375000000 4.254001617432 223 223 223
15.890625000000 11.625000000000 4.217002868652 223 223 223
15.906250000000 11.609375000000 4.185001373291 216 216 216
16.453125000000 11.296875000000 4.307003021240 198 198 198
16.453125000000 11.296875000000 4.277000427246 220 220 220
16.453125000000 11.296875000000 4.246002197266 220 220 220
16.453125000000 11.296875000000 4.215000152588 220 220 220
16.453125000000 11.296875000000 4.185001373291 220 220 220
16.453125000000 11.296875000000 4.155002593994 174 174 174
15.921875000000 11.906250000000 4.312000274658 185 185 185
15.921875000000 11.906250000000 4.275001525879 218 218 218
15.921875000000 11.906250000000 4.243000030518 221 221 221
15.921875000000 11.906250000000 4.209003448486 222 222 222
16.359375000000 11.656250000000 4.296001434326 227 227 227
16.453125000000 11.625000000000 4.290000915527 216 216 216
16.453125000000 11.609375000000 4.260002136230 219 219 219
16.453125000000 11.625000000000 4.228000640869 222 222 222
16.453125000000 11.625000000000 4.197002410889 222 222 222
16.453125000000 11.609375000000 4.168003082275 215 215 215
15.921875000000 12.218750000000 4.329002380371 107 107 107
15.953125000000 12.218750000000 4.302001953125 200 200 200
15.953125000000 12.218750000000 4.268001556396 204 204 204
15.953125000000 12.218750000000 4.235000610352 202 202 202
15.984375000000 12.203125000000 4.204002380371 206 206 206
16.421875000000 11.937500000000 4.303001403809 219 219 219
16.421875000000 11.937500000000 4.272003173828 219 219 219
16.453125000000 11.937500000000 4.243000030518 220 220 220
16.421875000000 11.937500000000 4.210002899170 221 221 221
16.421875000000 11.937500000000 4.179000854492 219 219 219
15.984375000000 12.515625000000 4.327003479004 173 173 173
15.984375000000 12.500000000000 4.296001434326 214 214 214
15.984375000000 12.500000000000 4.261001586914 222 222 222
15.984375000000 12.500000000000 4.230003356934 223 223 223
16.437500000000 12.265625000000 4.317001342773 219 219 219
16.421875000000 12.250000000000 4.285003662109 220 220 220
16.453125000000 12.250000000000 4.256999969482 219 219 219
16.453125000000 12.250000000000 4.226001739502 215 215 215
16.453125000000 12.250000000000 4.195003509521 220 220 220
16.421875000000 12.250000000000 4.161003112793 124 124 124
16.015625000000 12.796875000000 4.324001312256 193 193 193
16.015625000000 12.796875000000 4.290000915527 222 222 222
16.015625000000 12.796875000000 4.256999969482 221 221 221
16.296875000000 12.640625000000 4.298000335693 224 224 224
16.421875000000 12.562500000000 4.302001953125 219 219 219
16.421875000000 12.562500000000 4.270999908447 219 219 219
16.421875000000 12.562500000000 4.241001129150 218 218 218
16.421875000000 12.562500000000 4.209003448486 220 220 220
16.421875000000 12.562500000000 4.182003021240 186 186 186
16.015625000000 13.109375000000 4.340000152588 33 33 33
16.046875000000 13.093750000000 4.318000793457 195 195 195
16.046875000000 13.093750000000 4.285003662109 222 222 222
16.109375000000 13.046875000000 4.270000457764 222 222 222
16.390625000000 12.906250000000 4.312000274658 221 221 221
16.390625000000 12.906250000000 4.281002044678 220 220 220
16.406250000000 12.906250000000 4.252002716064 219 219 219
16.406250000000 12.906250000000 4.220001220703 219 219 219
16.390625000000 12.906250000000 4.188003540039 207 207 207
16.109375000000 13.375000000000 4.341003417969 142 142 142
16.109375000000 13.375000000000 4.311000823975 204 204 204
16.109375000000 13.375000000000 4.279003143311 218 218 218
16.375000000000 13.218750000000 4.320003509521 213 213 213
16.375000000000 13.218750000000 4.289001464844 218 218 218
16.375000000000 13.218750000000 4.258003234863 220 220 220
16.390625000000 13.218750000000 4.228000640869 217 217 217
16.390625000000 13.218750000000 4.197002410889 219 219 219
16.140625000000 13.687500000000 4.337001800537 178 178 178
16.140625000000 13.671875000000 4.305000305176 220 220 220
16.359375000000 13.562500000000 4.328002929688 215 215 215
16.359375000000 13.546875000000 4.300003051758 221 221 221
16.359375000000 13.562500000000 4.268001556396 221 221 221
16.359375000000 13.562500000000 4.237003326416 221 221 221
16.359375000000 13.562500000000 4.205001831055 218 218 218
16.171875000000 13.968750000000 4.332000732422 193 193 193
16.265625000000 13.921875000000 4.323001861572 214 214 214
16.328125000000 13.875000000000 4.315002441406 221 221 221
16.343750000000 13.875000000000 4.285003662109 222 222 222
16.328125000000 13.875000000000 4.252002716064 222 222 222
16.328125000000 13.875000000000 4.221000671387 221 221 221
16.312500000000 13.875000000000 4.184001922607 106 106 106
16.171875000000 14.265625000000 4.357002258301 20 20 20
16.234375000000 14.234375000000 4.341003417969 182 182 182
16.328125000000 14.187500000000 4.331001281738 212 212 212
16.328125000000 14.187500000000 4.303001403809 222 222 222
16.328125000000 14.187500000000 4.272003173828 222 222 222
16.328125000000 14.187500000000 4.238002777100 222 222 222
16.328125000000 14.187500000000 4.210002899170 188 188 188
16.234375000000 14.562500000000 4.355003356934 160 160 160
16.328125000000 14.515625000000 4.344001770020 202 202 202
16.328125000000 14.500000000000 4.316001892090 220 220 220
16.328125000000 14.500000000000 4.287002563477 221 221 221
16.328125000000 14.500000000000 4.254001617432 221 221 221
16.328125000000 14.500000000000 4.222000122070 212 212 212
16.265625000000 14.875000000000 4.532001495361 67 67 67
16.296875000000 14.843750000000 4.508003234863 156 156 156
16.296875000000 14.843750000000 4.477001190186 167 167 167
16.296875000000 14.843750000000 4.447002410889 164 164 164
16.296875000000 14.843750000000 4.416000366211 169 169 169
16.296875000000 14.843750000000 4.386001586914 164 164 164
16.296875000000 14.843750000000 4.353000640869 182 182 182
16.296875000000 14.843750000000 4.322002410889 203 203 203
16.296875000000 14.843750000000 4.291000366211 210 210 210
16.265625000000 14.843750000000 4.256000518799 220 220 220
16.296875000000 14.843750000000 4.228000640869 203 203 203
16.671875000000 9.890625000000 4.079002380371 106 106 106
16.671875000000 9.890625000000 4.109001159668 154 154 154
16.671875000000 9.875000000000 4.136001586914 155 155 155
16.671875000000 9.890625000000 4.167003631592 157 157 157
16.671875000000 9.890625000000 4.196002960205 157 157 157
16.671875000000 9.875000000000 4.225002288818 157 157 157
16.671875000000 9.890625000000 4.255001068115 155 155 155
16.671875000000 9.875000000000 4.282001495361 155 155 155
16.671875000000 9.875000000000 4.311000823975 143 143 143
16.609375000000 9.843750000000 4.320003509521 69 69 69
16.578125000000 10.156250000000 4.123001098633 129 129 129
16.578125000000 10.140625000000 4.145000457764 156 156 156
16.578125000000 10.140625000000 4.175003051758 160 160 160
16.578125000000 10.140625000000 4.206001281738 168 168 168
16.578125000000 10.140625000000 4.236000061035 155 155 155
16.578125000000 10.156250000000 4.266002655029 162 162 162
16.578125000000 10.171875000000 4.303001403809 64 64 64
16.531250000000 10.453125000000 4.119003295898 94 94 94
16.515625000000 10.437500000000 4.143001556396 168 168 168
16.531250000000 10.453125000000 4.178001403809 171 171 171
16.515625000000 10.437500000000 4.206001281738 172 172 172
16.515625000000 10.437500000000 4.236000061035 174 174 174
16.515625000000 10.453125000000 4.265003204346 172 172 172
16.515625000000 10.453125000000 4.297000885010 141 141 141
15.640625000000 9.937500000000 4.086002349854 140 140 140
15.703125000000 9.968750000000 4.133003234863 158 158 158
15.703125000000 9.968750000000 4.168003082275 158 158 158
15.703125000000 9.968750000000 4.203002929688 149 149 149
15.703125000000 9.968750000000 4.240001678467 153 153 153
15.671875000000 9.953125000000 4.272003173828 142 142 142
15.640625000000 9.937500000000 4.300003051758 142 142 142
16.265625000000 10.593750000000 3.476001739502 123 123 123
16.265625000000 10.593750000000 3.511001586914 122 122 122
16.265625000000 10.593750000000 3.546001434326 121 121 121
16.265625000000 10.593750000000 3.582000732422 124 124 124
16.359375000000 10.656250000000 3.653003692627 147 147 147
16.359375000000 10.656250000000 3.686000823975 159 159 159
16.359375000000 10.656250000000 3.724002838135 141 141 141
16.359375000000 10.656250000000 3.755001068115 170 170 170
16.359375000000 10.656250000000 3.789001464844 177 177 177
16.359375000000 10.656250000000 3.817001342773 176 176 176
16.359375000000 10.656250000000 3.853000640869 168 168 168
16.359375000000 10.656250000000 3.886001586914 176 176 176
16.359375000000 10.656250000000 3.915000915527 166 166 166
16.359375000000 10.656250000000 3.951000213623 174 174 174
16.359375000000 10.656250000000 3.982002258301 180 180 180
16.359375000000 10.656250000000 4.013999938965 143 143 143
16.359375000000 10.656250000000 4.049003601074 130 130 130
16.421875000000 10.687500000000 4.099002838135 162 162 162
16.484375000000 10.750000000000 4.154003143311 164 164 164
16.484375000000 10.750000000000 4.184001922607 165 165 165
16.484375000000 10.750000000000 4.216003417969 168 168 168
16.484375000000 10.750000000000 4.246002197266 166 166 166
16.484375000000 10.734375000000 4.274002075195 166 166 166
16.484375000000 10.734375000000 4.302001953125 158 158 158
16.359375000000 10.671875000000 4.301002502441 178 178 178
16.359375000000 10.671875000000 4.330001831055 173 173 173
16.328125000000 10.656250000000 4.354000091553 153 153 153
16.187500000000 10.578125000000 4.350002288818 122 122 122
16.046875000000 10.484375000000 4.345001220703 119 119 119
15.703125000000 10.281250000000 4.296001434326 79 79 79
16.171875000000 10.875000000000 3.661003112793 182 182 182
16.140625000000 10.859375000000 3.691001892090 179 179 179
16.140625000000 10.859375000000 3.726001739502 173 173 173
16.140625000000 10.859375000000 3.760002136230 172 172 172
16.140625000000 10.859375000000 3.791000366211 173 173 173
16.140625000000 10.843750000000 3.821002960205 172 172 172
16.140625000000 10.843750000000 3.852001190186 170 170 170
16.140625000000 10.843750000000 3.883003234863 169 169 169
16.125000000000 10.843750000000 3.919002532959 171 171 171
16.109375000000 10.843750000000 3.950000762939 169 169 169
16.109375000000 10.843750000000 3.981002807617 169 169 169
16.453125000000 11.031250000000 4.126003265381 158 158 158
16.484375000000 11.062500000000 4.169002532959 160 160 160
16.484375000000 11.062500000000 4.197002410889 161 161 161
16.484375000000 11.062500000000 4.232002258301 158 158 158
16.484375000000 11.062500000000 4.261001586914 161 161 161
16.484375000000 11.062500000000 4.290000915527 160 160 160
16.421875000000 11.031250000000 4.304000854492 161 161 161
16.046875000000 10.812500000000 4.237003326416 172 172 172
16.046875000000 10.812500000000 4.270000457764 169 169 169
16.046875000000 10.812500000000 4.303001403809 170 170 170
16.046875000000 10.812500000000 4.331001281738 171 171 171
16.015625000000 10.781250000000 4.356002807617 149 149 149
16.484375000000 11.375000000000 4.155002593994 182 182 182
16.484375000000 11.375000000000 4.185001373291 223 223 223
16.484375000000 11.375000000000 4.216003417969 223 223 223
16.484375000000 11.375000000000 4.246002197266 222 222 222
16.484375000000 11.375000000000 4.276000976563 219 219 219
16.484375000000 11.375000000000 4.305000305176 200 200 200
15.859375000000 11.015625000000 4.167003631592 153 153 153
15.890625000000 11.031250000000 4.203002929688 165 165 165
15.890625000000 11.031250000000 4.237003326416 152 152 152
15.890625000000 11.031250000000 4.270999908447 154 154 154
15.890625000000 11.031250000000 4.305000305176 145 145 145
16.484375000000 11.703125000000 4.168003082275 216 216 216
16.468750000000 11.687500000000 4.198001861572 224 224 224
16.468750000000 11.687500000000 4.228000640869 224 224 224
16.468750000000 11.687500000000 4.260002136230 223 223 223
16.468750000000 11.687500000000 4.289001464844 219 219 219
15.890625000000 11.359375000000 4.156002044678 164 164 164
15.890625000000 11.359375000000 4.192001342773 219 219 219
15.921875000000 11.375000000000 4.227001190186 209 209 209
15.890625000000 11.359375000000 4.259002685547 217 217 217
15.921875000000 11.375000000000 4.294002532959 205 205 205
16.453125000000 12.000000000000 4.180000305176 223 223 223
16.453125000000 12.000000000000 4.211002349854 225 225 225
16.484375000000 12.015625000000 4.241001129150 223 223 223
16.453125000000 12.000000000000 4.270000457764 224 224 224
16.484375000000 12.015625000000 4.302001953125 225 225 225
15.890625000000 11.671875000000 4.174003601074 211 211 211
15.937500000000 11.703125000000 4.219001770020 219 219 219
15.921875000000 11.687500000000 4.250000000000 224 224 224
15.937500000000 11.703125000000 4.285003662109 213 213 213
15.906250000000 11.687500000000 4.315002441406 173 173 173
16.453125000000 12.312500000000 4.161003112793 106 106 106
16.453125000000 12.312500000000 4.192001342773 228 228 228
16.453125000000 12.312500000000 4.222000122070 209 209 209
16.453125000000 12.312500000000 4.253002166748 224 224 224
16.453125000000 12.328125000000 4.282001495361 217 217 217
16.453125000000 12.328125000000 4.314002990723 221 221 221
15.984375000000 12.046875000000 4.212001800537 223 223 223
15.984375000000 12.046875000000 4.245002746582 221 221 221
15.953125000000 12.031250000000 4.278003692627 219 219 219
15.953125000000 12.031250000000 4.311000823975 195 195 195
16.453125000000 12.625000000000 4.176002502441 187 187 187
16.453125000000 12.625000000000 4.204002380371 225 225 225
16.453125000000 12.625000000000 4.237003326416 221 221 221
16.453125000000 12.625000000000 4.266002655029 225 225 225
16.453125000000 12.625000000000 4.297000885010 223 223 223
16.390625000000 12.593750000000 4.311000823975 239 239 239
16.015625000000 12.375000000000 4.240001678467 219 219 219
15.984375000000 12.375000000000 4.270999908447 220 220 220
16.015625000000 12.375000000000 4.306003570557 195 195 195
15.984375000000 12.359375000000 4.335002899170 21 21 21
16.421875000000 12.937500000000 4.187000274658 213 213 213
16.421875000000 12.937500000000 4.219001770020 224 224 224
16.421875000000 12.937500000000 4.248001098633 226 226 226
16.406250000000 12.937500000000 4.278003692627 227 227 227
16.421875000000 12.937500000000 4.309001922607 227 227 227
16.078125000000 12.750000000000 4.247001647949 220 220 220
16.046875000000 12.718750000000 4.268001556396 221 221 221
16.046875000000 12.718750000000 4.301002502441 212 212 212
16.046875000000 12.718750000000 4.333000183105 148 148 148
16.406250000000 13.250000000000 4.199001312256 223 223 223
16.406250000000 13.250000000000 4.230003356934 222 222 222
16.406250000000 13.250000000000 4.260002136230 223 223 223
16.390625000000 13.250000000000 4.290000915527 221 221 221
16.421875000000 13.265625000000 4.322002410889 219 219 219
16.078125000000 13.062500000000 4.267002105713 221 221 221
16.078125000000 13.062500000000 4.297000885010 221 221 221
16.078125000000 13.062500000000 4.329002380371 183 183 183
16.390625000000 13.562500000000 4.207000732422 224 224 224
16.359375000000 13.562500000000 4.237003326416 228 228 228
16.359375000000 13.562500000000 4.268001556396 228 228 228
16.359375000000 13.562500000000 4.299003601074 228 228 228
16.359375000000 13.546875000000 4.325000762939 220 220 220
16.140625000000 13.406250000000 4.293003082275 216 216 216
16.125000000000 13.406250000000 4.326000213623 191 191 191
16.359375000000 13.875000000000 4.184001922607 65 65 65
16.359375000000 13.875000000000 4.217002868652 226 226 226
16.359375000000 13.875000000000 4.248001098633 228 228 228
16.359375000000 13.875000000000 4.280002593994 228 228 228
16.359375000000 13.875000000000 4.311000823975 226 226 226
16.312500000000 13.843750000000 4.326000213623 218 218 218
16.187500000000 13.765625000000 4.323001861572 196 196 196
16.156250000000 13.750000000000 4.348003387451 32 32 32
16.359375000000 14.187500000000 4.202003479004 177 177 177
16.359375000000 14.187500000000 4.233001708984 226 226 226
16.359375000000 14.187500000000 4.263000488281 225 225 225
16.359375000000 14.187500000000 4.294002532959 226 226 226
16.359375000000 14.187500000000 4.326000213623 219 219 219
16.234375000000 14.125000000000 4.322002410889 204 204 204
16.203125000000 14.109375000000 4.347000122070 128 128 128
16.375000000000 14.500000000000 4.220001220703 217 217 217
16.359375000000 14.500000000000 4.249000549316 224 224 224
16.359375000000 14.500000000000 4.279003143311 227 227 227
16.359375000000 14.500000000000 4.311000823975 226 226 226
16.359375000000 14.515625000000 4.343002319336 211 211 211
16.265625000000 14.468750000000 4.351001739502 172 172 172
16.296875000000 14.796875000000 4.224002838135 217 217 217
16.296875000000 14.796875000000 4.255001068115 223 223 223
16.296875000000 14.796875000000 4.286003112793 224 224 224
16.296875000000 14.796875000000 4.318000793457 221 221 221
16.296875000000 14.796875000000 4.349002838135 203 203 203
16.328125000000 14.812500000000 4.381999969482 117 117 117
16.328125000000 14.812500000000 4.413002014160 125 125 125
16.328125000000 14.812500000000 4.446002960205 132 132 132
16.328125000000 14.812500000000 4.478000640869 125 125 125
16.359375000000 14.828125000000 4.509002685547 27 27 27
16.312500000000 14.984375000000 4.242000579834 203 203 203
16.312500000000 14.984375000000 4.273002624512 226 226 226
16.312500000000 14.984375000000 4.305000305176 226 226 226
16.312500000000 14.984375000000 4.336002349854 224 224 224
16.312500000000 14.984375000000 4.368000030518 216 216 216
16.312500000000 14.984375000000 4.395999908447 134 134 134
16.312500000000 14.984375000000 4.426002502441 135 135 135
16.312500000000 14.984375000000 4.458000183105 119 119 119
16.312500000000 14.984375000000 4.487003326416 99 99 99
16.281250000000 14.968750000000 4.513999938965 90 90 90
16.250000000000 14.953125000000 4.537002563477 76 76 76
16.359375000000 14.687500000000 4.236000061035 193 193 193
16.359375000000 14.687500000000 4.267002105713 226 226 226
16.359375000000 14.687500000000 4.295001983643 226 226 226
16.359375000000 14.687500000000 4.327003479004 228 228 228
16.359375000000 14.687500000000 4.359001159668 213 213 213
16.296875000000 14.656250000000 4.374000549316 169 169 169
16.359375000000 14.390625000000 4.220001220703 128 128 128
16.359375000000 14.390625000000 4.251003265381 226 226 226
16.328125000000 14.375000000000 4.281002044678 225 225 225
16.328125000000 14.375000000000 4.311000823975 227 227 227
16.328125000000 14.375000000000 4.341003417969 223 223 223
16.328125000000 14.375000000000 4.363002777100 190 190 190
16.234375000000 14.312500000000 4.374000549316 133 133 133
16.359375000000 14.062500000000 4.237003326416 224 224 224
16.359375000000 14.062500000000 4.267002105713 227 227 227
16.359375000000 14.062500000000 4.298000335693 226 226 226
16.359375000000 14.062500000000 4.328002929688 221 221 221
16.328125000000 14.062500000000 4.351001739502 215 215 215
16.187500000000 13.968750000000 4.347000122070 203 203 203
16.359375000000 13.781250000000 4.225002288818 220 220 220
16.359375000000 13.765625000000 4.255001068115 225 225 225
16.359375000000 13.765625000000 4.286003112793 223 223 223
16.359375000000 13.781250000000 4.317001342773 222 222 222
16.359375000000 13.765625000000 4.345001220703 222 222 222
16.140625000000 13.640625000000 4.321002960205 222 222 222
16.140625000000 13.640625000000 4.352001190186 184 184 184
16.390625000000 13.468750000000 4.212001800537 209 209 209
16.390625000000 13.468750000000 4.242000579834 222 222 222
16.390625000000 13.468750000000 4.273002624512 225 225 225
16.390625000000 13.468750000000 4.305000305176 219 219 219
16.390625000000 13.468750000000 4.334003448486 226 226 226
16.156250000000 13.328125000000 4.302001953125 222 222 222
16.109375000000 13.312500000000 4.323001861572 216 216 216
16.093750000000 13.296875000000 4.355003356934 177 177 177
16.390625000000 13.156250000000 4.201000213623 171 171 171
16.390625000000 13.156250000000 4.229000091553 224 224 224
16.390625000000 13.156250000000 4.262001037598 227 227 227
16.390625000000 13.156250000000 4.292003631592 223 223 223
16.390625000000 13.156250000000 4.323001861572 224 224 224
16.296875000000 13.093750000000 4.329002380371 223 223 223
16.046875000000 12.953125000000 4.293003082275 223 223 223
16.046875000000 12.953125000000 4.325000762939 209 209 209
16.046875000000 12.953125000000 4.357002258301 136 136 136
16.421875000000 12.875000000000 4.192001342773 120 120 120
16.421875000000 12.859375000000 4.219001770020 229 229 229
16.421875000000 12.859375000000 4.249000549316 228 228 228
16.421875000000 12.859375000000 4.281002044678 227 227 227
16.421875000000 12.859375000000 4.311000823975 229 229 229
16.390625000000 12.843750000000 4.337001800537 230 230 230
16.015625000000 12.625000000000 4.265003204346 220 220 220
16.015625000000 12.625000000000 4.298000335693 222 222 222
15.984375000000 12.625000000000 4.329002380371 196 196 196
16.421875000000 12.562500000000 4.209003448486 225 225 225
16.421875000000 12.562500000000 4.240001678467 222 222 222
16.421875000000 12.562500000000 4.270999908447 224 224 224
16.421875000000 12.562500000000 4.299003601074 224 224 224
16.421875000000 12.562500000000 4.331001281738 222 222 222
16.046875000000 12.328125000000 4.256999969482 135 135 135
16.000000000000 12.296875000000 4.276000976563 127 127 127
15.968750000000 12.281250000000 4.303001403809 185 185 185
15.968750000000 12.281250000000 4.335002899170 191 191 191
16.453125000000 12.250000000000 4.198001861572 221 221 221
16.453125000000 12.250000000000 4.229000091553 220 220 220
16.453125000000 12.250000000000 4.259002685547 224 224 224
16.453125000000 12.250000000000 4.290000915527 222 222 222
16.453125000000 12.250000000000 4.317001342773 227 227 227
15.937500000000 11.953125000000 4.211002349854 208 208 208
15.937500000000 11.953125000000 4.243000030518 224 224 224
15.937500000000 11.953125000000 4.276000976563 223 223 223
15.937500000000 11.953125000000 4.311000823975 201 201 201
15.937500000000 11.953125000000 4.344001770020 131 131 131
16.453125000000 11.937500000000 4.184001922607 193 193 193
16.453125000000 11.937500000000 4.214000701904 228 228 228
16.453125000000 11.937500000000 4.244003295898 227 227 227
16.453125000000 11.937500000000 4.276000976563 223 223 223
16.453125000000 11.937500000000 4.306003570557 226 226 226
16.453125000000 11.937500000000 4.333000183105 219 219 219
15.906250000000 11.625000000000 4.216003417969 222 222 222
15.906250000000 11.625000000000 4.249000549316 224 224 224
15.921875000000 11.625000000000 4.286003112793 222 222 222
15.906250000000 11.625000000000 4.318000793457 199 199 199
16.484375000000 11.625000000000 4.173000335693 129 129 129
16.484375000000 11.625000000000 4.201000213623 226 226 226
16.484375000000 11.625000000000 4.232002258301 226 226 226
16.453125000000 11.625000000000 4.260002136230 225 225 225
16.453125000000 11.625000000000 4.291000366211 225 225 225
16.453125000000 11.625000000000 4.322002410889 218 218 218
15.875000000000 11.281250000000 4.187000274658 197 197 197
15.921875000000 11.312500000000 4.233001708984 168 168 168
15.921875000000 11.312500000000 4.267002105713 171 171 171
15.875000000000 11.281250000000 4.291000366211 192 192 192
15.875000000000 11.281250000000 4.324001312256 172 172 172
16.484375000000 11.343750000000 4.188003540039 221 221 221
16.484375000000 11.343750000000 4.219001770020 226 226 226
16.453125000000 11.328125000000 4.248001098633 225 225 225
16.453125000000 11.328125000000 4.278003692627 224 224 224
16.484375000000 11.343750000000 4.310001373291 220 220 220
16.421875000000 11.281250000000 4.322002410889 183 183 183
15.843750000000 10.953125000000 4.199001312256 159 159 159
15.859375000000 10.968750000000 4.234001159668 161 161 161
15.843750000000 10.953125000000 4.266002655029 159 159 159
15.843750000000 10.953125000000 4.301002502441 157 157 157
15.828125000000 10.937500000000 4.329002380371 87 87 87
16.234375000000 10.875000000000 3.664001464844 181 181 181
16.234375000000 10.875000000000 3.698001861572 190 190 190
16.234375000000 10.875000000000 3.730003356934 179 179 179
16.234375000000 10.875000000000 3.763999938965 179 179 179
16.234375000000 10.875000000000 3.791000366211 178 178 178
16.234375000000 10.875000000000 3.824001312256 178 178 178
16.203125000000 10.859375000000 3.855003356934 175 175 175
16.203125000000 10.859375000000 3.887001037598 173 173 173
16.203125000000 10.859375000000 3.921001434326 171 171 171
16.203125000000 10.843750000000 3.950000762939 169 169 169
16.203125000000 10.843750000000 3.982002258301 168 168 168
16.203125000000 10.843750000000 4.016002655029 168 168 168
16.203125000000 10.859375000000 4.052001953125 169 169 169
16.484375000000 11.015625000000 4.173000335693 159 159 159
16.484375000000 11.015625000000 4.202003479004 164 164 164
16.484375000000 11.015625000000 4.234001159668 159 159 159
16.484375000000 11.031250000000 4.266002655029 163 163 163
16.484375000000 11.015625000000 4.295001983643 162 162 162
16.484375000000 11.015625000000 4.325000762939 158 158 158
16.171875000000 10.843750000000 4.268001556396 168 168 168
16.171875000000 10.812500000000 4.296001434326 171 171 171
16.171875000000 10.812500000000 4.328002929688 171 171 171
16.140625000000 10.812500000000 4.358001708984 175 175 175
16.093750000000 10.796875000000 4.381000518799 147 147 147
15.984375000000 10.734375000000 4.387001037598 51 51 51
16.296875000000 10.593750000000 3.635002136230 190 190 190
16.328125000000 10.625000000000 3.686000823975 166 166 166
16.359375000000 10.625000000000 3.727001190186 140 140 140
16.328125000000 10.625000000000 3.754001617432 169 169 169
16.359375000000 10.625000000000 3.792003631592 174 174 174
