6.125000000000 7.187500000000 4.701019287109 196 196 196
6.125000000000 7.187500000000 4.781005859375 192 192 192
6.140625000000 7.187500000000 4.946014404297 179 179 179
6.140625000000 7.187500000000 5.028015136719 199 199 199
6.140625000000 7.187500000000 5.113006591797 176 176 176
6.031250000000 7.250000000000 3.653015136719 135 135 135
6.031250000000 7.250000000000 3.734008789063 211 211 211
6.031250000000 7.250000000000 3.815002441406 201 201 201
6.171875000000 7.250000000000 4.207000732422 165 165 165
6.171875000000 7.250000000000 4.286010742188 210 210 210
6.187500000000 7.250000000000 4.365997314453 210 210 210
6.171875000000 7.250000000000 4.449005126953 33 33 33
6.125000000000 7.250000000000 4.535003662109 94 94 94
6.140625000000 7.250000000000 4.615020751953 209 209 209
6.140625000000 7.250000000000 4.695007324219 198 198 198
6.140625000000 7.250000000000 4.778015136719 120 120 120
6.156250000000 7.312500000000 5.023010253906 198 198 198
6.156250000000 7.312500000000 5.106018066406 186 186 186
6.156250000000 7.312500000000 5.190002441406 175 175 175
6.187500000000 7.375000000000 4.364013671875 46 46 46
6.156250000000 7.375000000000 4.529998779297 176 176 176
6.156250000000 7.375000000000 4.611022949219 190 190 190
6.156250000000 7.375000000000 4.693023681641 188 188 188
6.171875000000 7.375000000000 5.102996826172 179 179 179
6.171875000000 7.375000000000 5.186004638672 182 182 182
6.187500000000 7.375000000000 5.268005371094 172 172 172
6.171875000000 7.500000000000 4.606018066406 184 184 184
6.140625000000 7.500000000000 5.106994628906 76 76 76
6.187500000000 7.500000000000 5.180023193359 126 126 126
6.640625000000 13.437500000000 4.339996337891 196 196 196
6.640625000000 13.437500000000 4.417022705078 210 210 210
6.625000000000 13.437500000000 4.881011962891 179 179 179
6.625000000000 13.437500000000 4.960021972656 222 222 222
6.625000000000 13.437500000000 5.039001464844 208 208 208
6.609375000000 13.562500000000 4.115020751953 88 88 88
6.625000000000 13.562500000000 4.190002441406 221 221 221
6.593750000000 13.562500000000 4.269012451172 22 22 22
6.625000000000 13.562500000000 4.341003417969 216 216 216
6.625000000000 13.562500000000 4.417999267578 204 204 204
6.625000000000 13.562500000000 4.494995117188 209 209 209
6.640625000000 13.562500000000 4.802001953125 88 88 88
6.625000000000 13.562500000000 4.881011962891 226 226 226
6.625000000000 13.562500000000 4.960021972656 224 224 224
6.625000000000 13.562500000000 5.040008544922 209 209 209
6.593750000000 13.687500000000 1.421997070313 198 198 198
6.484375000000 13.687500000000 3.589996337891 95 95 95
6.484375000000 13.687500000000 3.667022705078 224 224 224
6.484375000000 13.687500000000 3.744018554688 226 226 226
6.484375000000 13.687500000000 3.820007324219 215 215 215
6.609375000000 13.687500000000 4.039001464844 161 161 161
6.609375000000 13.687500000000 4.115020751953 219 219 219
6.609375000000 13.687500000000 4.191009521484 243 243 243
6.609375000000 13.687500000000 4.266998291016 229 229 229
6.609375000000 13.687500000000 4.342010498047 132 132 132
6.609375000000 13.687500000000 4.419006347656 214 214 214
6.609375000000 13.687500000000 4.497009277344 208 208 208
6.609375000000 13.687500000000 4.572998046875 204 204 204
6.625000000000 13.687500000000 4.804016113281 231 231 231
6.625000000000 13.687500000000 4.882019042969 225 225 225
6.625000000000 13.687500000000 4.962005615234 222 222 222
6.609375000000 13.750000000000 1.425018310547 191 191 191
6.468750000000 13.812500000000 3.436004638672 146 146 146
6.515625000000 13.812500000000 3.511993408203 182 182 182
6.468750000000 13.812500000000 3.589019775391 210 210 210
6.484375000000 13.812500000000 3.666015625000 205 205 205
6.500000000000 13.812500000000 3.742004394531 113 113 113
6.453125000000 13.812500000000 3.820007324219 241 241 241
6.468750000000 13.812500000000 3.897003173828 229 229 229
6.609375000000 13.812500000000 4.114013671875 212 212 212
6.593750000000 13.812500000000 4.191009521484 236 236 236
6.593750000000 13.812500000000 4.266998291016 235 235 235
6.609375000000 13.812500000000 4.341003417969 182 182 182
6.593750000000 13.812500000000 4.420013427734 177 177 177
6.609375000000 13.812500000000 4.494995117188 209 209 209
6.609375000000 13.812500000000 4.572998046875 207 207 207
6.609375000000 13.812500000000 4.651000976563 194 194 194
6.609375000000 13.812500000000 4.727020263672 223 223 223
6.609375000000 13.812500000000 4.805023193359 233 233 233
6.609375000000 13.812500000000 4.884002685547 233 233 233
6.750000000000 13.875000000000 1.464019775391 197 197 197
6.640625000000 13.875000000000 1.514007568359 171 171 171
6.468750000000 13.875000000000 3.279998779297 154 154 154
6.468750000000 13.875000000000 3.356994628906 191 191 191
6.468750000000 13.875000000000 3.434020996094 201 201 201
6.468750000000 13.875000000000 3.510009765625 214 214 214
6.468750000000 13.875000000000 3.587005615234 211 211 211
6.453125000000 13.875000000000 3.664001464844 172 172 172
6.515625000000 13.875000000000 3.739013671875 139 139 139
6.453125000000 13.875000000000 3.818023681641 215 215 215
6.453125000000 13.875000000000 3.895019531250 227 227 227
6.593750000000 13.875000000000 4.188995361328 219 219 219
6.593750000000 13.875000000000 4.265014648438 223 223 223
6.593750000000 13.875000000000 4.342010498047 224 224 224
6.593750000000 13.875000000000 4.420013427734 64 64 64
6.593750000000 13.875000000000 4.494995117188 198 198 198
6.609375000000 13.875000000000 4.571014404297 212 212 212
6.609375000000 13.875000000000 4.648010253906 223 223 223
6.609375000000 13.875000000000 4.726013183594 242 242 242
6.609375000000 13.875000000000 4.805023193359 250 250 250
6.625000000000 13.875000000000 4.880004882813 149 149 149
6.843750000000 14.000000000000 1.494018554688 150 150 150
6.765625000000 14.000000000000 1.548004150391 166 166 166
6.656250000000 14.000000000000 1.595001220703 157 157 157
6.671875000000 14.000000000000 1.680023193359 168 168 168
6.625000000000 14.000000000000 1.747009277344 159 159 159
6.625000000000 14.000000000000 1.828002929688 157 157 157
6.640625000000 14.000000000000 1.908996582031 167 167 167
6.625000000000 14.000000000000 1.984008789063 179 179 179
6.625000000000 14.000000000000 2.065002441406 167 167 167
6.625000000000 14.000000000000 2.143005371094 171 171 171
6.625000000000 14.000000000000 2.221008300781 161 161 161
6.625000000000 14.000000000000 2.299011230469 159 159 159
6.625000000000 14.000000000000 2.375000000000 160 160 160
6.625000000000 14.000000000000 2.451019287109 158 158 158
6.625000000000 14.000000000000 2.529022216797 164 164 164
6.625000000000 14.000000000000 2.604003906250 160 160 160
6.609375000000 14.000000000000 2.679016113281 162 162 162
6.609375000000 14.000000000000 2.755004882813 164 164 164
6.625000000000 14.000000000000 2.830993652344 164 164 164
6.625000000000 14.000000000000 2.907012939453 163 163 163
6.625000000000 14.000000000000 2.981994628906 157 157 157
6.640625000000 14.000000000000 3.058013916016 163 163 163
6.625000000000 14.000000000000 3.132995605469 168 168 168
6.625000000000 14.000000000000 3.208007812500 163 163 163
6.625000000000 14.000000000000 3.283020019531 167 167 167
6.609375000000 14.000000000000 3.358001708984 168 168 168
6.625000000000 14.000000000000 3.433013916016 174 174 174
6.625000000000 14.000000000000 3.507995605469 166 166 166
6.625000000000 14.000000000000 3.583007812500 165 165 165
6.625000000000 14.000000000000 3.657012939453 167 167 167
6.625000000000 14.000000000000 3.731994628906 168 168 168
6.625000000000 14.000000000000 3.807006835938 179 179 179
6.640625000000 14.000000000000 3.882019042969 169 169 169
6.625000000000 14.000000000000 3.957000732422 175 175 175
6.640625000000 14.000000000000 4.032012939453 163 163 163
6.640625000000 14.000000000000 4.108001708984 164 164 164
6.640625000000 14.000000000000 4.183013916016 168 168 168
6.671875000000 14.000000000000 4.255004882813 187 187 187
6.640625000000 14.000000000000 4.335021972656 173 173 173
6.625000000000 14.000000000000 4.412017822266 173 173 173
6.671875000000 14.000000000000 4.481994628906 186 186 186
6.625000000000 14.000000000000 4.566009521484 171 171 171
6.640625000000 14.000000000000 4.640014648438 177 177 177
6.625000000000 14.000000000000 4.720001220703 171 171 171
6.687500000000 14.000000000000 4.786010742188 189 189 189
6.656250000000 14.000000000000 4.871002197266 119 119 119
6.843750000000 14.062500000000 1.649017333984 122 122 122
6.453125000000 14.125000000000 3.276000976563 200 200 200
6.453125000000 14.125000000000 3.352996826172 218 218 218
6.437500000000 14.125000000000 3.430023193359 214 214 214
6.453125000000 14.125000000000 3.507019042969 201 201 201
6.578125000000 14.125000000000 3.580993652344 189 189 189
6.484375000000 14.125000000000 3.660003662109 210 210 210
6.593750000000 14.125000000000 3.731018066406 187 187 187
6.453125000000 14.125000000000 3.815002441406 198 198 198
6.437500000000 14.125000000000 3.893005371094 223 223 223
6.593750000000 14.125000000000 4.186004638672 139 139 139
6.593750000000 14.125000000000 4.263000488281 255 255 255
6.578125000000 14.125000000000 4.339996337891 255 255 255
6.593750000000 14.125000000000 4.415008544922 246 246 246
6.593750000000 14.125000000000 4.571014404297 248 248 248
6.593750000000 14.125000000000 4.648010253906 241 241 241
6.593750000000 14.125000000000 4.726013183594 239 239 239
6.593750000000 14.125000000000 4.805023193359 203 203 203
6.437500000000 14.187500000000 3.351013183594 65 65 65
6.453125000000 14.187500000000 3.429016113281 207 207 207
6.437500000000 14.187500000000 3.506011962891 216 216 216
6.437500000000 14.187500000000 3.583007812500 205 205 205
6.437500000000 14.187500000000 3.660003662109 146 146 146
6.484375000000 14.250000000000 3.735015869141 94 94 94
6.437500000000 14.250000000000 3.813995361328 205 205 205
6.437500000000 14.250000000000 3.891998291016 221 221 221
6.562500000000 14.250000000000 4.113006591797 62 62 62
6.593750000000 14.250000000000 4.184997558594 255 255 255
6.578125000000 14.250000000000 4.261993408203 255 255 255
6.578125000000 14.250000000000 4.339019775391 255 255 255
6.578125000000 14.250000000000 4.493011474609 243 243 243
6.578125000000 14.250000000000 4.571014404297 255 255 255
6.578125000000 14.250000000000 4.649993896484 249 249 249
6.578125000000 14.250000000000 4.727996826172 203 203 203
6.578125000000 14.250000000000 4.805999755859 201 201 201
6.578125000000 14.250000000000 4.882995605469 202 202 202
6.421875000000 14.312500000000 3.582000732422 184 184 184
6.421875000000 14.312500000000 3.658996582031 219 219 219
6.437500000000 14.312500000000 3.736022949219 209 209 209
6.421875000000 14.312500000000 3.813995361328 217 217 217
6.437500000000 14.312500000000 3.891021728516 123 123 123
6.578125000000 14.312500000000 4.110015869141 255 255 255
6.578125000000 14.312500000000 4.186004638672 255 255 255
6.578125000000 14.312500000000 4.261993408203 255 255 255
6.578125000000 14.312500000000 4.417022705078 244 244 244
6.578125000000 14.312500000000 4.494018554688 255 255 255
6.578125000000 14.312500000000 4.571014404297 253 253 253
6.562500000000 14.312500000000 4.652008056641 42 42 42
6.562500000000 14.312500000000 4.730010986328 81 81 81
6.562500000000 14.312500000000 4.809020996094 205 205 205
6.578125000000 14.312500000000 4.886016845703 205 205 205
6.562500000000 14.312500000000 4.967010498047 198 198 198
6.578125000000 14.437500000000 4.033020019531 112 112 112
6.562500000000 14.437500000000 4.110015869141 255 255 255
6.562500000000 14.437500000000 4.186004638672 255 255 255
6.531250000000 14.437500000000 4.266998291016 20 20 20
6.562500000000 14.437500000000 4.339996337891 211 211 211
6.562500000000 14.437500000000 4.417999267578 255 255 255
6.562500000000 14.437500000000 4.494018554688 255 255 255
6.578125000000 14.437500000000 4.570007324219 189 189 189
6.562500000000 14.437500000000 4.809020996094 163 163 163
6.562500000000 14.437500000000 4.886993408203 207 207 207
6.562500000000 14.437500000000 4.966003417969 206 206 206
6.562500000000 14.437500000000 5.048004150391 181 181 181
6.562500000000 14.562500000000 4.264007568359 127 127 127
6.562500000000 14.562500000000 4.341003417969 255 255 255
6.562500000000 14.562500000000 4.417999267578 255 255 255
6.562500000000 14.562500000000 4.494995117188 252 252 252
6.546875000000 14.562500000000 4.890014648438 189 189 189
6.562500000000 14.562500000000 4.968994140625 204 204 204
6.562500000000 14.562500000000 5.048004150391 204 204 204
6.593750000000 14.562500000000 5.121002197266 47 47 47
6.562500000000 14.687500000000 4.419006347656 199 199 199
6.562500000000 14.687500000000 4.968017578125 27 27 27
6.546875000000 14.625000000000 4.386016845703 141 141 141
6.546875000000 14.625000000000 4.930023193359 122 122 122
6.546875000000 14.562500000000 4.246002197266 124 124 124
6.546875000000 14.562500000000 4.380004882813 214 214 214
6.546875000000 14.562500000000 4.923004150391 200 200 200
6.546875000000 14.562500000000 5.059020996094 161 161 161
6.562500000000 14.437500000000 4.108001708984 202 202 202
6.546875000000 14.437500000000 4.378021240234 215 215 215
6.546875000000 14.437500000000 4.513000488281 200 200 200
6.546875000000 14.437500000000 4.783996582031 118 118 118
6.546875000000 14.437500000000 4.920013427734 193 193 193
6.531250000000 14.437500000000 5.061004638672 19 19 19
6.437500000000 14.375000000000 3.710021972656 130 130 130
6.562500000000 14.375000000000 4.108001708984 213 213 213
6.562500000000 14.375000000000 4.243011474609 193 193 193
6.562500000000 14.375000000000 4.377014160156 211 211 211
6.562500000000 14.375000000000 4.513000488281 214 214 214
6.546875000000 14.375000000000 4.785003662109 196 196 196
6.546875000000 14.375000000000 4.920013427734 197 197 197
6.421875000000 14.250000000000 3.576995849609 182 182 182
6.406250000000 14.250000000000 3.713012695313 210 210 210
6.421875000000 14.250000000000 3.848022460938 184 184 184
6.562500000000 14.250000000000 4.110015869141 212 212 212
6.562500000000 14.250000000000 4.244018554688 215 215 215
6.546875000000 14.250000000000 4.380004882813 113 113 113
6.578125000000 14.250000000000 4.513000488281 211 211 211
6.578125000000 14.250000000000 4.647003173828 102 102 102
6.562500000000 14.250000000000 4.783996582031 190 190 190
6.562500000000 14.250000000000 4.920013427734 128 128 128
6.437500000000 14.187500000000 3.313018798828 95 95 95
6.421875000000 14.187500000000 3.447998046875 200 200 200
6.437500000000 14.187500000000 3.583007812500 182 182 182
6.484375000000 14.187500000000 3.717010498047 60 60 60
6.421875000000 14.187500000000 3.854003906250 205 205 205
6.546875000000 14.187500000000 4.115997314453 154 154 154
6.562500000000 14.187500000000 4.249023437500 212 212 212
6.593750000000 14.187500000000 4.381011962891 43 43 43
6.562500000000 14.187500000000 4.518005371094 214 214 214
6.578125000000 14.187500000000 4.651000976563 208 208 208
6.562500000000 14.187500000000 4.789001464844 194 194 194
6.843750000000 14.062500000000 1.483001708984 64 64 64
6.750000000000 14.062500000000 1.601013183594 48 48 48
6.609375000000 14.062500000000 2.386993408203 14 14 14
6.609375000000 14.062500000000 2.520996093750 27 27 27
6.593750000000 14.062500000000 2.653015136719 50 50 50
6.593750000000 14.062500000000 2.787017822266 67 67 67
6.593750000000 14.062500000000 2.920013427734 75 75 75
6.593750000000 14.062500000000 3.053009033203 72 72 72
6.609375000000 14.062500000000 3.186004638672 80 80 80
6.484375000000 14.125000000000 3.318023681641 185 185 185
6.500000000000 14.062500000000 3.451995849609 172 172 172
6.546875000000 14.062500000000 3.585998535156 150 150 150
6.562500000000 14.062500000000 3.718994140625 142 142 142
6.515625000000 14.062500000000 3.854003906250 177 177 177
6.609375000000 14.062500000000 3.983001708984 98 98 98
6.593750000000 14.062500000000 4.117004394531 96 96 96
6.593750000000 14.062500000000 4.252014160156 192 192 192
6.593750000000 14.062500000000 4.386016845703 171 171 171
6.578125000000 14.062500000000 4.520996093750 186 186 186
6.578125000000 14.062500000000 4.654998779297 190 190 190
6.578125000000 14.062500000000 4.791015625000 172 172 172
6.781250000000 14.000000000000 1.477996826172 130 130 130
6.656250000000 14.000000000000 1.593017578125 124 124 124
6.640625000000 14.000000000000 1.725006103516 116 116 116
6.625000000000 14.000000000000 1.858001708984 125 125 125
6.625000000000 14.000000000000 1.992004394531 132 132 132
6.625000000000 14.000000000000 2.125000000000 141 141 141
6.640625000000 14.000000000000 2.261016845703 123 123 123
6.625000000000 14.000000000000 2.394012451172 123 123 123
6.625000000000 14.000000000000 2.526000976563 124 124 124
6.625000000000 14.000000000000 2.660003662109 128 128 128
6.625000000000 14.000000000000 2.792999267578 124 124 124
6.625000000000 14.000000000000 2.925018310547 125 125 125
6.625000000000 14.000000000000 3.058013916016 126 126 126
6.625000000000 14.000000000000 3.190002441406 128 128 128
6.625000000000 14.000000000000 3.322998046875 134 134 134
6.625000000000 14.000000000000 3.455017089844 133 133 133
6.625000000000 14.000000000000 3.588012695313 147 147 147
6.625000000000 14.000000000000 3.720001220703 140 140 140
6.625000000000 14.000000000000 3.852996826172 139 139 139
6.625000000000 14.000000000000 3.986022949219 144 144 144
6.625000000000 14.000000000000 4.119018554688 135 135 135
6.671875000000 14.000000000000 4.248016357422 182 182 182
6.640625000000 14.000000000000 4.384002685547 150 150 150
6.625000000000 14.000000000000 4.518005371094 142 142 142
6.625000000000 14.000000000000 4.653015136719 139 139 139
6.625000000000 14.000000000000 4.786010742188 132 132 132
6.640625000000 13.875000000000 1.592010498047 37 37 37
6.453125000000 13.937500000000 3.324005126953 164 164 164
6.453125000000 13.937500000000 3.458007812500 186 186 186
6.484375000000 13.937500000000 3.592010498047 188 188 188
6.468750000000 13.937500000000 3.727020263672 179 179 179
6.437500000000 13.937500000000 3.861999511719 205 205 205
6.578125000000 13.875000000000 4.122009277344 43 43 43
6.593750000000 13.875000000000 4.255004882813 192 192 192
6.593750000000 13.875000000000 4.389007568359 127 127 127
6.578125000000 13.875000000000 4.523010253906 194 194 194
6.593750000000 13.875000000000 4.657012939453 212 212 212
6.593750000000 13.875000000000 4.791015625000 208 208 208
6.453125000000 13.812500000000 3.322998046875 113 113 113
6.515625000000 13.812500000000 3.455993652344 154 154 154
6.453125000000 13.812500000000 3.591003417969 170 170 170
6.500000000000 13.812500000000 3.723999023438 66 66 66
6.453125000000 13.812500000000 3.860015869141 203 203 203
6.593750000000 13.812500000000 4.119018554688 199 199 199
6.593750000000 13.812500000000 4.253021240234 203 203 203
6.609375000000 13.812500000000 4.385009765625 102 102 102
6.593750000000 13.812500000000 4.520019531250 190 190 190
6.593750000000 13.812500000000 4.653015136719 164 164 164
6.593750000000 13.812500000000 4.787994384766 209 209 209
6.453125000000 13.687500000000 3.455017089844 62 62 62
6.468750000000 13.687500000000 3.588012695313 184 184 184
6.453125000000 13.687500000000 3.723022460938 207 207 207
6.453125000000 13.687500000000 3.856994628906 171 171 171
6.593750000000 13.687500000000 4.115997314453 207 207 207
6.593750000000 13.687500000000 4.249023437500 202 202 202
6.593750000000 13.687500000000 4.382019042969 192 192 192
6.593750000000 13.687500000000 4.516021728516 195 195 195
6.609375000000 13.687500000000 4.783020019531 209 209 209
6.609375000000 13.687500000000 4.916015625000 208 208 208
6.625000000000 13.625000000000 1.453002929688 209 209 209
6.453125000000 13.625000000000 3.718017578125 105 105 105
6.593750000000 13.562500000000 4.111999511719 202 202 202
6.578125000000 13.625000000000 4.244995117188 14 14 14
6.593750000000 13.562500000000 4.377014160156 193 193 193
6.609375000000 13.562500000000 4.509002685547 155 155 155
6.609375000000 13.562500000000 4.777008056641 174 174 174
6.609375000000 13.562500000000 4.911010742188 214 214 214
6.609375000000 13.500000000000 4.240020751953 143 143 143
6.609375000000 13.500000000000 4.373016357422 206 206 206
6.609375000000 13.500000000000 4.907012939453 209 209 209
6.625000000000 13.500000000000 5.040008544922 200 200 200
6.609375000000 13.375000000000 4.369018554688 117 117 117
6.625000000000 13.375000000000 4.902008056641 173 173 173
6.156250000000 7.500000000000 5.095001220703 15 15 15
6.140625000000 7.437500000000 4.447998046875 98 98 98
6.156250000000 7.437500000000 4.576019287109 198 198 198
6.156250000000 7.437500000000 5.098022460938 186 186 186
6.171875000000 7.437500000000 5.229003906250 118 118 118
6.171875000000 7.312500000000 4.321014404297 212 212 212
6.140625000000 7.312500000000 4.453002929688 74 74 74
6.140625000000 7.312500000000 4.583007812500 187 187 187
6.140625000000 7.312500000000 4.713012695313 43 43 43
6.140625000000 7.312500000000 4.976013183594 29 29 29
6.156250000000 7.312500000000 5.104003906250 164 164 164
6.156250000000 7.312500000000 5.236022949219 88 88 88
6.000000000000 7.250000000000 3.684997558594 196 196 196
6.015625000000 7.250000000000 3.815002441406 155 155 155
6.156250000000 7.250000000000 4.197021484375 219 219 219
6.156250000000 7.250000000000 4.326019287109 236 236 236
6.109375000000 7.250000000000 4.589019775391 207 207 207
6.125000000000 7.250000000000 4.718994140625 183 183 183
6.140625000000 7.250000000000 4.979003906250 183 183 183
6.140625000000 7.250000000000 5.110015869141 165 165 165
5.984375000000 7.187500000000 3.428009033203 10 10 10
6.000000000000 7.187500000000 3.558013916016 218 218 218
6.000000000000 7.187500000000 3.688018798828 225 225 225
6.000000000000 7.187500000000 3.818023681641 220 220 220
6.125000000000 7.125000000000 4.201019287109 82 82 82
6.140625000000 7.125000000000 4.330017089844 241 241 241
6.140625000000 7.125000000000 4.459014892578 200 200 200
6.109375000000 7.187500000000 4.592010498047 158 158 158
6.109375000000 7.187500000000 4.723022460938 202 202 202
6.125000000000 7.187500000000 4.981994628906 197 197 197
6.125000000000 7.187500000000 5.114013671875 127 127 127
6.203125000000 7.062500000000 1.626007080078 4 4 4
5.984375000000 7.062500000000 3.299011230469 138 138 138
5.968750000000 7.062500000000 3.429016113281 223 223 223
5.984375000000 7.062500000000 3.559020996094 215 215 215
6.031250000000 7.062500000000 3.688018798828 64 64 64
6.000000000000 7.062500000000 3.819000244141 215 215 215
5.984375000000 7.062500000000 3.950012207031 10 10 10
6.109375000000 7.062500000000 4.332000732422 241 241 241
6.125000000000 7.062500000000 4.460998535156 237 237 237
6.093750000000 7.062500000000 4.723999023438 193 193 193
6.109375000000 7.062500000000 4.852996826172 166 166 166
6.125000000000 7.062500000000 4.981994628906 159 159 159
6.109375000000 6.937500000000 1.611999511719 164 164 164
6.093750000000 6.937500000000 1.742004394531 164 164 164
6.093750000000 6.937500000000 1.874023437500 132 132 132
6.109375000000 6.937500000000 2.006011962891 134 134 134
6.109375000000 6.937500000000 2.397003173828 121 121 121
6.109375000000 6.937500000000 2.527008056641 122 122 122
6.109375000000 6.937500000000 2.656005859375 128 128 128
6.093750000000 6.937500000000 2.783996582031 119 119 119
6.109375000000 6.937500000000 2.914001464844 116 116 116
6.109375000000 6.937500000000 3.042999267578 110 110 110
6.109375000000 6.937500000000 3.171020507813 98 98 98
6.000000000000 7.000000000000 3.299011230469 215 215 215
6.015625000000 7.000000000000 3.429016113281 182 182 182
6.109375000000 6.937500000000 3.557006835938 203 203 203
6.062500000000 6.937500000000 3.687011718750 199 199 199
5.968750000000 7.000000000000 3.819000244141 200 200 200
6.031250000000 7.000000000000 3.947021484375 52 52 52
6.093750000000 6.937500000000 4.332000732422 192 192 192
6.093750000000 6.937500000000 4.462005615234 238 238 238
6.109375000000 6.937500000000 4.589996337891 97 97 97
6.078125000000 6.937500000000 4.723999023438 162 162 162
6.093750000000 6.937500000000 4.852996826172 164 164 164
6.171875000000 6.937500000000 4.973022460938 174 174 174
6.187500000000 6.937500000000 5.101013183594 18 18 18
6.203125000000 6.937500000000 5.229003906250 64 64 64
6.093750000000 6.937500000000 5.378997802734 41 41 41
6.265625000000 6.937500000000 5.481018066406 34 34 34
6.046875000000 6.875000000000 1.601013183594 209 209 209
6.109375000000 6.875000000000 1.744018554688 132 132 132
6.109375000000 6.875000000000 1.873016357422 120 120 120
6.109375000000 6.875000000000 2.006011962891 109 109 109
6.093750000000 6.875000000000 2.394012451172 124 124 124
6.093750000000 6.875000000000 2.524017333984 143 143 143
6.109375000000 6.875000000000 2.654022216797 125 125 125
6.093750000000 6.875000000000 2.783020019531 135 135 135
6.109375000000 6.875000000000 2.912017822266 136 136 136
6.109375000000 6.875000000000 3.041015625000 134 134 134
6.093750000000 6.875000000000 3.169006347656 140 140 140
6.109375000000 6.875000000000 3.298004150391 132 132 132
6.109375000000 6.875000000000 3.425994873047 144 144 144
6.109375000000 6.875000000000 3.555023193359 152 152 152
6.062500000000 6.875000000000 3.684020996094 172 172 172
6.078125000000 6.875000000000 3.813018798828 156 156 156
6.125000000000 6.875000000000 3.940002441406 134 134 134
6.125000000000 6.875000000000 4.068023681641 154 154 154
6.156250000000 6.875000000000 4.322998046875 146 146 146
6.171875000000 6.875000000000 4.451995849609 200 200 200
6.187500000000 6.875000000000 4.578002929688 234 234 234
6.140625000000 6.875000000000 4.713012695313 125 125 125
6.187500000000 6.875000000000 4.837005615234 175 175 175
6.156250000000 6.875000000000 4.972015380859 115 115 115
6.140625000000 6.875000000000 5.102996826172 120 120 120
6.125000000000 6.875000000000 5.238006591797 109 109 109
6.250000000000 6.875000000000 5.348022460938 91 91 91
6.265625000000 6.875000000000 5.475006103516 75 75 75
6.156250000000 6.875000000000 4.196014404297 126 126 126
5.937500000000 6.750000000000 3.292022705078 154 154 154
5.937500000000 6.750000000000 3.421997070313 214 214 214
5.953125000000 6.750000000000 3.552001953125 222 222 222
5.968750000000 6.750000000000 3.682006835938 155 155 155
5.937500000000 6.750000000000 3.813995361328 219 219 219
5.921875000000 6.812500000000 3.945007324219 91 91 91
6.046875000000 6.750000000000 4.326995849609 255 255 255
6.062500000000 6.750000000000 4.457000732422 255 255 255
6.062500000000 6.750000000000 4.717010498047 168 168 168
6.062500000000 6.750000000000 4.848022460938 156 156 156
6.062500000000 6.750000000000 4.979003906250 156 156 156
6.140625000000 6.750000000000 5.360015869141 72 72 72
6.234375000000 6.750000000000 5.475006103516 34 34 34
5.921875000000 6.687500000000 3.420013427734 95 95 95
5.953125000000 6.687500000000 3.550018310547 180 180 180
5.906250000000 6.687500000000 3.680999755859 199 199 199
5.906250000000 6.687500000000 3.812011718750 204 204 204
5.906250000000 6.687500000000 3.942016601563 95 95 95
6.031250000000 6.687500000000 4.326019287109 255 255 255
6.046875000000 6.687500000000 4.455017089844 255 255 255
6.046875000000 6.687500000000 4.714996337891 167 167 167
6.062500000000 6.687500000000 4.845001220703 129 129 129
6.062500000000 6.687500000000 4.976013183594 161 161 161
6.046875000000 6.687500000000 5.108001708984 32 32 32
6.015625000000 6.562500000000 4.196014404297 238 238 238
6.015625000000 6.562500000000 4.326019287109 255 255 255
6.031250000000 6.562500000000 4.455017089844 104 104 104
6.031250000000 6.562500000000 4.585021972656 156 156 156
6.031250000000 6.562500000000 4.714019775391 165 165 165
6.015625000000 6.562500000000 4.977996826172 173 173 173
6.046875000000 6.562500000000 5.106018066406 152 152 152
5.890625000000 6.562500000000 3.550018310547 47 47 47
5.890625000000 6.562500000000 3.680999755859 131 131 131
5.906250000000 6.562500000000 3.811004638672 126 126 126
6.015625000000 6.500000000000 4.587005615234 169 169 169
6.015625000000 6.500000000000 4.717010498047 148 148 148
6.031250000000 6.500000000000 4.977996826172 154 154 154
6.031250000000 6.500000000000 5.109008789063 172 172 172
6.000000000000 6.500000000000 4.328002929688 201 201 201
5.984375000000 6.375000000000 4.332000732422 115 115 115
5.984375000000 6.375000000000 4.462005615234 129 129 129
6.000000000000 6.375000000000 4.592010498047 191 191 191
6.015625000000 6.375000000000 4.983001708984 47 47 47
6.015625000000 6.375000000000 5.113006591797 181 181 181
6.031250000000 6.375000000000 5.244018554688 88 88 88
5.984375000000 6.312500000000 4.467010498047 40 40 40
5.984375000000 6.312500000000 4.597015380859 208 208 208
6.000000000000 6.312500000000 5.119018554688 205 205 205
6.015625000000 6.312500000000 5.249023437500 19 19 19
6.578125000000 14.625000000000 5.024017333984 22 22 22
6.578125000000 14.625000000000 4.399993896484 91 91 91
6.578125000000 14.562500000000 5.032012939453 76 76 76
6.578125000000 14.562500000000 4.875000000000 76 76 76
6.578125000000 14.562500000000 4.407012939453 95 95 95
6.578125000000 14.437500000000 4.882995605469 87 87 87
6.593750000000 14.437500000000 4.570007324219 43 43 43
6.578125000000 14.437500000000 4.415008544922 96 96 96
6.578125000000 14.437500000000 4.259002685547 16 16 16
6.593750000000 14.437500000000 4.104003906250 138 138 138
6.593750000000 14.375000000000 4.891021728516 84 84 84
6.578125000000 14.375000000000 4.735015869141 65 65 65
6.593750000000 14.375000000000 4.578002929688 96 96 96
6.578125000000 14.375000000000 4.424011230469 75 75 75
6.593750000000 14.375000000000 4.268005371094 90 90 90
6.593750000000 14.312500000000 4.113006591797 95 95 95
6.562500000000 14.250000000000 4.899993896484 34 34 34
6.593750000000 14.250000000000 4.740997314453 85 85 85
6.609375000000 14.250000000000 4.584014892578 92 92 92
6.609375000000 14.250000000000 4.274017333984 90 90 90
6.578125000000 14.250000000000 4.121002197266 21 21 21
6.437500000000 14.375000000000 3.813018798828 106 106 106
6.437500000000 14.375000000000 3.656005859375 72 72 72
6.468750000000 14.312500000000 3.500000000000 17 17 17
6.843750000000 14.062500000000 1.526000976563 27 27 27
6.703125000000 14.062500000000 4.886993408203 70 70 70
6.703125000000 14.062500000000 4.733001708984 111 111 111
6.703125000000 14.062500000000 4.579010009766 116 116 116
6.703125000000 14.062500000000 4.425994873047 113 113 113
6.703125000000 14.062500000000 4.272003173828 113 113 113
6.687500000000 14.062500000000 4.119995117188 110 110 110
6.687500000000 14.062500000000 3.967010498047 110 110 110
6.703125000000 14.062500000000 3.813995361328 105 105 105
6.687500000000 14.062500000000 3.661010742188 110 110 110
6.703125000000 14.062500000000 3.507995605469 108 108 108
6.687500000000 14.062500000000 3.355010986328 105 105 105
6.687500000000 14.062500000000 3.201995849609 94 94 94
6.687500000000 14.062500000000 3.048004150391 101 101 101
6.687500000000 14.062500000000 2.895019531250 100 100 100
6.703125000000 14.062500000000 2.742004394531 101 101 101
6.687500000000 14.062500000000 2.587005615234 98 98 98
6.687500000000 14.062500000000 2.434020996094 97 97 97
6.703125000000 14.062500000000 2.281005859375 100 100 100
6.687500000000 14.062500000000 2.125000000000 101 101 101
6.703125000000 14.062500000000 1.971008300781 97 97 97
6.687500000000 14.062500000000 1.813995361328 93 93 93
6.703125000000 14.062500000000 1.658996582031 85 85 85
6.765625000000 14.000000000000 1.516021728516 108 108 108
6.609375000000 14.062500000000 4.895996093750 23 23 23
6.625000000000 14.000000000000 4.739013671875 119 119 119
6.625000000000 14.000000000000 4.585021972656 119 119 119
6.625000000000 14.000000000000 4.430023193359 98 98 98
6.609375000000 14.000000000000 4.276000976563 104 104 104
6.625000000000 14.000000000000 4.122009277344 77 77 77
6.625000000000 14.000000000000 3.967010498047 72 72 72
6.593750000000 14.062500000000 3.813995361328 103 103 103
6.625000000000 14.000000000000 3.660003662109 104 104 104
6.593750000000 14.062500000000 3.505004882813 96 96 96
6.593750000000 14.062500000000 3.351013183594 92 92 92
6.625000000000 14.000000000000 3.197998046875 64 64 64
6.625000000000 14.000000000000 3.044006347656 64 64 64
6.625000000000 14.000000000000 2.889007568359 62 62 62
6.609375000000 14.000000000000 2.735015869141 63 63 63
6.625000000000 14.000000000000 2.580993652344 62 62 62
6.625000000000 14.000000000000 2.425994873047 68 68 68
6.625000000000 14.000000000000 2.270996093750 67 67 67
6.625000000000 14.000000000000 2.115020751953 82 82 82
6.625000000000 14.000000000000 1.960021972656 80 80 80
6.625000000000 14.000000000000 1.802001953125 75 75 75
6.625000000000 14.000000000000 1.645019531250 95 95 95
6.703125000000 13.937500000000 1.503997802734 145 145 145
6.640625000000 13.937500000000 4.885009765625 29 29 29
6.625000000000 13.937500000000 4.731994628906 93 93 93
6.609375000000 13.937500000000 4.579010009766 86 86 86
6.609375000000 13.937500000000 4.270019531250 85 85 85
6.468750000000 14.000000000000 3.809997558594 62 62 62
6.531250000000 14.000000000000 3.654022216797 74 74 74
6.484375000000 14.000000000000 3.498016357422 74 74 74
6.484375000000 14.000000000000 3.343017578125 47 47 47
6.687500000000 13.812500000000 1.500000000000 115 115 115
6.625000000000 13.812500000000 4.878021240234 92 92 92
6.625000000000 13.812500000000 4.723022460938 70 70 70
6.625000000000 13.812500000000 4.568023681641 86 86 86
6.625000000000 13.812500000000 4.414001464844 71 71 71
6.625000000000 13.812500000000 4.261016845703 82 82 82
6.625000000000 13.812500000000 4.106994628906 78 78 78
6.484375000000 13.875000000000 3.802001953125 52 52 52
6.500000000000 13.875000000000 3.647003173828 52 52 52
6.531250000000 13.875000000000 3.492004394531 116 116 116
6.453125000000 13.937500000000 3.335021972656 22 22 22
6.656250000000 13.687500000000 5.018005371094 25 25 25
6.640625000000 13.687500000000 4.865997314453 83 83 83
6.609375000000 13.687500000000 4.559997558594 33 33 33
6.640625000000 13.687500000000 4.404022216797 83 83 83
6.625000000000 13.687500000000 4.251007080078 34 34 34
6.625000000000 13.687500000000 4.098022460938 127 127 127
6.484375000000 13.812500000000 3.792999267578 64 64 64
6.500000000000 13.812500000000 3.638000488281 71 71 71
6.484375000000 13.812500000000 3.483001708984 27 27 27
6.656250000000 13.562500000000 5.011993408203 132 132 132
6.640625000000 13.562500000000 4.859008789063 82 82 82
6.656250000000 13.562500000000 4.397003173828 142 142 142
6.406250000000 13.750000000000 3.789001464844 34 34 34
6.625000000000 13.500000000000 4.397003173828 41 41 41
6.218750000000 7.562500000000 4.636016845703 8 8 8
6.203125000000 7.500000000000 5.238006591797 87 87 87
6.203125000000 7.500000000000 5.085998535156 103 103 103
6.187500000000 7.500000000000 4.636993408203 131 131 131
6.187500000000 7.500000000000 4.486999511719 78 78 78
6.171875000000 7.437500000000 5.243011474609 112 112 112
6.171875000000 7.437500000000 5.092010498047 141 141 141
6.171875000000 7.437500000000 4.641021728516 189 189 189
6.171875000000 7.437500000000 4.490997314453 111 111 111
6.218750000000 7.375000000000 4.339019775391 148 148 148
6.171875000000 7.312500000000 5.096008300781 142 142 142
6.203125000000 7.312500000000 4.943023681641 3 3 3
6.156250000000 7.312500000000 4.647003173828 155 155 155
6.125000000000 7.375000000000 4.499023437500 14 14 14
6.171875000000 7.312500000000 4.346008300781 177 177 177
6.171875000000 7.312500000000 4.197021484375 80 80 80
6.171875000000 7.250000000000 5.102020263672 132 132 132
6.156250000000 7.250000000000 4.953002929688 164 164 164
6.156250000000 7.250000000000 4.802001953125 82 82 82
6.140625000000 7.250000000000 4.653015136719 165 165 165
6.171875000000 7.250000000000 4.351013183594 148 148 148
6.046875000000 7.312500000000 3.755004882813 89 89 89
6.031250000000 7.312500000000 3.605010986328 16 16 16
6.156250000000 7.125000000000 5.106018066406 82 82 82
6.140625000000 7.125000000000 4.957000732422 169 169 169
6.125000000000 7.187500000000 4.808013916016 176 176 176
6.125000000000 7.187500000000 4.658020019531 149 149 149
6.156250000000 7.125000000000 4.505004882813 115 115 115
6.140625000000 7.125000000000 4.356018066406 140 140 140
6.031250000000 7.250000000000 3.910003662109 95 95 95
6.031250000000 7.187500000000 3.760009765625 95 95 95
6.031250000000 7.250000000000 3.609008789063 108 108 108
6.031250000000 7.250000000000 3.458007812500 27 27 27
6.312500000000 6.937500000000 5.535003662109 8 8 8
6.218750000000 7.000000000000 5.399993896484 34 34 34
6.234375000000 7.000000000000 5.248016357422 30 30 30
6.203125000000 7.000000000000 4.951995849609 164 164 164
6.171875000000 7.000000000000 4.805023193359 155 155 155
6.109375000000 7.062500000000 4.662017822266 45 45 45
6.125000000000 7.062500000000 4.510009765625 146 146 146
6.125000000000 7.062500000000 4.361022949219 136 136 136
6.015625000000 7.125000000000 3.914001464844 114 114 114
6.125000000000 7.062500000000 3.764007568359 59 59 59
6.093750000000 7.062500000000 3.614013671875 127 127 127
6.062500000000 7.062500000000 3.463012695313 116 116 116
6.203125000000 7.000000000000 3.320007324219 24 24 24
6.218750000000 6.937500000000 3.171997070313 23 23 23
6.218750000000 6.937500000000 3.024017333984 32 32 32
6.218750000000 6.937500000000 2.875000000000 31 31 31
6.187500000000 7.000000000000 2.725006103516 26 26 26
6.203125000000 6.937500000000 2.576995849609 34 34 34
6.187500000000 7.000000000000 2.425994873047 26 26 26
6.265625000000 6.875000000000 5.542999267578 23 23 23
6.250000000000 6.875000000000 5.395019531250 89 89 89
6.156250000000 6.937500000000 5.257995605469 80 80 80
6.171875000000 6.937500000000 5.106018066406 97 97 97
6.187500000000 6.937500000000 4.954010009766 113 113 113
6.187500000000 6.875000000000 4.804016113281 125 125 125
6.171875000000 6.937500000000 4.656005859375 117 117 117
6.171875000000 6.937500000000 4.507995605469 113 113 113
6.171875000000 6.937500000000 4.359008789063 112 112 112
6.171875000000 6.937500000000 4.210998535156 120 120 120
6.171875000000 6.937500000000 4.062011718750 116 116 116
6.171875000000 6.937500000000 3.914001464844 112 112 112
6.171875000000 6.875000000000 3.765014648438 112 112 112
6.156250000000 6.937500000000 3.617004394531 113 113 113
6.156250000000 6.937500000000 3.468017578125 108 108 108
6.156250000000 6.937500000000 3.319000244141 105 105 105
6.140625000000 6.937500000000 3.170013427734 102 102 102
6.125000000000 6.937500000000 3.020019531250 105 105 105
6.125000000000 6.937500000000 2.869995117188 100 100 100
6.125000000000 6.937500000000 2.721008300781 105 105 105
6.140625000000 6.875000000000 2.572998046875 111 111 111
6.125000000000 6.937500000000 2.421020507813 108 108 108
6.156250000000 6.812500000000 5.406005859375 88 88 88
6.109375000000 6.875000000000 5.261993408203 16 16 16
6.109375000000 6.875000000000 5.110015869141 55 55 55
6.093750000000 6.875000000000 4.960998535156 128 128 128
6.109375000000 6.875000000000 4.809997558594 127 127 127
6.078125000000 6.875000000000 4.662017822266 24 24 24
6.093750000000 6.875000000000 4.511016845703 135 135 135
6.093750000000 6.875000000000 4.361022949219 113 113 113
5.984375000000 6.937500000000 3.914001464844 130 130 130
6.031250000000 6.875000000000 3.764007568359 120 120 120
6.046875000000 6.875000000000 3.614013671875 99 99 99
5.984375000000 6.937500000000 3.462005615234 85 85 85
5.984375000000 6.937500000000 3.311004638672 121 121 121
6.015625000000 6.812500000000 5.424011230469 10 10 10
6.093750000000 6.750000000000 5.108001708984 38 38 38
6.093750000000 6.750000000000 4.958007812500 130 130 130
6.078125000000 6.750000000000 4.808013916016 135 135 135
6.093750000000 6.750000000000 4.657012939453 95 95 95
6.078125000000 6.750000000000 4.509002685547 108 108 108
6.078125000000 6.750000000000 4.359008789063 128 128 128
5.953125000000 6.875000000000 3.912017822266 123 123 123
5.984375000000 6.812500000000 3.761016845703 27 27 27
5.968750000000 6.812500000000 3.610015869141 150 150 150
5.984375000000 6.812500000000 3.460021972656 125 125 125
5.937500000000 6.875000000000 3.307006835938 46 46 46
6.078125000000 6.687500000000 5.105010986328 132 132 132
6.078125000000 6.687500000000 4.955017089844 134 134 134
6.062500000000 6.687500000000 4.805023193359 124 124 124
6.062500000000 6.687500000000 4.654998779297 128 128 128
6.046875000000 6.687500000000 4.506011962891 7 7 7
6.046875000000 6.687500000000 4.356018066406 124 124 124
6.078125000000 6.625000000000 4.205017089844 7 7 7
5.953125000000 6.750000000000 3.908996582031 115 115 115
5.968750000000 6.750000000000 3.757995605469 119 119 119
5.953125000000 6.750000000000 3.606994628906 121 121 121
5.937500000000 6.750000000000 3.455017089844 66 66 66
6.062500000000 6.562500000000 5.101013183594 139 139 139
6.031250000000 6.562500000000 4.954010009766 53 53 53
6.062500000000 6.562500000000 4.800994873047 12 12 12
6.062500000000 6.562500000000 4.651000976563 136 136 136
6.031250000000 6.562500000000 4.352996826172 153 153 153
6.031250000000 6.562500000000 4.203002929688 104 104 104
5.906250000000 6.687500000000 3.904998779297 53 53 53
5.921875000000 6.625000000000 3.753997802734 184 184 184
5.921875000000 6.625000000000 3.602020263672 50 50 50
6.062500000000 6.437500000000 5.248016357422 95 95 95
6.062500000000 6.437500000000 5.098022460938 161 161 161
6.046875000000 6.500000000000 4.649017333984 146 146 146
6.015625000000 6.500000000000 4.500000000000 101 101 101
6.000000000000 6.500000000000 4.351013183594 112 112 112
5.812500000000 6.625000000000 3.751007080078 12 12 12
6.046875000000 6.375000000000 5.250000000000 91 91 91
6.031250000000 6.375000000000 5.098999023438 179 179 179
6.015625000000 6.375000000000 4.649993896484 132 132 132
6.000000000000 6.375000000000 4.501007080078 114 114 114
6.000000000000 6.312500000000 5.106018066406 31 31 31
6.000000000000 6.312500000000 4.652008056641 12 12 12
6.531250000000 14.687500000000 4.429016113281 58 58 58
6.531250000000 14.687500000000 4.897003173828 29 29 29
6.531250000000 14.625000000000 4.270996093750 107 107 107
6.546875000000 14.625000000000 4.425994873047 152 152 152
6.531250000000 14.625000000000 4.894012451172 132 132 132
6.531250000000 14.625000000000 5.050994873047 99 99 99
6.531250000000 14.562500000000 4.115020751953 81 81 81
6.546875000000 14.562500000000 4.269012451172 90 90 90
6.546875000000 14.562500000000 4.424011230469 160 160 160
6.531250000000 14.562500000000 4.891998291016 151 151 151
6.546875000000 14.562500000000 5.046997070313 126 126 126
6.406250000000 14.375000000000 3.653015136719 135 135 135
6.390625000000 14.375000000000 3.809020996094 111 111 111
6.562500000000 14.437500000000 4.115020751953 152 152 152
6.562500000000 14.437500000000 4.424011230469 159 159 159
6.531250000000 14.437500000000 4.580017089844 44 44 44
6.515625000000 14.437500000000 4.736999511719 15 15 15
6.546875000000 14.437500000000 4.890014648438 156 156 156
6.406250000000 14.312500000000 3.496002197266 137 137 137
6.421875000000 14.312500000000 3.651000976563 150 150 150
6.406250000000 14.312500000000 3.807006835938 162 162 162
6.562500000000 14.375000000000 4.113006591797 170 170 170
6.562500000000 14.375000000000 4.266998291016 116 116 116
6.562500000000 14.375000000000 4.421997070313 157 157 157
6.562500000000 14.375000000000 4.576019287109 145 145 145
6.546875000000 14.375000000000 4.731994628906 134 134 134
6.546875000000 14.375000000000 4.886993408203 155 155 155
6.421875000000 14.250000000000 3.341003417969 124 124 124
6.437500000000 14.250000000000 3.496002197266 163 163 163
6.453125000000 14.250000000000 3.652008056641 43 43 43
6.421875000000 14.250000000000 3.807006835938 154 154 154
6.578125000000 14.312500000000 4.111999511719 137 137 137
6.562500000000 14.312500000000 4.266998291016 149 149 149
6.578125000000 14.312500000000 4.420013427734 127 127 127
6.578125000000 14.312500000000 4.575012207031 157 157 157
6.562500000000 14.312500000000 4.730010986328 163 163 163
6.578125000000 14.312500000000 4.884002685547 140 140 140
6.437500000000 14.125000000000 3.341003417969 158 158 158
6.453125000000 14.187500000000 3.497009277344 160 160 160
6.437500000000 14.187500000000 3.652008056641 125 125 125
6.437500000000 14.125000000000 3.807006835938 141 141 141
6.578125000000 14.187500000000 4.111999511719 38 38 38
6.578125000000 14.187500000000 4.266021728516 152 152 152
6.593750000000 14.250000000000 4.572998046875 150 150 150
6.578125000000 14.187500000000 4.727996826172 163 163 163
6.593750000000 14.250000000000 4.881011962891 27 27 27
6.593750000000 14.125000000000 1.800994873047 74 74 74
6.578125000000 14.125000000000 1.955993652344 86 86 86
6.578125000000 14.125000000000 2.111999511719 93 93 93
6.578125000000 14.125000000000 2.266998291016 83 83 83
6.562500000000 14.125000000000 2.420013427734 83 83 83
6.593750000000 14.125000000000 2.576995849609 85 85 85
6.593750000000 14.125000000000 2.731018066406 96 96 96
6.593750000000 14.125000000000 2.884002685547 94 94 94
6.578125000000 14.125000000000 3.037017822266 96 96 96
6.578125000000 14.125000000000 3.191009521484 111 111 111
6.531250000000 14.125000000000 3.343017578125 142 142 142
6.546875000000 14.125000000000 3.497009277344 131 131 131
6.562500000000 14.125000000000 3.649993896484 149 149 149
6.531250000000 14.125000000000 3.804016113281 146 146 146
6.578125000000 14.125000000000 3.957000732422 89 89 89
6.593750000000 14.125000000000 4.110015869141 86 86 86
6.578125000000 14.125000000000 4.264007568359 142 142 142
6.578125000000 14.125000000000 4.417022705078 115 115 115
6.593750000000 14.125000000000 4.570007324219 143 143 143
6.593750000000 14.125000000000 4.725006103516 153 153 153
6.578125000000 14.125000000000 4.881011962891 38 38 38
6.671875000000 14.062500000000 1.503021240234 92 92 92
6.656250000000 14.062500000000 1.654998779297 92 92 92
6.656250000000 14.062500000000 1.811004638672 83 83 83
6.656250000000 14.062500000000 1.966003417969 91 91 91
6.640625000000 14.062500000000 2.118011474609 94 94 94
6.640625000000 14.062500000000 2.273010253906 97 97 97
6.640625000000 14.062500000000 2.427001953125 85 85 85
6.640625000000 14.062500000000 2.580993652344 86 86 86
6.656250000000 14.062500000000 2.734008789063 80 80 80
6.656250000000 14.062500000000 2.886993408203 86 86 86
6.640625000000 14.062500000000 3.039001464844 80 80 80
6.640625000000 14.062500000000 3.192016601563 80 80 80
6.625000000000 14.062500000000 3.343017578125 109 109 109
6.609375000000 14.062500000000 3.496002197266 105 105 105
6.625000000000 14.062500000000 3.649017333984 101 101 101
6.625000000000 14.062500000000 3.800994873047 108 108 108
6.656250000000 14.062500000000 3.953002929688 87 87 87
6.640625000000 14.062500000000 4.105010986328 93 93 93
6.687500000000 14.062500000000 4.256011962891 177 177 177
6.671875000000 14.062500000000 4.408996582031 144 144 144
6.671875000000 14.062500000000 4.562011718750 151 151 151
6.671875000000 14.062500000000 4.714996337891 131 131 131
6.640625000000 14.062500000000 4.871002197266 63 63 63
6.687500000000 14.000000000000 1.507019042969 191 191 191
6.468750000000 13.875000000000 3.339996337891 111 111 111
6.484375000000 13.937500000000 3.494995117188 137 137 137
6.578125000000 13.937500000000 3.649017333984 90 90 90
6.453125000000 13.875000000000 3.804016113281 157 157 157
6.593750000000 13.937500000000 4.260009765625 155 155 155
6.578125000000 13.937500000000 4.414001464844 26 26 26
6.578125000000 13.937500000000 4.568023681641 165 165 165
6.593750000000 13.937500000000 4.720001220703 138 138 138
6.562500000000 13.875000000000 1.484008789063 189 189 189
6.515625000000 13.812500000000 3.492004394531 116 116 116
6.453125000000 13.812500000000 3.645996093750 137 137 137
6.453125000000 13.812500000000 3.800018310547 162 162 162
6.578125000000 13.875000000000 4.104003906250 120 120 120
6.578125000000 13.875000000000 4.257019042969 172 172 172
6.578125000000 13.875000000000 4.410003662109 110 110 110
6.593750000000 13.875000000000 4.563018798828 154 154 154
6.609375000000 13.875000000000 4.714019775391 142 142 142
