21.859375000000 16.312500000000 6.996002197266 148 148 148
21.859375000000 16.312500000000 7.074005126953 150 150 150
21.875000000000 16.312500000000 7.165008544922 156 156 156
21.859375000000 16.312500000000 7.240997314453 153 153 153
21.859375000000 16.312500000000 7.329010009766 145 145 145
21.875000000000 16.312500000000 7.425018310547 138 138 138
21.875000000000 16.312500000000 7.510009765625 137 137 137
21.875000000000 16.312500000000 7.614013671875 136 136 136
21.875000000000 16.312500000000 7.699005126953 130 130 130
21.875000000000 16.312500000000 7.809997558594 145 145 145
21.890625000000 16.312500000000 7.916015625000 141 141 141
21.890625000000 16.312500000000 8.016021728516 151 151 151
21.890625000000 16.312500000000 8.128021240234 146 146 146
21.015625000000 15.937500000000 7.063995361328 148 148 148
20.968750000000 15.937500000000 7.091003417969 161 161 161
20.937500000000 15.937500000000 7.141021728516 168 168 168
21.906250000000 16.312500000000 8.602996826172 117 117 117
21.890625000000 16.312500000000 8.697998046875 157 157 157
21.906250000000 16.312500000000 8.854003906250 100 100 100
21.906250000000 16.312500000000 8.990997314453 94 94 94
21.906250000000 16.312500000000 9.130004882813 78 78 78
21.906250000000 16.312500000000 9.274993896484 58 58 58
21.921875000000 16.312500000000 9.430999755859 37 37 37
21.921875000000 16.312500000000 9.585998535156 15 15 15
20.953125000000 15.937500000000 8.679016113281 34 34 34
20.875000000000 15.875000000000 8.673004150391 134 134 134
20.812500000000 15.875000000000 8.686004638672 54 54 54
21.546875000000 16.062500000000 1.404022216797 134 134 134
21.625000000000 16.125000000000 1.407012939453 184 184 184
21.562500000000 16.062500000000 1.502014160156 185 185 185
21.593750000000 16.125000000000 1.533996582031 186 186 186
21.609375000000 16.125000000000 1.580993652344 188 188 188
21.671875000000 16.125000000000 1.597015380859 181 181 181
21.796875000000 16.187500000000 1.580017089844 175 175 175
21.890625000000 16.187500000000 1.584014892578 171 171 171
21.968750000000 16.250000000000 1.593017578125 179 179 179
22.062500000000 16.312500000000 1.593994140625 173 173 173
22.140625000000 16.312500000000 1.618011474609 170 170 170
22.125000000000 16.312500000000 1.677001953125 179 179 179
22.125000000000 16.312500000000 1.740020751953 128 128 128
22.109375000000 16.312500000000 1.800994873047 127 127 127
22.125000000000 16.312500000000 1.851013183594 132 132 132
22.140625000000 16.312500000000 1.898010253906 186 186 186
22.140625000000 16.312500000000 1.955993652344 187 187 187
22.125000000000 16.312500000000 2.016021728516 141 141 141
22.156250000000 16.312500000000 2.058013916016 197 197 197
22.109375000000 16.312500000000 2.126007080078 136 136 136
22.125000000000 16.312500000000 2.175018310547 152 152 152
22.109375000000 16.312500000000 2.231994628906 149 149 149
22.109375000000 16.312500000000 2.287017822266 139 139 139
21.921875000000 16.250000000000 2.399993896484 117 117 117
21.906250000000 16.250000000000 2.455017089844 125 125 125
21.921875000000 16.250000000000 2.501007080078 125 125 125
21.968750000000 16.250000000000 2.533996582031 133 133 133
22.109375000000 16.312500000000 2.540008544922 141 141 141
22.109375000000 16.312500000000 2.589996337891 157 157 157
22.125000000000 16.312500000000 2.638000488281 160 160 160
22.109375000000 16.312500000000 2.690002441406 156 156 156
22.125000000000 16.312500000000 2.736999511719 147 147 147
22.125000000000 16.312500000000 2.787017822266 156 156 156
22.109375000000 16.312500000000 2.837005615234 148 148 148
22.125000000000 16.312500000000 2.884002685547 152 152 152
22.125000000000 16.312500000000 2.930999755859 152 152 152
22.109375000000 16.312500000000 2.981994628906 151 151 151
22.125000000000 16.312500000000 3.028015136719 155 155 155
22.125000000000 16.312500000000 3.076995849609 155 155 155
22.125000000000 16.312500000000 3.123016357422 148 148 148
22.125000000000 16.312500000000 3.171020507813 154 154 154
22.125000000000 16.312500000000 3.218994140625 154 154 154
22.125000000000 16.312500000000 3.266021728516 154 154 154
22.140625000000 16.312500000000 3.313995361328 158 158 158
22.125000000000 16.312500000000 3.361022949219 158 158 158
22.125000000000 16.312500000000 3.408996582031 164 164 164
21.921875000000 16.250000000000 3.464019775391 129 129 129
21.921875000000 16.250000000000 3.507995605469 131 131 131
21.921875000000 16.250000000000 3.553009033203 125 125 125
22.125000000000 16.312500000000 3.598022460938 163 163 163
22.125000000000 16.312500000000 3.645019531250 169 169 169
22.125000000000 16.312500000000 3.693023681641 173 173 173
22.125000000000 16.312500000000 3.740020751953 167 167 167
22.125000000000 16.312500000000 3.787017822266 170 170 170
22.140625000000 16.312500000000 3.835021972656 162 162 162
22.125000000000 16.312500000000 3.882019042969 166 166 166
22.125000000000 16.312500000000 3.929016113281 171 171 171
22.125000000000 16.312500000000 3.977020263672 167 167 167
22.125000000000 16.312500000000 4.024993896484 169 169 169
22.125000000000 16.312500000000 4.072998046875 167 167 167
22.125000000000 16.312500000000 4.121002197266 166 166 166
22.125000000000 16.312500000000 4.169006347656 166 166 166
22.140625000000 16.312500000000 4.218994140625 164 164 164
22.140625000000 16.312500000000 4.266998291016 161 161 161
22.125000000000 16.312500000000 4.315002441406 165 165 165
22.140625000000 16.312500000000 4.365020751953 162 162 162
22.125000000000 16.312500000000 4.411010742188 159 159 159
22.125000000000 16.312500000000 4.462005615234 160 160 160
22.140625000000 16.312500000000 4.513000488281 163 163 163
22.125000000000 16.312500000000 4.562011718750 153 153 153
21.953125000000 16.250000000000 4.563018798828 127 127 127
21.921875000000 16.250000000000 4.601013183594 123 123 123
21.921875000000 16.250000000000 4.651000976563 122 122 122
21.968750000000 16.250000000000 4.713012695313 145 145 145
22.140625000000 16.312500000000 4.817016601563 155 155 155
22.140625000000 16.312500000000 4.872009277344 162 162 162
22.125000000000 16.312500000000 4.920013427734 162 162 162
22.125000000000 16.312500000000 4.971008300781 166 166 166
22.125000000000 16.312500000000 5.026000976563 163 163 163
22.125000000000 16.312500000000 5.076019287109 166 166 166
22.125000000000 16.312500000000 5.132019042969 161 161 161
22.125000000000 16.312500000000 5.186004638672 157 157 157
22.125000000000 16.312500000000 5.242004394531 155 155 155
22.125000000000 16.312500000000 5.294006347656 146 146 146
22.125000000000 16.312500000000 5.354003906250 151 151 151
22.125000000000 16.312500000000 5.408996582031 153 153 153
21.921875000000 16.250000000000 5.363006591797 123 123 123
21.906250000000 16.250000000000 5.410003662109 117 117 117
21.921875000000 16.250000000000 5.468994140625 131 131 131
22.125000000000 16.312500000000 5.638000488281 159 159 159
22.125000000000 16.312500000000 5.697998046875 164 164 164
22.125000000000 16.312500000000 5.759002685547 159 159 159
22.125000000000 16.312500000000 5.818023681641 159 159 159
22.125000000000 16.312500000000 5.878997802734 158 158 158
22.109375000000 16.312500000000 5.940002441406 150 150 150
22.109375000000 16.312500000000 6.000000000000 141 141 141
22.109375000000 16.312500000000 6.066009521484 148 148 148
22.109375000000 16.312500000000 6.128021240234 151 151 151
22.093750000000 16.312500000000 6.183013916016 145 145 145
22.093750000000 16.312500000000 6.247009277344 149 149 149
22.062500000000 16.312500000000 6.298004150391 146 146 146
22.031250000000 16.312500000000 6.343994140625 146 146 146
22.031250000000 16.312500000000 6.408996582031 148 148 148
22.015625000000 16.250000000000 6.466003417969 152 152 152
22.000000000000 16.250000000000 6.529022216797 155 155 155
21.984375000000 16.250000000000 6.580017089844 140 140 140
21.921875000000 16.250000000000 6.602020263672 132 132 132
21.843750000000 16.187500000000 6.609008789063 135 135 135
21.843750000000 16.187500000000 6.683013916016 134 134 134
21.796875000000 16.187500000000 6.707000732422 142 142 142
21.921875000000 16.250000000000 6.904998779297 124 124 124
21.890625000000 16.250000000000 6.957000732422 127 127 127
21.890625000000 16.250000000000 7.024993896484 117 117 117
21.890625000000 16.250000000000 7.108001708984 118 118 118
21.875000000000 16.250000000000 7.184997558594 119 119 119
21.875000000000 16.250000000000 7.273010253906 120 120 120
21.875000000000 16.250000000000 7.352020263672 123 123 123
21.875000000000 16.250000000000 7.440002441406 119 119 119
21.875000000000 16.250000000000 7.533020019531 116 116 116
21.875000000000 16.250000000000 7.619995117188 120 120 120
21.265625000000 15.937500000000 6.999023437500 163 163 163
21.187500000000 15.937500000000 6.984008789063 89 89 89
21.156250000000 15.937500000000 7.024017333984 163 163 163
21.125000000000 15.875000000000 7.063018798828 164 164 164
21.890625000000 16.250000000000 8.138000488281 128 128 128
21.890625000000 16.250000000000 8.250000000000 136 136 136
21.890625000000 16.250000000000 8.365020751953 130 130 130
21.890625000000 16.250000000000 8.484008789063 129 129 129
21.875000000000 16.250000000000 8.591003417969 125 125 125
21.875000000000 16.250000000000 8.701995849609 130 130 130
21.890625000000 16.250000000000 8.861022949219 118 118 118
21.906250000000 16.250000000000 8.999023437500 123 123 123
21.906250000000 16.250000000000 9.154022216797 125 125 125
21.906250000000 16.250000000000 9.292022705078 119 119 119
21.906250000000 16.250000000000 9.441009521484 113 113 113
21.921875000000 16.250000000000 9.606018066406 117 117 117
21.921875000000 16.250000000000 9.778015136719 116 116 116
21.921875000000 16.250000000000 9.938018798828 108 108 108
21.078125000000 15.875000000000 8.693023681641 134 134 134
21.015625000000 15.875000000000 8.684997558594 75 75 75
21.906250000000 16.250000000000 7.846008300781 110 110 110
21.453125000000 15.937500000000 1.404022216797 168 168 168
21.500000000000 15.937500000000 1.432006835938 168 168 168
21.546875000000 16.000000000000 1.457000732422 166 166 166
21.578125000000 16.000000000000 1.484008789063 161 161 161
21.703125000000 16.062500000000 1.460021972656 182 182 182
21.796875000000 16.062500000000 1.460998535156 185 185 185
21.796875000000 16.062500000000 1.515014648438 183 183 183
21.812500000000 16.125000000000 1.563018798828 177 177 177
21.890625000000 16.125000000000 1.572021484375 175 175 175
21.984375000000 16.187500000000 1.576019287109 175 175 175
22.062500000000 16.187500000000 1.589019775391 177 177 177
22.140625000000 16.250000000000 1.611022949219 173 173 173
22.125000000000 16.250000000000 1.674011230469 188 188 188
22.140625000000 16.250000000000 1.725006103516 178 178 178
22.140625000000 16.250000000000 1.783996582031 174 174 174
22.140625000000 16.250000000000 1.842010498047 171 171 171
22.125000000000 16.250000000000 1.899993896484 179 179 179
22.140625000000 16.250000000000 1.953002929688 175 175 175
22.125000000000 16.250000000000 2.011016845703 181 181 181
22.125000000000 16.250000000000 2.066009521484 178 178 178
22.140625000000 16.250000000000 2.115997314453 169 169 169
22.140625000000 16.250000000000 2.169006347656 169 169 169
22.125000000000 16.250000000000 2.223999023438 169 169 169
22.125000000000 16.250000000000 2.276000976563 171 171 171
22.125000000000 16.250000000000 2.330993652344 172 172 172
22.078125000000 16.187500000000 2.399017333984 134 134 134
22.062500000000 16.187500000000 2.451995849609 131 131 131
22.062500000000 16.187500000000 2.501007080078 127 127 127
22.125000000000 16.250000000000 2.536010742188 164 164 164
22.125000000000 16.250000000000 2.585021972656 169 169 169
22.109375000000 16.250000000000 2.638000488281 162 162 162
22.125000000000 16.250000000000 2.684997558594 167 167 167
22.125000000000 16.250000000000 2.735015869141 171 171 171
22.125000000000 16.250000000000 2.783996582031 164 164 164
22.125000000000 16.250000000000 2.833007812500 169 169 169
22.125000000000 16.250000000000 2.882019042969 168 168 168
22.125000000000 16.250000000000 2.932006835938 161 161 161
22.125000000000 16.250000000000 2.979003906250 163 163 163
22.125000000000 16.250000000000 3.026000976563 167 167 167
22.125000000000 16.250000000000 3.076019287109 167 167 167
22.125000000000 16.250000000000 3.123016357422 163 163 163
22.109375000000 16.250000000000 3.171997070313 165 165 165
22.125000000000 16.250000000000 3.220001220703 158 158 158
22.125000000000 16.250000000000 3.266998291016 166 166 166
22.125000000000 16.250000000000 3.315002441406 167 167 167
22.125000000000 16.250000000000 3.361999511719 161 161 161
22.125000000000 16.250000000000 3.410003662109 161 161 161
22.078125000000 16.187500000000 3.459014892578 132 132 132
22.093750000000 16.187500000000 3.505004882813 123 123 123
22.078125000000 16.187500000000 3.552001953125 130 130 130
22.109375000000 16.250000000000 3.598999023438 167 167 167
22.109375000000 16.250000000000 3.645996093750 160 160 160
22.109375000000 16.250000000000 3.693023681641 162 162 162
22.109375000000 16.250000000000 3.740997314453 160 160 160
22.109375000000 16.250000000000 3.787994384766 155 155 155
22.109375000000 16.250000000000 3.835998535156 161 161 161
22.109375000000 16.250000000000 3.882995605469 153 153 153
22.109375000000 16.250000000000 3.930999755859 155 155 155
22.109375000000 16.250000000000 3.977996826172 153 153 153
22.109375000000 16.250000000000 4.026000976563 161 161 161
22.109375000000 16.250000000000 4.072021484375 154 154 154
22.093750000000 16.250000000000 4.119995117188 156 156 156
22.109375000000 16.250000000000 4.169006347656 161 161 161
22.109375000000 16.250000000000 4.216003417969 157 157 157
22.109375000000 16.250000000000 4.265014648438 160 160 160
22.093750000000 16.250000000000 4.313018798828 153 153 153
22.093750000000 16.250000000000 4.360015869141 153 153 153
22.093750000000 16.250000000000 4.410003662109 149 149 149
22.109375000000 16.250000000000 4.460021972656 149 149 149
22.109375000000 16.250000000000 4.509002685547 150 150 150
22.093750000000 16.250000000000 4.557006835938 138 138 138
22.078125000000 16.187500000000 4.604003906250 128 128 128
22.078125000000 16.250000000000 4.654022216797 132 132 132
22.078125000000 16.250000000000 4.705017089844 134 134 134
22.093750000000 16.250000000000 4.757995605469 146 146 146
22.093750000000 16.250000000000 4.808013916016 145 145 145
22.093750000000 16.250000000000 4.861022949219 148 148 148
22.093750000000 16.250000000000 4.911010742188 142 142 142
22.078125000000 16.187500000000 4.959014892578 141 141 141
22.078125000000 16.250000000000 5.014007568359 137 137 137
22.078125000000 16.250000000000 5.067016601563 137 137 137
22.093750000000 16.250000000000 5.123016357422 139 139 139
22.093750000000 16.250000000000 5.175018310547 128 128 128
22.078125000000 16.250000000000 5.229003906250 132 132 132
22.093750000000 16.250000000000 5.289001464844 138 138 138
22.078125000000 16.250000000000 5.339019775391 128 128 128
22.078125000000 16.187500000000 5.394012451172 122 122 122
22.078125000000 16.187500000000 5.450012207031 116 116 116
22.078125000000 16.187500000000 5.507019042969 124 124 124
22.078125000000 16.250000000000 5.567016601563 126 126 126
22.078125000000 16.187500000000 5.624023437500 124 124 124
22.078125000000 16.250000000000 5.683013916016 127 127 127
22.078125000000 16.187500000000 5.742004394531 123 123 123
22.062500000000 16.187500000000 5.796020507813 127 127 127
22.078125000000 16.250000000000 5.865020751953 125 125 125
22.078125000000 16.187500000000 5.924011230469 121 121 121
22.078125000000 16.187500000000 5.988006591797 119 119 119
22.078125000000 16.187500000000 6.049011230469 124 124 124
22.078125000000 16.250000000000 6.119995117188 121 121 121
22.078125000000 16.250000000000 6.188018798828 126 126 126
22.078125000000 16.187500000000 6.249023437500 119 119 119
22.078125000000 16.187500000000 6.316009521484 122 122 122
22.078125000000 16.250000000000 6.390014648438 122 122 122
22.078125000000 16.187500000000 6.455993652344 120 120 120
22.078125000000 16.250000000000 6.529022216797 126 126 126
22.078125000000 16.250000000000 6.601013183594 122 122 122
22.078125000000 16.250000000000 6.675018310547 120 120 120
22.078125000000 16.250000000000 6.750000000000 125 125 125
21.843750000000 16.125000000000 6.615020751953 121 121 121
21.843750000000 16.125000000000 6.691009521484 152 152 152
21.812500000000 16.125000000000 6.740020751953 138 138 138
22.062500000000 16.187500000000 7.054016113281 111 111 111
22.062500000000 16.187500000000 7.135009765625 115 115 115
22.078125000000 16.187500000000 7.223999023438 117 117 117
22.062500000000 16.187500000000 7.307006835938 120 120 120
22.078125000000 16.250000000000 7.399993896484 116 116 116
22.125000000000 16.250000000000 7.550994873047 109 109 109
21.421875000000 15.937500000000 6.875000000000 140 140 140
21.375000000000 15.937500000000 6.907012939453 171 171 171
21.328125000000 15.875000000000 6.925994873047 182 182 182
21.296875000000 15.875000000000 6.964019775391 147 147 147
22.062500000000 16.187500000000 7.957000732422 96 96 96
22.062500000000 16.187500000000 8.063018798828 106 106 106
22.062500000000 16.187500000000 8.167999267578 105 105 105
22.062500000000 16.187500000000 8.270019531250 111 111 111
22.062500000000 16.187500000000 8.378997802734 105 105 105
22.046875000000 16.187500000000 8.483001708984 100 100 100
22.062500000000 16.187500000000 8.619018554688 104 104 104
22.046875000000 16.187500000000 8.734008789063 101 101 101
21.890625000000 16.125000000000 8.619018554688 101 101 101
21.859375000000 16.125000000000 8.704010009766 136 136 136
22.062500000000 16.250000000000 9.139007568359 119 119 119
22.046875000000 16.187500000000 9.252014160156 113 113 113
22.046875000000 16.187500000000 9.394012451172 105 105 105
22.046875000000 16.187500000000 9.550994873047 111 111 111
22.062500000000 16.250000000000 9.707000732422 112 112 112
21.390625000000 15.937500000000 8.721008300781 160 160 160
21.296875000000 15.875000000000 8.690002441406 154 154 154
21.218750000000 15.875000000000 8.694000244141 129 129 129
21.468750000000 15.875000000000 1.393005371094 171 171 171
21.484375000000 15.875000000000 1.429016113281 174 174 174
21.531250000000 15.875000000000 1.460021972656 174 174 174
21.593750000000 15.937500000000 1.468994140625 158 158 158
21.640625000000 15.937500000000 1.490020751953 145 145 145
21.937500000000 16.062500000000 1.421020507813 182 182 182
21.953125000000 16.062500000000 1.477996826172 179 179 179
21.953125000000 16.062500000000 1.535003662109 179 179 179
22.000000000000 16.062500000000 1.568023681641 178 178 178
22.093750000000 16.125000000000 1.568023681641 171 171 171
21.828125000000 16.000000000000 6.622009277344 128 128 128
21.828125000000 16.000000000000 6.697998046875 155 155 155
21.593750000000 15.937500000000 6.770996093750 108 108 108
21.562500000000 15.937500000000 6.803009033203 160 160 160
21.515625000000 15.875000000000 6.843994140625 175 175 175
21.468750000000 15.875000000000 6.872009277344 149 149 149
21.421875000000 15.875000000000 6.885009765625 97 97 97
21.890625000000 16.062500000000 8.638000488281 99 99 99
21.843750000000 16.062500000000 8.703002929688 136 136 136
21.593750000000 15.937500000000 8.703002929688 143 143 143
21.515625000000 15.875000000000 8.688018798828 179 179 179
21.437500000000 15.875000000000 8.696014404297 177 177 177
21.390625000000 15.812500000000 8.742004394531 153 153 153
21.921875000000 16.000000000000 1.427001953125 184 184 184
22.000000000000 16.000000000000 1.438018798828 187 187 187
22.093750000000 16.062500000000 1.443023681641 185 185 185
22.093750000000 16.062500000000 1.505004882813 183 183 183
22.125000000000 16.062500000000 1.550994873047 175 175 175
21.828125000000 15.937500000000 6.558013916016 87 87 87
21.812500000000 15.937500000000 6.617004394531 127 127 127
21.781250000000 15.937500000000 6.666015625000 134 134 134
21.734375000000 15.875000000000 6.693023681641 126 126 126
21.718750000000 15.875000000000 6.752014160156 151 151 151
21.656250000000 15.875000000000 6.764007568359 107 107 107
21.890625000000 15.937500000000 8.667022705078 107 107 107
21.843750000000 15.937500000000 8.710998535156 125 125 125
21.765625000000 15.937500000000 8.723022460938 76 76 76
21.671875000000 15.875000000000 8.721008300781 160 160 160
21.609375000000 15.812500000000 8.731994628906 173 173 173
21.890625000000 15.875000000000 8.570007324219 53 53 53
21.859375000000 15.875000000000 8.643005371094 124 124 124
21.828125000000 15.875000000000 8.714019775391 41 41 41
21.812500000000 16.750000000000 8.708007812500 66 66 66
21.843750000000 16.750000000000 8.625000000000 129 129 129
21.890625000000 16.687500000000 8.585998535156 124 124 124
21.828125000000 16.750000000000 6.714019775391 67 67 67
21.843750000000 16.687500000000 6.671020507813 135 135 135
21.843750000000 16.750000000000 6.593994140625 149 149 149
22.218750000000 16.437500000000 1.554016113281 171 171 171
22.171875000000 16.437500000000 1.523010253906 174 174 174
22.156250000000 16.437500000000 1.468994140625 176 176 176
22.156250000000 16.437500000000 1.408996582031 179 179 179
21.609375000000 16.812500000000 8.736999511719 31 31 31
21.656250000000 16.750000000000 8.684020996094 150 150 150
21.718750000000 16.687500000000 8.680999755859 115 115 115
21.859375000000 16.625000000000 8.686004638672 132 132 132
21.890625000000 16.562500000000 8.611999511719 91 91 91
21.625000000000 16.812500000000 6.800994873047 45 45 45
21.671875000000 16.750000000000 6.778015136719 68 68 68
21.687500000000 16.750000000000 6.730010986328 164 164 164
21.750000000000 16.687500000000 6.714996337891 154 154 154
21.796875000000 16.687500000000 6.696014404297 131 131 131
21.843750000000 16.625000000000 6.684020996094 134 134 134
21.843750000000 16.625000000000 6.605010986328 122 122 122
22.171875000000 16.375000000000 1.569000244141 170 170 170
22.078125000000 16.437500000000 1.568023681641 173 173 173
22.015625000000 16.500000000000 1.552001953125 173 173 173
22.000000000000 16.500000000000 1.507019042969 174 174 174
22.000000000000 16.500000000000 1.447998046875 179 179 179
22.000000000000 16.500000000000 1.393005371094 181 181 181
22.046875000000 16.375000000000 9.911010742188 97 97 97
21.500000000000 16.812500000000 8.675994873047 170 170 170
21.562500000000 16.750000000000 8.656005859375 173 173 173
21.656250000000 16.687500000000 8.701019287109 148 148 148
22.062500000000 16.375000000000 9.311004638672 97 97 97
22.062500000000 16.375000000000 9.178009033203 95 95 95
21.859375000000 16.500000000000 8.687011718750 137 137 137
21.890625000000 16.500000000000 8.636016845703 85 85 85
22.062500000000 16.375000000000 8.786010742188 101 101 101
22.062500000000 16.375000000000 8.671997070313 101 101 101
22.062500000000 16.375000000000 8.542999267578 105 105 105
22.046875000000 16.375000000000 8.410003662109 96 96 96
22.062500000000 16.375000000000 8.317016601563 108 108 108
22.062500000000 16.312500000000 8.218017578125 113 113 113
22.062500000000 16.375000000000 8.108001708984 113 113 113
22.062500000000 16.312500000000 8.005004882813 115 115 115
22.078125000000 16.312500000000 7.907012939453 118 118 118
22.078125000000 16.312500000000 7.812011718750 123 123 123
22.078125000000 16.312500000000 7.723022460938 126 126 126
22.078125000000 16.312500000000 7.632019042969 130 130 130
21.515625000000 16.750000000000 6.826995849609 150 150 150
21.531250000000 16.750000000000 6.781005859375 164 164 164
21.578125000000 16.750000000000 6.752014160156 163 163 163
22.109375000000 16.312500000000 7.299011230469 126 126 126
22.078125000000 16.312500000000 7.180023193359 138 138 138
22.046875000000 16.375000000000 7.061004638672 123 123 123
21.843750000000 16.500000000000 6.772003173828 143 143 143
21.843750000000 16.500000000000 6.688995361328 140 140 140
21.843750000000 16.500000000000 6.619995117188 120 120 120
22.031250000000 16.375000000000 6.729003906250 145 145 145
22.093750000000 16.312500000000 6.721008300781 141 141 141
22.093750000000 16.312500000000 6.643005371094 139 139 139
22.093750000000 16.312500000000 6.571014404297 137 137 137
22.093750000000 16.312500000000 6.499023437500 138 138 138
22.093750000000 16.312500000000 6.428009033203 139 139 139
22.093750000000 16.312500000000 6.364013671875 144 144 144
22.093750000000 16.312500000000 6.296997070313 141 141 141
22.093750000000 16.312500000000 6.227996826172 144 144 144
22.093750000000 16.312500000000 6.158020019531 148 148 148
22.093750000000 16.312500000000 6.096008300781 151 151 151
22.109375000000 16.312500000000 6.037017822266 150 150 150
22.093750000000 16.312500000000 5.963012695313 147 147 147
22.109375000000 16.312500000000 5.910003662109 149 149 149
22.109375000000 16.312500000000 5.848022460938 152 152 152
22.109375000000 16.312500000000 5.787017822266 151 151 151
22.109375000000 16.312500000000 5.726013183594 153 153 153
22.093750000000 16.312500000000 5.666015625000 153 153 153
22.093750000000 16.312500000000 5.601013183594 151 151 151
22.109375000000 16.312500000000 5.550018310547 155 155 155
22.046875000000 16.375000000000 5.460998535156 134 134 134
22.062500000000 16.375000000000 5.412017822266 134 134 134
22.062500000000 16.312500000000 5.356994628906 144 144 144
22.093750000000 16.312500000000 5.318023681641 153 153 153
22.109375000000 16.312500000000 5.268005371094 155 155 155
22.109375000000 16.312500000000 5.213012695313 156 156 156
22.093750000000 16.312500000000 5.157012939453 155 155 155
22.093750000000 16.312500000000 5.104003906250 160 160 160
22.109375000000 16.312500000000 5.050994873047 158 158 158
22.109375000000 16.312500000000 5.003021240234 160 160 160
22.109375000000 16.312500000000 4.947998046875 160 160 160
22.125000000000 16.312500000000 4.902008056641 157 157 157
22.109375000000 16.312500000000 4.842010498047 162 162 162
22.109375000000 16.312500000000 4.791015625000 162 162 162
22.109375000000 16.312500000000 4.740020751953 162 162 162
22.062500000000 16.312500000000 4.675018310547 143 143 143
22.062500000000 16.375000000000 4.624023437500 135 135 135
22.062500000000 16.375000000000 4.575012207031 136 136 136
22.109375000000 16.312500000000 4.541015625000 161 161 161
22.109375000000 16.312500000000 4.493011474609 161 161 161
22.109375000000 16.312500000000 4.443023681641 162 162 162
22.109375000000 16.312500000000 4.393005371094 163 163 163
22.109375000000 16.312500000000 4.343017578125 165 165 165
22.109375000000 16.312500000000 4.295013427734 164 164 164
22.109375000000 16.312500000000 4.248016357422 165 165 165
22.109375000000 16.312500000000 4.199005126953 165 165 165
22.109375000000 16.312500000000 4.151000976563 164 164 164
22.109375000000 16.312500000000 4.102996826172 167 167 167
22.109375000000 16.312500000000 4.055999755859 166 166 166
22.109375000000 16.312500000000 4.007995605469 164 164 164
22.125000000000 16.312500000000 3.960998535156 163 163 163
22.109375000000 16.312500000000 3.912994384766 164 164 164
22.125000000000 16.312500000000 3.865997314453 151 151 151
22.125000000000 16.312500000000 3.818023681641 167 167 167
22.109375000000 16.312500000000 3.770019531250 169 169 169
22.109375000000 16.312500000000 3.723022460938 165 165 165
22.109375000000 16.312500000000 3.675994873047 166 166 166
22.109375000000 16.312500000000 3.628997802734 166 166 166
22.109375000000 16.312500000000 3.582000732422 165 165 165
22.062500000000 16.312500000000 3.535003662109 130 130 130
22.062500000000 16.312500000000 3.489013671875 138 138 138
22.062500000000 16.312500000000 3.442016601563 138 138 138
22.109375000000 16.312500000000 3.393005371094 167 167 167
22.125000000000 16.312500000000 3.345001220703 167 167 167
22.109375000000 16.312500000000 3.298004150391 164 164 164
22.125000000000 16.312500000000 3.250000000000 167 167 167
22.109375000000 16.312500000000 3.203002929688 164 164 164
22.109375000000 16.312500000000 3.154998779297 168 168 168
22.109375000000 16.312500000000 3.108001708984 166 166 166
22.125000000000 16.312500000000 3.059020996094 171 171 171
22.109375000000 16.312500000000 3.011016845703 166 166 166
22.125000000000 16.312500000000 2.962005615234 167 167 167
22.109375000000 16.312500000000 2.914001464844 167 167 167
22.125000000000 16.312500000000 2.865020751953 165 165 165
22.125000000000 16.312500000000 2.815002441406 164 164 164
22.109375000000 16.312500000000 2.768005371094 169 169 169
22.125000000000 16.312500000000 2.717010498047 168 168 168
22.109375000000 16.312500000000 2.669006347656 170 170 170
22.125000000000 16.312500000000 2.617004394531 163 163 163
22.125000000000 16.312500000000 2.567016601563 162 162 162
22.078125000000 16.312500000000 2.532012939453 130 130 130
22.078125000000 16.312500000000 2.479003906250 132 132 132
22.062500000000 16.312500000000 2.434020996094 127 127 127
22.125000000000 16.312500000000 2.363006591797 167 167 167
22.125000000000 16.312500000000 2.309997558594 164 164 164
22.125000000000 16.312500000000 2.260009765625 165 165 165
22.125000000000 16.312500000000 2.204010009766 163 163 163
22.125000000000 16.312500000000 2.154022216797 164 164 164
22.125000000000 16.312500000000 2.097015380859 162 162 162
22.125000000000 16.312500000000 2.044006347656 163 163 163
22.125000000000 16.312500000000 1.986022949219 167 167 167
22.125000000000 16.312500000000 1.933013916016 165 165 165
22.125000000000 16.312500000000 1.877014160156 169 169 169
22.125000000000 16.312500000000 1.825012207031 171 171 171
22.140625000000 16.250000000000 1.759002685547 172 172 172
22.140625000000 16.250000000000 1.704010009766 179 179 179
22.125000000000 16.312500000000 1.648010253906 183 183 183
22.109375000000 16.312500000000 1.602996826172 164 164 164
22.046875000000 16.375000000000 1.585021972656 176 176 176
21.968750000000 16.437500000000 1.579010009766 170 170 170
21.906250000000 16.437500000000 1.566009521484 169 169 169
21.843750000000 16.500000000000 1.550018310547 175 175 175
21.828125000000 16.500000000000 1.499023437500 184 184 184
21.828125000000 16.500000000000 1.442016601563 192 192 192
21.828125000000 16.500000000000 1.385009765625 185 185 185
21.390625000000 16.750000000000 8.752014160156 168 168 168
21.406250000000 16.750000000000 8.641998291016 169 169 169
21.484375000000 16.687500000000 8.670013427734 150 150 150
21.921875000000 16.375000000000 9.380004882813 109 109 109
21.921875000000 16.375000000000 9.223999023438 110 110 110
21.921875000000 16.375000000000 9.083007812500 106 106 106
21.921875000000 16.375000000000 8.945007324219 100 100 100
21.843750000000 16.437500000000 8.703002929688 134 134 134
21.875000000000 16.375000000000 8.632019042969 125 125 125
21.906250000000 16.375000000000 8.550994873047 114 114 114
21.906250000000 16.375000000000 8.432006835938 109 109 109
21.906250000000 16.375000000000 8.309020996094 104 104 104
21.906250000000 16.375000000000 8.205993652344 107 107 107
21.906250000000 16.375000000000 8.098022460938 105 105 105
21.906250000000 16.375000000000 7.989013671875 108 108 108
21.906250000000 16.375000000000 7.886016845703 106 106 106
21.906250000000 16.375000000000 7.795013427734 110 110 110
21.906250000000 16.375000000000 7.699005126953 117 117 117
21.906250000000 16.375000000000 7.611022949219 115 115 115
21.390625000000 16.750000000000 6.834014892578 167 167 167
21.421875000000 16.750000000000 6.804016113281 164 164 164
21.484375000000 16.687500000000 6.800994873047 150 150 150
21.578125000000 16.625000000000 6.842010498047 148 148 148
21.921875000000 16.375000000000 7.186004638672 122 122 122
21.906250000000 16.375000000000 7.079010009766 127 127 127
21.906250000000 16.375000000000 6.997009277344 121 121 121
21.921875000000 16.375000000000 6.944000244141 131 131 131
21.921875000000 16.375000000000 6.855010986328 128 128 128
21.828125000000 16.437500000000 6.690002441406 141 141 141
21.843750000000 16.437500000000 6.624023437500 123 123 123
21.875000000000 16.375000000000 6.593994140625 143 143 143
21.937500000000 16.312500000000 6.580993652344 132 132 132
21.937500000000 16.312500000000 6.513000488281 134 134 134
21.953125000000 16.312500000000 6.446014404297 133 133 133
21.953125000000 16.312500000000 6.391021728516 138 138 138
21.968750000000 16.312500000000 6.328002929688 137 137 137
21.968750000000 16.312500000000 6.261016845703 140 140 140
21.984375000000 16.312500000000 6.213012695313 150 150 150
22.000000000000 16.312500000000 6.154022216797 144 144 144
22.000000000000 16.312500000000 6.098022460938 144 144 144
22.015625000000 16.312500000000 6.039001464844 138 138 138
22.015625000000 16.250000000000 5.981994628906 140 140 140
22.031250000000 16.250000000000 5.923004150391 133 133 133
22.031250000000 16.250000000000 5.863006591797 130 130 130
22.046875000000 16.250000000000 5.812011718750 131 131 131
22.046875000000 16.250000000000 5.759002685547 125 125 125
22.062500000000 16.250000000000 5.705017089844 126 126 126
22.062500000000 16.250000000000 5.648010253906 129 129 129
21.937500000000 16.375000000000 5.507019042969 146 146 146
21.906250000000 16.375000000000 5.433013916016 132 132 132
21.906250000000 16.375000000000 5.382995605469 130 130 130
22.015625000000 16.312500000000 5.386993408203 141 141 141
22.062500000000 16.250000000000 5.365020751953 140 140 140
22.078125000000 16.250000000000 5.312011718750 130 130 130
22.078125000000 16.250000000000 5.256011962891 129 129 129
22.062500000000 16.250000000000 5.199005126953 125 125 125
22.078125000000 16.250000000000 5.149993896484 128 128 128
22.062500000000 16.250000000000 5.093017578125 129 129 129
22.078125000000 16.250000000000 5.042022705078 129 129 129
22.078125000000 16.250000000000 4.990020751953 125 125 125
22.078125000000 16.250000000000 4.938995361328 123 123 123
22.078125000000 16.250000000000 4.886993408203 121 121 121
22.078125000000 16.250000000000 4.833007812500 121 121 121
22.078125000000 16.250000000000 4.785003662109 128 128 128
21.906250000000 16.375000000000 4.670013427734 145 145 145
21.890625000000 16.375000000000 4.622009277344 137 137 137
21.906250000000 16.375000000000 4.576019287109 136 136 136
22.078125000000 16.250000000000 4.582000732422 143 143 143
22.078125000000 16.250000000000 4.536010742188 122 122 122
22.078125000000 16.250000000000 4.485015869141 121 121 121
22.078125000000 16.250000000000 4.437011718750 128 128 128
22.078125000000 16.250000000000 4.388000488281 132 132 132
22.078125000000 16.250000000000 4.338012695313 128 128 128
22.078125000000 16.250000000000 4.292022705078 130 130 130
22.093750000000 16.187500000000 4.244018554688 136 136 136
22.078125000000 16.250000000000 4.194000244141 133 133 133
22.078125000000 16.250000000000 4.147003173828 139 139 139
22.093750000000 16.187500000000 4.101013183594 138 138 138
22.093750000000 16.250000000000 4.052001953125 132 132 132
22.078125000000 16.250000000000 4.003997802734 133 133 133
22.078125000000 16.250000000000 3.957000732422 136 136 136
22.093750000000 16.250000000000 3.910003662109 134 134 134
22.093750000000 16.187500000000 3.863006591797 137 137 137
22.078125000000 16.250000000000 3.815002441406 137 137 137
22.078125000000 16.250000000000 3.768005371094 130 130 130
22.078125000000 16.250000000000 3.721008300781 136 136 136
22.078125000000 16.250000000000 3.674011230469 138 138 138
22.078125000000 16.250000000000 3.627014160156 141 141 141
22.015625000000 16.250000000000 3.580993652344 139 139 139
21.906250000000 16.375000000000 3.537017822266 136 136 136
21.906250000000 16.375000000000 3.493011474609 146 146 146
21.906250000000 16.375000000000 3.447998046875 139 139 139
22.078125000000 16.250000000000 3.393005371094 134 134 134
22.093750000000 16.187500000000 3.345001220703 128 128 128
22.093750000000 16.187500000000 3.296997070313 133 133 133
22.093750000000 16.187500000000 3.251007080078 134 134 134
22.093750000000 16.187500000000 3.203002929688 137 137 137
22.093750000000 16.187500000000 3.154998779297 135 135 135
22.093750000000 16.187500000000 3.108001708984 132 132 132
21.812500000000 16.437500000000 3.106018066406 156 156 156
21.812500000000 16.437500000000 3.063018798828 163 163 163
21.812500000000 16.437500000000 3.019012451172 148 148 148
22.031250000000 16.250000000000 2.930023193359 145 145 145
22.093750000000 16.187500000000 2.868011474609 137 137 137
22.078125000000 16.187500000000 2.820007324219 134 134 134
22.093750000000 16.187500000000 2.770019531250 149 149 149
22.093750000000 16.187500000000 2.721008300781 151 151 151
22.093750000000 16.187500000000 2.669006347656 150 150 150
22.093750000000 16.187500000000 2.621002197266 154 154 154
22.093750000000 16.187500000000 2.572021484375 136 136 136
22.093750000000 16.187500000000 2.520019531250 137 137 137
21.906250000000 16.375000000000 2.533996582031 125 125 125
21.906250000000 16.375000000000 2.488006591797 123 123 123
21.906250000000 16.375000000000 2.438995361328 123 123 123
22.046875000000 16.250000000000 2.332000732422 138 138 138
22.093750000000 16.187500000000 2.261993408203 162 162 162
22.109375000000 16.187500000000 2.205993652344 160 160 160
22.093750000000 16.187500000000 2.158020019531 152 152 152
22.109375000000 16.187500000000 2.101013183594 151 151 151
22.093750000000 16.187500000000 2.050018310547 151 151 151
22.093750000000 16.187500000000 1.996002197266 152 152 152
22.109375000000 16.187500000000 1.937011718750 151 151 151
22.093750000000 16.187500000000 1.886993408203 150 150 150
22.109375000000 16.187500000000 1.828002929688 150 150 150
22.093750000000 16.187500000000 1.773010253906 150 150 150
22.093750000000 16.187500000000 1.720001220703 149 149 149
22.093750000000 16.187500000000 1.662017822266 155 155 155
22.093750000000 16.187500000000 1.602020263672 170 170 170
22.015625000000 16.250000000000 1.591003417969 163 163 163
21.921875000000 16.312500000000 1.593994140625 166 166 166
21.859375000000 16.375000000000 1.587005615234 169 169 169
21.781250000000 16.437500000000 1.579010009766 161 161 161
21.718750000000 16.500000000000 1.570007324219 176 176 176
21.703125000000 16.500000000000 1.531005859375 180 180 180
21.703125000000 16.500000000000 1.470001220703 181 181 181
21.703125000000 16.500000000000 1.420013427734 165 165 165
21.218750000000 16.812500000000 8.684020996094 84 84 84
21.265625000000 16.750000000000 8.632019042969 159 159 159
21.937500000000 16.250000000000 9.884002685547 23 23 23
21.921875000000 16.250000000000 9.703002929688 51 51 51
21.921875000000 16.250000000000 9.541015625000 61 61 61
21.921875000000 16.250000000000 9.395019531250 74 74 74
21.906250000000 16.250000000000 9.235015869141 83 83 83
21.906250000000 16.250000000000 9.096008300781 102 102 102
21.906250000000 16.250000000000 8.951019287109 94 94 94
21.859375000000 16.312500000000 8.729003906250 116 116 116
21.890625000000 16.250000000000 8.669006347656 111 111 111
21.890625000000 16.250000000000 8.554016113281 121 121 121
21.890625000000 16.250000000000 8.429016113281 118 118 118
21.890625000000 16.250000000000 8.315002441406 118 118 118
21.890625000000 16.250000000000 8.195007324219 134 134 134
21.890625000000 16.250000000000 8.091003417969 131 131 131
21.875000000000 16.250000000000 7.977996826172 129 129 129
21.875000000000 16.250000000000 7.875000000000 130 130 130
21.250000000000 16.750000000000 6.890014648438 149 149 149
21.281250000000 16.750000000000 6.856994628906 170 170 170
21.328125000000 16.687500000000 6.848999023438 86 86 86
21.390625000000 16.687500000000 6.852996826172 101 101 101
21.875000000000 16.312500000000 7.389007568359 141 141 141
21.875000000000 16.312500000000 7.302001953125 144 144 144
21.859375000000 16.312500000000 7.209014892578 151 151 151
21.859375000000 16.312500000000 7.122009277344 145 145 145
21.859375000000 16.312500000000 7.035003662109 146 146 146
21.859375000000 16.312500000000 6.958007812500 153 153 153
21.859375000000 16.312500000000 6.877014160156 153 153 153
21.859375000000 16.312500000000 6.800994873047 150 150 150
21.828125000000 16.312500000000 6.694000244141 127 127 127
21.843750000000 16.312500000000 6.635009765625 118 118 118
21.843750000000 16.312500000000 6.563995361328 146 146 146
21.843750000000 16.312500000000 6.502014160156 145 145 145
21.843750000000 16.312500000000 6.434020996094 148 148 148
21.843750000000 16.312500000000 6.368011474609 156 156 156
21.843750000000 16.312500000000 6.290008544922 155 155 155
21.843750000000 16.312500000000 6.223022460938 154 154 154
21.828125000000 16.312500000000 6.157012939453 155 155 155
21.828125000000 16.312500000000 6.092010498047 160 160 160
21.828125000000 16.312500000000 6.027008056641 154 154 154
21.828125000000 16.312500000000 5.964996337891 159 159 159
21.828125000000 16.312500000000 5.910003662109 153 153 153
21.828125000000 16.312500000000 5.847015380859 159 159 159
21.828125000000 16.312500000000 5.787994384766 161 161 161
21.828125000000 16.312500000000 5.726013183594 161 161 161
21.828125000000 16.312500000000 5.666015625000 162 162 162
21.828125000000 16.312500000000 5.613006591797 158 158 158
21.828125000000 16.312500000000 5.555999755859 159 159 159
21.812500000000 16.312500000000 5.497009277344 168 168 168
21.812500000000 16.312500000000 5.438018798828 164 164 164
21.812500000000 16.312500000000 5.390014648438 161 161 161
21.812500000000 16.312500000000 5.333007812500 163 163 163
21.812500000000 16.312500000000 5.279998779297 161 161 161
21.812500000000 16.312500000000 5.227020263672 162 162 162
21.812500000000 16.312500000000 5.178009033203 169 169 169
21.812500000000 16.312500000000 5.124023437500 162 162 162
21.812500000000 16.312500000000 5.072998046875 162 162 162
21.812500000000 16.312500000000 5.024017333984 167 167 167
21.812500000000 16.312500000000 4.973999023438 168 168 168
21.812500000000 16.312500000000 4.925994873047 167 167 167
21.796875000000 16.312500000000 4.875000000000 166 166 166
21.796875000000 16.312500000000 4.826995849609 165 165 165
21.796875000000 16.312500000000 4.778015136719 165 165 165
21.796875000000 16.375000000000 4.727996826172 163 163 163
21.796875000000 16.375000000000 4.682006835938 164 164 164
21.796875000000 16.312500000000 4.636993408203 166 166 166
21.796875000000 16.312500000000 4.591003417969 165 165 165
21.796875000000 16.375000000000 4.542999267578 165 165 165
21.796875000000 16.375000000000 4.499023437500 167 167 167
21.796875000000 16.375000000000 4.451995849609 165 165 165
21.796875000000 16.375000000000 4.407012939453 166 166 166
21.796875000000 16.375000000000 4.361999511719 170 170 170
21.781250000000 16.375000000000 4.316009521484 168 168 168
21.781250000000 16.375000000000 4.272003173828 168 168 168
21.781250000000 16.375000000000 4.227020263672 164 164 164
21.781250000000 16.375000000000 4.183013916016 170 170 170
21.781250000000 16.375000000000 4.140014648438 167 167 167
21.781250000000 16.375000000000 4.097015380859 173 173 173
21.781250000000 16.375000000000 4.052001953125 169 169 169
21.781250000000 16.375000000000 4.009002685547 167 167 167
21.781250000000 16.375000000000 3.966003417969 164 164 164
21.781250000000 16.375000000000 3.923004150391 171 171 171
21.781250000000 16.375000000000 3.881011962891 170 170 170
21.765625000000 16.375000000000 3.837005615234 170 170 170
21.765625000000 16.375000000000 3.794006347656 169 169 169
21.765625000000 16.375000000000 3.751007080078 166 166 166
21.765625000000 16.375000000000 3.708007812500 168 168 168
21.765625000000 16.375000000000 3.666015625000 169 169 169
21.765625000000 16.375000000000 3.624023437500 173 173 173
21.765625000000 16.375000000000 3.580993652344 170 170 170
21.765625000000 16.375000000000 3.539001464844 166 166 166
21.765625000000 16.375000000000 3.496002197266 172 172 172
21.765625000000 16.375000000000 3.454010009766 169 169 169
21.765625000000 16.375000000000 3.411010742188 173 173 173
21.765625000000 16.375000000000 3.368011474609 173 173 173
21.765625000000 16.375000000000 3.326019287109 169 169 169
21.750000000000 16.375000000000 3.283996582031 168 168 168
21.765625000000 16.375000000000 3.240997314453 172 172 172
21.765625000000 16.375000000000 3.197998046875 169 169 169
21.765625000000 16.375000000000 3.154998779297 166 166 166
21.765625000000 16.375000000000 3.111999511719 172 172 172
21.765625000000 16.375000000000 3.069000244141 170 170 170
21.765625000000 16.375000000000 3.026000976563 165 165 165
21.750000000000 16.375000000000 2.983001708984 166 166 166
21.765625000000 16.375000000000 2.938995361328 163 163 163
21.765625000000 16.375000000000 2.895019531250 164 164 164
21.765625000000 16.375000000000 2.851013183594 162 162 162
21.750000000000 16.375000000000 2.809997558594 162 162 162
21.750000000000 16.375000000000 2.765014648438 163 163 163
21.750000000000 16.375000000000 2.720001220703 157 157 157
21.750000000000 16.375000000000 2.674011230469 158 158 158
21.765625000000 16.375000000000 2.628021240234 158 158 158
21.750000000000 16.375000000000 2.585021972656 157 157 157
21.750000000000 16.375000000000 2.541015625000 155 155 155
21.750000000000 16.375000000000 2.494995117188 155 155 155
21.750000000000 16.375000000000 2.445007324219 156 156 156
21.750000000000 16.375000000000 2.402008056641 153 153 153
21.750000000000 16.375000000000 2.352996826172 154 154 154
21.734375000000 16.375000000000 2.309997558594 162 162 162
21.750000000000 16.375000000000 2.261993408203 155 155 155
21.734375000000 16.375000000000 2.214996337891 152 152 152
21.750000000000 16.375000000000 2.164001464844 154 154 154
21.750000000000 16.375000000000 2.117004394531 153 153 153
21.750000000000 16.375000000000 2.067016601563 152 152 152
21.734375000000 16.375000000000 2.020996093750 152 152 152
21.734375000000 16.375000000000 1.968017578125 147 147 147
21.734375000000 16.375000000000 1.920013427734 153 153 153
21.734375000000 16.375000000000 1.867004394531 156 156 156
21.734375000000 16.375000000000 1.815002441406 147 147 147
21.750000000000 16.375000000000 1.760009765625 145 145 145
21.750000000000 16.375000000000 1.707000732422 145 145 145
21.750000000000 16.375000000000 1.653015136719 146 146 146
21.734375000000 16.375000000000 1.600006103516 159 159 159
21.687500000000 16.437500000000 1.580017089844 166 166 166
21.640625000000 16.437500000000 1.558013916016 186 186 186
21.640625000000 16.437500000000 1.503997802734 163 163 163
21.656250000000 16.437500000000 1.446014404297 175 175 175
21.640625000000 16.437500000000 1.391021728516 167 167 167
21.906250000000 16.250000000000 7.621002197266 109 109 109
21.906250000000 16.250000000000 7.519012451172 116 116 116
21.125000000000 16.750000000000 8.625000000000 136 136 136
21.828125000000 16.250000000000 8.701995849609 39 39 39
21.890625000000 16.187500000000 8.686004638672 123 123 123
21.890625000000 16.187500000000 8.575012207031 102 102 102
21.109375000000 16.750000000000 6.942016601563 73 73 73
21.140625000000 16.750000000000 6.919006347656 138 138 138
21.187500000000 16.687500000000 6.908020019531 37 37 37
21.812500000000 16.250000000000 6.691009521484 117 117 117
21.828125000000 16.187500000000 6.639007568359 115 115 115
21.843750000000 16.187500000000 6.575012207031 133 133 133
21.781250000000 16.250000000000 4.919006347656 42 42 42
21.781250000000 16.250000000000 4.872009277344 55 55 55
21.781250000000 16.250000000000 4.824005126953 68 68 68
21.781250000000 16.250000000000 4.779022216797 89 89 89
21.781250000000 16.250000000000 4.727996826172 86 86 86
21.781250000000 16.250000000000 4.680999755859 96 96 96
21.781250000000 16.250000000000 4.635009765625 97 97 97
21.781250000000 16.250000000000 4.589996337891 97 97 97
21.781250000000 16.250000000000 4.546020507813 102 102 102
21.781250000000 16.250000000000 4.500000000000 113 113 113
21.781250000000 16.250000000000 4.453002929688 112 112 112
21.781250000000 16.250000000000 4.407012939453 119 119 119
21.781250000000 16.250000000000 4.364013671875 124 124 124
21.781250000000 16.250000000000 4.317016601563 123 123 123
21.781250000000 16.250000000000 4.273010253906 127 127 127
21.765625000000 16.250000000000 4.227020263672 130 130 130
21.781250000000 16.250000000000 4.184997558594 125 125 125
