17.953125000000 18.062500000000 8.335021972656 71 71 71
17.968750000000 18.000000000000 6.867004394531 36 36 36
18.515625000000 17.500000000000 8.553009033203 41 41 41
18.000000000000 17.875000000000 6.871002197266 82 82 82
18.531250000000 17.375000000000 6.881011962891 43 43 43
18.500000000000 17.437500000000 8.536010742188 39 39 39
17.984375000000 17.812500000000 6.864013671875 84 84 84
18.515625000000 17.312500000000 6.886993408203 103 103 103
18.484375000000 17.312500000000 8.565002441406 42 42 42
17.968750000000 17.750000000000 8.358001708984 79 79 79
18.515625000000 17.187500000000 6.882019042969 150 150 150
18.484375000000 17.250000000000 8.570007324219 38 38 38
17.953125000000 17.625000000000 8.364013671875 55 55 55
17.984375000000 17.562500000000 6.882019042969 95 95 95
18.500000000000 17.125000000000 6.886993408203 180 180 180
18.468750000000 17.125000000000 8.575012207031 33 33 33
17.984375000000 17.500000000000 6.875000000000 63 63 63
18.453125000000 17.062500000000 8.566009521484 34 34 34
17.968750000000 17.437500000000 8.378021240234 41 41 41
18.000000000000 17.375000000000 6.863006591797 60 60 60
17.953125000000 17.312500000000 8.394012451172 89 89 89
17.984375000000 17.312500000000 6.865997314453 93 93 93
18.312500000000 15.687500000000 6.891021728516 146 146 146
18.281250000000 15.750000000000 8.651000976563 27 27 27
18.281250000000 15.625000000000 8.641021728516 35 35 35
18.328125000000 15.500000000000 6.888000488281 157 157 157
18.265625000000 15.562500000000 8.643005371094 27 27 27
17.906250000000 15.812500000000 6.877014160156 80 80 80
18.312500000000 15.375000000000 6.886016845703 127 127 127
17.890625000000 15.750000000000 6.874023437500 90 90 90
18.296875000000 15.312500000000 6.904998779297 100 100 100
17.875000000000 15.625000000000 6.891998291016 98 98 98
18.328125000000 15.187500000000 6.901000976563 39 39 39
17.859375000000 15.562500000000 6.871002197266 100 100 100
18.312500000000 15.125000000000 6.897003173828 161 161 161
18.265625000000 15.125000000000 8.602996826172 37 37 37
17.859375000000 15.437500000000 6.877014160156 110 110 110
18.296875000000 15.000000000000 6.894012451172 133 133 133
18.250000000000 15.062500000000 8.615020751953 43 43 43
17.843750000000 15.375000000000 6.877014160156 109 109 109
12.843750000000 19.187500000000 6.894012451172 13 13 13
18.281250000000 14.937500000000 6.902008056641 98 98 98
18.250000000000 14.937500000000 8.592010498047 29 29 29
17.828125000000 15.250000000000 6.878997802734 99 99 99
12.828125000000 19.125000000000 6.894012451172 13 13 13
17.796875000000 15.187500000000 8.311004638672 49 49 49
17.812500000000 15.187500000000 6.872009277344 92 92 92
18.296875000000 14.687500000000 6.901000976563 160 160 160
17.781250000000 15.125000000000 8.305023193359 75 75 75
17.812500000000 15.062500000000 6.874023437500 80 80 80
12.843750000000 18.937500000000 8.016021728516 12 12 12
18.281250000000 14.625000000000 6.898010253906 122 122 122
17.765625000000 15.000000000000 8.319000244141 79 79 79
17.796875000000 15.000000000000 6.872009277344 49 49 49
12.843750000000 18.812500000000 8.007019042969 8 8 8
18.265625000000 14.500000000000 6.908996582031 44 44 44
18.234375000000 14.562500000000 8.558013916016 42 42 42
17.750000000000 14.937500000000 8.309997558594 82 82 82
18.281250000000 14.375000000000 6.886993408203 105 105 105
18.218750000000 14.437500000000 8.562011718750 30 30 30
17.750000000000 14.812500000000 8.287017822266 79 79 79
18.281250000000 14.312500000000 6.911010742188 152 152 152
17.734375000000 14.750000000000 8.298004150391 74 74 74
18.265625000000 14.187500000000 6.915008544922 115 115 115
17.718750000000 14.625000000000 8.279998779297 64 64 64
17.703125000000 14.562500000000 8.270019531250 64 64 64
17.765625000000 14.500000000000 6.882019042969 64 64 64
18.265625000000 14.000000000000 6.908996582031 77 77 77
18.218750000000 14.062500000000 8.528015136719 34 34 34
17.703125000000 14.437500000000 8.277008056641 62 62 62
17.750000000000 14.375000000000 6.878997802734 71 71 71
18.265625000000 13.937500000000 6.928009033203 141 141 141
18.218750000000 13.937500000000 8.510009765625 38 38 38
17.687500000000 14.375000000000 8.274993896484 54 54 54
17.750000000000 14.312500000000 6.881011962891 89 89 89
12.859375000000 18.062500000000 6.898010253906 12 12 12
18.250000000000 13.812500000000 6.921020507813 96 96 96
18.203125000000 13.875000000000 8.516998291016 45 45 45
17.687500000000 14.250000000000 8.265014648438 51 51 51
17.734375000000 14.187500000000 6.882995605469 108 108 108
12.859375000000 18.000000000000 6.893005371094 11 11 11
17.671875000000 14.187500000000 8.263000488281 47 47 47
17.718750000000 14.125000000000 6.871002197266 105 105 105
12.843750000000 17.875000000000 6.899993896484 12 12 12
17.656250000000 14.062500000000 8.263000488281 28 28 28
17.703125000000 14.000000000000 6.869995117188 121 121 121
17.703125000000 13.937500000000 6.877014160156 118 118 118
18.250000000000 13.500000000000 6.960998535156 105 105 105
18.203125000000 13.437500000000 8.503021240234 37 37 37
17.687500000000 13.812500000000 6.884002685547 107 107 107
17.671875000000 13.750000000000 6.878021240234 83 83 83
12.843750000000 17.437500000000 7.981994628906 9 9 9
17.656250000000 13.625000000000 6.881011962891 73 73 73
12.843750000000 17.375000000000 7.964996337891 14 14 14
17.640625000000 13.562500000000 6.885009765625 48 48 48
12.843750000000 17.250000000000 7.953002929688 11 11 11
18.187500000000 12.937500000000 8.480010986328 43 43 43
12.875000000000 17.000000000000 6.904022216797 12 12 12
18.171875000000 12.875000000000 8.464996337891 26 26 26
12.875000000000 16.937500000000 6.903015136719 14 14 14
9.687500000000 19.375000000000 8.372009277344 17 17 17
12.843750000000 16.875000000000 6.911010742188 18 18 18
9.687500000000 19.312500000000 8.371002197266 16 16 16
12.843750000000 16.750000000000 6.908996582031 16 16 16
9.687500000000 19.187500000000 8.371002197266 14 14 14
9.687500000000 19.125000000000 8.364013671875 15 15 15
9.671875000000 19.000000000000 8.361022949219 19 19 19
17.546875000000 12.812500000000 8.197998046875 44 44 44
17.593750000000 12.812500000000 6.868011474609 88 88 88
12.843750000000 16.437500000000 6.979003906250 48 48 48
9.671875000000 18.875000000000 8.358001708984 13 13 13
18.156250000000 12.375000000000 8.427001953125 31 31 31
17.531250000000 12.750000000000 8.220001220703 71 71 71
17.578125000000 12.687500000000 6.881011962891 126 126 126
9.671875000000 18.750000000000 8.348022460938 10 10 10
17.531250000000 12.625000000000 8.205017089844 77 77 77
17.562500000000 12.625000000000 6.882995605469 128 128 128
9.671875000000 18.687500000000 8.342010498047 5 5 5
8.750000000000 19.375000000000 8.395996093750 8 8 8
17.515625000000 12.562500000000 8.207000732422 83 83 83
17.546875000000 12.500000000000 6.877014160156 121 121 121
8.750000000000 19.250000000000 8.385009765625 11 11 11
17.500000000000 12.437500000000 8.195007324219 84 84 84
17.546875000000 12.437500000000 6.888000488281 125 125 125
8.750000000000 19.187500000000 8.375000000000 9 9 9
17.500000000000 12.375000000000 8.191009521484 77 77 77
17.531250000000 12.312500000000 6.881011962891 110 110 110
12.859375000000 15.937500000000 7.934020996094 11 11 11
8.750000000000 19.062500000000 8.375000000000 11 11 11
17.484375000000 12.250000000000 8.199005126953 79 79 79
17.515625000000 12.250000000000 6.886016845703 115 115 115
12.859375000000 15.812500000000 7.925994873047 11 11 11
9.671875000000 18.250000000000 8.316009521484 8 8 8
8.718750000000 19.000000000000 8.384002685547 11 11 11
17.468750000000 12.187500000000 8.191009521484 85 85 85
17.515625000000 12.125000000000 6.891021728516 104 104 104
12.843750000000 15.750000000000 7.940002441406 13 13 13
12.859375000000 15.687500000000 6.921020507813 11 11 11
9.656250000000 18.187500000000 8.320007324219 9 9 9
8.734375000000 18.875000000000 8.372009277344 4 4 4
17.468750000000 12.062500000000 8.196014404297 81 81 81
17.500000000000 12.062500000000 6.877014160156 111 111 111
12.843750000000 15.625000000000 7.925018310547 14 14 14
12.843750000000 15.625000000000 6.925994873047 16 16 16
9.671875000000 18.062500000000 8.313995361328 10 10 10
17.453125000000 12.000000000000 8.171020507813 75 75 75
17.484375000000 11.937500000000 6.869995117188 95 95 95
12.843750000000 15.562500000000 7.925994873047 14 14 14
12.859375000000 15.500000000000 6.908020019531 13 13 13
9.671875000000 18.000000000000 8.308013916016 15 15 15
17.437500000000 11.875000000000 8.177001953125 68 68 68
17.484375000000 11.875000000000 6.884002685547 91 91 91
9.671875000000 17.875000000000 8.308013916016 13 13 13
17.437500000000 11.812500000000 8.175018310547 67 67 67
17.468750000000 11.750000000000 6.885009765625 84 84 84
9.671875000000 17.750000000000 8.298004150391 15 15 15
17.421875000000 11.687500000000 8.164001464844 45 45 45
9.656250000000 17.687500000000 8.296020507813 10 10 10
17.406250000000 11.625000000000 8.166015625000 37 37 37
8.750000000000 18.250000000000 8.342010498047 11 11 11
17.390625000000 11.500000000000 8.162017822266 23 23 23
8.750000000000 18.187500000000 8.335021972656 13 13 13
17.453125000000 11.375000000000 6.878997802734 50 50 50
8.734375000000 18.062500000000 8.330993652344 12 12 12
17.437500000000 11.250000000000 6.882019042969 71 71 71
8.734375000000 17.937500000000 8.318023681641 12 12 12
17.421875000000 11.187500000000 6.882995605469 78 78 78
8.734375000000 17.875000000000 8.312011718750 13 13 13
17.421875000000 11.062500000000 6.885009765625 117 117 117
8.734375000000 17.750000000000 8.313018798828 9 9 9
17.406250000000 11.000000000000 6.873016357422 117 117 117
12.859375000000 14.500000000000 6.921020507813 17 17 17
8.734375000000 17.687500000000 8.305023193359 9 9 9
17.390625000000 10.875000000000 6.881011962891 96 96 96
12.875000000000 14.375000000000 6.916015625000 15 15 15
9.656250000000 16.875000000000 8.247009277344 4 4 4
17.390625000000 10.812500000000 6.882995605469 141 141 141
12.859375000000 14.312500000000 7.902008056641 19 19 19
12.843750000000 14.312500000000 6.924011230469 18 18 18
8.734375000000 17.500000000000 8.309020996094 9 9 9
17.375000000000 10.687500000000 6.885009765625 148 148 148
12.859375000000 14.187500000000 7.893005371094 14 14 14
8.750000000000 17.375000000000 8.298004150391 9 9 9
17.359375000000 10.625000000000 6.880004882813 141 141 141
8.734375000000 17.250000000000 8.296997070313 9 9 9
17.343750000000 10.500000000000 6.891021728516 137 137 137
8.750000000000 17.125000000000 8.286010742188 5 5 5
17.343750000000 10.437500000000 6.897003173828 128 128 128
8.734375000000 17.062500000000 8.283020019531 12 12 12
17.328125000000 10.312500000000 6.890014648438 119 119 119
8.734375000000 16.937500000000 8.272003173828 12 12 12
17.296875000000 10.250000000000 8.119995117188 33 33 33
17.312500000000 10.250000000000 6.894012451172 92 92 92
8.734375000000 16.812500000000 8.263000488281 13 13 13
17.281250000000 10.187500000000 8.111022949219 30 30 30
17.296875000000 10.125000000000 6.882995605469 95 95 95
8.734375000000 16.750000000000 8.256011962891 12 12 12
17.281250000000 10.062500000000 8.101013183594 45 45 45
17.296875000000 10.062500000000 6.882019042969 91 91 91
8.718750000000 16.625000000000 8.260009765625 12 12 12
17.265625000000 10.000000000000 8.128997802734 36 36 36
17.281250000000 9.937500000000 6.893005371094 92 92 92
8.734375000000 16.500000000000 8.248016357422 12 12 12
17.250000000000 9.875000000000 8.109008789063 38 38 38
17.265625000000 9.875000000000 6.893005371094 89 89 89
12.859375000000 13.250000000000 6.934997558594 16 16 16
8.734375000000 16.437500000000 8.253021240234 12 12 12
17.250000000000 9.812500000000 8.111022949219 37 37 37
17.265625000000 9.750000000000 6.899993896484 82 82 82
12.875000000000 13.125000000000 6.921997070313 18 18 18
8.734375000000 16.312500000000 8.253997802734 8 8 8
17.234375000000 9.687500000000 8.083007812500 40 40 40
17.250000000000 9.687500000000 6.884002685547 77 77 77
12.875000000000 13.062500000000 6.919006347656 22 22 22
17.218750000000 9.625000000000 8.106018066406 65 65 65
17.234375000000 9.562500000000 6.895996093750 44 44 44
12.859375000000 12.937500000000 6.921997070313 19 19 19
17.218750000000 9.500000000000 8.096008300781 75 75 75
12.859375000000 12.875000000000 7.882019042969 16 16 16
8.750000000000 16.000000000000 8.243011474609 11 11 11
17.203125000000 9.437500000000 8.095001220703 85 85 85
12.859375000000 12.750000000000 7.865020751953 15 15 15
8.750000000000 15.937500000000 8.231994628906 12 12 12
17.187500000000 9.312500000000 8.093994140625 87 87 87
17.234375000000 9.250000000000 6.902008056641 29 29 29
8.734375000000 15.812500000000 8.222015380859 13 13 13
17.171875000000 9.250000000000 8.089019775391 75 75 75
17.218750000000 9.187500000000 6.886993408203 103 103 103
8.718750000000 15.687500000000 8.220001220703 13 13 13
17.171875000000 9.125000000000 8.069000244141 68 68 68
17.218750000000 9.062500000000 6.878021240234 143 143 143
8.718750000000 15.625000000000 8.209014892578 14 14 14
17.156250000000 9.062500000000 8.083007812500 74 74 74
17.203125000000 9.000000000000 6.899993896484 153 153 153
8.734375000000 15.500000000000 8.201019287109 13 13 13
17.140625000000 8.937500000000 8.080993652344 68 68 68
17.187500000000 8.937500000000 6.888000488281 150 150 150
8.718750000000 15.437500000000 8.205993652344 13 13 13
17.140625000000 8.875000000000 8.085021972656 69 69 69
17.187500000000 8.812500000000 6.901000976563 147 147 147
8.718750000000 15.312500000000 8.205017089844 12 12 12
17.125000000000 8.750000000000 8.080993652344 63 63 63
17.171875000000 8.750000000000 6.899017333984 149 149 149
12.875000000000 12.000000000000 6.933013916016 17 17 17
8.734375000000 15.187500000000 8.199005126953 12 12 12
17.125000000000 8.687500000000 8.071014404297 62 62 62
17.156250000000 8.625000000000 6.897003173828 147 147 147
12.875000000000 11.937500000000 6.933013916016 28 28 28
9.671875000000 14.375000000000 7.972015380859 145 145 145
8.718750000000 15.125000000000 8.209014892578 14 14 14
17.109375000000 8.562500000000 8.059997558594 53 53 53
17.156250000000 8.500000000000 6.904022216797 154 154 154
12.875000000000 11.812500000000 6.929016113281 22 22 22
9.671875000000 14.250000000000 7.971008300781 144 144 144
8.734375000000 15.000000000000 8.195007324219 13 13 13
17.093750000000 8.500000000000 8.054016113281 52 52 52
17.140625000000 8.437500000000 6.904022216797 151 151 151
9.625000000000 14.187500000000 8.130004882813 61 61 61
9.656250000000 14.187500000000 7.971008300781 155 155 155
8.734375000000 14.875000000000 8.194000244141 10 10 10
17.078125000000 8.375000000000 8.055999755859 42 42 42
17.125000000000 8.375000000000 6.902008056641 127 127 127
12.875000000000 11.625000000000 7.856994628906 21 21 21
9.656250000000 14.062500000000 8.098999023438 6 6 6
9.656250000000 14.062500000000 7.966003417969 120 120 120
8.734375000000 14.812500000000 8.180999755859 13 13 13
17.078125000000 8.312500000000 8.044006347656 45 45 45
17.109375000000 8.250000000000 6.902008056641 121 121 121
12.859375000000 11.500000000000 7.852996826172 22 22 22
8.718750000000 14.687500000000 8.178009033203 13 13 13
17.062500000000 8.187500000000 8.050994873047 42 42 42
17.109375000000 8.187500000000 6.901000976563 125 125 125
8.703125000000 14.625000000000 8.173004150391 14 14 14
17.093750000000 8.062500000000 6.901000976563 109 109 109
9.546875000000 13.875000000000 8.130004882813 13 13 13
8.734375000000 14.500000000000 8.147003173828 5 5 5
9.968750000000 13.500000000000 7.369995117188 180 180 180
17.078125000000 8.000000000000 6.910003662109 85 85 85
9.531250000000 13.750000000000 8.132019042969 16 16 16
8.750000000000 14.375000000000 8.130004882813 5 5 5
9.968750000000 13.437500000000 7.365997314453 181 181 181
17.062500000000 7.875000000000 6.904998779297 66 66 66
12.875000000000 11.062500000000 6.951995849609 19 19 19
9.531250000000 13.625000000000 8.121002197266 16 16 16
9.937500000000 13.312500000000 7.501007080078 20 20 20
9.968750000000 13.312500000000 7.359008789063 191 191 191
17.062500000000 7.812500000000 6.915008544922 43 43 43
12.875000000000 11.000000000000 6.941009521484 26 26 26
9.531250000000 13.562500000000 8.124023437500 14 14 14
8.718750000000 14.187500000000 8.136993408203 9 9 9
9.968750000000 13.187500000000 7.359008789063 192 192 192
12.875000000000 10.875000000000 6.936004638672 25 25 25
8.718750000000 14.062500000000 8.143005371094 13 13 13
8.609375000000 14.187500000000 8.044006347656 21 21 21
8.609375000000 14.187500000000 7.902008056641 107 107 107
12.875000000000 10.812500000000 6.938995361328 30 30 30
8.703125000000 14.000000000000 8.149017333984 13 13 13
8.640625000000 14.062500000000 8.040008544922 13 13 13
8.609375000000 14.062500000000 7.906005859375 154 154 154
12.875000000000 10.687500000000 6.930023193359 19 19 19
8.734375000000 13.875000000000 8.141998291016 14 14 14
8.593750000000 14.000000000000 8.062011718750 16 16 16
8.609375000000 14.000000000000 7.910003662109 172 172 172
12.875000000000 10.562500000000 6.929016113281 19 19 19
8.734375000000 13.750000000000 8.135009765625 14 14 14
8.593750000000 13.875000000000 7.917022705078 103 103 103
17.031250000000 7.312500000000 6.915008544922 50 50 50
8.734375000000 13.687500000000 8.136993408203 12 12 12
17.015625000000 7.187500000000 6.908020019531 82 82 82
12.875000000000 10.375000000000 7.842010498047 15 15 15
8.718750000000 13.562500000000 8.132019042969 12 12 12
17.015625000000 7.125000000000 6.911010742188 138 138 138
12.875000000000 10.250000000000 7.832000732422 19 19 19
9.531250000000 12.812500000000 8.098999023438 9 9 9
8.718750000000 13.500000000000 8.123016357422 16 16 16
16.968750000000 7.062500000000 8.015014648438 35 35 35
17.000000000000 7.000000000000 6.904998779297 167 167 167
9.531250000000 12.750000000000 8.087005615234 18 18 18
8.718750000000 13.375000000000 8.111999511719 8 8 8
16.953125000000 6.937500000000 8.006011962891 61 61 61
16.984375000000 6.937500000000 6.912994384766 155 155 155
12.890625000000 10.062500000000 6.949005126953 15 15 15
9.515625000000 12.625000000000 8.078002929688 16 16 16
9.906250000000 12.312500000000 7.471008300781 17 17 17
16.953125000000 6.875000000000 8.010009765625 71 71 71
16.984375000000 6.812500000000 6.910003662109 167 167 167
12.890625000000 9.937500000000 6.946014404297 31 31 31
9.500000000000 12.562500000000 8.080017089844 18 18 18
9.906250000000 12.250000000000 7.462005615234 22 22 22
16.937500000000 6.750000000000 8.006011962891 83 83 83
16.968750000000 6.750000000000 6.908996582031 150 150 150
12.875000000000 9.875000000000 6.943023681641 24 24 24
9.500000000000 12.437500000000 8.072021484375 20 20 20
9.921875000000 12.125000000000 7.455993652344 23 23 23
16.921875000000 6.687500000000 8.014007568359 84 84 84
16.953125000000 6.625000000000 6.902008056641 136 136 136
12.875000000000 9.750000000000 6.945007324219 22 22 22
9.484375000000 12.375000000000 8.083007812500 18 18 18
9.921875000000 12.000000000000 7.455017089844 10 10 10
8.703125000000 12.937500000000 8.089996337891 5 5 5
16.921875000000 6.562500000000 8.007019042969 87 87 87
16.937500000000 6.562500000000 6.915008544922 136 136 136
9.515625000000 12.250000000000 8.070007324219 11 11 11
8.718750000000 12.812500000000 8.085998535156 14 14 14
16.906250000000 6.500000000000 7.990020751953 87 87 87
16.937500000000 6.437500000000 6.911010742188 116 116 116
9.515625000000 12.125000000000 8.072021484375 6 6 6
8.718750000000 12.750000000000 8.089996337891 16 16 16
16.890625000000 6.375000000000 8.009002685547 87 87 87
16.921875000000 6.375000000000 6.917999267578 120 120 120
8.718750000000 12.625000000000 8.092010498047 16 16 16
16.890625000000 6.250000000000 7.998016357422 88 88 88
16.906250000000 6.250000000000 6.921997070313 125 125 125
8.718750000000 12.562500000000 8.091003417969 16 16 16
16.875000000000 6.187500000000 7.999023437500 88 88 88
16.906250000000 6.125000000000 6.910003662109 116 116 116
9.515625000000 11.812500000000 8.063995361328 8 8 8
8.718750000000 12.437500000000 8.088012695313 17 17 17
16.859375000000 6.125000000000 8.000000000000 87 87 87
16.890625000000 6.062500000000 6.914001464844 123 123 123
12.875000000000 9.125000000000 7.826995849609 27 27 27
9.500000000000 11.750000000000 8.063018798828 15 15 15
8.718750000000 12.312500000000 8.072998046875 13 13 13
16.859375000000 6.000000000000 8.002014160156 66 66 66
16.875000000000 6.000000000000 6.902008056641 100 100 100
12.875000000000 9.062500000000 7.821014404297 17 17 17
9.500000000000 11.625000000000 8.052001953125 18 18 18
9.890625000000 11.312500000000 7.442016601563 26 26 26
16.843750000000 5.937500000000 7.993011474609 58 58 58
16.859375000000 5.875000000000 6.921020507813 76 76 76
12.890625000000 8.937500000000 6.953002929688 28 28 28
9.484375000000 11.500000000000 8.040008544922 20 20 20
9.906250000000 11.187500000000 7.423004150391 38 38 38
16.828125000000 5.812500000000 7.989013671875 56 56 56
16.859375000000 5.812500000000 6.916015625000 60 60 60
12.890625000000 8.812500000000 6.950012207031 20 20 20
9.500000000000 11.437500000000 8.024017333984 19 19 19
9.890625000000 11.125000000000 7.419006347656 31 31 31
16.812500000000 5.750000000000 7.985015869141 52 52 52
16.843750000000 5.687500000000 6.917999267578 64 64 64
9.484375000000 11.312500000000 8.026000976563 16 16 16
9.906250000000 11.000000000000 7.408020019531 31 31 31
9.484375000000 11.250000000000 8.020019531250 15 15 15
9.906250000000 10.875000000000 7.407012939453 37 37 37
9.484375000000 11.125000000000 8.019012451172 24 24 24
9.890625000000 10.812500000000 7.412017822266 38 38 38
9.468750000000 11.000000000000 8.033020019531 16 16 16
9.890625000000 10.687500000000 7.416015625000 24 24 24
9.500000000000 10.937500000000 8.016021728516 20 20 20
9.906250000000 10.625000000000 7.415008544922 17 17 17
8.750000000000 11.500000000000 8.020996093750 5 5 5
9.484375000000 10.812500000000 8.031005859375 16 16 16
9.906250000000 10.500000000000 7.414001464844 15 15 15
8.734375000000 11.437500000000 8.033020019531 13 13 13
16.812500000000 5.125000000000 6.977996826172 125 125 125
12.906250000000 8.125000000000 7.811004638672 17 17 17
9.500000000000 10.750000000000 8.020019531250 20 20 20
9.890625000000 10.437500000000 7.417999267578 22 22 22
8.734375000000 11.312500000000 8.024993896484 10 10 10
16.796875000000 5.000000000000 6.934020996094 138 138 138
12.890625000000 8.000000000000 7.817016601563 32 32 32
9.484375000000 10.625000000000 8.015014648438 17 17 17
9.875000000000 10.312500000000 7.415008544922 34 34 34
16.781250000000 4.937500000000 6.920013427734 151 151 151
12.890625000000 7.937500000000 7.803009033203 22 22 22
12.906250000000 7.875000000000 6.967010498047 22 22 22
9.468750000000 10.562500000000 8.011993408203 17 17 17
9.890625000000 10.187500000000 7.395019531250 37 37 37
16.781250000000 4.812500000000 6.927001953125 157 157 157
12.890625000000 7.812500000000 6.963012695313 32 32 32
9.593750000000 10.312500000000 8.062011718750 14 14 14
9.500000000000 10.437500000000 7.986022949219 11 11 11
9.890625000000 10.125000000000 7.390014648438 43 43 43
16.765625000000 4.750000000000 6.916015625000 153 153 153
9.609375000000 10.187500000000 8.042999267578 19 19 19
9.875000000000 10.000000000000 7.382995605469 41 41 41
8.687500000000 10.937500000000 8.007019042969 10 10 10
16.750000000000 4.625000000000 6.921997070313 144 144 144
9.578125000000 10.125000000000 8.046020507813 20 20 20
9.875000000000 9.875000000000 7.373016357422 28 28 28
8.640625000000 10.812500000000 8.019012451172 13 13 13
16.734375000000 4.562500000000 6.924011230469 132 132 132
9.593750000000 10.000000000000 8.035003662109 22 22 22
9.875000000000 9.750000000000 7.368011474609 29 29 29
8.640625000000 10.750000000000 8.013000488281 14 14 14
16.734375000000 4.437500000000 6.927001953125 121 121 121
9.578125000000 9.937500000000 8.037017822266 21 21 21
9.875000000000 9.687500000000 7.369995117188 35 35 35
16.718750000000 4.375000000000 6.928009033203 131 131 131
9.578125000000 9.812500000000 8.037994384766 11 11 11
9.468750000000 9.875000000000 7.977020263672 14 14 14
9.875000000000 9.562500000000 7.371002197266 38 38 38
16.703125000000 4.250000000000 6.940002441406 117 117 117
12.890625000000 7.187500000000 7.820007324219 22 22 22
9.593750000000 9.687500000000 8.037017822266 14 14 14
9.468750000000 9.812500000000 7.975006103516 16 16 16
9.875000000000 9.500000000000 7.372009277344 40 40 40
16.703125000000 4.125000000000 6.924011230469 126 126 126
12.890625000000 7.062500000000 7.811004638672 31 31 31
9.609375000000 9.625000000000 8.029998779297 7 7 7
9.468750000000 9.687500000000 7.976013183594 17 17 17
9.890625000000 9.375000000000 7.369018554688 39 39 39
16.687500000000 4.062500000000 6.928009033203 121 121 121
12.890625000000 7.000000000000 7.803009033203 33 33 33
9.484375000000 9.625000000000 7.972015380859 19 19 19
9.875000000000 9.312500000000 7.372009277344 39 39 39
16.687500000000 4.000000000000 6.921997070313 117 117 117
12.890625000000 6.875000000000 7.796997070313 25 25 25
9.593750000000 9.437500000000 8.032012939453 15 15 15
9.468750000000 9.500000000000 7.970001220703 16 16 16
9.875000000000 9.187500000000 7.371002197266 38 38 38
16.671875000000 3.875000000000 6.930023193359 105 105 105
12.906250000000 6.750000000000 6.966003417969 34 34 34
9.578125000000 9.312500000000 8.032012939453 19 19 19
9.468750000000 9.375000000000 7.963012695313 10 10 10
9.875000000000 9.062500000000 7.360015869141 44 44 44
16.656250000000 3.812500000000 6.930999755859 129 129 129
12.890625000000 6.687500000000 6.962005615234 32 32 32
9.578125000000 9.187500000000 8.019012451172 21 21 21
9.875000000000 9.000000000000 7.352996826172 28 28 28
16.640625000000 3.687500000000 7.960998535156 56 56 56
16.640625000000 3.687500000000 6.924011230469 132 132 132
9.562500000000 9.125000000000 8.015014648438 25 25 25
9.875000000000 8.875000000000 7.343994140625 17 17 17
8.640625000000 9.812500000000 7.990997314453 18 18 18
16.625000000000 3.625000000000 7.977020263672 70 70 70
16.640625000000 3.625000000000 6.928009033203 118 118 118
9.562500000000 9.000000000000 8.010009765625 27 27 27
9.859375000000 8.750000000000 7.343017578125 10 10 10
8.625000000000 9.750000000000 7.986999511719 20 20 20
16.609375000000 3.500000000000 7.962005615234 88 88 88
16.625000000000 3.500000000000 6.925994873047 83 83 83
12.890625000000 6.375000000000 7.822021484375 22 22 22
9.562500000000 8.875000000000 7.997009277344 19 19 19
8.625000000000 9.625000000000 7.983001708984 22 22 22
16.593750000000 3.437500000000 7.979003906250 91 91 91
16.609375000000 3.375000000000 6.936004638672 63 63 63
12.906250000000 6.250000000000 7.800018310547 35 35 35
9.546875000000 8.812500000000 7.997009277344 20 20 20
8.609375000000 9.500000000000 7.981994628906 27 27 27
16.578125000000 3.312500000000 7.973022460938 82 82 82
16.593750000000 3.312500000000 6.925994873047 61 61 61
12.890625000000 6.125000000000 7.800994873047 30 30 30
9.562500000000 8.687500000000 7.994018554688 16 16 16
8.625000000000 9.375000000000 7.975006103516 20 20 20
16.578125000000 3.250000000000 7.977996826172 91 91 91
16.593750000000 3.187500000000 6.951019287109 51 51 51
12.890625000000 6.062500000000 7.805023193359 33 33 33
9.562500000000 8.562500000000 7.994018554688 26 26 26
9.843750000000 8.375000000000 7.332000732422 11 11 11
8.625000000000 9.312500000000 7.979003906250 23 23 23
16.562500000000 3.125000000000 7.968017578125 86 86 86
16.578125000000 3.125000000000 6.941009521484 44 44 44
12.875000000000 5.937500000000 7.803009033203 18 18 18
9.578125000000 8.500000000000 7.986022949219 21 21 21
9.843750000000 8.250000000000 7.334014892578 19 19 19
8.625000000000 9.187500000000 7.976013183594 20 20 20
16.562500000000 3.062500000000 7.960998535156 87 87 87
12.906250000000 5.812500000000 6.971008300781 31 31 31
9.562500000000 8.375000000000 7.994995117188 26 26 26
9.859375000000 8.187500000000 7.333007812500 22 22 22
8.640625000000 9.125000000000 7.970001220703 11 11 11
16.546875000000 2.937500000000 7.962005615234 79 79 79
16.562500000000 2.937500000000 6.930023193359 42 42 42
12.906250000000 5.750000000000 6.971008300781 44 44 44
9.546875000000 8.312500000000 7.996002197266 22 22 22
9.843750000000 8.062500000000 7.335021972656 24 24 24
8.640625000000 9.000000000000 7.970001220703 14 14 14
16.531250000000 2.875000000000 7.976013183594 87 87 87
12.890625000000 5.625000000000 6.964996337891 42 42 42
9.546875000000 8.187500000000 7.993011474609 22 22 22
9.843750000000 8.000000000000 7.332000732422 19 19 19
8.625000000000 8.937500000000 7.973999023438 18 18 18
16.531250000000 2.750000000000 7.994018554688 83 83 83
9.562500000000 8.125000000000 7.983001708984 26 26 26
9.859375000000 7.875000000000 7.317016601563 11 11 11
8.625000000000 8.812500000000 7.971008300781 20 20 20
16.546875000000 2.625000000000 7.059020996094 132 132 132
9.562500000000 8.000000000000 7.972015380859 16 16 16
8.609375000000 8.687500000000 7.964996337891 19 19 19
16.546875000000 2.562500000000 6.984008789063 145 145 145
12.906250000000 5.312500000000 7.809997558594 28 28 28
9.562500000000 7.875000000000 7.960021972656 7 7 7
8.625000000000 8.625000000000 7.951019287109 20 20 20
16.531250000000 2.437500000000 6.954010009766 141 141 141
12.906250000000 5.187500000000 7.805023193359 33 33 33
8.609375000000 8.500000000000 7.953002929688 23 23 23
16.515625000000 2.312500000000 6.951995849609 151 151 151
12.890625000000 5.125000000000 7.802001953125 23 23 23
8.609375000000 8.375000000000 7.942016601563 20 20 20
16.515625000000 2.250000000000 6.947021484375 176 176 176
12.906250000000 5.000000000000 6.975006103516 30 30 30
8.609375000000 8.250000000000 7.943023681641 24 24 24
16.500000000000 2.125000000000 6.945007324219 163 163 163
12.906250000000 4.875000000000 6.975006103516 39 39 39
8.609375000000 8.187500000000 7.941009521484 23 23 23
16.484375000000 2.062500000000 6.944000244141 172 172 172
12.906250000000 4.812500000000 6.972015380859 41 41 41
8.609375000000 8.062500000000 7.938995361328 20 20 20
16.484375000000 1.937500000000 6.944000244141 155 155 155
12.890625000000 4.687500000000 6.970001220703 24 24 24
8.593750000000 8.000000000000 7.946014404297 23 23 23
16.468750000000 1.875000000000 6.941009521484 162 162 162
9.515625000000 7.187500000000 7.958007812500 64 64 64
8.609375000000 7.875000000000 7.936004638672 19 19 19
16.453125000000 1.750000000000 6.951995849609 154 154 154
8.609375000000 7.812500000000 7.936004638672 18 18 18
16.453125000000 1.687500000000 6.975006103516 138 138 138
8.609375000000 7.687500000000 7.934020996094 19 19 19
16.437500000000 1.562500000000 6.960998535156 144 144 144
12.921875000000 4.312500000000 7.803009033203 32 32 32
8.609375000000 7.562500000000 7.930999755859 20 20 20
16.421875000000 1.500000000000 6.957000732422 139 139 139
12.906250000000 4.187500000000 7.803009033203 40 40 40
8.609375000000 7.500000000000 7.921020507813 19 19 19
16.406250000000 1.375000000000 6.960021972656 132 132 132
12.921875000000 4.062500000000 6.979003906250 22 22 22
8.609375000000 7.375000000000 7.917022705078 20 20 20
16.406250000000 1.312500000000 6.958007812500 131 131 131
12.906250000000 3.937500000000 6.976013183594 47 47 47
8.609375000000 7.250000000000 7.907012939453 20 20 20
16.390625000000 1.187500000000 6.960021972656 131 131 131
12.906250000000 3.875000000000 6.973022460938 31 31 31
8.609375000000 7.125000000000 7.904022216797 11 11 11
16.375000000000 1.125000000000 6.955017089844 67 67 67
16.359375000000 1.000000000000 6.962005615234 93 93 93
8.593750000000 6.937500000000 7.898010253906 16 16 16
8.593750000000 6.875000000000 7.901000976563 13 13 13
12.906250000000 3.437500000000 7.812011718750 34 34 34
8.609375000000 6.750000000000 7.895996093750 16 16 16
12.906250000000 3.375000000000 7.802001953125 42 42 42
8.593750000000 6.687500000000 7.897003173828 16 16 16
16.359375000000 0.625000000000 6.960021972656 42 42 42
12.906250000000 3.250000000000 7.808013916016 45 45 45
8.593750000000 6.562500000000 7.894012451172 11 11 11
16.343750000000 0.500000000000 6.955017089844 95 95 95
12.921875000000 3.125000000000 6.990020751953 23 23 23
8.593750000000 6.437500000000 7.891021728516 5 5 5
16.328125000000 0.437500000000 6.971008300781 153 153 153
12.906250000000 3.062500000000 6.985015869141 50 50 50
8.734375000000 6.250000000000 7.947021484375 11 11 11
16.312500000000 0.312500000000 6.972015380859 176 176 176
12.906250000000 2.937500000000 6.980010986328 17 17 17
9.468750000000 5.562500000000 7.908020019531 4 4 4
8.718750000000 6.125000000000 7.942016601563 18 18 18
16.312500000000 0.250000000000 6.975006103516 162 162 162
9.437500000000 5.500000000000 7.919006347656 16 16 16
8.718750000000 6.062500000000 7.936004638672 23 23 23
16.296875000000 0.125000000000 6.973999023438 170 170 170
12.921875000000 2.687500000000 7.799011230469 40 40 40
9.437500000000 5.375000000000 7.904022216797 18 18 18
8.734375000000 5.937500000000 7.921997070313 26 26 26
16.281250000000 0.062500000000 6.986022949219 144 144 144
12.906250000000 2.625000000000 7.800018310547 44 44 44
9.531250000000 5.187500000000 7.962005615234 4 4 4
9.437500000000 5.250000000000 7.897003173828 29 29 29
9.843750000000 4.937500000000 7.305023193359 20 20 20
8.718750000000 5.812500000000 7.921020507813 31 31 31
9.531250000000 5.062500000000 7.954010009766 16 16 16
9.437500000000 5.187500000000 7.893005371094 27 27 27
9.812500000000 4.875000000000 7.313018798828 25 25 25
8.718750000000 5.687500000000 7.912017822266 34 34 34
12.921875000000 2.375000000000 6.989013671875 46 46 46
9.531250000000 5.000000000000 7.951019287109 17 17 17
9.437500000000 5.062500000000 7.886016845703 32 32 32
9.828125000000 4.750000000000 7.305023193359 30 30 30
8.703125000000 5.625000000000 7.912017822266 28 28 28
12.921875000000 2.312500000000 6.983001708984 47 47 47
9.531250000000 4.875000000000 7.951019287109 17 17 17
9.421875000000 5.000000000000 7.890014648438 28 28 28
9.812500000000 4.687500000000 7.307006835938 42 42 42
8.703125000000 5.562500000000 7.915008544922 29 29 29
12.921875000000 2.187500000000 6.983001708984 37 37 37
9.515625000000 4.812500000000 7.955017089844 15 15 15
9.437500000000 4.875000000000 7.884002685547 27 27 27
9.828125000000 4.562500000000 7.303009033203 29 29 29
8.703125000000 5.437500000000 7.915008544922 35 35 35
12.921875000000 2.125000000000 6.976013183594 26 26 26
9.531250000000 4.687500000000 7.950012207031 4 4 4
9.421875000000 4.812500000000 7.886016845703 27 27 27
9.828125000000 4.437500000000 7.298004150391 14 14 14
8.718750000000 5.312500000000 7.908020019531 30 30 30
9.531250000000 4.625000000000 7.949005126953 17 17 17
9.406250000000 4.687500000000 7.894012451172 27 27 27
9.828125000000 4.375000000000 7.295013427734 26 26 26
8.703125000000 5.250000000000 7.908996582031 31 31 31
12.921875000000 1.875000000000 7.809020996094 39 39 39
9.531250000000 4.500000000000 7.942016601563 18 18 18
9.421875000000 4.562500000000 7.886016845703 26 26 26
9.828125000000 4.250000000000 7.294006347656 40 40 40
8.703125000000 5.125000000000 7.911010742188 28 28 28
12.921875000000 1.812500000000 7.798004150391 52 52 52
9.531250000000 4.375000000000 7.938018798828 33 33 33
9.421875000000 4.500000000000 7.881011962891 34 34 34
9.812500000000 4.187500000000 7.298004150391 42 42 42
8.703125000000 5.062500000000 7.907012939453 28 28 28
12.921875000000 1.687500000000 7.003021240234 22 22 22
9.531250000000 4.312500000000 7.928009033203 27 27 27
9.421875000000 4.375000000000 7.869018554688 22 22 22
8.718750000000 4.875000000000 7.882995605469 16 16 16
12.921875000000 1.562500000000 7.001007080078 52 52 52
9.515625000000 4.187500000000 7.928009033203 21 21 21
9.421875000000 4.250000000000 7.858001708984 11 11 11
9.812500000000 3.937500000000 7.279022216797 42 42 42
9.515625000000 4.062500000000 7.914001464844 13 13 13
9.796875000000 3.875000000000 7.281005859375 29 29 29
9.812500000000 3.750000000000 7.265014648438 13 13 13
12.937500000000 1.250000000000 7.800018310547 43 43 43
12.921875000000 1.187500000000 7.811004638672 52 52 52
12.906250000000 1.062500000000 7.802001953125 31 31 31
8.640625000000 4.312500000000 7.882019042969 10 10 10
12.937500000000 0.937500000000 7.000000000000 38 38 38
12.921875000000 0.875000000000 7.005004882813 53 53 53
8.625000000000 4.187500000000 7.891998291016 7 7 7
12.921875000000 0.750000000000 6.998016357422 32 32 32
8.625000000000 4.062500000000 7.889007568359 9 9 9
8.625000000000 3.937500000000 7.886016845703 6 6 6
12.937500000000 0.562500000000 7.820007324219 28 28 28
8.625000000000 3.875000000000 7.882019042969 21 21 21
12.921875000000 0.437500000000 7.805999755859 71 71 71
12.953125000000 0.437500000000 7.016021728516 61 61 61
8.625000000000 3.750000000000 7.875000000000 24 24 24
12.937500000000 0.312500000000 7.011993408203 31 31 31
8.593750000000 3.625000000000 7.874023437500 31 31 31
12.937500000000 0.187500000000 7.001007080078 62 62 62
8.609375000000 3.562500000000 7.861999511719 26 26 26
8.734375000000 3.312500000000 7.914001464844 16 16 16
8.593750000000 3.437500000000 7.860015869141 14 14 14
8.718750000000 3.250000000000 7.910003662109 21 21 21
8.593750000000 3.312500000000 7.848999023438 10 10 10
9.406250000000 2.625000000000 7.878021240234 7 7 7
8.718750000000 3.125000000000 7.903015136719 22 22 22
9.421875000000 2.500000000000 7.871002197266 10 10 10
8.718750000000 3.062500000000 7.904022216797 26 26 26
9.406250000000 2.375000000000 7.875000000000 7 7 7
8.718750000000 2.937500000000 7.903015136719 22 22 22
8.593750000000 3.000000000000 7.838012695313 5 5 5
9.406250000000 2.312500000000 7.878021240234 6 6 6
8.718750000000 2.812500000000 7.904998779297 21 21 21
8.578125000000 2.937500000000 7.848022460938 9 9 9
9.500000000000 2.125000000000 7.932006835938 8 8 8
9.421875000000 2.187500000000 7.860015869141 10 10 10
8.718750000000 2.750000000000 7.899993896484 21 21 21
8.593750000000 2.812500000000 7.839019775391 4 4 4
9.500000000000 2.000000000000 7.928009033203 16 16 16
9.406250000000 2.125000000000 7.868011474609 14 14 14
8.703125000000 2.625000000000 7.904022216797 32 32 32
9.515625000000 1.937500000000 7.917022705078 22 22 22
9.406250000000 2.000000000000 7.861999511719 23 23 23
9.781250000000 1.687500000000 7.296020507813 15 15 15
8.703125000000 2.500000000000 7.899017333984 32 32 32
9.500000000000 1.812500000000 7.916015625000 30 30 30
9.390625000000 1.875000000000 7.860015869141 29 29 29
9.796875000000 1.562500000000 7.281005859375 29 29 29
8.687500000000 2.437500000000 7.902008056641 35 35 35
9.500000000000 1.687500000000 7.907012939453 34 34 34
9.390625000000 1.812500000000 7.855010986328 35 35 35
9.718750000000 1.562500000000 7.313018798828 122 122 122
9.484375000000 1.625000000000 7.912017822266 26 26 26
9.390625000000 1.687500000000 7.847015380859 28 28 28
8.703125000000 2.250000000000 7.878997802734 22 22 22
9.500000000000 1.500000000000 7.894012451172 37 37 37
9.390625000000 1.562500000000 7.841003417969 29 29 29
8.671875000000 2.125000000000 7.889007568359 23 23 23
9.468750000000 1.437500000000 7.902008056641 16 16 16
9.375000000000 1.500000000000 7.839996337891 20 20 20
9.781250000000 1.187500000000 7.261993408203 48 48 48
8.765625000000 1.937500000000 7.829010009766 2 2 2
9.484375000000 1.312500000000 7.888000488281 10 10 10
9.375000000000 1.375000000000 7.839019775391 16 16 16
9.750000000000 1.125000000000 7.278015136719 87 87 87
9.468750000000 1.250000000000 7.895019531250 13 13 13
9.390625000000 1.312500000000 7.830017089844 18 18 18
9.750000000000 1.000000000000 7.274017333984 91 91 91
9.484375000000 1.125000000000 7.894012451172 14 14 14
9.375000000000 1.187500000000 7.835021972656 17 17 17
8.765625000000 1.687500000000 7.828002929688 12 12 12
9.453125000000 1.000000000000 7.904022216797 14 14 14
9.390625000000 1.062500000000 7.828002929688 22 22 22
8.765625000000 1.562500000000 7.829010009766 16 16 16
9.468750000000 0.937500000000 7.894012451172 10 10 10
9.375000000000 1.000000000000 7.832000732422 18 18 18
9.750000000000 0.687500000000 7.274993896484 87 87 87
9.359375000000 0.875000000000 7.839019775391 4 4 4
9.765625000000 0.562500000000 7.257019042969 49 49 49
9.765625000000 0.500000000000 7.257019042969 36 36 36
9.765625000000 0.375000000000 7.251007080078 18 18 18
8.625000000000 0.812500000000 7.856994628906 10 10 10
8.640625000000 0.312500000000 7.848999023438 6 6 6
8.609375000000 0.250000000000 7.859008789063 16 16 16
8.609375000000 0.125000000000 7.856018066406 25 25 25
8.593750000000 0.062500000000 7.856994628906 29 29 29
8.703125000000 19.437500000000 8.364013671875 33 33 33
8.703125000000 19.375000000000 8.359008789063 29 29 29
8.703125000000 19.312500000000 8.354003906250 32 32 32
8.703125000000 19.187500000000 8.345001220703 31 31 31
8.703125000000 19.125000000000 8.338012695313 12 12 12
8.703125000000 19.062500000000 8.333007812500 25 25 25
9.609375000000 19.437500000000 8.361022949219 35 35 35
8.687500000000 18.937500000000 8.329010009766 19 19 19
9.593750000000 19.312500000000 8.358001708984 29 29 29
8.703125000000 18.875000000000 8.312011718750 8 8 8
9.578125000000 19.250000000000 8.356994628906 27 27 27
8.671875000000 18.750000000000 8.319000244141 8 8 8
9.578125000000 19.125000000000 8.354003906250 35 35 35
9.562500000000 19.062500000000 8.354003906250 35 35 35
9.562500000000 19.000000000000 8.345001220703 44 44 44
9.562500000000 18.875000000000 8.339019775391 38 38 38
9.562500000000 18.812500000000 8.335998535156 35 35 35
9.546875000000 18.750000000000 8.334014892578 41 41 41
9.562500000000 18.625000000000 8.322021484375 40 40 40
9.546875000000 18.562500000000 8.328002929688 45 45 45
9.546875000000 18.500000000000 8.321014404297 48 48 48
9.562500000000 18.375000000000 8.303009033203 50 50 50
9.546875000000 18.312500000000 8.300018310547 52 52 52
9.531250000000 18.187500000000 8.305023193359 49 49 49
9.937500000000 18.312500000000 7.684997558594 19 19 19
9.531250000000 18.125000000000 8.294006347656 50 50 50
9.968750000000 18.187500000000 7.665008544922 19 19 19
9.531250000000 18.062500000000 8.285003662109 45 45 45
12.796875000000 19.437500000000 6.878021240234 19 19 19
12.828125000000 19.437500000000 8.016021728516 19 19 19
9.953125000000 18.125000000000 7.665008544922 26 26 26
9.531250000000 17.937500000000 8.279022216797 48 48 48
9.953125000000 18.062500000000 7.657012939453 39 39 39
9.531250000000 17.875000000000 8.270996093750 42 42 42
9.953125000000 17.937500000000 7.654022216797 25 25 25
9.531250000000 17.750000000000 8.270996093750 48 48 48
9.953125000000 17.875000000000 7.651000976563 33 33 33
9.531250000000 17.687500000000 8.265014648438 49 49 49
9.937500000000 17.812500000000 7.645996093750 52 52 52
9.546875000000 17.625000000000 8.252014160156 33 33 33
9.953125000000 17.687500000000 7.638000488281 38 38 38
9.531250000000 17.500000000000 8.251007080078 40 40 40
9.937500000000 17.625000000000 7.639007568359 50 50 50
9.531250000000 17.437500000000 8.242004394531 26 26 26
9.937500000000 17.500000000000 7.626007080078 57 57 57
9.515625000000 17.375000000000 8.242004394531 28 28 28
9.921875000000 17.437500000000 7.628997802734 57 57 57
9.515625000000 17.250000000000 8.235015869141 24 24 24
9.937500000000 17.375000000000 7.615997314453 48 48 48
9.515625000000 17.187500000000 8.227020263672 15 15 15
9.937500000000 17.250000000000 7.611022949219 65 65 65
9.531250000000 17.125000000000 8.213012695313 13 13 13
12.828125000000 18.500000000000 6.880004882813 23 23 23
9.937500000000 17.187500000000 7.604003906250 54 54 54
9.531250000000 17.000000000000 8.208007812500 12 12 12
12.812500000000 18.375000000000 6.884002685547 22 22 22
9.937500000000 17.125000000000 7.598022460938 44 44 44
9.640625000000 17.000000000000 8.286010742188 13 13 13
9.921875000000 17.000000000000 7.595001220703 50 50 50
9.921875000000 16.937500000000 7.591003417969 54 54 54
12.812500000000 18.125000000000 7.994018554688 18 18 18
9.906250000000 16.812500000000 7.587005615234 38 38 38
9.640625000000 16.750000000000 8.261993408203 23 23 23
9.937500000000 16.750000000000 7.574005126953 39 39 39
9.640625000000 16.625000000000 8.260009765625 19 19 19
9.921875000000 16.687500000000 7.569000244141 40 40 40
9.640625000000 16.562500000000 8.253997802734 25 25 25
9.921875000000 16.562500000000 7.563995361328 16 16 16
9.640625000000 16.437500000000 8.246002197266 41 41 41
9.921875000000 16.500000000000 7.562011718750 23 23 23
9.640625000000 16.375000000000 8.235015869141 32 32 32
9.937500000000 16.437500000000 7.550018310547 19 19 19
9.625000000000 16.312500000000 8.240020751953 41 41 41
9.906250000000 16.312500000000 7.555023193359 5 5 5
9.640625000000 16.187500000000 8.226013183594 39 39 39
12.843750000000 17.562500000000 6.895996093750 21 21 21
9.921875000000 16.250000000000 7.545013427734 7 7 7
9.625000000000 16.125000000000 8.223999023438 50 50 50
12.843750000000 17.437500000000 6.890014648438 25 25 25
9.921875000000 16.125000000000 7.537994384766 6 6 6
9.625000000000 16.000000000000 8.218017578125 48 48 48
12.828125000000 17.375000000000 6.885009765625 23 23 23
9.609375000000 15.937500000000 8.218994140625 47 47 47
17.984375000000 19.437500000000 6.854003906250 70 70 70
17.953125000000 19.437500000000 8.274993896484 48 48 48
9.625000000000 15.875000000000 8.208007812500 53 53 53
17.968750000000 19.312500000000 6.845001220703 56 56 56
9.625000000000 15.750000000000 8.204010009766 52 52 52
17.968750000000 19.250000000000 8.283020019531 47 47 47
9.625000000000 15.687500000000 8.197021484375 48 48 48
17.984375000000 19.125000000000 6.863006591797 68 68 68
17.953125000000 19.125000000000 8.292999267578 66 66 66
9.609375000000 15.562500000000 8.192016601563 47 47 47
17.968750000000 19.062500000000 6.859008789063 52 52 52
17.937500000000 19.062500000000 8.303009033203 45 45 45
18.828125000000 19.437500000000 6.863006591797 138 138 138
8.703125000000 15.125000000000 8.194000244141 9 9 9
9.609375000000 15.500000000000 8.188018798828 37 37 37
18.812500000000 19.312500000000 6.873016357422 151 151 151
8.687500000000 15.000000000000 8.188995361328 18 18 18
9.593750000000 15.375000000000 8.188995361328 42 42 42
12.828125000000 16.750000000000 7.950012207031 24 24 24
17.984375000000 18.875000000000 6.861999511719 67 67 67
17.968750000000 18.875000000000 8.312011718750 45 45 45
18.812500000000 19.250000000000 6.873016357422 142 142 142
8.703125000000 14.937500000000 8.178009033203 18 18 18
9.609375000000 15.312500000000 8.177001953125 44 44 44
12.828125000000 16.687500000000 7.933013916016 21 21 21
17.968750000000 18.812500000000 6.865997314453 91 91 91
18.000000000000 18.812500000000 6.888000488281 69 69 69
17.953125000000 18.812500000000 8.322021484375 75 75 75
18.796875000000 19.125000000000 6.876007080078 159 159 159
8.703125000000 14.875000000000 8.171020507813 27 27 27
9.609375000000 15.250000000000 8.167999267578 37 37 37
18.000000000000 18.750000000000 6.861999511719 46 46 46
17.953125000000 18.687500000000 8.313018798828 34 34 34
18.781250000000 19.062500000000 6.874023437500 180 180 180
8.703125000000 14.750000000000 8.166015625000 27 27 27
9.609375000000 15.125000000000 8.162017822266 28 28 28
12.828125000000 16.500000000000 6.910003662109 31 31 31
12.828125000000 16.500000000000 7.910003662109 48 48 48
17.984375000000 18.625000000000 6.868011474609 69 69 69
18.765625000000 18.937500000000 6.874023437500 176 176 176
8.687500000000 14.687500000000 8.161010742188 39 39 39
12.828125000000 16.375000000000 6.902008056641 21 21 21
17.968750000000 18.562500000000 8.318023681641 54 54 54
18.750000000000 18.875000000000 6.882019042969 114 114 114
8.703125000000 14.562500000000 8.152008056641 39 39 39
9.609375000000 15.000000000000 8.144012451172 13 13 13
18.000000000000 18.437500000000 6.861999511719 53 53 53
17.953125000000 18.437500000000 8.335998535156 71 71 71
18.750000000000 18.750000000000 6.861999511719 157 157 157
8.687500000000 14.500000000000 8.149017333984 33 33 33
17.984375000000 18.375000000000 6.864013671875 70 70 70
17.953125000000 18.375000000000 8.335021972656 42 42 42
18.734375000000 18.687500000000 6.867004394531 142 142 142
