19.375000000000 15.507812500000 1.545013427734 168 168 168
19.390625000000 15.515625000000 1.574005126953 169 169 169
19.390625000000 15.515625000000 1.611007690430 170 170 170
19.406250000000 15.515625000000 1.646011352539 170 170 170
19.406250000000 15.515625000000 1.682006835938 171 171 171
19.406250000000 15.515625000000 1.717010498047 169 169 169
19.406250000000 15.515625000000 1.753005981445 169 169 169
19.406250000000 15.515625000000 1.787002563477 170 170 170
19.312500000000 15.468750000000 1.859008789063 155 155 155
19.281250000000 15.445312500000 1.908004760742 157 157 157
19.281250000000 15.445312500000 1.943008422852 157 157 157
19.281250000000 15.453125000000 1.973999023438 158 158 158
19.281250000000 15.453125000000 2.008010864258 160 160 160
19.281250000000 15.453125000000 2.040008544922 152 152 152
19.375000000000 15.515625000000 2.038009643555 170 170 170
19.406250000000 15.515625000000 2.065002441406 170 170 170
19.437500000000 15.531250000000 2.091003417969 160 160 160
19.531250000000 15.593750000000 2.091003417969 139 139 139
19.625000000000 15.656250000000 2.087005615234 137 137 137
19.750000000000 15.718750000000 2.083999633789 108 108 108
19.109375000000 15.679687500000 1.854003906250 98 98 98
19.125000000000 15.687500000000 1.882003784180 151 151 151
19.125000000000 15.687500000000 1.917007446289 159 159 159
19.125000000000 15.687500000000 1.945999145508 159 159 159
19.125000000000 15.687500000000 1.982009887695 161 161 161
19.125000000000 15.687500000000 2.011001586914 157 157 157
19.125000000000 15.687500000000 2.048004150391 89 89 89
19.906250000000 16.156250000000 1.804000854492 143 143 143
19.875000000000 16.140625000000 1.857009887695 165 165 165
19.875000000000 16.140625000000 1.891006469727 170 170 170
19.875000000000 16.140625000000 1.930007934570 169 169 169
19.890625000000 16.140625000000 1.966003417969 167 167 167
19.906250000000 16.148437500000 2.000000000000 146 146 146
19.937500000000 16.171875000000 2.027008056641 148 148 148
18.921875000000 15.890625000000 1.815002441406 69 69 69
18.906250000000 15.882812500000 1.850006103516 166 166 166
18.906250000000 15.882812500000 1.881011962891 159 159 159
18.906250000000 15.882812500000 1.915008544922 165 165 165
18.937500000000 15.890625000000 1.940002441406 163 163 163
18.906250000000 15.882812500000 1.978012084961 166 166 166
18.921875000000 15.890625000000 2.007003784180 177 177 177
18.906250000000 15.882812500000 2.040008544922 169 169 169
18.937500000000 15.890625000000 2.064010620117 148 148 148
19.000000000000 15.937500000000 2.067001342773 63 63 63
19.812500000000 16.421875000000 1.808013916016 160 160 160
19.812500000000 16.421875000000 1.850006103516 166 166 166
19.812500000000 16.421875000000 1.888000488281 165 165 165
19.812500000000 16.421875000000 1.925003051758 169 169 169
19.812500000000 16.421875000000 1.958999633789 172 172 172
19.843750000000 16.429687500000 1.991012573242 166 166 166
19.906250000000 16.468750000000 2.007003784180 183 183 183
18.828125000000 16.148437500000 1.805999755859 50 50 50
18.812500000000 16.140625000000 1.841003417969 183 183 183
18.812500000000 16.140625000000 1.873001098633 181 181 181
18.843750000000 16.132812500000 1.902999877930 193 193 193
18.843750000000 16.132812500000 1.935012817383 195 195 195
18.843750000000 16.132812500000 1.964004516602 194 194 194
18.843750000000 16.132812500000 1.998001098633 190 190 190
18.843750000000 16.132812500000 2.027999877930 196 196 196
18.843750000000 16.140625000000 2.053009033203 163 163 163
18.906250000000 16.171875000000 2.063003540039 66 66 66
21.375000000000 9.781250000000 2.191009521484 175 175 175
21.343750000000 9.796875000000 2.150009155273 203 203 203
21.343750000000 9.796875000000 2.104003906250 204 204 204
21.250000000000 10.164062500000 2.158004760742 205 205 205
21.250000000000 10.148437500000 2.111007690430 209 209 209
21.250000000000 10.148437500000 2.065002441406 188 188 188
21.125000000000 10.539062500000 2.165008544922 194 194 194
21.125000000000 10.539062500000 2.121002197266 209 209 209
21.125000000000 10.531250000000 2.076004028320 207 207 207
21.015625000000 10.914062500000 2.167999267578 169 169 169
21.015625000000 10.914062500000 2.124008178711 207 207 207
21.000000000000 10.906250000000 2.081008911133 211 211 211
21.000000000000 10.906250000000 2.036010742188 159 159 159
20.875000000000 11.320312500000 2.166000366211 126 126 126
20.875000000000 11.312500000000 2.126007080078 211 211 211
20.875000000000 11.320312500000 2.080001831055 211 211 211
20.875000000000 11.312500000000 2.038009643555 198 198 198
20.828125000000 11.687500000000 2.152008056641 120 120 120
20.687500000000 11.765625000000 2.139999389648 189 189 189
20.687500000000 11.757812500000 2.102005004883 194 194 194
20.687500000000 11.757812500000 2.060012817383 195 195 195
20.687500000000 11.757812500000 2.017013549805 185 185 185
20.718750000000 12.054687500000 2.150009155273 67 67 67
20.656250000000 12.109375000000 2.129013061523 201 201 201
20.546875000000 12.156250000000 2.118011474609 203 203 203
20.546875000000 12.156250000000 2.077011108398 207 207 207
20.546875000000 12.156250000000 2.035003662109 203 203 203
20.546875000000 12.156250000000 1.994003295898 148 148 148
20.656250000000 12.406250000000 2.111007690430 210 210 210
20.593750000000 12.453125000000 2.083999633789 216 216 216
20.375000000000 12.562500000000 2.103012084961 196 196 196
20.375000000000 12.562500000000 2.063003540039 194 194 194
20.390625000000 12.554687500000 2.018005371094 198 198 198
20.375000000000 12.546875000000 1.980010986328 133 133 133
20.578125000000 12.750000000000 2.108001708984 193 193 193
20.562500000000 12.765625000000 2.069000244141 217 217 217
20.500000000000 12.812500000000 2.049011230469 223 223 223
20.218750000000 12.960937500000 2.092010498047 196 196 196
20.218750000000 12.960937500000 2.052001953125 194 194 194
20.218750000000 12.960937500000 2.013000488281 200 200 200
20.234375000000 12.945312500000 1.971008300781 172 172 172
20.500000000000 13.125000000000 2.108001708984 166 166 166
20.500000000000 13.109375000000 2.067001342773 215 215 215
20.500000000000 13.125000000000 2.027999877930 218 218 218
20.468750000000 13.125000000000 1.995010375977 212 212 212
20.046875000000 13.382812500000 2.086013793945 203 203 203
20.046875000000 13.382812500000 2.049011230469 168 168 168
20.031250000000 13.375000000000 2.010009765625 197 197 197
20.062500000000 13.367187500000 1.967010498047 195 195 195
20.437500000000 13.484375000000 2.103012084961 131 131 131
20.406250000000 13.500000000000 2.063003540039 216 216 216
20.421875000000 13.484375000000 2.023010253906 220 220 220
20.421875000000 13.484375000000 1.983001708984 217 217 217
19.890625000000 13.796875000000 2.074005126953 202 202 202
19.890625000000 13.796875000000 2.036010742188 193 193 193
19.890625000000 13.796875000000 1.998001098633 205 205 205
19.890625000000 13.796875000000 1.961013793945 206 206 206
20.359375000000 13.859375000000 2.093002319336 92 92 92
20.343750000000 13.875000000000 2.059005737305 212 212 212
20.343750000000 13.875000000000 2.019012451172 218 218 218
20.312500000000 13.867187500000 1.985000610352 201 201 201
20.156250000000 13.968750000000 2.001007080078 120 120 120
19.765625000000 14.187500000000 2.089004516602 60 60 60
19.718750000000 14.234375000000 2.064010620117 208 208 208
19.734375000000 14.218750000000 2.027008056641 209 209 209
19.718750000000 14.210937500000 1.991012573242 204 204 204
19.734375000000 14.218750000000 1.953002929688 203 203 203
19.718750000000 14.210937500000 1.919006347656 89 89 89
20.281250000000 14.218750000000 2.054000854492 206 206 206
20.265625000000 14.218750000000 2.014007568359 217 217 217
20.250000000000 14.234375000000 1.977005004883 217 217 217
20.250000000000 14.226562500000 1.940002441406 213 213 213
19.578125000000 14.625000000000 2.055007934570 209 209 209
19.578125000000 14.625000000000 2.020004272461 208 208 208
19.578125000000 14.625000000000 1.984008789063 208 208 208
19.593750000000 14.609375000000 1.947006225586 209 209 209
19.593750000000 14.609375000000 1.911010742188 183 183 183
20.203125000000 14.578125000000 2.058013916016 145 145 145
20.187500000000 14.585937500000 2.023010253906 198 198 198
20.187500000000 14.578125000000 1.985000610352 215 215 215
20.187500000000 14.578125000000 1.945007324219 216 216 216
20.187500000000 14.578125000000 1.906005859375 191 191 191
19.437500000000 15.031250000000 2.055999755859 125 125 125
19.437500000000 15.031250000000 2.020004272461 132 132 132
19.437500000000 15.031250000000 1.986007690430 133 133 133
19.437500000000 15.031250000000 1.953002929688 126 126 126
19.437500000000 15.031250000000 1.914001464844 134 134 134
19.421875000000 15.023437500000 1.886001586914 99 99 99
20.093750000000 14.937500000000 2.034011840820 198 198 198
20.093750000000 14.953125000000 2.001007080078 202 202 202
20.062500000000 14.976562500000 1.972000122070 201 201 201
20.062500000000 14.960937500000 1.928009033203 204 204 204
20.125000000000 14.929687500000 1.873001098633 153 153 153
19.468750000000 15.328125000000 2.066009521484 126 126 126
19.437500000000 15.335937500000 2.034011840820 139 139 139
19.312500000000 15.406250000000 2.046005249023 121 121 121
19.312500000000 15.414062500000 2.022003173828 136 136 136
19.296875000000 15.429687500000 1.990005493164 141 141 141
19.312500000000 15.414062500000 1.954010009766 137 137 137
19.312500000000 15.414062500000 1.921005249023 138 138 138
19.296875000000 15.406250000000 1.887008666992 137 137 137
19.437500000000 15.312500000000 1.792007446289 178 178 178
19.468750000000 15.304687500000 1.746002197266 174 174 174
19.468750000000 15.304687500000 1.710006713867 170 170 170
19.468750000000 15.296875000000 1.675003051758 166 166 166
19.468750000000 15.296875000000 1.639007568359 164 164 164
19.468750000000 15.296875000000 1.604003906250 166 166 166
19.468750000000 15.296875000000 1.567001342773 165 165 165
19.468750000000 15.296875000000 1.530014038086 165 165 165
19.453125000000 15.296875000000 1.495010375977 168 168 168
19.437500000000 15.296875000000 1.462005615234 165 165 165
19.453125000000 15.296875000000 1.420013427734 166 166 166
19.453125000000 15.296875000000 1.383010864258 157 157 157
20.000000000000 15.343750000000 2.049011230469 107 107 107
19.750000000000 15.468750000000 2.091003417969 141 141 141
19.625000000000 15.546875000000 2.093002319336 150 150 150
19.546875000000 15.601562500000 2.088012695313 148 148 148
19.437500000000 15.671875000000 2.087005615234 144 144 144
19.375000000000 15.695312500000 2.076004028320 176 176 176
19.375000000000 15.703125000000 2.048004150391 179 179 179
19.359375000000 15.703125000000 2.016006469727 179 179 179
19.359375000000 15.703125000000 1.981002807617 179 179 179
19.359375000000 15.703125000000 1.949005126953 175 175 175
19.000000000000 15.929687500000 2.055007934570 143 143 143
18.921875000000 15.968750000000 2.058013916016 147 147 147
18.890625000000 15.992187500000 2.037002563477 191 191 191
18.906250000000 15.976562500000 2.004013061523 188 188 188
18.875000000000 15.984375000000 1.978012084961 173 173 173
18.875000000000 15.984375000000 1.944000244141 165 165 165
18.906250000000 15.976562500000 1.908004760742 165 165 165
18.906250000000 15.976562500000 1.876998901367 147 147 147
18.890625000000 15.968750000000 1.848007202148 156 156 156
18.968750000000 15.921875000000 1.774002075195 213 213 213
19.343750000000 15.687500000000 1.568008422852 174 174 174
19.343750000000 15.671875000000 1.529006958008 172 172 172
19.343750000000 15.671875000000 1.496002197266 169 169 169
19.343750000000 15.671875000000 1.457000732422 166 166 166
19.343750000000 15.671875000000 1.422012329102 169 169 169
19.343750000000 15.671875000000 1.384002685547 171 171 171
19.484375000000 15.570312500000 1.273010253906 177 177 177
19.484375000000 15.570312500000 1.231002807617 169 169 169
19.484375000000 15.570312500000 1.194000244141 169 169 169
19.484375000000 15.562500000000 1.157012939453 170 170 170
19.484375000000 15.562500000000 1.119003295898 171 171 171
19.484375000000 15.562500000000 1.079010009766 166 166 166
19.484375000000 15.562500000000 1.042007446289 167 167 167
19.859375000000 15.750000000000 2.023010253906 164 164 164
19.781250000000 15.781250000000 2.014007568359 172 172 172
19.765625000000 15.796875000000 1.983001708984 174 174 174
19.750000000000 15.796875000000 1.950012207031 172 172 172
19.750000000000 15.804687500000 1.919006347656 170 170 170
19.718750000000 15.828125000000 1.891006469727 150 150 150
19.718750000000 15.828125000000 1.859008789063 156 156 156
19.718750000000 15.828125000000 1.820007324219 163 163 163
19.718750000000 15.828125000000 1.784011840820 168 168 168
19.703125000000 15.820312500000 1.748001098633 172 172 172
19.703125000000 15.820312500000 1.711013793945 173 173 173
19.687500000000 15.812500000000 1.676010131836 172 172 172
19.687500000000 15.828125000000 1.643005371094 173 173 173
19.687500000000 15.812500000000 1.603012084961 174 174 174
19.671875000000 15.828125000000 1.572006225586 175 175 175
19.671875000000 15.828125000000 1.536010742188 177 177 177
19.671875000000 15.828125000000 1.498001098633 177 177 177
19.656250000000 15.820312500000 1.462005615234 177 177 177
19.656250000000 15.820312500000 1.423004150391 180 180 180
19.656250000000 15.812500000000 1.389999389648 179 179 179
19.656250000000 15.812500000000 1.348007202148 130 130 130
19.937500000000 16.031250000000 2.007003784180 112 112 112
19.906250000000 16.046875000000 1.978012084961 136 136 136
19.906250000000 16.031250000000 1.940002441406 134 134 134
19.906250000000 16.031250000000 1.902008056641 132 132 132
19.906250000000 16.031250000000 1.865005493164 134 134 134
19.906250000000 16.031250000000 1.825012207031 59 59 59
19.937500000000 16.359375000000 2.023010253906 78 78 78
19.843750000000 16.398437500000 2.012008666992 142 142 142
19.828125000000 16.406250000000 1.982009887695 141 141 141
19.812500000000 16.421875000000 1.950012207031 145 145 145
19.812500000000 16.421875000000 1.912002563477 152 152 152
19.812500000000 16.421875000000 1.876007080078 143 143 143
19.812500000000 16.414062500000 1.840011596680 148 148 148
19.843750000000 16.390625000000 1.791000366211 134 134 134
19.906250000000 16.273437500000 1.920013427734 125 125 125
19.859375000000 16.296875000000 1.894012451172 153 153 153
19.812500000000 16.312500000000 1.873001098633 142 142 142
19.812500000000 16.312500000000 1.836013793945 141 141 141
19.812500000000 16.312500000000 1.801010131836 138 138 138
19.812500000000 16.312500000000 1.763000488281 132 132 132
19.812500000000 16.289062500000 1.725006103516 140 140 140
19.906250000000 15.968750000000 1.898010253906 144 144 144
19.906250000000 15.968750000000 1.863006591797 161 161 161
19.906250000000 15.968750000000 1.826004028320 164 164 164
19.906250000000 15.968750000000 1.787002563477 161 161 161
19.906250000000 15.968750000000 1.751007080078 156 156 156
19.875000000000 15.703125000000 1.927001953125 71 71 71
19.656250000000 15.828125000000 1.964004516602 166 166 166
19.656250000000 15.835937500000 1.930999755859 173 173 173
19.656250000000 15.835937500000 1.898010253906 172 172 172
19.656250000000 15.828125000000 1.861007690430 176 176 176
19.640625000000 15.828125000000 1.830001831055 174 174 174
19.625000000000 15.843750000000 1.796005249023 173 173 173
19.625000000000 15.843750000000 1.761001586914 172 172 172
19.625000000000 15.828125000000 1.723007202148 175 175 175
19.625000000000 15.828125000000 1.685012817383 175 175 175
19.625000000000 15.835937500000 1.656005859375 174 174 174
19.609375000000 15.828125000000 1.620010375977 172 172 172
19.609375000000 15.828125000000 1.582000732422 173 173 173
19.593750000000 15.843750000000 1.551010131836 173 173 173
19.593750000000 15.843750000000 1.514999389648 173 173 173
19.593750000000 15.843750000000 1.479003906250 175 175 175
19.593750000000 15.835937500000 1.445999145508 172 172 172
19.593750000000 15.835937500000 1.409011840820 173 173 173
19.593750000000 15.835937500000 1.369003295898 176 176 176
19.578125000000 15.828125000000 1.335006713867 177 177 177
19.562500000000 15.828125000000 1.301010131836 175 175 175
19.562500000000 15.843750000000 1.266006469727 176 176 176
19.750000000000 15.500000000000 1.985000610352 133 133 133
19.656250000000 15.562500000000 1.984008789063 146 146 146
19.562500000000 15.609375000000 1.981002807617 149 149 149
19.437500000000 15.687500000000 1.982009887695 146 146 146
19.375000000000 15.726562500000 1.979003906250 165 165 165
19.343750000000 15.750000000000 1.952011108398 177 177 177
19.343750000000 15.750000000000 1.921005249023 180 180 180
19.328125000000 15.750000000000 1.888000488281 179 179 179
19.328125000000 15.750000000000 1.855010986328 178 178 178
19.156250000000 15.851562500000 1.892013549805 183 183 183
18.906250000000 15.984375000000 1.953002929688 144 144 144
18.859375000000 16.015625000000 1.941009521484 171 171 171
18.843750000000 16.015625000000 1.912002563477 186 186 186
18.843750000000 16.015625000000 1.883010864258 185 185 185
18.859375000000 16.000000000000 1.850006103516 162 162 162
18.859375000000 16.000000000000 1.818008422852 164 164 164
18.859375000000 16.000000000000 1.785003662109 157 157 157
18.859375000000 16.000000000000 1.751998901367 150 150 150
18.875000000000 15.984375000000 1.716003417969 166 166 166
19.312500000000 15.734375000000 1.477005004883 172 172 172
19.312500000000 15.718750000000 1.438003540039 171 171 171
19.312500000000 15.718750000000 1.405014038086 167 167 167
19.312500000000 15.718750000000 1.366012573242 169 169 169
19.312500000000 15.718750000000 1.329010009766 170 170 170
19.312500000000 15.703125000000 1.292007446289 170 170 170
19.343750000000 15.671875000000 1.239013671875 178 178 178
19.437500000000 15.609375000000 1.145004272461 168 168 168
19.468750000000 15.593750000000 1.105010986328 166 166 166
19.453125000000 15.593750000000 1.064010620117 167 167 167
20.062500000000 15.031250000000 1.943008422852 83 83 83
20.046875000000 15.031250000000 1.911010742188 195 195 195
20.031250000000 15.046875000000 1.878005981445 210 210 210
20.015625000000 15.062500000000 1.844009399414 209 209 209
19.500000000000 15.351562500000 1.979003906250 190 190 190
19.421875000000 15.406250000000 1.973999023438 171 171 171
19.406250000000 15.406250000000 1.941009521484 169 169 169
19.375000000000 15.437500000000 1.927001953125 159 159 159
19.250000000000 15.507812500000 1.936004638672 124 124 124
19.250000000000 15.500000000000 1.904006958008 144 144 144
19.250000000000 15.492187500000 1.866012573242 141 141 141
19.250000000000 15.484375000000 1.835006713867 140 140 140
19.250000000000 15.484375000000 1.802001953125 135 135 135
19.250000000000 15.484375000000 1.766006469727 143 143 143
19.406250000000 15.390625000000 1.663009643555 165 165 165
19.421875000000 15.382812500000 1.624008178711 168 168 168
19.406250000000 15.375000000000 1.590011596680 165 165 165
19.406250000000 15.375000000000 1.552001953125 170 170 170
19.406250000000 15.375000000000 1.518005371094 168 168 168
19.406250000000 15.375000000000 1.480010986328 169 169 169
19.406250000000 15.375000000000 1.445007324219 166 166 166
19.406250000000 15.375000000000 1.410003662109 168 168 168
19.406250000000 15.359375000000 1.370010375977 169 169 169
19.406250000000 15.359375000000 1.333007812500 169 169 169
19.406250000000 15.359375000000 1.294006347656 167 167 167
19.421875000000 15.343750000000 1.256011962891 115 115 115
20.156250000000 14.687500000000 1.945007324219 165 165 165
20.125000000000 14.703125000000 1.911010742188 216 216 216
20.125000000000 14.703125000000 1.873001098633 199 199 199
20.125000000000 14.703125000000 1.833007812500 217 217 217
20.125000000000 14.679687500000 1.794006347656 191 191 191
19.375000000000 15.140625000000 1.951004028320 118 118 118
19.375000000000 15.125000000000 1.912002563477 128 128 128
19.375000000000 15.125000000000 1.876998901367 135 135 135
19.375000000000 15.125000000000 1.845001220703 135 135 135
19.375000000000 15.125000000000 1.811004638672 132 132 132
19.375000000000 15.117187500000 1.777999877930 108 108 108
20.218750000000 14.359375000000 1.954010009766 176 176 176
20.218750000000 14.351562500000 1.917007446289 204 204 204
20.218750000000 14.351562500000 1.879013061523 215 215 215
20.203125000000 14.359375000000 1.840011596680 216 216 216
20.203125000000 14.359375000000 1.802001953125 171 171 171
19.515625000000 14.765625000000 1.960006713867 149 149 149
19.500000000000 14.773437500000 1.927001953125 208 208 208
19.500000000000 14.773437500000 1.892013549805 211 211 211
19.500000000000 14.773437500000 1.858001708984 209 209 209
19.515625000000 14.757812500000 1.822006225586 208 208 208
19.500000000000 14.765625000000 1.791000366211 94 94 94
20.281250000000 14.031250000000 1.962005615234 194 194 194
20.281250000000 14.031250000000 1.923004150391 161 161 161
20.250000000000 14.054687500000 1.893005371094 127 127 127
20.281250000000 14.031250000000 1.843002319336 198 198 198
20.281250000000 14.015625000000 1.799011230469 60 60 60
19.671875000000 14.390625000000 1.970001220703 120 120 120
19.640625000000 14.406250000000 1.942001342773 207 207 207
19.656250000000 14.390625000000 1.905014038086 205 205 205
19.656250000000 14.390625000000 1.869003295898 208 208 208
19.656250000000 14.390625000000 1.832000732422 205 205 205
19.656250000000 14.375000000000 1.794006347656 29 29 29
20.343750000000 13.726562500000 1.964004516602 211 211 211
20.343750000000 13.718750000000 1.923004150391 218 218 218
20.343750000000 13.703125000000 1.882003784180 217 217 217
20.343750000000 13.718750000000 1.844009399414 199 199 199
19.796875000000 14.039062500000 1.982009887695 137 137 137
19.765625000000 14.062500000000 1.952011108398 207 207 207
19.781250000000 14.046875000000 1.914001464844 204 204 204
19.781250000000 14.046875000000 1.878005981445 207 207 207
19.750000000000 14.062500000000 1.844009399414 204 204 204
20.406250000000 13.406250000000 1.997009277344 109 109 109
20.406250000000 13.406250000000 1.958007812500 213 213 213
20.406250000000 13.406250000000 1.919006347656 216 216 216
20.406250000000 13.406250000000 1.879013061523 216 216 216
20.000000000000 13.648437500000 1.970001220703 224 224 224
19.906250000000 13.695312500000 1.963012695313 192 192 192
19.906250000000 13.687500000000 1.921005249023 163 163 163
19.906250000000 13.679687500000 1.885009765625 206 206 206
19.906250000000 13.679687500000 1.845001220703 189 189 189
20.484375000000 13.078125000000 2.005004882813 123 123 123
20.484375000000 13.078125000000 1.965011596680 218 218 218
20.468750000000 13.070312500000 1.925003051758 218 218 218
20.437500000000 13.109375000000 1.895004272461 213 213 213
20.046875000000 13.328125000000 1.975006103516 203 203 203
20.031250000000 13.328125000000 1.943008422852 181 181 181
20.031250000000 13.320312500000 1.900009155273 199 199 199
20.062500000000 13.328125000000 1.857009887695 189 189 189
20.562500000000 12.742187500000 2.018005371094 40 40 40
20.531250000000 12.750000000000 1.981002807617 214 214 214
20.531250000000 12.750000000000 1.938003540039 214 214 214
20.218750000000 12.937500000000 1.994003295898 196 196 196
20.218750000000 12.937500000000 1.958007812500 173 173 173
20.218750000000 12.937500000000 1.917007446289 187 187 187
20.218750000000 12.921875000000 1.876007080078 202 202 202
20.656250000000 12.406250000000 2.027999877930 26 26 26
20.625000000000 12.406250000000 1.993011474609 213 213 213
20.468750000000 12.515625000000 1.995010375977 220 220 220
20.359375000000 12.578125000000 1.985000610352 201 201 201
20.375000000000 12.562500000000 1.941009521484 165 165 165
20.375000000000 12.562500000000 1.904006958008 199 199 199
20.375000000000 12.562500000000 1.861999511719 35 35 35
20.687500000000 12.093750000000 2.040008544922 94 94 94
20.609375000000 12.132812500000 2.020004272461 195 195 195
20.531250000000 12.187500000000 2.005004882813 196 196 196
20.515625000000 12.187500000000 1.965011596680 198 198 198
20.515625000000 12.187500000000 1.925003051758 207 207 207
20.500000000000 12.179687500000 1.884002685547 129 129 129
20.765625000000 11.781250000000 2.041000366211 132 132 132
20.640625000000 11.859375000000 2.030014038086 192 192 192
20.625000000000 11.851562500000 1.992004394531 201 201 201
20.625000000000 11.851562500000 1.949005126953 202 202 202
20.625000000000 11.851562500000 1.908004760742 181 181 181
20.812500000000 11.468750000000 2.050003051758 127 127 127
20.812500000000 11.468750000000 2.007003784180 210 210 210
20.812500000000 11.468750000000 1.966003417969 206 206 206
20.812500000000 11.453125000000 1.921005249023 201 201 201
20.921875000000 11.117187500000 2.050003051758 167 167 167
20.906250000000 11.109375000000 2.008010864258 211 211 211
20.906250000000 11.109375000000 1.964004516602 209 209 209
20.906250000000 11.109375000000 1.919006347656 171 171 171
21.046875000000 10.765625000000 2.050003051758 191 191 191
21.031250000000 10.773437500000 2.012008666992 207 207 207
21.031250000000 10.773437500000 1.966003417969 210 210 210
21.031250000000 10.757812500000 1.920013427734 117 117 117
21.125000000000 10.421875000000 2.060012817383 193 193 193
21.125000000000 10.421875000000 2.014999389648 208 208 208
21.125000000000 10.421875000000 1.969009399414 207 207 207
21.234375000000 10.093750000000 2.060012817383 207 207 207
21.250000000000 10.078125000000 2.012008666992 208 208 208
21.250000000000 10.078125000000 1.965011596680 189 189 189
21.359375000000 9.750000000000 2.097000122070 41 41 41
21.312500000000 9.765625000000 2.058013916016 200 200 200
21.343750000000 9.750000000000 2.009002685547 203 203 203
21.468750000000 9.664062500000 1.928009033203 32 32 32
18.828125000000 16.046875000000 1.727005004883 162 162 162
18.828125000000 16.046875000000 1.757003784180 166 166 166
18.843750000000 16.046875000000 1.787002563477 162 162 162
18.843750000000 16.046875000000 1.818008422852 176 176 176
18.843750000000 16.046875000000 1.850006103516 183 183 183
18.843750000000 16.031250000000 1.882003784180 190 190 190
18.843750000000 16.031250000000 1.914001464844 182 182 182
18.843750000000 16.031250000000 1.940002441406 159 159 159
18.906250000000 16.070312500000 1.947006225586 121 121 121
19.031250000000 15.890625000000 1.744003295898 151 151 151
19.031250000000 15.882812500000 1.777999877930 160 160 160
19.031250000000 15.867187500000 1.812011718750 158 158 158
19.031250000000 15.875000000000 1.841003417969 158 158 158
19.031250000000 15.875000000000 1.874008178711 159 159 159
19.031250000000 15.859375000000 1.913009643555 133 133 133
19.796875000000 16.343750000000 1.701004028320 153 153 153
19.781250000000 16.343750000000 1.745010375977 161 161 161
19.796875000000 16.328125000000 1.783004760742 165 165 165
19.812500000000 16.328125000000 1.817001342773 170 170 170
19.796875000000 16.328125000000 1.857009887695 166 166 166
19.843750000000 16.343750000000 1.881011962891 157 157 157
19.843750000000 16.359375000000 1.911010742188 120 120 120
19.125000000000 15.640625000000 1.757003784180 122 122 122
19.140625000000 15.656250000000 1.779006958008 162 162 162
19.156250000000 15.664062500000 1.809005737305 163 163 163
19.125000000000 15.656250000000 1.848999023438 163 163 163
19.140625000000 15.656250000000 1.880004882813 164 164 164
19.140625000000 15.656250000000 1.914001464844 144 144 144
19.859375000000 16.085937500000 1.738006591797 160 160 160
19.859375000000 16.085937500000 1.776000976563 163 163 163
19.875000000000 16.093750000000 1.810012817383 170 170 170
19.859375000000 16.085937500000 1.851013183594 168 168 168
19.875000000000 16.093750000000 1.886001586914 142 142 142
19.437500000000 15.578125000000 1.078002929688 139 139 139
19.437500000000 15.562500000000 1.115005493164 138 138 138
19.437500000000 15.562500000000 1.154006958008 145 145 145
19.437500000000 15.562500000000 1.195007324219 155 155 155
19.359375000000 15.515625000000 1.272003173828 181 181 181
19.343750000000 15.515625000000 1.314010620117 186 186 186
19.343750000000 15.515625000000 1.348999023438 166 166 166
19.343750000000 15.515625000000 1.386001586914 190 190 190
19.343750000000 15.515625000000 1.424011230469 188 188 188
19.359375000000 15.515625000000 1.457000732422 191 191 191
19.343750000000 15.515625000000 1.495010375977 189 189 189
19.359375000000 15.515625000000 1.530014038086 201 201 201
19.359375000000 15.500000000000 1.567001342773 200 200 200
19.375000000000 15.500000000000 1.601013183594 189 189 189
19.375000000000 15.500000000000 1.633010864258 190 190 190
19.359375000000 15.500000000000 1.676010131836 172 172 172
19.281250000000 15.453125000000 1.741012573242 156 156 156
19.250000000000 15.429687500000 1.790008544922 156 156 156
19.250000000000 15.429687500000 1.825012207031 159 159 159
19.250000000000 15.437500000000 1.857009887695 157 157 157
19.250000000000 15.429687500000 1.892013549805 159 159 159
19.250000000000 15.437500000000 1.924011230469 150 150 150
19.343750000000 15.484375000000 1.930007934570 166 166 166
19.375000000000 15.500000000000 1.947006225586 171 171 171
19.390625000000 15.515625000000 1.976013183594 164 164 164
19.484375000000 15.570312500000 1.975006103516 139 139 139
19.593750000000 15.640625000000 1.971008300781 137 137 137
19.687500000000 15.687500000000 1.975006103516 87 87 87
19.468750000000 15.296875000000 1.283004760742 153 153 153
19.468750000000 15.304687500000 1.318008422852 136 136 136
19.484375000000 15.312500000000 1.348999023438 129 129 129
19.484375000000 15.312500000000 1.385009765625 121 121 121
19.500000000000 15.328125000000 1.413009643555 119 119 119
19.500000000000 15.328125000000 1.448013305664 120 120 120
19.531250000000 15.328125000000 1.476013183594 116 116 116
19.562500000000 15.328125000000 1.508010864258 122 122 122
19.562500000000 15.343750000000 1.539001464844 119 119 119
19.578125000000 15.343750000000 1.569000244141 119 119 119
19.593750000000 15.359375000000 1.603012084961 119 119 119
19.562500000000 15.335937500000 1.652008056641 127 127 127
19.328125000000 15.203125000000 1.782012939453 150 150 150
19.328125000000 15.203125000000 1.818008422852 155 155 155
19.328125000000 15.203125000000 1.852005004883 152 152 152
19.343750000000 15.203125000000 1.882003784180 155 155 155
19.343750000000 15.203125000000 1.920013427734 153 153 153
19.406250000000 15.250000000000 1.923004150391 129 129 129
19.687500000000 15.406250000000 1.859008789063 117 117 117
19.687500000000 15.406250000000 1.894012451172 116 116 116
19.687500000000 15.414062500000 1.927001953125 112 112 112
19.750000000000 15.421875000000 1.953002929688 123 123 123
19.437500000000 14.960937500000 1.769012451172 52 52 52
19.421875000000 14.953125000000 1.805007934570 178 178 178
19.437500000000 14.960937500000 1.839004516602 186 186 186
19.437500000000 14.960937500000 1.874008178711 191 191 191
19.437500000000 14.960937500000 1.908004760742 196 196 196
19.437500000000 14.960937500000 1.943008422852 187 187 187
19.968750000000 15.281250000000 1.781005859375 162 162 162
19.968750000000 15.281250000000 1.820007324219 176 176 176
19.968750000000 15.281250000000 1.860000610352 161 161 161
19.968750000000 15.281250000000 1.892013549805 163 163 163
19.968750000000 15.281250000000 1.930007934570 116 116 116
19.500000000000 14.734375000000 1.789001464844 139 139 139
19.515625000000 14.734375000000 1.820007324219 220 220 220
19.500000000000 14.734375000000 1.858001708984 222 222 222
19.515625000000 14.718750000000 1.894012451172 222 222 222
19.515625000000 14.718750000000 1.930007934570 222 222 222
20.062500000000 15.062500000000 1.760009765625 186 186 186
20.000000000000 15.023437500000 1.823013305664 200 200 200
20.000000000000 15.023437500000 1.861999511719 210 210 210
20.031250000000 15.046875000000 1.889007568359 202 202 202
20.031250000000 15.031250000000 1.929000854492 179 179 179
19.593750000000 14.492187500000 1.809005737305 191 191 191
19.593750000000 14.492187500000 1.843002319336 222 222 222
19.593750000000 14.492187500000 1.879013061523 220 220 220
19.593750000000 14.492187500000 1.915008544922 222 222 222
19.593750000000 14.500000000000 1.948013305664 221 221 221
20.093750000000 14.804687500000 1.808013916016 217 217 217
20.093750000000 14.789062500000 1.847000122070 218 218 218
20.093750000000 14.781250000000 1.888000488281 212 212 212
20.093750000000 14.796875000000 1.925003051758 202 202 202
19.687500000000 14.265625000000 1.797012329102 120 120 120
19.671875000000 14.265625000000 1.838012695313 221 221 221
19.687500000000 14.265625000000 1.870010375977 222 222 222
19.671875000000 14.265625000000 1.908004760742 221 221 221
19.671875000000 14.265625000000 1.945007324219 220 220 220
20.140625000000 14.539062500000 1.820999145508 217 217 217
20.156250000000 14.546875000000 1.858001708984 220 220 220
20.156250000000 14.546875000000 1.893005371094 213 213 213
20.156250000000 14.546875000000 1.933013916016 201 201 201
19.765625000000 14.046875000000 1.831008911133 215 215 215
19.750000000000 14.039062500000 1.870010375977 222 222 222
19.750000000000 14.039062500000 1.906005859375 221 221 221
19.765625000000 14.046875000000 1.942001342773 223 223 223
20.187500000000 14.296875000000 1.830001831055 211 211 211
20.203125000000 14.296875000000 1.867004394531 221 221 221
20.203125000000 14.296875000000 1.906005859375 218 218 218
20.218750000000 14.304687500000 1.944000244141 193 193 193
19.843750000000 13.796875000000 1.829010009766 185 185 185
19.843750000000 13.796875000000 1.867004394531 219 219 219
19.843750000000 13.796875000000 1.902999877930 220 220 220
19.843750000000 13.796875000000 1.940002441406 219 219 219
19.859375000000 13.796875000000 1.973999023438 199 199 199
20.250000000000 14.031250000000 1.884002685547 142 142 142
20.250000000000 14.046875000000 1.917007446289 187 187 187
20.265625000000 14.046875000000 1.954010009766 187 187 187
19.953125000000 13.562500000000 1.818008422852 61 61 61
19.953125000000 13.562500000000 1.857009887695 219 219 219
19.953125000000 13.562500000000 1.896011352539 177 177 177
19.937500000000 13.554687500000 1.935012817383 191 191 191
19.953125000000 13.562500000000 1.970001220703 216 216 216
20.312500000000 13.781250000000 1.886001586914 220 220 220
20.312500000000 13.781250000000 1.926010131836 218 218 218
20.343750000000 13.789062500000 1.964004516602 182 182 182
20.031250000000 13.335937500000 1.847000122070 199 199 199
20.031250000000 13.328125000000 1.888000488281 218 218 218
20.031250000000 13.328125000000 1.929000854492 194 194 194
20.031250000000 13.328125000000 1.966003417969 211 211 211
20.312500000000 13.507812500000 1.907012939453 220 220 220
20.375000000000 13.531250000000 1.933013916016 221 221 221
20.375000000000 13.539062500000 1.972000122070 188 188 188
20.125000000000 13.117187500000 1.836013793945 82 82 82
20.109375000000 13.109375000000 1.878005981445 219 219 219
20.109375000000 13.109375000000 1.917999267578 203 203 203
20.125000000000 13.093750000000 1.957000732422 218 218 218
20.171875000000 13.140625000000 1.977005004883 225 225 225
20.406250000000 13.289062500000 1.939010620117 223 223 223
20.421875000000 13.296875000000 1.979003906250 191 191 191
20.218750000000 12.890625000000 1.870010375977 211 211 211
20.218750000000 12.890625000000 1.909011840820 208 208 208
20.218750000000 12.890625000000 1.951004028320 211 211 211
20.218750000000 12.890625000000 1.989013671875 213 213 213
20.468750000000 13.046875000000 1.950012207031 216 216 216
20.468750000000 13.046875000000 1.988006591797 183 183 183
20.312500000000 12.656250000000 1.868011474609 199 199 199
20.312500000000 12.656250000000 1.909011840820 212 212 212
20.312500000000 12.656250000000 1.952011108398 185 185 185
20.312500000000 12.656250000000 1.991012573242 219 219 219
20.515625000000 12.781250000000 1.967010498047 218 218 218
20.531250000000 12.781250000000 2.007003784180 108 108 108
20.406250000000 12.414062500000 1.872009277344 181 181 181
20.406250000000 12.414062500000 1.913009643555 215 215 215
20.406250000000 12.414062500000 1.953002929688 200 200 200
20.406250000000 12.414062500000 1.994003295898 220 220 220
20.578125000000 12.515625000000 1.983001708984 219 219 219
20.500000000000 12.187500000000 1.869003295898 106 106 106
20.500000000000 12.195312500000 1.908004760742 222 222 222
20.500000000000 12.171875000000 1.951004028320 223 223 223
20.500000000000 12.179687500000 1.992004394531 223 223 223
20.562500000000 12.203125000000 2.019012451172 178 178 178
20.562500000000 12.218750000000 2.055999755859 178 178 178
20.562500000000 12.218750000000 2.096008300781 168 168 168
20.562500000000 12.218750000000 2.137008666992 172 172 172
20.593750000000 12.226562500000 2.176010131836 165 165 165
20.593750000000 11.953125000000 1.904006958008 217 217 217
20.593750000000 11.953125000000 1.947006225586 218 218 218
20.593750000000 11.953125000000 1.986999511719 222 222 222
20.593750000000 11.968750000000 2.023010253906 189 189 189
20.656250000000 11.734375000000 1.899002075195 198 198 198
20.656250000000 11.734375000000 1.940002441406 217 217 217
20.656250000000 11.734375000000 1.983001708984 219 219 219
20.656250000000 11.742187500000 2.023010253906 203 203 203
20.765625000000 11.804687500000 2.037002563477 61 61 61
20.781250000000 11.531250000000 1.889999389648 121 121 121
20.781250000000 11.531250000000 1.930007934570 220 220 220
20.781250000000 11.531250000000 1.973999023438 221 221 221
20.781250000000 11.515625000000 2.019012451172 217 217 217
20.843750000000 11.281250000000 1.899002075195 138 138 138
20.843750000000 11.281250000000 1.942001342773 222 222 222
20.843750000000 11.281250000000 1.986007690430 221 221 221
20.875000000000 11.265625000000 2.027999877930 208 208 208
20.921875000000 11.031250000000 1.908004760742 99 99 99
20.937500000000 11.031250000000 1.951004028320 223 223 223
20.937500000000 11.031250000000 1.996002197266 221 221 221
20.937500000000 11.015625000000 2.040008544922 206 206 206
21.031250000000 10.796875000000 1.902999877930 33 33 33
21.000000000000 10.781250000000 1.954010009766 224 224 224
21.015625000000 10.789062500000 1.997009277344 223 223 223
21.000000000000 10.781250000000 2.042999267578 208 208 208
21.062500000000 10.546875000000 1.952011108398 213 213 213
21.078125000000 10.554687500000 1.995010375977 219 219 219
21.078125000000 10.554687500000 2.042007446289 215 215 215
21.140625000000 10.335937500000 1.956008911133 211 211 211
21.156250000000 10.343750000000 2.000000000000 217 217 217
21.140625000000 10.335937500000 2.047012329102 216 216 216
21.218750000000 10.078125000000 1.968002319336 216 216 216
21.218750000000 10.078125000000 2.014007568359 218 218 218
21.218750000000 10.085937500000 2.059005737305 205 205 205
21.296875000000 9.835937500000 1.981002807617 217 217 217
21.281250000000 9.828125000000 2.027008056641 215 215 215
21.296875000000 9.835937500000 2.073013305664 181 181 181
19.843750000000 16.265625000000 1.679000854492 126 126 126
19.812500000000 16.265625000000 1.725006103516 161 161 161
19.812500000000 16.265625000000 1.759002685547 167 167 167
19.812500000000 16.265625000000 1.788009643555 170 170 170
19.812500000000 16.265625000000 1.822006225586 167 167 167
19.812500000000 16.265625000000 1.855010986328 170 170 170
19.828125000000 16.273437500000 1.883010864258 148 148 148
19.843750000000 16.265625000000 1.906005859375 165 165 165
19.906250000000 16.265625000000 1.921005249023 73 73 73
18.859375000000 15.976562500000 1.708007812500 106 106 106
18.859375000000 15.976562500000 1.736007690430 159 159 159
18.843750000000 15.968750000000 1.768005371094 156 156 156
18.859375000000 15.976562500000 1.791000366211 166 166 166
18.859375000000 15.976562500000 1.820007324219 169 169 169
18.843750000000 15.968750000000 1.850006103516 166 166 166
18.859375000000 15.976562500000 1.874008178711 176 176 176
18.843750000000 15.968750000000 1.904006958008 183 183 183
18.859375000000 15.976562500000 1.928009033203 187 187 187
18.875000000000 15.984375000000 1.949005126953 156 156 156
18.921875000000 15.968750000000 1.958999633789 125 125 125
19.890625000000 15.984375000000 1.723007202148 109 109 109
19.890625000000 15.984375000000 1.756011962891 172 172 172
19.890625000000 15.984375000000 1.789001464844 174 174 174
19.906250000000 15.968750000000 1.820007324219 178 178 178
19.890625000000 15.984375000000 1.854003906250 177 177 177
19.906250000000 15.968750000000 1.884002685547 172 172 172
19.921875000000 15.976562500000 1.910003662109 21 21 21
19.328125000000 15.687500000000 1.249008178711 115 115 115
19.312500000000 15.687500000000 1.291000366211 170 170 170
19.312500000000 15.695312500000 1.319000244141 172 172 172
19.312500000000 15.687500000000 1.354003906250 168 168 168
19.312500000000 15.687500000000 1.386001586914 170 170 170
19.312500000000 15.695312500000 1.412002563477 170 170 170
19.312500000000 15.695312500000 1.445999145508 171 171 171
19.312500000000 15.695312500000 1.478012084961 170 170 170
19.312500000000 15.695312500000 1.508010864258 168 168 168
19.312500000000 15.703125000000 1.537002563477 167 167 167
19.312500000000 15.703125000000 1.568008422852 167 167 167
19.312500000000 15.695312500000 1.600006103516 168 168 168
19.312500000000 15.703125000000 1.630004882813 168 168 168
19.140625000000 15.695312500000 1.727005004883 157 157 157
19.093750000000 15.695312500000 1.771011352539 137 137 137
19.093750000000 15.695312500000 1.798004150391 137 137 137
19.093750000000 15.695312500000 1.828002929688 140 140 140
19.093750000000 15.695312500000 1.857009887695 135 135 135
19.125000000000 15.703125000000 1.880004882813 133 133 133
19.093750000000 15.695312500000 1.914001464844 133 133 133
19.281250000000 15.695312500000 1.882003784180 167 167 167
19.328125000000 15.703125000000 1.896011352539 172 172 172
19.328125000000 15.703125000000 1.925003051758 169 169 169
19.312500000000 15.703125000000 1.955001831055 169 169 169
19.343750000000 15.703125000000 1.981002807617 157 157 157
19.437500000000 15.687500000000 1.981002807617 139 139 139
19.531250000000 15.703125000000 1.976013183594 143 143 143
19.656250000000 15.687500000000 1.973999023438 135 135 135
19.390625000000 15.406250000000 1.262008666992 107 107 107
19.375000000000 15.406250000000 1.301010131836 173 173 173
19.375000000000 15.406250000000 1.332000732422 165 165 165
19.375000000000 15.406250000000 1.363006591797 160 160 160
19.390625000000 15.406250000000 1.393005371094 168 168 168
19.390625000000 15.406250000000 1.425003051758 168 168 168
19.390625000000 15.406250000000 1.457000732422 166 166 166
19.390625000000 15.406250000000 1.488006591797 168 168 168
19.390625000000 15.406250000000 1.517013549805 171 171 171
19.390625000000 15.406250000000 1.548004150391 170 170 170
19.390625000000 15.406250000000 1.582000732422 170 170 170
19.390625000000 15.406250000000 1.611007690430 170 170 170
19.406250000000 15.414062500000 1.641006469727 173 173 173
19.406250000000 15.414062500000 1.672012329102 171 171 171
19.375000000000 15.414062500000 1.715011596680 171 171 171
19.250000000000 15.406250000000 1.783004760742 151 151 151
19.265625000000 15.414062500000 1.810012817383 157 157 157
19.265625000000 15.414062500000 1.840011596680 155 155 155
19.250000000000 15.406250000000 1.872009277344 161 161 161
19.281250000000 15.421875000000 1.897003173828 158 158 158
19.265625000000 15.414062500000 1.928009033203 154 154 154
19.375000000000 15.406250000000 1.917999267578 165 165 165
19.406250000000 15.414062500000 1.943008422852 171 171 171
19.406250000000 15.421875000000 1.971008300781 173 173 173
19.437500000000 15.414062500000 1.991012573242 152 152 152
19.546875000000 15.414062500000 1.988006591797 133 133 133
19.812500000000 15.421875000000 1.943008422852 153 153 153
19.968750000000 15.421875000000 1.933013916016 71 71 71
19.375000000000 15.117187500000 1.766006469727 62 62 62
19.375000000000 15.117187500000 1.794006347656 149 149 149
19.375000000000 15.117187500000 1.825012207031 155 155 155
19.375000000000 15.125000000000 1.854003906250 157 157 157
19.375000000000 15.125000000000 1.883010864258 154 154 154
19.359375000000 15.125000000000 1.916000366211 153 153 153
19.375000000000 15.125000000000 1.939010620117 148 148 148
20.000000000000 15.140625000000 1.774002075195 163 163 163
20.000000000000 15.140625000000 1.805999755859 167 167 167
20.000000000000 15.140625000000 1.839004516602 182 182 182
20.000000000000 15.140625000000 1.872009277344 184 184 184
20.000000000000 15.140625000000 1.905014038086 184 184 184
20.031250000000 15.125000000000 1.935012817383 127 127 127
19.468750000000 14.843750000000 1.780014038086 72 72 72
19.468750000000 14.835937500000 1.813003540039 216 216 216
19.468750000000 14.843750000000 1.840011596680 216 216 216
19.468750000000 14.843750000000 1.871002197266 214 214 214
19.468750000000 14.843750000000 1.901000976563 217 217 217
19.468750000000 14.843750000000 1.932006835938 215 215 215
19.531250000000 14.843750000000 1.941009521484 217 217 217
20.093750000000 14.843750000000 1.808013916016 208 208 208
20.093750000000 14.843750000000 1.841003417969 216 216 216
20.093750000000 14.843750000000 1.875000000000 220 220 220
20.093750000000 14.843750000000 1.908004760742 199 199 199
20.093750000000 14.843750000000 1.941009521484 160 160 160
19.593750000000 14.546875000000 1.798004150391 162 162 162
19.562500000000 14.562500000000 1.831008911133 216 216 216
19.562500000000 14.562500000000 1.863006591797 217 217 217
19.562500000000 14.562500000000 1.893005371094 216 216 216
19.562500000000 14.562500000000 1.926010131836 216 216 216
19.593750000000 14.546875000000 1.953002929688 215 215 215
20.156250000000 14.546875000000 1.817001342773 216 216 216
20.156250000000 14.546875000000 1.848999023438 217 217 217
20.156250000000 14.546875000000 1.884002685547 216 216 216
20.156250000000 14.546875000000 1.917007446289 199 199 199
20.156250000000 14.546875000000 1.949005126953 171 171 171
19.671875000000 14.265625000000 1.820007324219 189 189 189
19.687500000000 14.265625000000 1.850006103516 215 215 215
19.671875000000 14.265625000000 1.883010864258 214 214 214
19.671875000000 14.265625000000 1.914001464844 214 214 214
19.687500000000 14.265625000000 1.945999145508 215 215 215
19.781250000000 14.265625000000 1.945999145508 227 227 227
20.218750000000 14.265625000000 1.854003906250 221 221 221
20.218750000000 14.265625000000 1.887008666992 219 219 219
20.203125000000 14.281250000000 1.924011230469 208 208 208
20.218750000000 14.273437500000 1.954010009766 194 194 194
19.781250000000 14.000000000000 1.830001831055 202 202 202
19.781250000000 13.984375000000 1.865005493164 216 216 216
19.781250000000 14.000000000000 1.894012451172 218 218 218
19.781250000000 13.992187500000 1.927001953125 214 214 214
19.781250000000 13.992187500000 1.958007812500 214 214 214
19.875000000000 13.984375000000 1.964004516602 118 118 118
20.281250000000 13.984375000000 1.888000488281 154 154 154
20.281250000000 13.984375000000 1.921005249023 168 168 168
20.281250000000 13.984375000000 1.955001831055 212 212 212
19.890625000000 13.710937500000 1.845001220703 202 202 202
19.890625000000 13.710937500000 1.878005981445 214 214 214
19.890625000000 13.710937500000 1.912002563477 178 178 178
19.890625000000 13.710937500000 1.943008422852 178 178 178
19.890625000000 13.710937500000 1.976013183594 208 208 208
20.328125000000 13.718750000000 1.887008666992 218 218 218
20.343750000000 13.718750000000 1.917999267578 220 220 220
20.343750000000 13.718750000000 1.953002929688 216 216 216
20.343750000000 13.710937500000 1.985000610352 116 116 116
20.000000000000 13.421875000000 1.861007690430 212 212 212
20.000000000000 13.421875000000 1.897003173828 210 210 210
20.000000000000 13.421875000000 1.930999755859 198 198 198
20.000000000000 13.421875000000 1.966003417969 217 217 217
20.093750000000 13.437500000000 1.968002319336 221 221 221
20.406250000000 13.421875000000 1.922012329102 220 220 220
20.390625000000 13.421875000000 1.958007812500 212 212 212
20.406250000000 13.421875000000 1.991012573242 149 149 149
