20.812500000000 17.281250000000 4.615005493164 225 225 225
20.796875000000 17.281250000000 4.573013305664 224 224 224
20.812500000000 17.265625000000 4.534011840820 222 222 222
20.812500000000 17.265625000000 4.495010375977 227 227 227
20.812500000000 17.265625000000 4.454010009766 227 227 227
20.812500000000 17.265625000000 4.414001464844 227 227 227
20.812500000000 17.265625000000 4.374008178711 224 224 224
20.812500000000 17.265625000000 4.333999633789 227 227 227
20.812500000000 17.265625000000 4.295013427734 226 226 226
20.812500000000 17.257812500000 4.254013061523 231 231 231
20.812500000000 17.265625000000 4.216003417969 230 230 230
20.812500000000 17.257812500000 4.175003051758 229 229 229
20.812500000000 17.257812500000 4.135009765625 227 227 227
20.812500000000 17.242187500000 4.096008300781 219 219 219
20.812500000000 17.242187500000 4.055999755859 224 224 224
20.812500000000 17.242187500000 4.016006469727 225 225 225
20.812500000000 17.242187500000 3.977005004883 226 226 226
20.828125000000 17.226562500000 3.937011718750 226 226 226
20.828125000000 17.226562500000 3.897003173828 225 225 225
20.812500000000 17.218750000000 3.857009887695 221 221 221
20.828125000000 17.226562500000 3.818008422852 221 221 221
20.843750000000 17.210937500000 3.777999877930 224 224 224
20.843750000000 17.210937500000 3.738006591797 223 223 223
20.843750000000 17.210937500000 3.698013305664 214 214 214
20.843750000000 17.210937500000 3.658004760742 207 207 207
20.828125000000 17.203125000000 3.618011474609 203 203 203
20.828125000000 17.203125000000 3.578002929688 192 192 192
20.843750000000 17.187500000000 3.538009643555 186 186 186
20.843750000000 17.171875000000 3.498001098633 194 194 194
20.843750000000 17.171875000000 3.458007812500 190 190 190
20.843750000000 17.171875000000 3.417007446289 181 181 181
20.859375000000 17.164062500000 3.376998901367 167 167 167
20.875000000000 17.164062500000 3.336013793945 164 164 164
20.875000000000 17.164062500000 3.295013427734 147 147 147
20.875000000000 17.156250000000 3.254013061523 86 86 86
20.843750000000 17.156250000000 3.216003417969 17 17 17
21.015625000000 17.343750000000 2.326004028320 20 20 20
21.000000000000 17.335937500000 2.284011840820 59 59 59
21.000000000000 17.335937500000 2.242004394531 102 102 102
21.000000000000 17.343750000000 2.201004028320 115 115 115
20.968750000000 17.359375000000 2.161010742188 139 139 139
20.984375000000 17.343750000000 2.115005493164 133 133 133
20.984375000000 17.343750000000 2.072006225586 138 138 138
20.968750000000 17.343750000000 2.031005859375 130 130 130
20.968750000000 17.343750000000 1.986999511719 137 137 137
20.984375000000 17.328125000000 1.941009521484 142 142 142
20.968750000000 17.335937500000 1.901000976563 150 150 150
20.968750000000 17.343750000000 1.859008789063 157 157 157
20.968750000000 17.335937500000 1.811004638672 154 154 154
20.968750000000 17.328125000000 1.770004272461 163 163 163
20.968750000000 17.328125000000 1.723999023438 171 171 171
20.968750000000 17.328125000000 1.679000854492 178 178 178
20.968750000000 17.328125000000 1.635009765625 177 177 177
20.968750000000 17.328125000000 1.592010498047 177 177 177
20.953125000000 17.328125000000 1.547012329102 178 178 178
20.953125000000 17.328125000000 1.503005981445 183 183 183
20.937500000000 17.320312500000 1.458999633789 183 183 183
20.937500000000 17.320312500000 1.414001464844 185 185 185
20.937500000000 17.320312500000 1.368011474609 187 187 187
20.937500000000 17.312500000000 1.325012207031 192 192 192
20.937500000000 17.312500000000 1.280014038086 194 194 194
20.937500000000 17.312500000000 1.233001708984 190 190 190
20.937500000000 17.296875000000 1.186004638672 190 190 190
20.937500000000 17.312500000000 1.142013549805 190 190 190
20.937500000000 17.296875000000 1.092010498047 191 191 191
20.953125000000 17.281250000000 1.037002563477 177 177 177
20.968750000000 17.359375000000 2.137008666992 26 26 26
20.968750000000 17.375000000000 2.096008300781 75 75 75
20.953125000000 17.375000000000 2.055007934570 116 116 116
20.953125000000 17.375000000000 2.012008666992 122 122 122
20.937500000000 17.367187500000 1.970001220703 133 133 133
20.937500000000 17.367187500000 1.927001953125 129 129 129
20.937500000000 17.359375000000 1.884002685547 130 130 130
20.937500000000 17.359375000000 1.842010498047 134 134 134
20.937500000000 17.359375000000 1.796005249023 148 148 148
20.937500000000 17.359375000000 1.753005981445 156 156 156
20.937500000000 17.359375000000 1.712005615234 156 156 156
20.937500000000 17.359375000000 1.665008544922 165 165 165
20.937500000000 17.359375000000 1.620010375977 176 176 176
20.921875000000 17.351562500000 1.577011108398 180 180 180
20.921875000000 17.351562500000 1.535003662109 180 180 180
20.906250000000 17.343750000000 1.492004394531 180 180 180
20.906250000000 17.343750000000 1.445007324219 185 185 185
20.906250000000 17.343750000000 1.402999877930 185 185 185
20.906250000000 17.343750000000 1.357009887695 186 186 186
20.906250000000 17.343750000000 1.314010620117 185 185 185
20.906250000000 17.343750000000 1.269012451172 193 193 193
20.921875000000 17.328125000000 1.215011596680 186 186 186
20.937500000000 17.312500000000 1.163009643555 176 176 176
20.906250000000 17.335937500000 1.133010864258 196 196 196
20.890625000000 17.328125000000 1.088012695313 197 197 197
20.890625000000 17.328125000000 1.041000366211 192 192 192
20.921875000000 17.312500000000 0.980010986328 184 184 184
20.906250000000 17.437500000000 5.746002197266 20 20 20
20.890625000000 17.437500000000 5.697006225586 53 53 53
20.875000000000 17.429687500000 5.652999877930 104 104 104
20.875000000000 17.429687500000 5.609008789063 121 121 121
20.875000000000 17.421875000000 5.562011718750 125 125 125
20.859375000000 17.421875000000 5.519012451172 143 143 143
20.875000000000 17.421875000000 5.478012084961 150 150 150
20.875000000000 17.421875000000 5.433013916016 173 173 173
20.859375000000 17.421875000000 5.389999389648 183 183 183
20.875000000000 17.421875000000 5.350006103516 187 187 187
20.859375000000 17.421875000000 5.305007934570 192 192 192
20.859375000000 17.414062500000 5.261001586914 195 195 195
20.859375000000 17.414062500000 5.220001220703 196 196 196
20.859375000000 17.414062500000 5.177001953125 192 192 192
20.843750000000 17.406250000000 5.134002685547 186 186 186
20.843750000000 17.406250000000 5.088012695313 196 196 196
20.843750000000 17.406250000000 5.047012329102 212 212 212
20.843750000000 17.406250000000 5.006011962891 209 209 209
20.843750000000 17.406250000000 4.965011596680 215 215 215
20.843750000000 17.406250000000 4.923004150391 217 217 217
20.812500000000 17.398437500000 4.878005981445 217 217 217
20.828125000000 17.398437500000 4.840011596680 218 218 218
20.812500000000 17.390625000000 4.796005249023 219 219 219
20.812500000000 17.390625000000 4.755004882813 220 220 220
20.812500000000 17.390625000000 4.714004516602 220 220 220
20.812500000000 17.390625000000 4.673004150391 220 220 220
20.812500000000 17.390625000000 4.632003784180 226 226 226
20.812500000000 17.390625000000 4.592010498047 227 227 227
20.812500000000 17.390625000000 4.550003051758 226 226 226
20.812500000000 17.390625000000 4.510009765625 217 217 217
20.812500000000 17.390625000000 4.470001220703 230 230 230
20.812500000000 17.382812500000 4.429000854492 230 230 230
20.812500000000 17.367187500000 4.389007568359 228 228 228
20.796875000000 17.375000000000 4.348007202148 228 228 228
20.812500000000 17.359375000000 4.308013916016 223 223 223
20.812500000000 17.359375000000 4.268005371094 230 230 230
20.812500000000 17.359375000000 4.227005004883 229 229 229
20.812500000000 17.359375000000 4.187011718750 224 224 224
20.796875000000 17.359375000000 4.147003173828 224 224 224
20.812500000000 17.343750000000 4.107009887695 230 230 230
20.812500000000 17.343750000000 4.067001342773 230 230 230
20.812500000000 17.343750000000 4.027008056641 213 213 213
20.796875000000 17.343750000000 3.986999511719 220 220 220
20.796875000000 17.343750000000 3.947006225586 229 229 229
20.796875000000 17.343750000000 3.907012939453 230 230 230
20.812500000000 17.328125000000 3.867004394531 234 234 234
20.781250000000 17.328125000000 3.827011108398 232 232 232
20.796875000000 17.312500000000 3.787002563477 233 233 233
20.781250000000 17.328125000000 3.747009277344 233 233 233
20.781250000000 17.312500000000 3.707000732422 230 230 230
20.781250000000 17.312500000000 3.667999267578 233 233 233
20.781250000000 17.312500000000 3.628005981445 232 232 232
20.781250000000 17.312500000000 3.588012695313 231 231 231
20.796875000000 17.296875000000 3.548004150391 233 233 233
20.796875000000 17.296875000000 3.508010864258 232 232 232
20.781250000000 17.296875000000 3.468002319336 229 229 229
20.781250000000 17.296875000000 3.428009033203 229 229 229
20.781250000000 17.296875000000 3.388000488281 229 229 229
20.796875000000 17.281250000000 3.348007202148 229 229 229
20.796875000000 17.281250000000 3.308013916016 228 228 228
20.796875000000 17.273437500000 3.268005371094 225 225 225
20.796875000000 17.273437500000 3.227005004883 228 228 228
20.812500000000 17.257812500000 3.187011718750 225 225 225
20.812500000000 17.257812500000 3.147003173828 223 223 223
20.812500000000 17.257812500000 3.106002807617 222 222 222
20.812500000000 17.257812500000 3.066009521484 221 221 221
20.812500000000 17.257812500000 3.024002075195 219 219 219
20.812500000000 17.257812500000 2.984008789063 213 213 213
20.812500000000 17.257812500000 2.943008422852 209 209 209
20.812500000000 17.242187500000 2.902008056641 199 199 199
20.812500000000 17.234375000000 2.861007690430 202 202 202
20.812500000000 17.234375000000 2.820007324219 201 201 201
20.812500000000 17.234375000000 2.780014038086 191 191 191
20.812500000000 17.218750000000 2.738006591797 190 190 190
20.812500000000 17.218750000000 2.695999145508 172 172 172
20.828125000000 17.203125000000 2.655014038086 175 175 175
20.828125000000 17.203125000000 2.614013671875 165 165 165
20.843750000000 17.187500000000 2.570999145508 146 146 146
20.843750000000 17.187500000000 2.529006958008 102 102 102
20.812500000000 17.203125000000 2.490005493164 53 53 53
20.750000000000 17.421875000000 8.055999755859 165 165 165
20.750000000000 17.421875000000 7.994003295898 166 166 166
20.750000000000 17.421875000000 7.945999145508 179 179 179
20.750000000000 17.406250000000 7.894012451172 178 178 178
20.750000000000 17.406250000000 7.837005615234 182 182 182
20.750000000000 17.390625000000 7.777999877930 183 183 183
20.750000000000 17.390625000000 7.730010986328 183 183 183
20.750000000000 17.390625000000 7.673004150391 180 180 180
20.750000000000 17.390625000000 7.618011474609 185 185 185
20.750000000000 17.390625000000 7.569000244141 196 196 196
20.750000000000 17.375000000000 7.518005371094 194 194 194
20.750000000000 17.375000000000 7.467010498047 196 196 196
20.750000000000 17.367187500000 7.411010742188 193 193 193
20.750000000000 17.367187500000 7.365005493164 196 196 196
20.750000000000 17.351562500000 7.316009521484 192 192 192
20.750000000000 17.351562500000 7.264007568359 185 185 185
20.750000000000 17.351562500000 7.213012695313 194 194 194
20.750000000000 17.343750000000 7.160003662109 196 196 196
20.750000000000 17.343750000000 7.116012573242 197 197 197
20.750000000000 17.343750000000 7.068008422852 195 195 195
20.750000000000 17.343750000000 7.020004272461 194 194 194
20.750000000000 17.328125000000 6.977005004883 198 198 198
20.750000000000 17.328125000000 6.927001953125 182 182 182
20.750000000000 17.328125000000 6.881011962891 182 182 182
20.750000000000 17.328125000000 6.831008911133 189 189 189
20.750000000000 17.328125000000 6.782012939453 183 183 183
20.750000000000 17.312500000000 6.736999511719 183 183 183
20.750000000000 17.312500000000 6.692001342773 164 164 164
20.765625000000 17.296875000000 6.651000976563 171 171 171
20.750000000000 17.296875000000 6.603012084961 172 172 172
20.765625000000 17.296875000000 6.560012817383 163 163 163
20.765625000000 17.281250000000 6.513000488281 144 144 144
20.781250000000 17.281250000000 6.472000122070 143 143 143
20.765625000000 17.281250000000 6.424011230469 147 147 147
20.750000000000 17.273437500000 6.374008178711 130 130 130
20.781250000000 17.265625000000 6.336013793945 113 113 113
20.781250000000 17.265625000000 6.291000366211 85 85 85
20.765625000000 17.257812500000 6.245010375977 36 36 36
20.781250000000 17.218750000000 5.897003173828 53 53 53
20.781250000000 17.218750000000 5.852005004883 152 152 152
20.781250000000 17.218750000000 5.811004638672 138 138 138
20.906250000000 17.156250000000 5.816009521484 82 82 82
20.890625000000 16.953125000000 6.637008666992 33 33 33
20.906250000000 16.937500000000 6.601013183594 76 76 76
21.000000000000 16.820312500000 5.863006591797 77 77 77
21.015625000000 16.812500000000 5.824005126953 130 130 130
21.000000000000 16.593750000000 6.529006958008 15 15 15
21.031250000000 16.585937500000 6.493011474609 103 103 103
21.125000000000 16.468750000000 5.838012695313 127 127 127
21.171875000000 16.187500000000 6.396011352539 103 103 103
21.250000000000 16.101562500000 5.864013671875 99 99 99
21.265625000000 16.093750000000 5.829010009766 102 102 102
21.281250000000 15.828125000000 6.292999267578 63 63 63
21.312500000000 15.796875000000 6.260009765625 20 20 20
21.343750000000 15.750000000000 5.851013183594 126 126 126
21.406250000000 15.703125000000 5.820999145508 75 75 75
21.406250000000 15.437500000000 6.186004638672 68 68 68
21.453125000000 15.398437500000 5.867004394531 131 131 131
21.484375000000 15.375000000000 5.830001831055 81 81 81
21.546875000000 15.312500000000 5.566009521484 106 106 106
21.562500000000 15.070312500000 6.074005126953 85 85 85
21.562500000000 15.062500000000 5.878005981445 131 131 131
21.593750000000 15.039062500000 5.840011596680 79 79 79
21.640625000000 14.984375000000 5.570007324219 106 106 106
21.687500000000 14.718750000000 5.989013671875 78 78 78
21.687500000000 14.718750000000 5.888000488281 129 129 129
21.703125000000 14.687500000000 5.847000122070 66 66 66
21.750000000000 14.648437500000 5.570007324219 105 105 105
21.781250000000 14.375000000000 5.897003173828 118 118 118
21.812500000000 14.367187500000 5.856002807617 80 80 80
21.875000000000 14.281250000000 5.581008911133 105 105 105
21.906250000000 14.007812500000 5.923004150391 62 62 62
21.906250000000 14.007812500000 5.873001098633 117 117 117
22.000000000000 13.953125000000 5.800003051758 181 181 181
22.000000000000 13.953125000000 5.748001098633 129 129 129
22.015625000000 13.937500000000 5.702011108398 178 178 178
22.015625000000 13.937500000000 5.652008056641 163 163 163
22.031250000000 13.921875000000 5.603012084961 170 170 170
22.031250000000 13.632812500000 5.902999877930 127 127 127
22.078125000000 13.617187500000 5.867004394531 15 15 15
22.093750000000 13.593750000000 5.822006225586 114 114 114
22.125000000000 13.562500000000 5.780014038086 176 176 176
22.125000000000 13.562500000000 5.729003906250 158 158 158
22.140625000000 13.546875000000 5.680007934570 171 171 171
22.125000000000 13.562500000000 5.625000000000 191 191 191
22.125000000000 13.546875000000 5.578002929688 74 74 74
22.125000000000 13.296875000000 5.917999267578 129 129 129
22.187500000000 13.273437500000 5.883010864258 48 48 48
22.218750000000 13.234375000000 5.842010498047 103 103 103
22.234375000000 13.218750000000 5.792999267578 193 193 193
22.234375000000 13.218750000000 5.743011474609 189 189 189
22.250000000000 13.203125000000 5.692001342773 188 188 188
22.250000000000 13.203125000000 5.641006469727 179 179 179
22.250000000000 13.187500000000 5.591003417969 92 92 92
22.234375000000 12.953125000000 5.922012329102 132 132 132
22.312500000000 12.898437500000 5.844009399414 137 137 137
22.343750000000 12.890625000000 5.798004150391 187 187 187
22.343750000000 12.875000000000 5.745010375977 188 188 188
22.343750000000 12.875000000000 5.695007324219 173 173 173
22.343750000000 12.875000000000 5.642013549805 172 172 172
22.406250000000 12.609375000000 6.042999267578 10 10 10
22.375000000000 12.609375000000 5.984008789063 10 10 10
22.375000000000 12.625000000000 5.925003051758 109 109 109
22.437500000000 12.546875000000 5.843002319336 173 173 173
22.437500000000 12.562500000000 5.787002563477 141 141 141
22.437500000000 12.546875000000 5.736007690430 144 144 144
22.468750000000 12.539062500000 5.689010620117 192 192 192
22.453125000000 12.531250000000 5.632003784180 137 137 137
22.468750000000 12.281250000000 5.935012817383 131 131 131
22.562500000000 12.218750000000 5.854003906250 176 176 176
22.578125000000 12.203125000000 5.804000854492 161 161 161
22.578125000000 12.203125000000 5.750000000000 164 164 164
22.562500000000 12.203125000000 5.694000244141 184 184 184
22.562500000000 12.195312500000 5.638000488281 133 133 133
22.625000000000 11.914062500000 6.248001098633 46 46 46
22.593750000000 11.906250000000 5.958999633789 126 126 126
22.625000000000 11.890625000000 5.913009643555 18 18 18
22.687500000000 11.828125000000 5.661010742188 75 75 75
22.750000000000 11.546875000000 6.391006469727 67 67 67
22.718750000000 11.546875000000 5.985000610352 105 105 105
22.718750000000 11.546875000000 5.930007934570 82 82 82
22.812500000000 11.453125000000 5.684005737305 75 75 75
22.906250000000 11.203125000000 6.533004760742 58 58 58
22.812500000000 11.203125000000 5.994003295898 119 119 119
22.843750000000 11.195312500000 5.945999145508 21 21 21
22.937500000000 11.125000000000 5.689010620117 82 82 82
22.921875000000 10.867187500000 5.991012573242 126 126 126
23.046875000000 10.773437500000 5.687011718750 29 29 29
23.015625000000 10.546875000000 6.049011230469 20 20 20
23.031250000000 10.546875000000 5.993011474609 122 122 122
23.250000000000 10.210937500000 6.928009033203 126 126 126
23.156250000000 10.203125000000 6.065002441406 28 28 28
23.156250000000 10.195312500000 6.005004882813 102 102 102
23.234375000000 10.039062500000 8.388000488281 25 25 25
23.218750000000 10.031250000000 8.315002441406 63 63 63
23.234375000000 10.015625000000 8.253005981445 63 63 63
23.234375000000 10.015625000000 8.187011718750 69 69 69
23.234375000000 10.015625000000 8.117004394531 75 75 75
23.218750000000 10.015625000000 8.049011230469 80 80 80
23.234375000000 10.015625000000 7.984008789063 94 94 94
23.234375000000 10.015625000000 7.917999267578 81 81 81
23.218750000000 10.007812500000 7.852005004883 86 86 86
23.218750000000 10.007812500000 7.789001464844 99 99 99
23.234375000000 9.992187500000 7.723007202148 106 106 106
23.250000000000 9.976562500000 7.664001464844 132 132 132
23.250000000000 9.976562500000 7.603012084961 131 131 131
23.343750000000 9.921875000000 7.579010009766 60 60 60
23.281250000000 9.921875000000 7.497009277344 15 15 15
23.218750000000 9.968750000000 7.406005859375 149 149 149
23.343750000000 9.906250000000 7.389007568359 61 61 61
23.234375000000 9.953125000000 7.284011840820 154 154 154
23.312500000000 9.906250000000 7.253005981445 60 60 60
23.343750000000 9.890625000000 7.202011108398 52 52 52
23.312500000000 9.890625000000 7.130004882813 59 59 59
23.250000000000 9.906250000000 7.044006347656 244 244 244
23.312500000000 9.875000000000 7.005004882813 248 248 248
23.281250000000 9.890625000000 6.928009033203 19 19 19
23.312500000000 9.875000000000 6.882003784180 24 24 24
23.218750000000 9.906250000000 6.787002563477 217 217 217
23.250000000000 9.898437500000 6.731002807617 235 235 235
23.218750000000 9.906250000000 6.660003662109 171 171 171
23.218750000000 9.906250000000 6.600006103516 191 191 191
23.218750000000 9.906250000000 6.542007446289 193 193 193
23.218750000000 9.898437500000 6.479003906250 169 169 169
23.203125000000 9.890625000000 6.419006347656 183 183 183
23.218750000000 9.875000000000 6.360000610352 197 197 197
23.250000000000 9.875000000000 6.311004638672 238 238 238
23.234375000000 9.867187500000 6.248001098633 234 234 234
23.203125000000 9.875000000000 6.180007934570 178 178 178
23.187500000000 9.875000000000 6.121002197266 193 193 193
23.156250000000 9.890625000000 6.053009033203 124 124 124
23.187500000000 9.867187500000 6.001007080078 162 162 162
23.187500000000 9.867187500000 5.944000244141 164 164 164
23.187500000000 9.867187500000 5.886001586914 176 176 176
23.187500000000 9.859375000000 5.827011108398 192 192 192
23.203125000000 9.843750000000 5.771011352539 208 208 208
23.203125000000 9.843750000000 5.712005615234 198 198 198
23.187500000000 9.843750000000 5.652999877930 195 195 195
23.187500000000 9.843750000000 5.596008300781 193 193 193
23.187500000000 9.843750000000 5.539001464844 196 196 196
23.187500000000 9.843750000000 5.480010986328 203 203 203
23.187500000000 9.843750000000 5.424011230469 205 205 205
23.187500000000 9.835937500000 5.365005493164 204 204 204
23.187500000000 9.820312500000 5.309005737305 206 206 206
23.187500000000 9.812500000000 5.251007080078 201 201 201
23.171875000000 9.812500000000 5.194000244141 185 185 185
23.171875000000 9.812500000000 5.137008666992 206 206 206
23.171875000000 9.812500000000 5.081008911133 210 210 210
23.187500000000 9.796875000000 5.024002075195 211 211 211
23.187500000000 9.796875000000 4.969009399414 211 211 211
23.171875000000 9.796875000000 4.911010742188 211 211 211
23.171875000000 9.789062500000 4.854003906250 218 218 218
23.171875000000 9.789062500000 4.799011230469 221 221 221
23.187500000000 9.773437500000 4.742004394531 221 221 221
23.156250000000 9.781250000000 4.686004638672 208 208 208
23.156250000000 9.781250000000 4.629013061523 219 219 219
23.187500000000 9.750000000000 4.575012207031 225 225 225
23.156250000000 9.765625000000 4.518005371094 225 225 225
23.156250000000 9.765625000000 4.462005615234 219 219 219
23.156250000000 9.765625000000 4.405014038086 213 213 213
23.156250000000 9.750000000000 4.350006103516 215 215 215
23.156250000000 9.750000000000 4.294006347656 218 218 218
23.156250000000 9.742187500000 4.238006591797 215 215 215
23.171875000000 9.726562500000 4.183013916016 212 212 212
23.171875000000 9.726562500000 4.126998901367 213 213 213
23.156250000000 9.718750000000 4.070999145508 217 217 217
23.140625000000 9.734375000000 4.014999389648 215 215 215
23.156250000000 9.718750000000 3.958999633789 213 213 213
23.156250000000 9.710937500000 3.902999877930 204 204 204
23.156250000000 9.718750000000 3.848007202148 207 207 207
23.156250000000 9.710937500000 3.792007446289 206 206 206
23.156250000000 9.710937500000 3.736007690430 209 209 209
23.156250000000 9.703125000000 3.680999755859 208 208 208
23.156250000000 9.703125000000 3.625000000000 212 212 212
23.156250000000 9.703125000000 3.569000244141 209 209 209
23.156250000000 9.687500000000 3.514007568359 208 208 208
23.156250000000 9.687500000000 3.458007812500 207 207 207
23.156250000000 9.687500000000 3.402008056641 209 209 209
23.156250000000 9.687500000000 3.346008300781 209 209 209
23.156250000000 9.671875000000 3.290008544922 201 201 201
23.140625000000 9.679687500000 3.234008789063 202 202 202
23.156250000000 9.664062500000 3.178009033203 202 202 202
23.125000000000 9.671875000000 3.123001098633 201 201 201
23.140625000000 9.656250000000 3.066009521484 206 206 206
23.140625000000 9.656250000000 3.011001586914 201 201 201
23.156250000000 9.640625000000 2.954010009766 195 195 195
23.140625000000 9.640625000000 2.898010253906 194 194 194
23.140625000000 9.640625000000 2.842010498047 192 192 192
23.140625000000 9.640625000000 2.785003662109 182 182 182
23.140625000000 9.640625000000 2.730010986328 194 194 194
23.125000000000 9.632812500000 2.674011230469 189 189 189
23.125000000000 9.632812500000 2.617004394531 187 187 187
23.125000000000 9.625000000000 2.561004638672 180 180 180
23.125000000000 9.609375000000 2.503005981445 179 179 179
23.125000000000 9.609375000000 2.447006225586 172 172 172
23.125000000000 9.625000000000 2.392013549805 183 183 183
23.125000000000 9.609375000000 2.333007812500 187 187 187
23.125000000000 9.609375000000 2.276000976563 183 183 183
23.125000000000 9.609375000000 2.219009399414 181 181 181
23.109375000000 9.601562500000 2.163009643555 169 169 169
23.109375000000 9.601562500000 2.106002807617 183 183 183
23.109375000000 9.578125000000 2.048004150391 176 176 176
23.125000000000 9.585937500000 1.989013671875 174 174 174
23.125000000000 9.562500000000 1.930999755859 171 171 171
23.125000000000 9.562500000000 1.874008178711 169 169 169
23.109375000000 9.578125000000 1.817001342773 176 176 176
23.125000000000 9.562500000000 1.759002685547 171 171 171
23.125000000000 9.562500000000 1.699005126953 185 185 185
23.109375000000 9.562500000000 1.642013549805 176 176 176
23.140625000000 9.531250000000 1.573013305664 243 243 243
23.093750000000 9.546875000000 1.287002563477 211 211 211
23.156250000000 9.500000000000 1.332000732422 228 228 228
20.781250000000 17.375000000000 4.494003295898 69 69 69
20.781250000000 17.375000000000 4.535003662109 123 123 123
20.781250000000 17.375000000000 4.575012207031 157 157 157
20.781250000000 17.375000000000 4.616012573242 167 167 167
20.781250000000 17.375000000000 4.656005859375 166 166 166
20.781250000000 17.359375000000 4.697006225586 179 179 179
20.765625000000 17.343750000000 4.736007690430 183 183 183
20.781250000000 17.343750000000 4.777999877930 186 186 186
20.781250000000 17.343750000000 4.819000244141 185 185 185
20.781250000000 17.343750000000 4.860000610352 195 195 195
20.781250000000 17.343750000000 4.902008056641 196 196 196
20.765625000000 17.343750000000 4.943008422852 199 199 199
20.765625000000 17.335937500000 4.983001708984 200 200 200
20.765625000000 17.335937500000 5.023010253906 204 204 204
20.765625000000 17.335937500000 5.066009521484 202 202 202
20.765625000000 17.335937500000 5.107009887695 197 197 197
20.750000000000 17.328125000000 5.149002075195 194 194 194
20.765625000000 17.312500000000 5.190002441406 196 196 196
20.750000000000 17.312500000000 5.231002807617 197 197 197
20.750000000000 17.312500000000 5.273010253906 200 200 200
20.750000000000 17.312500000000 5.315002441406 202 202 202
20.750000000000 17.312500000000 5.358001708984 199 199 199
20.750000000000 17.312500000000 5.399002075195 200 200 200
20.750000000000 17.312500000000 5.441009521484 195 195 195
20.750000000000 17.312500000000 5.486007690430 200 200 200
20.750000000000 17.312500000000 5.527008056641 196 196 196
20.750000000000 17.312500000000 5.570999145508 200 200 200
20.750000000000 17.312500000000 5.613006591797 198 198 198
20.750000000000 17.312500000000 5.656005859375 192 192 192
20.750000000000 17.289062500000 5.697006225586 177 177 177
20.750000000000 17.289062500000 5.741012573242 195 195 195
20.750000000000 17.281250000000 5.783004760742 190 190 190
20.750000000000 17.281250000000 5.827011108398 170 170 170
20.750000000000 17.296875000000 5.875000000000 166 166 166
20.750000000000 17.281250000000 5.915008544922 196 196 196
20.750000000000 17.281250000000 5.960006713867 202 202 202
20.750000000000 17.281250000000 6.003005981445 200 200 200
20.750000000000 17.281250000000 6.048004150391 200 200 200
20.734375000000 17.281250000000 6.091003417969 189 189 189
20.750000000000 17.281250000000 6.138000488281 181 181 181
20.750000000000 17.265625000000 6.183013916016 192 192 192
20.750000000000 17.265625000000 6.227005004883 193 193 193
20.750000000000 17.265625000000 6.273010253906 196 196 196
20.750000000000 17.265625000000 6.318008422852 192 192 192
20.750000000000 17.265625000000 6.361999511719 191 191 191
20.750000000000 17.265625000000 6.413009643555 193 193 193
20.750000000000 17.265625000000 6.456008911133 192 192 192
20.750000000000 17.273437500000 6.507003784180 178 178 178
20.750000000000 17.265625000000 6.552001953125 193 193 193
20.750000000000 17.265625000000 6.597000122070 191 191 191
20.750000000000 17.265625000000 6.642013549805 183 183 183
20.750000000000 17.250000000000 6.688003540039 161 161 161
20.750000000000 17.250000000000 6.738006591797 181 181 181
20.750000000000 17.250000000000 6.787002563477 182 182 182
20.750000000000 17.250000000000 6.833999633789 185 185 185
20.750000000000 17.250000000000 6.880004882813 177 177 177
20.750000000000 17.250000000000 6.936004638672 178 178 178
20.750000000000 17.250000000000 6.981002807617 185 185 185
20.750000000000 17.250000000000 7.030014038086 186 186 186
20.750000000000 17.250000000000 7.078002929688 182 182 182
20.750000000000 17.250000000000 7.131011962891 178 178 178
20.750000000000 17.234375000000 7.183013916016 171 171 171
20.750000000000 17.234375000000 7.235000610352 174 174 174
20.750000000000 17.234375000000 7.282012939453 170 170 170
20.750000000000 17.234375000000 7.335006713867 173 173 173
20.750000000000 17.234375000000 7.388000488281 177 177 177
20.750000000000 17.234375000000 7.438003540039 174 174 174
20.750000000000 17.234375000000 7.493011474609 170 170 170
20.750000000000 17.234375000000 7.542999267578 174 174 174
20.750000000000 17.234375000000 7.597000122070 167 167 167
20.765625000000 17.234375000000 7.652008056641 165 165 165
20.765625000000 17.234375000000 7.705001831055 166 166 166
20.781250000000 17.234375000000 7.760009765625 161 161 161
20.765625000000 17.234375000000 7.813003540039 154 154 154
20.765625000000 17.234375000000 7.869003295898 153 153 153
20.765625000000 17.234375000000 7.924011230469 146 146 146
20.781250000000 17.234375000000 7.984008789063 153 153 153
20.765625000000 17.234375000000 8.035003662109 153 153 153
20.765625000000 17.234375000000 8.092010498047 88 88 88
20.812500000000 17.234375000000 1.198013305664 191 191 191
20.828125000000 17.226562500000 1.241012573242 195 195 195
20.812500000000 17.218750000000 1.288009643555 192 192 192
20.812500000000 17.218750000000 1.333007812500 195 195 195
20.812500000000 17.218750000000 1.381011962891 198 198 198
20.812500000000 17.218750000000 1.426010131836 199 199 199
20.812500000000 17.218750000000 1.470001220703 202 202 202
20.812500000000 17.218750000000 1.514999389648 198 198 198
20.812500000000 17.218750000000 1.559005737305 196 196 196
20.812500000000 17.218750000000 1.604003906250 200 200 200
20.812500000000 17.218750000000 1.648010253906 200 200 200
20.812500000000 17.218750000000 1.693008422852 199 199 199
20.828125000000 17.203125000000 1.736007690430 198 198 198
20.812500000000 17.203125000000 1.782012939453 202 202 202
20.812500000000 17.203125000000 1.826004028320 203 203 203
20.812500000000 17.203125000000 1.868011474609 200 200 200
20.828125000000 17.203125000000 1.910003662109 197 197 197
20.812500000000 17.203125000000 1.956008911133 198 198 198
20.828125000000 17.203125000000 1.997009277344 207 207 207
20.812500000000 17.203125000000 2.041000366211 204 204 204
20.828125000000 17.203125000000 2.083007812500 202 202 202
20.812500000000 17.203125000000 2.126007080078 200 200 200
20.812500000000 17.203125000000 2.170013427734 205 205 205
20.843750000000 17.187500000000 2.211013793945 205 205 205
20.843750000000 17.187500000000 2.254013061523 204 204 204
20.843750000000 17.187500000000 2.296005249023 205 205 205
20.843750000000 17.187500000000 2.339004516602 199 199 199
20.843750000000 17.187500000000 2.381011962891 199 199 199
20.843750000000 17.187500000000 2.423004150391 193 193 193
20.843750000000 17.195312500000 2.463012695313 206 206 206
20.843750000000 17.195312500000 2.505004882813 206 206 206
20.843750000000 17.195312500000 2.548004150391 199 199 199
20.843750000000 17.195312500000 2.590011596680 203 203 203
20.843750000000 17.195312500000 2.631011962891 202 202 202
20.843750000000 17.195312500000 2.673004150391 200 200 200
20.843750000000 17.179687500000 2.715011596680 198 198 198
20.843750000000 17.179687500000 2.756011962891 204 204 204
20.843750000000 17.179687500000 2.798004150391 207 207 207
20.843750000000 17.187500000000 2.839004516602 204 204 204
20.843750000000 17.187500000000 2.880004882813 212 212 212
20.843750000000 17.179687500000 2.922012329102 211 211 211
20.843750000000 17.187500000000 2.963012695313 203 203 203
20.859375000000 17.187500000000 3.004013061523 213 213 213
20.843750000000 17.179687500000 3.046005249023 210 210 210
20.859375000000 17.187500000000 3.086013793945 212 212 212
20.859375000000 17.187500000000 3.128005981445 214 214 214
20.859375000000 17.171875000000 3.169006347656 214 214 214
20.875000000000 17.171875000000 3.210006713867 214 214 214
20.875000000000 17.171875000000 3.251007080078 216 216 216
20.875000000000 17.171875000000 3.292007446289 216 216 216
20.875000000000 17.171875000000 3.333007812500 214 214 214
20.875000000000 17.171875000000 3.374008178711 219 219 219
20.875000000000 17.171875000000 3.416000366211 216 216 216
20.875000000000 17.171875000000 3.457000732422 218 218 218
20.875000000000 17.171875000000 3.498001098633 224 224 224
20.875000000000 17.187500000000 3.539001464844 221 221 221
20.875000000000 17.171875000000 3.580001831055 219 219 219
20.875000000000 17.187500000000 3.621002197266 214 214 214
20.890625000000 17.187500000000 3.662002563477 211 211 211
20.906250000000 17.187500000000 3.703002929688 193 193 193
20.906250000000 17.187500000000 3.745010375977 202 202 202
20.890625000000 17.187500000000 3.786010742188 195 195 195
20.890625000000 17.187500000000 3.827011108398 185 185 185
20.890625000000 17.187500000000 3.868011474609 185 185 185
20.890625000000 17.187500000000 3.909011840820 181 181 181
20.890625000000 17.187500000000 3.950012207031 176 176 176
20.906250000000 17.187500000000 3.992004394531 171 171 171
20.906250000000 17.187500000000 4.033004760742 165 165 165
20.906250000000 17.195312500000 4.075012207031 155 155 155
20.921875000000 17.179687500000 4.117004394531 126 126 126
20.921875000000 17.179687500000 4.158004760742 86 86 86
20.937500000000 17.187500000000 4.201004028320 33 33 33
20.906250000000 17.101562500000 5.816009521484 84 84 84
20.875000000000 17.093750000000 5.856002807617 113 113 113
20.843750000000 17.031250000000 6.672012329102 115 115 115
20.875000000000 17.281250000000 1.126998901367 131 131 131
20.968750000000 16.875000000000 5.820999145508 90 90 90
20.968750000000 16.867187500000 5.861999511719 127 127 127
20.937500000000 16.820312500000 6.587005615234 70 70 70
21.062500000000 16.640625000000 5.828002929688 109 109 109
21.031250000000 16.632812500000 5.866012573242 115 115 115
21.000000000000 16.585937500000 6.504013061523 34 34 34
21.000000000000 16.593750000000 6.553009033203 21 21 21
21.125000000000 16.390625000000 5.839004516602 144 144 144
21.125000000000 16.390625000000 5.880004882813 37 37 37
21.093750000000 16.343750000000 6.432006835938 31 31 31
21.218750000000 16.140625000000 5.850006103516 150 150 150
21.156250000000 16.093750000000 6.402008056641 32 32 32
21.281250000000 15.906250000000 5.855010986328 153 153 153
21.250000000000 15.875000000000 6.322006225586 98 98 98
21.343750000000 15.656250000000 5.855010986328 140 140 140
21.328125000000 15.648437500000 5.896011352539 68 68 68
21.312500000000 15.640625000000 6.228012084961 17 17 17
21.312500000000 15.640625000000 6.280014038086 18 18 18
21.437500000000 15.429687500000 5.857009887695 156 156 156
21.421875000000 15.421875000000 5.904006958008 54 54 54
21.421875000000 15.421875000000 6.195007324219 91 91 91
21.546875000000 15.242187500000 5.542007446289 69 69 69
21.562500000000 15.250000000000 5.592010498047 53 53 53
21.500000000000 15.218750000000 5.868011474609 174 174 174
21.484375000000 15.187500000000 6.106002807617 58 58 58
21.625000000000 15.000000000000 5.551010131836 73 73 73
21.625000000000 14.992187500000 5.597000122070 37 37 37
21.593750000000 14.984375000000 5.836013793945 13 13 13
21.562500000000 14.968750000000 5.876998901367 160 160 160
21.562500000000 14.945312500000 6.070999145508 65 65 65
21.687500000000 14.765625000000 5.555999755859 85 85 85
21.687500000000 14.734375000000 5.602005004883 30 30 30
21.671875000000 14.734375000000 5.844009399414 34 34 34
21.656250000000 14.718750000000 5.887008666992 156 156 156
21.671875000000 14.726562500000 5.992004394531 77 77 77
21.781250000000 14.523437500000 5.562011718750 89 89 89
21.765625000000 14.515625000000 5.606002807617 30 30 30
21.781250000000 14.500000000000 5.807006835938 21 21 21
21.750000000000 14.484375000000 5.848999023438 134 134 134
21.734375000000 14.468750000000 5.893005371094 144 144 144
21.750000000000 14.476562500000 5.947006225586 90 90 90
21.859375000000 14.296875000000 5.562011718750 63 63 63
21.843750000000 14.289062500000 5.608001708984 52 52 52
21.843750000000 14.265625000000 5.858001708984 16 16 16
21.812500000000 14.242187500000 5.895004272461 162 162 162
21.921875000000 14.054687500000 5.555999755859 38 38 38
21.937500000000 14.062500000000 5.609008789063 129 129 129
21.937500000000 14.046875000000 5.658004760742 135 135 135
21.937500000000 14.046875000000 5.712005615234 146 146 146
21.937500000000 14.046875000000 5.760009765625 150 150 150
21.937500000000 14.046875000000 5.810012817383 159 159 159
21.921875000000 14.031250000000 5.857009887695 120 120 120
21.875000000000 14.007812500000 5.897003173828 156 156 156
22.031250000000 13.843750000000 5.562011718750 8 8 8
22.015625000000 13.835937500000 5.610000610352 179 179 179
22.015625000000 13.835937500000 5.662002563477 186 186 186
22.015625000000 13.835937500000 5.713012695313 170 170 170
22.015625000000 13.835937500000 5.764999389648 159 159 159
22.015625000000 13.835937500000 5.816009521484 186 186 186
21.968750000000 13.781250000000 5.902999877930 160 160 160
22.109375000000 13.593750000000 5.570007324219 9 9 9
22.093750000000 13.585937500000 5.618011474609 188 188 188
22.093750000000 13.585937500000 5.670013427734 195 195 195
22.093750000000 13.585937500000 5.722000122070 173 173 173
22.093750000000 13.578125000000 5.773010253906 58 58 58
22.093750000000 13.578125000000 5.823013305664 175 175 175
22.031250000000 13.531250000000 5.910003662109 155 155 155
22.187500000000 13.343750000000 5.623001098633 180 180 180
22.171875000000 13.335937500000 5.673004150391 161 161 161
22.171875000000 13.335937500000 5.726013183594 135 135 135
22.187500000000 13.343750000000 5.780014038086 159 159 159
22.156250000000 13.328125000000 5.829010009766 154 154 154
22.125000000000 13.312500000000 5.873001098633 8 8 8
22.125000000000 13.289062500000 5.921005249023 158 158 158
22.250000000000 13.109375000000 5.623001098633 162 162 162
22.250000000000 13.101562500000 5.673004150391 207 207 207
22.250000000000 13.093750000000 5.728012084961 184 184 184
22.250000000000 13.093750000000 5.780014038086 194 194 194
22.250000000000 13.093750000000 5.833007812500 196 196 196
22.203125000000 13.062500000000 5.923004150391 156 156 156
22.312500000000 12.875000000000 5.616012573242 117 117 117
22.312500000000 12.875000000000 5.667999267578 204 204 204
22.343750000000 12.867187500000 5.723999023438 145 145 145
22.312500000000 12.859375000000 5.774002075195 173 173 173
22.312500000000 12.859375000000 5.828002929688 193 193 193
22.312500000000 12.859375000000 5.880004882813 19 19 19
22.281250000000 12.828125000000 5.922012329102 133 133 133
22.265625000000 12.828125000000 5.971008300781 32 32 32
22.406250000000 12.648437500000 5.608001708984 60 60 60
22.406250000000 12.648437500000 5.661010742188 196 196 196
22.406250000000 12.648437500000 5.714004516602 171 171 171
22.406250000000 12.648437500000 5.768005371094 185 185 185
22.406250000000 12.648437500000 5.822006225586 159 159 159
22.406250000000 12.640625000000 5.873001098633 127 127 127
22.343750000000 12.617187500000 5.915008544922 86 86 86
22.343750000000 12.609375000000 5.965011596680 91 91 91
22.359375000000 12.625000000000 6.026000976563 68 68 68
22.500000000000 12.421875000000 5.608001708984 14 14 14
22.468750000000 12.414062500000 5.658004760742 187 187 187
22.468750000000 12.421875000000 5.713012695313 149 149 149
22.468750000000 12.414062500000 5.766006469727 145 145 145
22.468750000000 12.406250000000 5.819000244141 152 152 152
22.468750000000 12.414062500000 5.876007080078 140 140 140
22.437500000000 12.367187500000 5.917007446289 93 93 93
22.421875000000 12.359375000000 5.968002319336 125 125 125
22.437500000000 12.375000000000 6.085006713867 61 61 61
22.562500000000 12.171875000000 5.664001464844 180 180 180
22.562500000000 12.171875000000 5.717010498047 187 187 187
22.546875000000 12.156250000000 5.770004272461 203 203 203
22.546875000000 12.156250000000 5.823013305664 206 206 206
22.531250000000 12.156250000000 5.878005981445 142 142 142
22.500000000000 12.125000000000 5.923004150391 79 79 79
22.500000000000 12.109375000000 5.973007202148 121 121 121
22.500000000000 12.125000000000 6.200012207031 23 23 23
22.625000000000 11.914062500000 5.660003662109 95 95 95
22.593750000000 11.890625000000 5.927001953125 24 24 24
22.562500000000 11.875000000000 5.976013183594 140 140 140
22.625000000000 11.890625000000 6.270004272461 79 79 79
22.718750000000 11.695312500000 5.655014038086 103 103 103
22.656250000000 11.640625000000 5.971008300781 150 150 150
22.687500000000 11.656250000000 6.379013061523 13 13 13
22.781250000000 11.468750000000 5.697006225586 99 99 99
22.718750000000 11.421875000000 5.962005615234 114 114 114
22.718750000000 11.406250000000 6.016006469727 85 85 85
22.781250000000 11.437500000000 6.433013916016 72 72 72
22.875000000000 11.242187500000 5.693008422852 126 126 126
22.812500000000 11.203125000000 5.958999633789 77 77 77
22.812500000000 11.187500000000 6.012008666992 114 114 114
22.859375000000 11.203125000000 6.553009033203 35 35 35
22.968750000000 11.015625000000 5.693008422852 109 109 109
22.875000000000 10.968750000000 5.962005615234 50 50 50
22.875000000000 10.960937500000 6.014999389648 136 136 136
22.953125000000 10.968750000000 6.624008178711 75 75 75
23.031250000000 10.781250000000 5.691009521484 92 92 92
22.968750000000 10.718750000000 5.966003417969 16 16 16
22.937500000000 10.703125000000 6.016006469727 145 145 145
23.031250000000 10.726562500000 6.695007324219 37 37 37
23.031250000000 10.460937500000 6.012008666992 146 146 146
23.125000000000 10.500000000000 6.819000244141 73 73 73
23.109375000000 10.234375000000 6.007003784180 109 109 109
23.093750000000 10.234375000000 6.063003540039 76 76 76
23.218750000000 10.273437500000 6.884002685547 20 20 20
23.187500000000 10.007812500000 6.001007080078 18 18 18
23.156250000000 9.992187500000 6.052001953125 86 86 86
23.187500000000 9.992187500000 6.851013183594 48 48 48
23.218750000000 10.000000000000 6.920013427734 108 108 108
23.187500000000 9.984375000000 6.969009399414 107 107 107
23.187500000000 9.984375000000 7.034011840820 116 116 116
23.187500000000 9.984375000000 7.098007202148 129 129 129
23.187500000000 9.968750000000 7.163009643555 147 147 147
23.187500000000 9.968750000000 7.225006103516 161 161 161
23.203125000000 9.976562500000 7.292007446289 166 166 166
23.187500000000 9.968750000000 7.352005004883 166 166 166
23.187500000000 9.968750000000 7.417007446289 170 170 170
23.187500000000 9.968750000000 7.481002807617 176 176 176
23.187500000000 9.968750000000 7.547012329102 171 171 171
23.203125000000 9.953125000000 7.611999511719 173 173 173
23.203125000000 9.953125000000 7.676010131836 170 170 170
23.203125000000 9.953125000000 7.744003295898 173 173 173
23.218750000000 9.960937500000 7.815002441406 171 171 171
23.218750000000 9.960937500000 7.880004882813 169 169 169
23.218750000000 9.968750000000 7.951004028320 173 173 173
23.218750000000 9.968750000000 8.018005371094 162 162 162
23.234375000000 9.953125000000 8.089004516602 160 160 160
23.250000000000 9.953125000000 8.160003662109 168 168 168
23.250000000000 9.960937500000 8.229003906250 156 156 156
23.250000000000 9.968750000000 8.303009033203 141 141 141
23.265625000000 9.968750000000 8.375000000000 123 123 123
23.156250000000 9.796875000000 3.787002563477 76 76 76
23.140625000000 9.796875000000 3.844009399414 139 139 139
23.140625000000 9.796875000000 3.900009155273 151 151 151
23.140625000000 9.796875000000 3.957000732422 152 152 152
23.125000000000 9.789062500000 4.013000488281 164 164 164
23.140625000000 9.796875000000 4.070007324219 172 172 172
23.125000000000 9.789062500000 4.126998901367 175 175 175
23.156250000000 9.781250000000 4.183013916016 178 178 178
23.156250000000 9.781250000000 4.240005493164 196 196 196
23.140625000000 9.773437500000 4.296005249023 186 186 186
23.156250000000 9.781250000000 4.354003906250 189 189 189
23.156250000000 9.781250000000 4.410003662109 197 197 197
23.140625000000 9.773437500000 4.467010498047 192 192 192
23.156250000000 9.781250000000 4.524002075195 196 196 196
23.140625000000 9.773437500000 4.581008911133 201 201 201
23.156250000000 9.765625000000 4.638000488281 203 203 203
23.156250000000 9.765625000000 4.695007324219 195 195 195
23.156250000000 9.765625000000 4.751998901367 202 202 202
23.156250000000 9.757812500000 4.809005737305 198 198 198
23.156250000000 9.765625000000 4.867004394531 201 201 201
23.156250000000 9.765625000000 4.924011230469 200 200 200
23.156250000000 9.765625000000 4.982009887695 196 196 196
23.156250000000 9.765625000000 5.040008544922 198 198 198
23.171875000000 9.765625000000 5.098999023438 199 199 199
23.187500000000 9.750000000000 5.156005859375 200 200 200
23.187500000000 9.750000000000 5.214004516602 182 182 182
23.187500000000 9.757812500000 5.273010253906 191 191 191
23.187500000000 9.765625000000 5.332000732422 192 192 192
23.187500000000 9.765625000000 5.391006469727 190 190 190
23.187500000000 9.765625000000 5.450012207031 189 189 189
23.203125000000 9.765625000000 5.510009765625 188 188 188
23.218750000000 9.757812500000 5.570007324219 181 181 181
23.234375000000 9.765625000000 5.631011962891 180 180 180
23.234375000000 9.765625000000 5.690002441406 174 174 174
23.250000000000 9.765625000000 5.751007080078 161 161 161
23.250000000000 9.765625000000 5.810012817383 136 136 136
23.250000000000 9.765625000000 5.869003295898 127 127 127
23.250000000000 9.765625000000 5.930999755859 105 105 105
23.250000000000 9.781250000000 5.994003295898 109 109 109
23.250000000000 9.781250000000 6.053009033203 23 23 23
23.312500000000 9.804687500000 6.126007080078 20 20 20
23.062500000000 9.562500000000 1.348007202148 174 174 174
23.062500000000 9.562500000000 1.468002319336 207 207 207
23.078125000000 9.562500000000 1.526000976563 207 207 207
23.093750000000 9.546875000000 1.585006713867 207 207 207
23.093750000000 9.546875000000 1.643005371094 198 198 198
23.093750000000 9.554687500000 1.700012207031 208 208 208
23.109375000000 9.562500000000 1.757003784180 199 199 199
23.093750000000 9.554687500000 1.818008422852 203 203 203
23.109375000000 9.562500000000 1.875000000000 205 205 205
23.125000000000 9.562500000000 1.932006835938 199 199 199
23.125000000000 9.562500000000 1.990005493164 201 201 201
23.125000000000 9.562500000000 2.049011230469 206 206 206
23.125000000000 9.562500000000 2.106002807617 199 199 199
23.125000000000 9.562500000000 2.165008544922 215 215 215
23.140625000000 9.578125000000 2.220001220703 210 210 210
23.140625000000 9.578125000000 2.277999877930 209 209 209
23.156250000000 9.578125000000 2.335006713867 205 205 205
23.156250000000 9.578125000000 2.393005371094 202 202 202
23.156250000000 9.578125000000 2.450012207031 198 198 198
23.171875000000 9.570312500000 2.507003784180 206 206 206
23.187500000000 9.578125000000 2.563003540039 206 206 206
23.187500000000 9.578125000000 2.620010375977 202 202 202
23.187500000000 9.578125000000 2.677001953125 193 193 193
23.187500000000 9.578125000000 2.735000610352 178 178 178
23.187500000000 9.585937500000 2.792007446289 169 169 169
23.203125000000 9.593750000000 2.848999023438 171 171 171
23.218750000000 9.593750000000 2.905014038086 163 163 163
23.218750000000 9.593750000000 2.963012695313 141 141 141
23.218750000000 9.609375000000 3.019012451172 101 101 101
23.234375000000 9.585937500000 3.077011108398 97 97 97
23.234375000000 9.593750000000 3.134002685547 5 5 5
21.000000000000 17.382812500000 1.192001342773 17 17 17
21.031250000000 17.390625000000 1.303009033203 23 23 23
20.906250000000 17.187500000000 5.784011840820 64 64 64
20.843750000000 17.156250000000 5.805007934570 123 123 123
