13.281250000000 18.617187500000 1.512996673584 174 174 174
13.281250000000 18.617187500000 1.548000335693 179 179 179
13.250000000000 18.601562500000 1.578998565674 187 187 187
13.281250000000 18.617187500000 1.613998413086 188 188 188
13.281250000000 18.617187500000 1.645999908447 186 186 186
13.281250000000 18.617187500000 1.680000305176 178 178 178
13.281250000000 18.617187500000 1.713996887207 172 172 172
13.281250000000 18.617187500000 1.748996734619 170 170 170
13.312500000000 18.632812500000 1.791000366211 152 152 152
13.312500000000 18.640625000000 1.824996948242 169 169 169
13.343750000000 18.648437500000 1.863998413086 164 164 164
13.437500000000 18.703125000000 1.920997619629 141 141 141
13.406250000000 18.695312500000 1.946998596191 149 149 149
13.406250000000 18.679687500000 1.975997924805 154 154 154
13.406250000000 18.695312500000 2.009998321533 152 152 152
13.437500000000 18.703125000000 2.043998718262 148 148 148
13.406250000000 18.679687500000 2.066997528076 135 135 135
13.250000000000 18.601562500000 2.065998077393 176 176 176
13.281250000000 18.617187500000 2.100997924805 171 171 171
13.250000000000 18.601562500000 2.126998901367 155 155 155
13.156250000000 18.546875000000 2.133998870850 128 128 128
13.375000000000 18.468750000000 1.888999938965 217 217 217
13.406250000000 18.500000000000 1.930999755859 157 157 157
13.406250000000 18.492187500000 1.960998535156 155 155 155
13.406250000000 18.500000000000 1.993999481201 159 159 159
13.406250000000 18.500000000000 2.022998809814 162 162 162
13.406250000000 18.500000000000 2.053997039795 162 162 162
12.750000000000 18.117187500000 1.923999786377 132 132 132
12.781250000000 18.132812500000 1.963996887207 151 151 151
12.781250000000 18.140625000000 2.000000000000 149 149 149
12.781250000000 18.140625000000 2.035999298096 146 146 146
12.781250000000 18.132812500000 2.069000244141 138 138 138
13.375000000000 18.273437500000 1.899997711182 180 180 180
13.406250000000 18.289062500000 1.940998077393 145 145 145
13.406250000000 18.289062500000 1.970996856689 144 144 144
13.406250000000 18.289062500000 2.001998901367 149 149 149
13.406250000000 18.289062500000 2.032997131348 148 148 148
13.406250000000 18.289062500000 2.064998626709 146 146 146
12.781250000000 17.945312500000 1.945999145508 203 203 203
12.781250000000 17.929687500000 1.979999542236 217 217 217
12.781250000000 17.945312500000 2.015998840332 220 220 220
12.781250000000 17.945312500000 2.050998687744 218 218 218
12.656250000000 17.867187500000 2.056999206543 20 20 20
13.375000000000 18.078125000000 1.916999816895 155 155 155
13.375000000000 18.078125000000 1.949996948242 188 188 188
13.375000000000 18.085937500000 1.981998443604 187 187 187
13.375000000000 18.085937500000 2.012996673584 190 190 190
13.375000000000 18.085937500000 2.043998718262 187 187 187
13.375000000000 18.070312500000 2.071998596191 182 182 182
12.781250000000 17.742187500000 1.966999053955 220 220 220
12.781250000000 17.742187500000 2.000999450684 218 218 218
12.781250000000 17.742187500000 2.034000396729 222 222 222
12.781250000000 17.742187500000 2.067996978760 205 205 205
13.375000000000 17.882812500000 1.928997039795 198 198 198
13.375000000000 17.882812500000 1.961997985840 216 216 216
13.375000000000 17.882812500000 1.993000030518 216 216 216
13.375000000000 17.882812500000 2.024997711182 215 215 215
13.375000000000 17.882812500000 2.055999755859 216 216 216
12.781250000000 17.539062500000 1.941997528076 201 201 201
12.843750000000 17.570312500000 1.984996795654 220 220 220
12.812500000000 17.562500000000 2.017997741699 220 220 220
12.812500000000 17.562500000000 2.052997589111 213 213 213
12.656250000000 17.476562500000 2.057998657227 20 20 20
13.375000000000 17.679687500000 1.944000244141 216 216 216
13.375000000000 17.679687500000 1.973999023438 219 219 219
13.375000000000 17.679687500000 2.008998870850 218 218 218
13.375000000000 17.679687500000 2.037998199463 215 215 215
13.375000000000 17.679687500000 2.069999694824 215 215 215
12.812500000000 17.367187500000 1.970996856689 222 222 222
12.812500000000 17.367187500000 2.005996704102 219 219 219
12.812500000000 17.367187500000 2.039997100830 221 221 221
12.812500000000 17.367187500000 2.074996948242 208 208 208
13.343750000000 17.476562500000 1.925998687744 74 74 74
13.343750000000 17.476562500000 1.958000183105 219 219 219
13.343750000000 17.476562500000 1.989997863770 217 217 217
13.343750000000 17.476562500000 2.020999908447 218 218 218
13.343750000000 17.476562500000 2.051998138428 217 217 217
13.312500000000 17.468750000000 2.077999114990 225 225 225
12.843750000000 17.179687500000 1.993000030518 218 218 218
12.843750000000 17.179687500000 2.028999328613 219 219 219
12.843750000000 17.179687500000 2.060997009277 219 219 219
12.812500000000 17.156250000000 2.090999603271 120 120 120
13.343750000000 17.273437500000 1.939998626709 171 171 171
13.343750000000 17.273437500000 1.972000122070 216 216 216
13.343750000000 17.273437500000 2.003997802734 216 216 216
13.343750000000 17.273437500000 2.034000396729 217 217 217
13.343750000000 17.273437500000 2.065998077393 217 217 217
13.281250000000 17.257812500000 2.090000152588 170 170 170
12.843750000000 16.976562500000 2.013999938965 150 150 150
12.843750000000 16.992187500000 2.049999237061 174 174 174
12.843750000000 16.976562500000 2.083000183105 202 202 202
13.312500000000 17.054687500000 1.949996948242 196 196 196
13.343750000000 17.070312500000 1.984996795654 218 218 218
13.343750000000 17.070312500000 2.015998840332 218 218 218
13.343750000000 17.070312500000 2.046997070313 215 215 215
13.343750000000 17.070312500000 2.078998565674 217 217 217
12.875000000000 16.804687500000 2.002998352051 209 209 209
12.843750000000 16.789062500000 2.034000396729 219 219 219
12.843750000000 16.789062500000 2.069000244141 214 214 214
12.843750000000 16.781250000000 2.098999023438 77 77 77
13.312500000000 16.859375000000 1.963996887207 212 212 212
13.312500000000 16.859375000000 1.995998382568 216 216 216
13.312500000000 16.859375000000 2.027999877930 218 218 218
13.312500000000 16.859375000000 2.058998107910 214 214 214
13.312500000000 16.859375000000 2.090000152588 216 216 216
12.875000000000 16.617187500000 2.021999359131 218 218 218
12.875000000000 16.617187500000 2.055000305176 222 222 222
12.875000000000 16.617187500000 2.090000152588 199 199 199
13.281250000000 16.648437500000 1.941997528076 59 59 59
13.312500000000 16.664062500000 1.976997375488 217 217 217
13.281250000000 16.656250000000 2.007999420166 213 213 213
13.281250000000 16.656250000000 2.039997100830 219 219 219
13.281250000000 16.656250000000 2.071998596191 216 216 216
13.218750000000 16.609375000000 2.084999084473 227 227 227
12.875000000000 16.429687500000 2.041999816895 217 217 217
12.875000000000 16.429687500000 2.076000213623 220 220 220
12.875000000000 16.421875000000 2.107997894287 40 40 40
13.281250000000 16.445312500000 1.956996917725 160 160 160
13.281250000000 16.445312500000 1.989997863770 217 217 217
13.281250000000 16.445312500000 2.020999908447 216 216 216
13.281250000000 16.445312500000 2.052997589111 218 218 218
13.281250000000 16.445312500000 2.084999084473 219 219 219
12.937500000000 16.273437500000 2.041999816895 218 218 218
12.906250000000 16.242187500000 2.064998626709 218 218 218
12.906250000000 16.234375000000 2.097999572754 185 185 185
13.281250000000 16.242187500000 1.970996856689 197 197 197
13.250000000000 16.234375000000 2.002998352051 219 219 219
13.250000000000 16.234375000000 2.034999847412 218 218 218
13.250000000000 16.242187500000 2.067996978760 217 217 217
13.250000000000 16.242187500000 2.099998474121 213 213 213
12.937500000000 16.054687500000 2.053997039795 222 222 222
12.937500000000 16.054687500000 2.090000152588 211 211 211
13.250000000000 16.039062500000 1.983997344971 214 214 214
13.250000000000 16.039062500000 2.017997741699 213 213 213
13.250000000000 16.031250000000 2.045997619629 219 219 219
13.250000000000 16.031250000000 2.078998565674 218 218 218
13.187500000000 16.007812500000 2.101997375488 221 221 221
12.937500000000 15.867187500000 2.076000213623 213 213 213
12.937500000000 15.859375000000 2.107997894287 168 168 168
13.218750000000 15.828125000000 1.960998535156 65 65 65
13.250000000000 15.835937500000 1.995998382568 216 216 216
13.250000000000 15.835937500000 2.028999328613 213 213 213
13.250000000000 15.835937500000 2.060997009277 206 206 206
13.218750000000 15.828125000000 2.091999053955 217 217 217
13.062500000000 15.726562500000 2.081996917725 218 218 218
12.968750000000 15.679687500000 2.095996856689 204 204 204
13.187500000000 15.625000000000 1.973999023438 163 163 163
13.218750000000 15.632812500000 2.008998870850 218 218 218
13.218750000000 15.632812500000 2.039997100830 215 215 215
13.218750000000 15.632812500000 2.073997497559 214 214 214
13.218750000000 15.632812500000 2.104000091553 215 215 215
13.000000000000 15.492187500000 2.083999633789 217 217 217
12.968750000000 15.492187500000 2.115997314453 130 130 130
13.187500000000 15.429687500000 1.988998413086 200 200 200
13.218750000000 15.429687500000 2.023998260498 216 216 216
13.187500000000 15.429687500000 2.052997589111 218 218 218
13.187500000000 15.421875000000 2.083999633789 216 216 216
13.156250000000 15.398437500000 2.107997894287 219 219 219
13.000000000000 15.304687500000 2.104000091553 200 200 200
13.218750000000 15.226562500000 2.003997802734 217 217 217
13.187500000000 15.210937500000 2.035999298096 217 217 217
13.187500000000 15.210937500000 2.067996978760 218 218 218
13.187500000000 15.210937500000 2.099998474121 208 208 208
13.062500000000 15.148437500000 2.104999542236 217 217 217
13.031250000000 15.117187500000 2.126998901367 75 75 75
13.156250000000 15.007812500000 1.982997894287 158 158 158
13.187500000000 15.023437500000 2.018997192383 213 213 213
13.187500000000 15.023437500000 2.050998687744 218 218 218
13.156250000000 15.007812500000 2.081996917725 208 208 208
13.156250000000 15.007812500000 2.114997863770 207 207 207
13.062500000000 14.960937500000 2.125000000000 149 149 149
13.156250000000 14.820312500000 2.000000000000 210 210 210
13.156250000000 14.820312500000 2.032997131348 217 217 217
13.156250000000 14.804687500000 2.063999176025 218 218 218
13.156250000000 14.804687500000 2.097000122070 214 214 214
13.156250000000 14.804687500000 2.126998901367 195 195 195
13.125000000000 14.585937500000 1.975997924805 36 36 36
13.156250000000 14.609375000000 2.017997741699 187 187 187
13.156250000000 14.609375000000 2.048999786377 212 212 212
13.156250000000 14.601562500000 2.080997467041 208 208 208
13.156250000000 14.601562500000 2.114997863770 196 196 196
13.062500000000 14.570312500000 2.129997253418 129 129 129
13.125000000000 14.382812500000 1.990997314453 122 122 122
13.125000000000 14.382812500000 2.022998809814 218 218 218
13.125000000000 14.382812500000 2.055999755859 218 218 218
13.125000000000 14.382812500000 2.086997985840 217 217 217
13.125000000000 14.382812500000 2.120998382568 208 208 208
13.125000000000 14.195312500000 2.005996704102 210 210 210
13.125000000000 14.195312500000 2.041000366211 216 216 216
13.093750000000 14.195312500000 2.071998596191 217 217 217
13.093750000000 14.195312500000 2.104999542236 218 218 218
13.093750000000 14.179687500000 2.133998870850 110 110 110
13.125000000000 14.000000000000 1.990997314453 111 111 111
13.125000000000 14.000000000000 2.022998809814 218 218 218
13.125000000000 14.000000000000 2.055999755859 217 217 217
13.125000000000 14.000000000000 2.088996887207 219 219 219
13.093750000000 13.992187500000 2.119998931885 203 203 203
13.093750000000 13.804687500000 2.008998870850 209 209 209
13.093750000000 13.804687500000 2.042999267578 217 217 217
13.093750000000 13.796875000000 2.073997497559 218 218 218
13.093750000000 13.804687500000 2.108997344971 217 217 217
13.093750000000 13.781250000000 2.134998321533 88 88 88
13.093750000000 13.593750000000 1.993000030518 31 31 31
13.125000000000 13.601562500000 2.028999328613 217 217 217
13.093750000000 13.601562500000 2.059997558594 216 216 216
13.093750000000 13.601562500000 2.093997955322 217 217 217
13.093750000000 13.585937500000 2.125000000000 205 205 205
13.125000000000 13.406250000000 2.013999938965 202 202 202
13.093750000000 13.398437500000 2.045997619629 218 218 218
13.093750000000 13.398437500000 2.079998016357 216 216 216
13.093750000000 13.398437500000 2.111000061035 219 219 219
13.093750000000 13.390625000000 2.140998840332 72 72 72
13.093750000000 13.203125000000 1.994998931885 75 75 75
13.125000000000 13.210937500000 2.030998229980 214 214 214
13.125000000000 13.210937500000 2.066997528076 151 151 151
13.093750000000 13.203125000000 2.095996856689 197 197 197
13.093750000000 13.203125000000 2.126998901367 189 189 189
13.125000000000 13.007812500000 2.014999389648 192 192 192
13.125000000000 13.007812500000 2.048000335693 195 195 195
13.125000000000 13.007812500000 2.080997467041 165 165 165
13.125000000000 13.007812500000 2.114997863770 214 214 214
13.093750000000 12.992187500000 2.139999389648 92 92 92
13.125000000000 12.820312500000 2.034000396729 209 209 209
13.125000000000 12.820312500000 2.066997528076 211 211 211
13.093750000000 12.812500000000 2.097999572754 212 212 212
13.093750000000 12.804687500000 2.127998352051 195 195 195
13.125000000000 12.617187500000 2.019996643066 174 174 174
13.125000000000 12.632812500000 2.056999206543 199 199 199
13.125000000000 12.632812500000 2.088996887207 186 186 186
13.125000000000 12.625000000000 2.120998382568 215 215 215
13.062500000000 12.601562500000 2.143997192383 71 71 71
13.125000000000 12.429687500000 2.035999298096 205 205 205
13.125000000000 12.429687500000 2.069999694824 195 195 195
13.125000000000 12.429687500000 2.105998992920 206 206 206
13.093750000000 12.421875000000 2.132999420166 190 190 190
13.093750000000 12.226562500000 2.017997741699 137 137 137
13.093750000000 12.226562500000 2.052997589111 206 206 206
13.125000000000 12.234375000000 2.086997985840 167 167 167
13.093750000000 12.226562500000 2.116996765137 214 214 214
13.093750000000 12.210937500000 2.143997192383 94 94 94
13.125000000000 12.031250000000 2.035999298096 200 200 200
13.125000000000 12.031250000000 2.069000244141 153 153 153
13.125000000000 12.031250000000 2.100997924805 200 200 200
13.125000000000 12.031250000000 2.132999420166 203 203 203
13.125000000000 11.835937500000 2.019996643066 110 110 110
13.125000000000 11.835937500000 2.053997039795 200 200 200
13.093750000000 11.835937500000 2.085998535156 187 187 187
13.093750000000 11.835937500000 2.118000030518 210 210 210
13.093750000000 11.828125000000 2.148998260498 102 102 102
13.093750000000 11.632812500000 2.034000396729 178 178 178
13.093750000000 11.632812500000 2.067996978760 215 215 215
13.093750000000 11.632812500000 2.101997375488 215 215 215
13.093750000000 11.632812500000 2.131999969482 211 211 211
13.093750000000 11.437500000000 2.051998138428 207 207 207
13.093750000000 11.437500000000 2.083000183105 215 215 215
13.093750000000 11.429687500000 2.115997314453 207 207 207
13.093750000000 11.421875000000 2.146999359131 162 162 162
13.062500000000 11.234375000000 2.062000274658 48 48 48
13.062500000000 11.234375000000 2.093997955322 24 24 24
13.062500000000 11.234375000000 2.127998352051 19 19 19
13.031250000000 11.195312500000 2.149997711182 157 157 157
13.031250000000 11.195312500000 2.183998107910 160 160 160
13.062500000000 11.023437500000 2.107997894287 198 198 198
13.062500000000 11.023437500000 2.143997192383 169 169 169
13.062500000000 11.023437500000 2.175998687744 161 161 161
13.062500000000 11.023437500000 2.210998535156 140 140 140
13.062500000000 11.015625000000 2.238998413086 169 169 169
13.062500000000 11.015625000000 2.273998260498 167 167 167
13.062500000000 11.015625000000 2.306999206543 178 178 178
13.062500000000 11.015625000000 2.340999603271 179 179 179
13.062500000000 11.023437500000 2.375000000000 146 146 146
13.062500000000 10.820312500000 2.088996887207 142 142 142
13.031250000000 10.804687500000 2.119998931885 224 224 224
13.062500000000 10.820312500000 2.154998779297 222 222 222
13.062500000000 10.820312500000 2.188999176025 198 198 198
13.031250000000 10.804687500000 2.217998504639 157 157 157
13.031250000000 10.617187500000 2.104000091553 220 220 220
13.031250000000 10.617187500000 2.134998321533 222 222 222
13.031250000000 10.617187500000 2.169998168945 222 222 222
13.031250000000 10.617187500000 2.202999114990 208 208 208
13.000000000000 10.414062500000 2.081996917725 106 106 106
13.000000000000 10.406250000000 2.114997863770 223 223 223
13.031250000000 10.414062500000 2.150997161865 221 221 221
13.000000000000 10.414062500000 2.183998107910 209 209 209
13.000000000000 10.406250000000 2.215999603271 186 186 186
13.031250000000 10.210937500000 2.097000122070 197 197 197
13.031250000000 10.210937500000 2.129997253418 224 224 224
13.031250000000 10.210937500000 2.163997650146 223 223 223
13.031250000000 10.218750000000 2.199996948242 203 203 203
13.000000000000 10.195312500000 2.226997375488 103 103 103
13.000000000000 10.015625000000 2.111999511719 221 221 221
13.000000000000 10.007812500000 2.144996643066 223 223 223
13.000000000000 10.007812500000 2.178997039795 222 222 222
13.000000000000 10.007812500000 2.212997436523 195 195 195
13.000000000000 9.804687500000 2.091999053955 169 169 169
13.000000000000 9.804687500000 2.125999450684 218 218 218
13.000000000000 9.804687500000 2.159999847412 224 224 224
13.000000000000 9.804687500000 2.194999694824 202 202 202
12.968750000000 9.804687500000 2.225997924805 177 177 177
12.968750000000 9.601562500000 2.105998992920 219 219 219
12.937500000000 9.601562500000 2.139999389648 224 224 224
12.968750000000 9.601562500000 2.175998687744 224 224 224
12.968750000000 9.601562500000 2.210998535156 204 204 204
12.937500000000 9.578125000000 2.236000061035 82 82 82
12.937500000000 9.390625000000 2.087997436523 137 137 137
12.937500000000 9.390625000000 2.120998382568 222 222 222
12.937500000000 9.390625000000 2.156997680664 224 224 224
12.937500000000 9.390625000000 2.190998077393 222 222 222
12.937500000000 9.382812500000 2.222999572754 186 186 186
12.937500000000 9.187500000000 2.102996826172 205 205 205
12.937500000000 9.187500000000 2.136997222900 221 221 221
12.937500000000 9.187500000000 2.170997619629 223 223 223
12.968750000000 9.195312500000 2.206996917725 199 199 199
12.937500000000 9.179687500000 2.236999511719 150 150 150
12.968750000000 9.015625000000 2.090999603271 173 173 173
12.968750000000 9.023437500000 2.126998901367 203 203 203
12.968750000000 9.023437500000 2.161998748779 199 199 199
12.968750000000 9.023437500000 2.196998596191 213 213 213
12.968750000000 9.023437500000 2.229000091553 181 181 181
12.875000000000 8.960937500000 2.240997314453 93 93 93
12.968750000000 8.820312500000 2.111000061035 214 214 214
12.968750000000 8.820312500000 2.144996643066 214 214 214
12.968750000000 8.828125000000 2.180000305176 216 216 216
12.968750000000 8.828125000000 2.215000152588 217 217 217
12.906250000000 8.789062500000 2.236000061035 148 148 148
12.968750000000 8.632812500000 2.093997955322 167 167 167
12.968750000000 8.632812500000 2.127998352051 182 182 182
12.968750000000 8.632812500000 2.162998199463 206 206 206
12.968750000000 8.632812500000 2.195999145508 198 198 198
12.968750000000 8.632812500000 2.230998992920 197 197 197
12.843750000000 8.539062500000 2.236999511719 183 183 183
12.968750000000 8.429687500000 2.111000061035 221 221 221
12.968750000000 8.429687500000 2.144996643066 221 221 221
12.968750000000 8.429687500000 2.178997039795 222 222 222
12.968750000000 8.437500000000 2.215000152588 223 223 223
12.812500000000 8.335937500000 2.215999603271 197 197 197
12.781250000000 8.320312500000 2.244998931885 159 159 159
12.968750000000 8.242187500000 2.094997406006 156 156 156
12.968750000000 8.242187500000 2.129997253418 221 221 221
13.000000000000 8.242187500000 2.166000366211 224 224 224
12.968750000000 8.242187500000 2.198997497559 221 221 221
12.968750000000 8.242187500000 2.230998992920 217 217 217
12.781250000000 8.117187500000 2.224998474121 197 197 197
13.000000000000 8.039062500000 2.113998413086 222 222 222
13.000000000000 8.039062500000 2.146999359131 223 223 223
13.000000000000 8.039062500000 2.182998657227 223 223 223
13.000000000000 8.039062500000 2.217998504639 223 223 223
12.812500000000 7.945312500000 2.216999053955 218 218 218
12.718750000000 7.898437500000 2.237998962402 199 199 199
13.000000000000 7.859375000000 2.098999023438 171 171 171
13.000000000000 7.851562500000 2.131999969482 220 220 220
13.000000000000 7.859375000000 2.166999816895 216 216 216
13.000000000000 7.859375000000 2.201999664307 215 215 215
13.000000000000 7.843750000000 2.230998992920 219 219 219
12.718750000000 7.687500000000 2.213996887207 204 204 204
12.687500000000 7.679687500000 2.246997833252 160 160 160
13.000000000000 7.664062500000 2.115997314453 216 216 216
13.000000000000 7.664062500000 2.150997161865 207 207 207
13.000000000000 7.664062500000 2.182998657227 194 194 194
13.000000000000 7.664062500000 2.217998504639 214 214 214
12.812500000000 7.554687500000 2.215999603271 223 223 223
12.687500000000 7.476562500000 2.223999023438 197 197 197
12.656250000000 7.468750000000 2.256999969482 79 79 79
13.031250000000 7.468750000000 2.100997924805 182 182 182
13.000000000000 7.460937500000 2.134998321533 224 224 224
13.031250000000 7.468750000000 2.168998718262 223 223 223
13.000000000000 7.460937500000 2.201000213623 223 223 223
13.000000000000 7.460937500000 2.236000061035 218 218 218
12.625000000000 7.265625000000 2.201000213623 221 221 221
12.625000000000 7.265625000000 2.236000061035 190 190 190
13.000000000000 7.281250000000 2.119998931885 222 222 222
13.000000000000 7.281250000000 2.153999328613 224 224 224
13.000000000000 7.273437500000 2.187000274658 224 224 224
13.000000000000 7.281250000000 2.222000122070 220 220 220
12.687500000000 7.093750000000 2.190998077393 221 221 221
12.625000000000 7.054687500000 2.215000152588 214 214 214
12.593750000000 7.054687500000 2.248996734619 158 158 158
13.031250000000 7.085937500000 2.105998992920 197 197 197
13.031250000000 7.085937500000 2.138999938965 225 225 225
13.031250000000 7.085937500000 2.173999786377 218 218 218
13.031250000000 7.085937500000 2.208000183105 224 224 224
13.031250000000 7.085937500000 2.240997314453 216 216 216
12.593750000000 6.835937500000 2.190998077393 216 216 216
12.593750000000 6.835937500000 2.227996826172 203 203 203
12.562500000000 6.820312500000 2.260997772217 34 34 34
13.031250000000 6.898437500000 2.122997283936 225 225 225
13.031250000000 6.898437500000 2.156997680664 225 225 225
13.031250000000 6.898437500000 2.190998077393 225 225 225
13.000000000000 6.898437500000 2.223999023438 226 226 226
13.000000000000 6.882812500000 2.251998901367 168 168 168
12.562500000000 6.632812500000 2.203998565674 159 159 159
12.562500000000 6.632812500000 2.240997314453 193 193 193
13.062500000000 6.710937500000 2.106998443604 200 200 200
13.031250000000 6.710937500000 2.139999389648 214 214 214
13.031250000000 6.710937500000 2.173999786377 221 221 221
13.062500000000 6.710937500000 2.208999633789 221 221 221
13.031250000000 6.710937500000 2.240997314453 224 224 224
12.531250000000 6.414062500000 2.180000305176 220 220 220
12.531250000000 6.414062500000 2.216999053955 206 206 206
12.531250000000 6.414062500000 2.251998901367 173 173 173
13.031250000000 6.507812500000 2.083999633789 44 44 44
13.062500000000 6.515625000000 2.121997833252 225 225 225
13.062500000000 6.515625000000 2.157997131348 212 212 212
13.062500000000 6.515625000000 2.192996978760 221 221 221
13.062500000000 6.515625000000 2.224998474121 225 225 225
12.500000000000 6.210937500000 2.155998229980 211 211 211
12.531250000000 6.210937500000 2.194000244141 222 222 222
12.500000000000 6.210937500000 2.229999542236 200 200 200
12.500000000000 6.210937500000 2.263999938965 16 16 16
13.031250000000 6.320312500000 2.105998992920 197 197 197
13.031250000000 6.320312500000 2.139999389648 224 224 224
13.031250000000 6.320312500000 2.173000335693 223 223 223
13.031250000000 6.320312500000 2.208000183105 226 226 226
13.031250000000 6.320312500000 2.241996765137 222 222 222
12.531250000000 6.007812500000 2.171997070313 221 221 221
12.500000000000 6.007812500000 2.208999633789 218 218 218
12.500000000000 6.007812500000 2.245998382568 195 195 195
13.062500000000 6.125000000000 2.091999053955 90 90 90
13.062500000000 6.125000000000 2.126998901367 225 225 225
13.062500000000 6.125000000000 2.159999847412 225 225 225
13.062500000000 6.125000000000 2.194000244141 225 225 225
13.062500000000 6.125000000000 2.227996826172 225 225 225
12.468750000000 5.789062500000 2.145999908447 203 203 203
12.468750000000 5.796875000000 2.185997009277 221 221 221
12.468750000000 5.796875000000 2.223999023438 196 196 196
12.437500000000 5.773437500000 2.255996704102 71 71 71
13.031250000000 5.929687500000 2.111000061035 217 217 217
13.031250000000 5.929687500000 2.144996643066 226 226 226
13.031250000000 5.929687500000 2.176998138428 214 214 214
13.031250000000 5.929687500000 2.210998535156 226 226 226
13.031250000000 5.929687500000 2.244998931885 222 222 222
12.500000000000 5.617187500000 2.170997619629 170 170 170
12.468750000000 5.593750000000 2.203998565674 192 192 192
12.437500000000 5.585937500000 2.238998413086 200 200 200
13.062500000000 5.726562500000 2.093997955322 112 112 112
13.062500000000 5.742187500000 2.128997802734 226 226 226
13.062500000000 5.742187500000 2.162998199463 224 224 224
13.062500000000 5.742187500000 2.196998596191 226 226 226
13.062500000000 5.742187500000 2.229999542236 226 226 226
13.031250000000 5.726562500000 2.260997772217 173 173 173
12.437500000000 5.382812500000 2.180999755859 132 132 132
12.437500000000 5.382812500000 2.217998504639 132 132 132
12.437500000000 5.390625000000 2.257999420166 101 101 101
13.062500000000 5.539062500000 2.111000061035 214 214 214
13.062500000000 5.539062500000 2.144996643066 224 224 224
13.062500000000 5.539062500000 2.180000305176 224 224 224
13.062500000000 5.539062500000 2.213996887207 226 226 226
13.062500000000 5.539062500000 2.247997283936 214 214 214
12.437500000000 5.179687500000 2.159000396729 135 135 135
12.437500000000 5.179687500000 2.196998596191 144 144 144
12.406250000000 5.179687500000 2.233997344971 143 143 143
12.781250000000 5.179687500000 1.625000000000 172 172 172
12.781250000000 5.179687500000 1.659999847412 170 170 170
12.781250000000 5.179687500000 1.699996948242 175 175 175
12.781250000000 5.179687500000 1.736000061035 175 175 175
12.781250000000 5.171875000000 1.769996643066 176 176 176
12.781250000000 5.171875000000 1.805999755859 174 174 174
12.781250000000 5.171875000000 1.840999603271 175 175 175
12.781250000000 5.171875000000 1.877998352051 174 174 174
12.750000000000 5.164062500000 1.912998199463 177 177 177
12.750000000000 5.164062500000 1.949996948242 175 175 175
12.750000000000 5.164062500000 1.983997344971 175 175 175
13.031250000000 5.335937500000 2.090999603271 137 137 137
13.062500000000 5.335937500000 2.128997802734 149 149 149
13.062500000000 5.335937500000 2.162998199463 148 148 148
13.062500000000 5.335937500000 2.195999145508 147 147 147
13.062500000000 5.351562500000 2.231998443604 146 146 146
13.000000000000 5.312500000000 2.254997253418 145 145 145
12.718750000000 5.164062500000 2.234996795654 169 169 169
12.718750000000 5.148437500000 2.268997192383 163 163 163
12.718750000000 5.148437500000 2.302997589111 166 166 166
12.593750000000 5.078125000000 2.319999694824 111 111 111
12.812500000000 5.007812500000 1.279998779297 167 167 167
12.812500000000 5.000000000000 1.316997528076 167 167 167
12.812500000000 5.000000000000 1.354999542236 169 169 169
12.812500000000 5.007812500000 1.395999908447 172 172 172
12.812500000000 5.007812500000 1.431999206543 177 177 177
12.812500000000 5.007812500000 1.469997406006 171 171 171
12.812500000000 5.007812500000 1.507999420166 177 177 177
12.875000000000 5.031250000000 1.558998107910 172 172 172
12.937500000000 5.085937500000 1.622997283936 167 167 167
12.937500000000 5.085937500000 1.659000396729 166 166 166
12.937500000000 5.085937500000 1.694999694824 170 170 170
12.937500000000 5.085937500000 1.729000091553 168 168 168
12.906250000000 5.078125000000 1.764999389648 170 170 170
12.906250000000 5.078125000000 1.799999237061 169 169 169
12.906250000000 5.078125000000 1.835998535156 169 169 169
12.906250000000 5.078125000000 1.871997833252 170 170 170
12.937500000000 5.085937500000 1.909000396729 172 172 172
12.906250000000 5.078125000000 1.941997528076 170 170 170
12.906250000000 5.078125000000 1.977996826172 175 175 175
12.906250000000 5.078125000000 2.011997222900 174 174 174
12.968750000000 5.117187500000 2.062000274658 164 164 164
13.062500000000 5.148437500000 2.111999511719 147 147 147
13.062500000000 5.148437500000 2.147998809814 146 146 146
13.062500000000 5.148437500000 2.180000305176 151 151 151
13.062500000000 5.148437500000 2.215999603271 146 146 146
13.062500000000 5.148437500000 2.250999450684 147 147 147
12.906250000000 5.078125000000 2.256999969482 170 170 170
12.906250000000 5.078125000000 2.291999816895 173 173 173
12.875000000000 5.054687500000 2.320999145508 136 136 136
12.656250000000 4.929687500000 2.316997528076 109 109 109
12.937500000000 4.867187500000 1.597999572754 168 168 168
12.937500000000 4.867187500000 1.636997222900 165 165 165
12.937500000000 4.882812500000 1.673999786377 160 160 160
12.937500000000 4.867187500000 1.708999633789 168 168 168
12.937500000000 4.867187500000 1.744998931885 171 171 171
12.937500000000 4.882812500000 1.780998229980 167 167 167
12.937500000000 4.882812500000 1.817996978760 166 166 166
12.937500000000 4.882812500000 1.854000091553 167 167 167
12.937500000000 4.867187500000 1.886997222900 171 171 171
12.937500000000 4.882812500000 1.923000335693 166 166 166
12.937500000000 4.882812500000 1.958999633789 164 164 164
12.937500000000 4.882812500000 1.993000030518 168 168 168
12.937500000000 4.882812500000 2.027999877930 162 162 162
13.031250000000 4.953125000000 2.094997406006 138 138 138
13.062500000000 4.960937500000 2.131999969482 142 142 142
13.062500000000 4.960937500000 2.164997100830 147 147 147
13.062500000000 4.960937500000 2.198997497559 147 147 147
13.031250000000 4.953125000000 2.230998992920 147 147 147
13.031250000000 4.945312500000 2.261997222900 145 145 145
12.937500000000 4.882812500000 2.273998260498 164 164 164
12.906250000000 4.875000000000 2.307998657227 159 159 159
12.781250000000 4.804687500000 2.319000244141 103 103 103
12.218750000000 4.476562500000 2.256999969482 151 151 151
13.062500000000 4.773437500000 2.083999633789 163 163 163
13.093750000000 4.773437500000 2.119998931885 172 172 172
13.093750000000 4.773437500000 2.152999877930 176 176 176
13.062500000000 4.773437500000 2.185997009277 175 175 175
13.062500000000 4.773437500000 2.220996856689 177 177 177
13.062500000000 4.773437500000 2.253997802734 152 152 152
12.250000000000 4.304687500000 2.126998901367 137 137 137
12.250000000000 4.304687500000 2.166999816895 138 138 138
12.250000000000 4.312500000000 2.208000183105 129 129 129
12.218750000000 4.281250000000 2.240997314453 132 132 132
13.125000000000 4.601562500000 2.077999114990 191 191 191
13.125000000000 4.617187500000 2.114997863770 147 147 147
13.125000000000 4.617187500000 2.148998260498 143 143 143
13.125000000000 4.601562500000 2.180999755859 144 144 144
13.125000000000 4.617187500000 2.216999053955 143 143 143
13.125000000000 4.601562500000 2.246997833252 162 162 162
13.187500000000 4.445312500000 2.077999114990 147 147 147
13.187500000000 4.445312500000 2.111000061035 156 156 156
13.187500000000 4.445312500000 2.145999908447 156 156 156
13.156250000000 4.445312500000 2.176998138428 154 154 154
13.156250000000 4.445312500000 2.209999084473 158 158 158
13.187500000000 4.445312500000 2.243999481201 157 157 157
13.156250000000 4.445312500000 2.276996612549 141 141 141
13.281250000000 4.304687500000 2.053997039795 155 155 155
13.281250000000 4.304687500000 2.085998535156 184 184 184
13.281250000000 4.304687500000 2.120998382568 194 194 194
13.281250000000 4.320312500000 2.156997680664 186 186 186
13.281250000000 4.304687500000 2.183998107910 190 190 190
13.281250000000 4.304687500000 2.216999053955 188 188 188
13.281250000000 4.304687500000 2.250999450684 187 187 187
13.281250000000 4.304687500000 2.281997680664 158 158 158
13.156250000000 4.242187500000 2.292999267578 91 91 91
13.250000000000 4.093750000000 2.066997528076 146 146 146
13.250000000000 4.093750000000 2.099998474121 142 142 142
13.281250000000 4.101562500000 2.134998321533 137 137 137
13.281250000000 4.101562500000 2.168998718262 145 145 145
13.250000000000 4.093750000000 2.196998596191 143 143 143
13.250000000000 4.101562500000 2.231998443604 133 133 133
13.250000000000 4.101562500000 2.262996673584 135 135 135
13.250000000000 4.093750000000 2.294998168945 19 19 19
12.625000000000 19.367187500000 2.085998535156 145 145 145
12.625000000000 19.367187500000 2.058998107910 159 159 159
12.656250000000 19.351562500000 2.034000396729 179 179 179
12.656250000000 19.351562500000 2.002998352051 180 180 180
12.656250000000 19.351562500000 1.970996856689 180 180 180
12.687500000000 19.359375000000 1.941997528076 177 177 177
12.625000000000 19.351562500000 1.899997711182 155 155 155
13.687500000000 19.343750000000 2.083999633789 155 155 155
13.718750000000 19.351562500000 2.073997497559 201 201 201
13.718750000000 19.351562500000 2.048999786377 197 197 197
13.718750000000 19.351562500000 2.022998809814 190 190 190
13.718750000000 19.351562500000 1.996997833252 189 189 189
13.718750000000 19.335937500000 1.973999023438 189 189 189
13.718750000000 19.335937500000 1.948997497559 193 193 193
13.718750000000 19.335937500000 1.921997070313 192 192 192
13.718750000000 19.335937500000 1.897998809814 194 194 194
13.718750000000 19.335937500000 1.871997833252 189 189 189
13.718750000000 19.343750000000 1.842998504639 160 160 160
12.468750000000 19.164062500000 2.083000183105 205 205 205
12.625000000000 19.164062500000 2.073997497559 171 171 171
12.656250000000 19.164062500000 2.048999786377 174 174 174
12.687500000000 19.156250000000 2.018997192383 175 175 175
12.687500000000 19.156250000000 1.987998962402 176 176 176
12.687500000000 19.164062500000 1.958000183105 177 177 177
12.687500000000 19.156250000000 1.924999237061 170 170 170
13.625000000000 19.148437500000 2.090000152588 141 141 141
13.750000000000 19.148437500000 2.086997985840 195 195 195
13.750000000000 19.148437500000 2.062000274658 206 206 206
13.750000000000 19.148437500000 2.037998199463 210 210 210
13.750000000000 19.148437500000 2.011997222900 204 204 204
13.750000000000 19.148437500000 1.986000061035 204 204 204
13.750000000000 19.148437500000 1.960998535156 204 204 204
13.750000000000 19.148437500000 1.934997558594 207 207 207
13.750000000000 19.148437500000 1.909000396729 210 210 210
13.750000000000 19.140625000000 1.884998321533 206 206 206
13.750000000000 19.140625000000 1.858997344971 179 179 179
12.656250000000 18.960937500000 2.063999176025 161 161 161
12.687500000000 18.976562500000 2.036998748779 180 180 180
12.687500000000 18.960937500000 2.006999969482 181 181 181
12.656250000000 18.960937500000 1.974998474121 181 181 181
12.656250000000 18.960937500000 1.941997528076 181 181 181
12.656250000000 18.960937500000 1.911998748779 176 176 176
13.531250000000 18.945312500000 2.059997558594 154 154 154
13.531250000000 18.945312500000 2.032997131348 171 171 171
13.531250000000 18.945312500000 2.005996704102 169 169 169
13.531250000000 18.945312500000 1.979999542236 174 174 174
13.500000000000 18.945312500000 1.951999664307 168 168 168
13.531250000000 18.945312500000 1.927997589111 167 167 167
13.500000000000 18.945312500000 1.897998809814 167 167 167
13.531250000000 18.953125000000 1.878997802734 103 103 103
13.000000000000 18.773437500000 2.138999938965 134 134 134
13.156250000000 18.773437500000 2.136997222900 120 120 120
13.281250000000 18.757812500000 2.132999420166 163 163 163
13.281250000000 18.757812500000 2.108997344971 176 176 176
13.281250000000 18.757812500000 2.078998565674 177 177 177
13.281250000000 18.757812500000 2.053997039795 175 175 175
13.468750000000 18.757812500000 2.062000274658 153 153 153
13.500000000000 18.765625000000 2.037998199463 153 153 153
13.500000000000 18.757812500000 2.008998870850 158 158 158
13.468750000000 18.757812500000 1.980998992920 158 158 158
13.500000000000 18.757812500000 1.955997467041 156 156 156
13.500000000000 18.757812500000 1.927997589111 160 160 160
13.468750000000 18.757812500000 1.895999908447 157 157 157
13.312500000000 18.757812500000 1.831996917725 177 177 177
13.281250000000 18.757812500000 1.800998687744 178 178 178
13.312500000000 18.757812500000 1.772998809814 178 178 178
13.312500000000 18.757812500000 1.744998931885 176 176 176
13.312500000000 18.757812500000 1.716999053955 174 174 174
13.312500000000 18.757812500000 1.688999176025 173 173 173
13.312500000000 18.757812500000 1.659999847412 171 171 171
13.312500000000 18.757812500000 1.629997253418 171 171 171
13.312500000000 18.757812500000 1.604000091553 171 171 171
13.312500000000 18.757812500000 1.574996948242 170 170 170
13.312500000000 18.757812500000 1.544998168945 172 172 172
13.312500000000 18.757812500000 1.516998291016 172 172 172
13.312500000000 18.757812500000 1.487998962402 175 175 175
13.312500000000 18.757812500000 1.458000183105 176 176 176
13.312500000000 18.742187500000 1.428997039795 173 173 173
13.187500000000 18.757812500000 1.358997344971 138 138 138
13.156250000000 18.757812500000 1.319999694824 136 136 136
13.156250000000 18.757812500000 1.285999298096 144 144 144
13.218750000000 18.757812500000 1.278999328613 147 147 147
13.218750000000 18.757812500000 1.256999969482 153 153 153
13.187500000000 18.750000000000 1.215000152588 137 137 137
13.250000000000 18.750000000000 1.199996948242 134 134 134
13.218750000000 18.757812500000 1.163997650146 155 155 155
13.062500000000 18.570312500000 2.132999420166 126 126 126
13.218750000000 18.570312500000 2.132999420166 130 130 130
13.281250000000 18.570312500000 2.119998931885 167 167 167
13.281250000000 18.570312500000 2.094997406006 177 177 177
13.312500000000 18.570312500000 2.067996978760 175 175 175
13.437500000000 18.570312500000 2.066997528076 169 169 169
13.437500000000 18.570312500000 2.039997100830 177 177 177
13.437500000000 18.570312500000 2.013999938965 175 175 175
13.437500000000 18.562500000000 1.984996795654 174 174 174
13.437500000000 18.570312500000 1.960998535156 175 175 175
13.437500000000 18.562500000000 1.930999755859 175 175 175
13.437500000000 18.562500000000 1.903999328613 158 158 158
13.312500000000 18.562500000000 1.845996856689 175 175 175
13.312500000000 18.554687500000 1.823997497559 172 172 172
13.312500000000 18.562500000000 1.792999267578 168 168 168
13.281250000000 18.570312500000 1.758998870850 173 173 173
13.281250000000 18.570312500000 1.729999542236 173 173 173
13.281250000000 18.570312500000 1.701000213623 170 170 170
13.281250000000 18.554687500000 1.669998168945 168 168 168
13.281250000000 18.554687500000 1.647998809814 168 168 168
13.281250000000 18.554687500000 1.615997314453 170 170 170
13.281250000000 18.554687500000 1.586997985840 172 172 172
13.281250000000 18.554687500000 1.556999206543 171 171 171
13.281250000000 18.554687500000 1.527999877930 169 169 169
13.281250000000 18.554687500000 1.500999450684 166 166 166
13.281250000000 18.554687500000 1.472000122070 167 167 167
13.281250000000 18.554687500000 1.442996978760 171 171 171
13.281250000000 18.554687500000 1.413997650146 167 167 167
13.125000000000 18.554687500000 1.319000244141 115 115 115
13.125000000000 18.554687500000 1.288997650146 111 111 111
13.062500000000 18.562500000000 1.238998413086 179 179 179
13.062500000000 18.554687500000 1.202999114990 174 174 174
13.031250000000 18.562500000000 1.156997680664 190 190 190
12.781250000000 18.382812500000 2.074996948242 157 157 157
12.781250000000 18.382812500000 2.042999267578 167 167 167
12.812500000000 18.375000000000 2.013999938965 168 168 168
12.781250000000 18.382812500000 1.981998443604 170 170 170
13.406250000000 18.367187500000 2.078998565674 162 162 162
13.406250000000 18.367187500000 2.051998138428 168 168 168
13.406250000000 18.367187500000 2.024997711182 171 171 171
13.437500000000 18.382812500000 2.000000000000 172 172 172
13.406250000000 18.367187500000 1.972000122070 165 165 165
13.406250000000 18.367187500000 1.944999694824 170 170 170
13.406250000000 18.367187500000 1.916999816895 162 162 162
12.781250000000 18.179687500000 2.062999725342 170 170 170
12.781250000000 18.179687500000 2.031997680664 170 170 170
12.812500000000 18.187500000000 2.003997802734 170 170 170
13.375000000000 18.179687500000 2.083000183105 159 159 159
13.406250000000 18.179687500000 2.065998077393 165 165 165
13.406250000000 18.179687500000 2.039997100830 173 173 173
13.406250000000 18.179687500000 2.013999938965 171 171 171
13.437500000000 18.179687500000 1.986999511719 166 166 166
13.406250000000 18.179687500000 1.956996917725 171 171 171
13.406250000000 18.179687500000 1.930999755859 167 167 167
13.437500000000 18.179687500000 1.906997680664 97 97 97
12.812500000000 17.992187500000 2.079998016357 172 172 172
12.812500000000 17.992187500000 2.050998687744 220 220 220
12.812500000000 17.992187500000 2.019996643066 221 221 221
12.812500000000 17.992187500000 1.989997863770 225 225 225
13.375000000000 17.984375000000 2.071998596191 226 226 226
13.406250000000 17.992187500000 2.049999237061 218 218 218
13.406250000000 17.992187500000 2.022998809814 218 218 218
13.375000000000 17.976562500000 1.993999481201 223 223 223
13.406250000000 17.992187500000 1.966999053955 227 227 227
13.406250000000 17.976562500000 1.941997528076 215 215 215
12.781250000000 17.789062500000 2.070999145508 216 216 216
12.781250000000 17.789062500000 2.039997100830 220 220 220
12.812500000000 17.796875000000 2.009998321533 222 222 222
12.781250000000 17.789062500000 1.977996826172 208 208 208
13.375000000000 17.789062500000 2.064998626709 221 221 221
13.406250000000 17.789062500000 2.037998199463 219 219 219
13.406250000000 17.789062500000 2.010997772217 217 217 217
13.375000000000 17.789062500000 1.981998443604 226 226 226
13.375000000000 17.789062500000 1.955997467041 220 220 220
13.406250000000 17.789062500000 1.930999755859 170 170 170
12.812500000000 17.601562500000 2.090999603271 156 156 156
12.812500000000 17.601562500000 2.060997009277 217 217 217
12.812500000000 17.601562500000 2.029998779297 221 221 221
12.843750000000 17.601562500000 2.003997802734 222 222 222
13.375000000000 17.593750000000 2.077999114990 221 221 221
13.375000000000 17.593750000000 2.050998687744 225 225 225
13.375000000000 17.593750000000 2.023998260498 221 221 221
13.343750000000 17.585937500000 1.993999481201 226 226 226
13.375000000000 17.593750000000 1.968997955322 221 221 221
13.375000000000 17.585937500000 1.942996978760 208 208 208
12.843750000000 17.398437500000 2.077999114990 215 215 215
12.843750000000 17.414062500000 2.048000335693 221 221 221
12.843750000000 17.398437500000 2.017997741699 216 216 216
13.312500000000 17.398437500000 2.083000183105 230 230 230
13.375000000000 17.398437500000 2.063999176025 223 223 223
13.343750000000 17.390625000000 2.035999298096 224 224 224
13.375000000000 17.398437500000 2.009998321533 221 221 221
13.343750000000 17.390625000000 1.980998992920 224 224 224
13.343750000000 17.390625000000 1.952999114990 219 219 219
12.843750000000 17.210937500000 2.097000122070 160 160 160
12.843750000000 17.210937500000 2.066997528076 222 222 222
12.843750000000 17.203125000000 2.035999298096 223 223 223
13.218750000000 17.203125000000 2.073997497559 239 239 239
13.343750000000 17.195312500000 2.073997497559 225 225 225
13.343750000000 17.195312500000 2.046997070313 224 224 224
13.343750000000 17.195312500000 2.020999908447 220 220 220
13.312500000000 17.195312500000 1.991996765137 224 224 224
13.343750000000 17.195312500000 1.965000152588 222 222 222
13.312500000000 17.195312500000 1.935997009277 92 92 92
12.875000000000 17.007812500000 2.086997985840 213 213 213
12.875000000000 17.007812500000 2.057998657227 198 198 198
12.906250000000 17.007812500000 2.035999298096 190 190 190
13.312500000000 17.007812500000 2.084999084473 237 237 237
13.343750000000 17.007812500000 2.062000274658 221 221 221
13.343750000000 17.007812500000 2.032997131348 220 220 220
13.343750000000 17.000000000000 2.007999420166 219 219 219
13.343750000000 17.007812500000 1.979999542236 220 220 220
13.343750000000 17.000000000000 1.953998565674 180 180 180
12.875000000000 16.820312500000 2.104000091553 109 109 109
12.875000000000 16.812500000000 2.077999114990 215 215 215
12.875000000000 16.812500000000 2.048000335693 219 219 219
13.281250000000 16.820312500000 2.092998504639 225 225 225
13.312500000000 16.812500000000 2.073997497559 223 223 223
13.312500000000 16.804687500000 2.044998168945 223 223 223
13.312500000000 16.804687500000 2.019996643066 223 223 223
13.312500000000 16.804687500000 1.990997314453 227 227 227
13.312500000000 16.804687500000 1.965000152588 215 215 215
12.875000000000 16.617187500000 2.097999572754 195 195 195
12.875000000000 16.617187500000 2.066997528076 225 225 225
12.937500000000 16.625000000000 2.048000335693 218 218 218
13.312500000000 16.617187500000 2.086997985840 227 227 227
13.312500000000 16.609375000000 2.062000274658 220 220 220
13.312500000000 16.609375000000 2.031997680664 222 222 222
13.312500000000 16.609375000000 2.004997253418 224 224 224
13.312500000000 16.609375000000 1.979000091553 223 223 223
12.906250000000 16.429687500000 2.087997436523 219 219 219
12.906250000000 16.429687500000 2.056999206543 223 223 223
13.281250000000 16.414062500000 2.101997375488 217 217 217
13.250000000000 16.414062500000 2.069999694824 231 231 231
13.281250000000 16.414062500000 2.045997619629 223 223 223
13.281250000000 16.414062500000 2.016998291016 226 226 226
13.281250000000 16.414062500000 1.990997314453 223 223 223
13.312500000000 16.414062500000 1.965000152588 169 169 169
12.937500000000 16.226562500000 2.108997344971 191 191 191
12.937500000000 16.234375000000 2.076999664307 219 219 219
13.218750000000 16.226562500000 2.101997375488 227 227 227
13.281250000000 16.226562500000 2.084999084473 223 223 223
13.281250000000 16.226562500000 2.057998657227 223 223 223
13.281250000000 16.226562500000 2.029998779297 223 223 223
13.281250000000 16.226562500000 2.001998901367 226 226 226
13.281250000000 16.226562500000 1.977996826172 197 197 197
12.937500000000 16.039062500000 2.095996856689 213 213 213
13.062500000000 16.023437500000 2.090000152588 223 223 223
13.250000000000 16.023437500000 2.097000122070 222 222 222
13.250000000000 16.023437500000 2.069000244141 226 226 226
13.250000000000 16.023437500000 2.041000366211 227 227 227
13.250000000000 16.023437500000 2.013999938965 220 220 220
13.250000000000 16.023437500000 1.986000061035 218 218 218
12.968750000000 15.843750000000 2.116996765137 171 171 171
13.000000000000 15.835937500000 2.090000152588 215 215 215
13.250000000000 15.835937500000 2.107997894287 229 229 229
13.250000000000 15.835937500000 2.080997467041 218 218 218
13.250000000000 15.835937500000 2.055000305176 222 222 222
13.250000000000 15.835937500000 2.027999877930 220 220 220
13.250000000000 15.835937500000 1.998996734619 222 222 222
13.250000000000 15.835937500000 1.966999053955 101 101 101
13.000000000000 15.648437500000 2.105998992920 205 205 205
13.156250000000 15.640625000000 2.111999511719 224 224 224
13.218750000000 15.648437500000 2.094997406006 224 224 224
13.218750000000 15.648437500000 2.065998077393 225 225 225
13.218750000000 15.648437500000 2.037998199463 225 225 225
13.218750000000 15.648437500000 2.009998321533 225 225 225
13.250000000000 15.640625000000 1.984996795654 188 188 188
