11.906250000000 4.023437500000 3.596996307373 250 250 250
11.937500000000 4.039062500000 3.637996673584 13 13 13
11.937500000000 4.039062500000 3.677997589111 223 223 223
11.937500000000 4.039062500000 3.718997955322 203 203 203
11.906250000000 4.023437500000 3.759998321533 191 191 191
11.906250000000 4.023437500000 3.801998138428 184 184 184
11.937500000000 4.054687500000 3.839000701904 199 199 199
11.968750000000 4.062500000000 3.878002166748 192 192 192
12.156250000000 4.164062500000 3.896999359131 164 164 164
12.218750000000 4.203125000000 3.930995941162 162 162 162
12.343750000000 4.289062500000 3.951999664307 134 134 134
12.343750000000 4.273437500000 3.992000579834 95 95 95
12.250000000000 4.226562500000 4.041996002197 103 103 103
12.125000000000 4.148437500000 4.100002288818 110 110 110
12.031250000000 4.101562500000 4.157001495361 121 121 121
11.968750000000 4.062500000000 4.205997467041 167 167 167
11.937500000000 4.054687500000 4.249996185303 197 197 197
11.968750000000 4.070312500000 4.287998199463 214 214 214
11.968750000000 4.070312500000 4.326999664307 207 207 207
11.968750000000 4.070312500000 4.367000579834 194 194 194
12.125000000000 4.164062500000 4.381000518799 154 154 154
12.281250000000 4.250000000000 4.388996124268 96 96 96
12.218750000000 4.226562500000 4.439998626709 28 28 28
12.281250000000 4.250000000000 4.469997406006 50 50 50
12.218750000000 4.210937500000 4.522998809814 23 23 23
11.968750000000 4.085937500000 4.618000030518 62 62 62
11.875000000000 4.015625000000 4.684001922607 120 120 120
11.781250000000 3.976562500000 4.743999481201 161 161 161
11.906250000000 4.039062500000 4.760997772217 25 25 25
11.812500000000 4.226562500000 3.003997802734 46 46 46
11.875000000000 4.257812500000 3.045997619629 70 70 70
11.812500000000 4.226562500000 3.085998535156 103 103 103
11.906250000000 4.265625000000 3.129001617432 59 59 59
11.906250000000 4.273437500000 3.170001983643 76 76 76
11.906250000000 4.273437500000 3.210994720459 76 76 76
11.843750000000 4.257812500000 3.251995086670 53 53 53
11.781250000000 4.210937500000 3.292995452881 53 53 53
11.812500000000 4.226562500000 3.333995819092 144 144 144
11.843750000000 4.242187500000 3.374996185303 59 59 59
12.000000000000 4.335937500000 3.411998748779 73 73 73
12.031250000000 4.351562500000 3.451999664307 113 113 113
12.000000000000 4.343750000000 3.492000579834 86 86 86
12.000000000000 4.335937500000 3.533000946045 78 78 78
11.906250000000 4.281250000000 3.578998565674 71 71 71
11.593750000000 4.109375000000 3.637996673584 31 31 31
10.656250000000 3.562500000000 3.942996978760 220 220 220
10.625000000000 3.554687500000 3.993999481201 6 6 6
10.656250000000 3.562500000000 4.041996002197 249 249 249
10.656250000000 3.562500000000 4.091999053955 210 210 210
10.656250000000 3.562500000000 4.140995025635 244 244 244
10.656250000000 3.562500000000 4.190998077393 117 117 117
10.656250000000 3.570312500000 4.389995574951 193 193 193
10.656250000000 3.570312500000 4.439998626709 240 240 240
10.656250000000 3.570312500000 4.492000579834 242 242 242
10.656250000000 3.570312500000 4.541996002197 242 242 242
10.656250000000 3.570312500000 4.591999053955 242 242 242
10.656250000000 3.585937500000 4.639995574951 120 120 120
11.718750000000 4.445312500000 3.272998809814 82 82 82
10.500000000000 3.750000000000 3.980998992920 191 191 191
10.531250000000 3.757812500000 4.031002044678 227 227 227
10.500000000000 3.757812500000 4.539997100830 175 175 175
10.531250000000 3.773437500000 4.589000701904 14 14 14
11.187500000000 2.773437500000 4.673999786377 28 28 28
11.187500000000 2.773437500000 4.632999420166 117 117 117
11.187500000000 2.773437500000 4.590999603271 162 162 162
11.187500000000 2.773437500000 4.548999786377 186 186 186
11.187500000000 2.773437500000 4.506000518799 158 158 158
11.187500000000 2.773437500000 4.051998138428 87 87 87
11.218750000000 2.773437500000 4.009998321533 165 165 165
11.218750000000 2.773437500000 3.969997406006 185 185 185
11.218750000000 2.773437500000 3.927997589111 104 104 104
10.937500000000 3.054687500000 4.975002288818 14 14 14
11.000000000000 3.046875000000 4.521999359131 140 140 140
11.000000000000 3.054687500000 4.481998443604 164 164 164
11.000000000000 3.046875000000 4.437000274658 160 160 160
11.000000000000 3.054687500000 4.395999908447 165 165 165
11.000000000000 3.046875000000 4.351001739502 154 154 154
11.000000000000 3.054687500000 4.312000274658 145 145 145
11.000000000000 3.054687500000 4.222995758057 143 143 143
11.000000000000 3.054687500000 4.180995941162 151 151 151
11.000000000000 3.046875000000 4.139995574951 155 155 155
11.000000000000 3.054687500000 4.096996307373 155 155 155
11.000000000000 3.046875000000 4.056995391846 153 153 153
11.000000000000 3.054687500000 4.012996673584 128 128 128
10.843750000000 3.046875000000 3.656002044678 44 44 44
10.843750000000 3.046875000000 3.614002227783 45 45 45
10.843750000000 3.039062500000 3.570995330811 50 50 50
10.906250000000 3.039062500000 3.524997711182 52 52 52
10.906250000000 3.046875000000 3.483997344971 57 57 57
10.906250000000 3.039062500000 3.441997528076 58 58 58
10.875000000000 3.054687500000 3.401996612549 55 55 55
10.843750000000 3.046875000000 3.360996246338 101 101 101
10.843750000000 3.039062500000 3.318996429443 88 88 88
10.843750000000 3.046875000000 3.276996612549 51 51 51
10.843750000000 3.046875000000 3.150997161865 109 109 109
10.843750000000 3.046875000000 3.108997344971 51 51 51
10.812500000000 3.054687500000 3.066997528076 24 24 24
11.031250000000 3.312500000000 5.061000823975 64 64 64
11.093750000000 3.320312500000 4.995998382568 72 72 72
11.000000000000 3.320312500000 4.973995208740 121 121 121
11.000000000000 3.320312500000 4.931995391846 111 111 111
11.000000000000 3.320312500000 4.887996673584 128 128 128
11.031250000000 3.320312500000 4.838001251221 104 104 104
10.968750000000 3.320312500000 4.811000823975 73 73 73
11.000000000000 3.320312500000 4.760997772217 156 156 156
10.968750000000 3.320312500000 4.718997955322 168 168 168
10.968750000000 3.320312500000 4.673999786377 169 169 169
10.968750000000 3.320312500000 4.631999969482 167 167 167
10.968750000000 3.320312500000 4.588001251221 174 174 174
10.968750000000 3.320312500000 4.546001434326 171 171 171
11.000000000000 3.320312500000 4.501995086670 175 175 175
10.968750000000 3.320312500000 4.459995269775 176 176 176
11.000000000000 3.320312500000 4.415996551514 173 173 173
10.968750000000 3.320312500000 4.373996734619 178 178 178
10.968750000000 3.320312500000 4.332996368408 176 176 176
10.968750000000 3.320312500000 4.290996551514 181 181 181
11.000000000000 3.320312500000 4.246997833252 183 183 183
10.968750000000 3.320312500000 4.205997467041 184 184 184
10.968750000000 3.320312500000 4.162998199463 185 185 185
10.968750000000 3.320312500000 4.120998382568 187 187 187
10.968750000000 3.320312500000 4.078998565674 183 183 183
11.000000000000 3.320312500000 4.036998748779 191 191 191
10.968750000000 3.320312500000 3.995998382568 193 193 193
10.968750000000 3.320312500000 3.953998565674 188 188 188
10.968750000000 3.320312500000 3.912998199463 190 190 190
11.000000000000 3.320312500000 3.869998931885 192 192 192
11.000000000000 3.320312500000 3.828998565674 192 192 192
10.968750000000 3.320312500000 3.787998199463 195 195 195
10.968750000000 3.320312500000 3.745998382568 199 199 199
11.000000000000 3.320312500000 3.703998565674 196 196 196
10.968750000000 3.320312500000 3.663997650146 200 200 200
11.000000000000 3.320312500000 3.621997833252 204 204 204
10.968750000000 3.320312500000 3.580997467041 208 208 208
10.968750000000 3.320312500000 3.539997100830 206 206 206
11.000000000000 3.320312500000 3.497997283936 210 210 210
10.968750000000 3.320312500000 3.456996917725 212 212 212
11.000000000000 3.320312500000 3.415996551514 212 212 212
10.968750000000 3.320312500000 3.374996185303 221 221 221
11.000000000000 3.320312500000 3.332996368408 217 217 217
11.000000000000 3.320312500000 3.292995452881 224 224 224
10.968750000000 3.320312500000 3.251995086670 229 229 229
11.000000000000 3.320312500000 3.209995269775 234 234 234
10.968750000000 3.312500000000 3.170001983643 251 251 251
10.968750000000 3.320312500000 3.129001617432 2 2 2
10.968750000000 3.320312500000 3.086997985840 29 29 29
10.968750000000 3.320312500000 3.045997619629 29 29 29
10.968750000000 3.320312500000 3.004997253418 19 19 19
10.968750000000 3.320312500000 2.963996887207 253 253 253
10.968750000000 3.320312500000 2.923000335693 248 248 248
10.968750000000 3.320312500000 2.881999969482 234 234 234
10.968750000000 3.320312500000 2.840999603271 230 230 230
10.968750000000 3.320312500000 2.799999237061 226 226 226
10.968750000000 3.320312500000 2.758998870850 220 220 220
11.000000000000 3.320312500000 2.717998504639 217 217 217
10.968750000000 3.320312500000 2.676998138428 215 215 215
11.000000000000 3.320312500000 2.635997772217 215 215 215
11.000000000000 3.320312500000 2.594997406006 210 210 210
10.968750000000 3.320312500000 2.552997589111 209 209 209
10.968750000000 3.320312500000 2.511997222900 203 203 203
10.968750000000 3.320312500000 2.470996856689 201 201 201
10.968750000000 3.320312500000 2.430000305176 203 203 203
10.968750000000 3.320312500000 2.387996673584 197 197 197
10.968750000000 3.320312500000 2.347000122070 201 201 201
11.000000000000 3.320312500000 2.305000305176 193 193 193
10.968750000000 3.320312500000 2.262996673584 193 193 193
10.968750000000 3.320312500000 2.220996856689 192 192 192
10.968750000000 3.320312500000 2.178997039795 192 192 192
10.968750000000 3.320312500000 2.138999938965 186 186 186
11.000000000000 3.320312500000 2.097999572754 189 189 189
10.968750000000 3.320312500000 2.055000305176 185 185 185
10.968750000000 3.320312500000 2.012996673584 183 183 183
10.968750000000 3.320312500000 1.969997406006 188 188 188
10.968750000000 3.320312500000 1.928997039795 185 185 185
10.968750000000 3.320312500000 1.884998321533 186 186 186
10.968750000000 3.320312500000 1.843997955322 180 180 180
10.968750000000 3.320312500000 1.801998138428 182 182 182
10.968750000000 3.320312500000 1.759998321533 185 185 185
10.968750000000 3.320312500000 1.717998504639 181 181 181
10.968750000000 3.320312500000 1.673999786377 182 182 182
10.968750000000 3.320312500000 1.631999969482 181 181 181
10.968750000000 3.320312500000 1.587997436523 185 185 185
10.968750000000 3.320312500000 1.545997619629 178 178 178
10.968750000000 3.320312500000 1.503997802734 179 179 179
10.968750000000 3.320312500000 1.459999084473 179 179 179
10.968750000000 3.320312500000 1.416999816895 176 176 176
10.968750000000 3.320312500000 1.372997283936 176 176 176
10.968750000000 3.312500000000 1.327999114990 174 174 174
10.968750000000 3.320312500000 1.286998748779 166 166 166
10.968750000000 3.320312500000 1.243000030518 171 171 171
11.031250000000 3.312500000000 1.208999633789 178 178 178
10.625000000000 3.585937500000 4.645000457764 100 100 100
10.625000000000 3.585937500000 4.600002288818 147 147 147
10.625000000000 3.585937500000 4.554996490479 147 147 147
10.625000000000 3.585937500000 4.510997772217 148 148 148
10.625000000000 3.585937500000 4.467998504639 150 150 150
10.625000000000 3.585937500000 4.420001983643 132 132 132
10.625000000000 3.585937500000 4.157001495361 118 118 118
10.625000000000 3.585937500000 4.111995697021 188 188 188
10.625000000000 3.585937500000 4.068996429443 188 188 188
10.625000000000 3.585937500000 4.024997711182 160 160 160
10.625000000000 3.585937500000 3.980998992920 155 155 155
10.593750000000 3.585937500000 3.938999176025 144 144 144
11.500000000000 3.843750000000 4.674999237061 77 77 77
11.531250000000 3.851562500000 4.631000518799 100 100 100
11.531250000000 3.851562500000 4.592998504639 101 101 101
11.531250000000 3.851562500000 4.554996490479 107 107 107
11.500000000000 3.843750000000 4.514995574951 104 104 104
11.531250000000 3.851562500000 4.473995208740 102 102 102
11.531250000000 3.851562500000 4.431995391846 56 56 56
11.468750000000 3.851562500000 4.162998199463 24 24 24
11.468750000000 3.851562500000 4.126995086670 104 104 104
11.437500000000 3.851562500000 4.091999053955 117 117 117
11.468750000000 3.851562500000 4.052997589111 116 116 116
11.437500000000 3.851562500000 4.014995574951 123 123 123
11.437500000000 3.851562500000 3.975002288818 110 110 110
11.437500000000 3.851562500000 3.938999176025 107 107 107
11.406250000000 3.851562500000 3.902996063232 38 38 38
12.062500000000 4.117187500000 4.443996429443 89 89 89
12.031250000000 4.109375000000 4.413997650146 122 122 122
12.031250000000 4.109375000000 4.379001617432 117 117 117
12.031250000000 4.109375000000 4.341999053955 133 133 133
12.031250000000 4.117187500000 4.309001922607 117 117 117
12.031250000000 4.109375000000 4.268001556396 101 101 101
12.031250000000 4.109375000000 4.230998992920 110 110 110
12.031250000000 4.109375000000 4.195995330811 112 112 112
12.031250000000 4.109375000000 4.160999298096 114 114 114
12.031250000000 4.101562500000 4.124996185303 111 111 111
12.031250000000 4.117187500000 4.089000701904 114 114 114
12.062500000000 4.117187500000 4.049999237061 92 92 92
11.656250000000 4.125000000000 3.659999847412 45 45 45
11.687500000000 4.117187500000 3.621997833252 41 41 41
11.718750000000 4.117187500000 3.582996368408 126 126 126
11.656250000000 4.125000000000 3.548000335693 88 88 88
11.687500000000 4.117187500000 3.508998870850 162 162 162
11.906250000000 4.117187500000 3.457996368408 130 130 130
11.875000000000 4.117187500000 3.423000335693 144 144 144
11.906250000000 4.117187500000 3.385997772217 161 161 161
11.906250000000 4.117187500000 3.350002288818 150 150 150
11.875000000000 4.117187500000 3.314998626709 145 145 145
11.843750000000 4.117187500000 3.279994964600 153 153 153
11.656250000000 4.117187500000 3.250995635986 68 68 68
11.687500000000 4.117187500000 3.213001251221 127 127 127
11.687500000000 4.117187500000 3.175998687744 114 114 114
11.656250000000 4.117187500000 3.138996124268 118 118 118
11.625000000000 4.117187500000 3.102001190186 116 116 116
11.625000000000 4.117187500000 3.064998626709 18 18 18
11.531250000000 4.117187500000 1.319000244141 124 124 124
11.531250000000 4.117187500000 1.277999877930 224 224 224
11.968750000000 4.398437500000 3.536998748779 28 28 28
12.000000000000 4.390625000000 3.499996185303 38 38 38
11.687500000000 4.382812500000 3.300998687744 45 45 45
11.750000000000 4.382812500000 3.261997222900 62 62 62
11.812500000000 4.398437500000 3.223995208740 49 49 49
10.750000000000 2.882812500000 3.562999725342 16 16 16
10.812500000000 2.851562500000 3.511997222900 22 22 22
10.593750000000 2.976562500000 3.268001556396 7 7 7
11.031250000000 2.992187500000 4.575000762939 42 42 42
11.031250000000 3.000000000000 4.531002044678 113 113 113
11.000000000000 3.007812500000 4.484996795654 114 114 114
11.000000000000 3.007812500000 4.435001373291 118 118 118
11.000000000000 3.007812500000 4.386997222900 108 108 108
11.000000000000 3.007812500000 4.340000152588 93 93 93
11.031250000000 3.000000000000 4.192996978760 88 88 88
11.031250000000 2.992187500000 4.144001007080 95 95 95
11.031250000000 2.992187500000 4.095996856689 95 95 95
11.031250000000 2.984375000000 4.048000335693 95 95 95
11.031250000000 2.992187500000 3.999996185303 94 94 94
10.750000000000 3.156250000000 3.684001922607 12 12 12
10.750000000000 3.156250000000 3.634998321533 18 18 18
10.750000000000 3.164062500000 3.585994720459 21 21 21
10.812500000000 3.117187500000 3.534999847412 20 20 20
10.781250000000 3.125000000000 3.485996246338 47 47 47
10.812500000000 3.132812500000 3.437000274658 18 18 18
10.750000000000 3.148437500000 3.388996124268 16 16 16
10.812500000000 3.117187500000 3.340000152588 78 78 78
10.812500000000 3.109375000000 3.290996551514 124 124 124
10.812500000000 3.117187500000 3.242000579834 96 96 96
10.812500000000 3.117187500000 3.193996429443 94 94 94
10.812500000000 3.117187500000 3.145000457764 124 124 124
10.750000000000 3.164062500000 3.093997955322 95 95 95
10.750000000000 3.132812500000 3.045997619629 70 70 70
10.718750000000 3.156250000000 2.995998382568 19 19 19
11.062500000000 3.257812500000 5.033000946045 64 64 64
11.031250000000 3.257812500000 4.987995147705 104 104 104
11.000000000000 3.273437500000 4.945995330811 106 106 106
11.000000000000 3.273437500000 4.894001007080 114 114 114
11.000000000000 3.273437500000 4.845996856689 86 86 86
10.937500000000 3.328125000000 4.814998626709 85 85 85
10.968750000000 3.296875000000 4.756000518799 139 139 139
10.968750000000 3.289062500000 4.705997467041 151 151 151
10.968750000000 3.289062500000 4.657001495361 152 152 152
10.968750000000 3.289062500000 4.608997344971 157 157 157
10.968750000000 3.296875000000 4.560001373291 162 162 162
10.968750000000 3.296875000000 4.511997222900 163 163 163
10.937500000000 3.304687500000 4.464000701904 160 160 160
10.968750000000 3.296875000000 4.414997100830 156 156 156
10.968750000000 3.289062500000 4.365001678467 160 160 160
10.968750000000 3.289062500000 4.316997528076 163 163 163
10.968750000000 3.289062500000 4.268001556396 163 163 163
10.968750000000 3.296875000000 4.220996856689 164 164 164
10.968750000000 3.296875000000 4.173000335693 163 163 163
10.968750000000 3.289062500000 4.123996734619 168 168 168
10.968750000000 3.289062500000 4.076000213623 171 171 171
10.968750000000 3.289062500000 4.027996063232 173 173 173
10.968750000000 3.296875000000 3.980998992920 176 176 176
10.968750000000 3.289062500000 3.931995391846 172 172 172
10.968750000000 3.296875000000 3.884998321533 179 179 179
10.968750000000 3.289062500000 3.837001800537 181 181 181
10.968750000000 3.289062500000 3.788997650146 184 184 184
10.968750000000 3.289062500000 3.741001129150 186 186 186
10.968750000000 3.289062500000 3.693996429443 190 190 190
10.968750000000 3.289062500000 3.645999908447 192 192 192
10.968750000000 3.289062500000 3.597995758057 195 195 195
10.968750000000 3.296875000000 3.550998687744 203 203 203
10.968750000000 3.289062500000 3.503002166748 206 206 206
10.968750000000 3.289062500000 3.454998016357 217 217 217
10.968750000000 3.289062500000 3.408000946045 221 221 221
10.968750000000 3.289062500000 3.359996795654 232 232 232
10.968750000000 3.289062500000 3.312999725342 4 4 4
10.968750000000 3.281250000000 3.264995574951 235 235 235
10.968750000000 3.289062500000 3.217998504639 227 227 227
10.968750000000 3.289062500000 3.170001983643 222 222 222
10.968750000000 3.289062500000 3.121997833252 217 217 217
10.968750000000 3.289062500000 3.074996948242 216 216 216
10.968750000000 3.289062500000 3.026996612549 215 215 215
10.968750000000 3.289062500000 2.979999542236 212 212 212
10.968750000000 3.289062500000 2.931999206543 208 208 208
10.968750000000 3.289062500000 2.883998870850 207 207 207
10.968750000000 3.289062500000 2.836997985840 203 203 203
10.968750000000 3.289062500000 2.788997650146 202 202 202
10.968750000000 3.289062500000 2.740997314453 200 200 200
10.968750000000 3.289062500000 2.692996978760 194 194 194
10.968750000000 3.289062500000 2.644996643066 195 195 195
10.968750000000 3.296875000000 2.597000122070 194 194 194
10.968750000000 3.289062500000 2.549999237061 191 191 191
10.968750000000 3.289062500000 2.501998901367 193 193 193
10.968750000000 3.289062500000 2.453998565674 186 186 186
10.968750000000 3.289062500000 2.405998229980 184 184 184
10.968750000000 3.289062500000 2.356998443604 182 182 182
10.968750000000 3.289062500000 2.308998107910 182 182 182
10.968750000000 3.289062500000 2.260997772217 181 181 181
10.968750000000 3.289062500000 2.211997985840 179 179 179
10.968750000000 3.289062500000 2.162998199463 176 176 176
10.968750000000 3.289062500000 2.115997314453 175 175 175
10.968750000000 3.289062500000 2.065998077393 176 176 176
10.968750000000 3.289062500000 2.017997741699 176 176 176
10.968750000000 3.289062500000 1.968997955322 177 177 177
10.968750000000 3.289062500000 1.920997619629 175 175 175
10.968750000000 3.289062500000 1.871997833252 173 173 173
10.968750000000 3.289062500000 1.820999145508 169 169 169
10.968750000000 3.289062500000 1.772998809814 170 170 170
10.968750000000 3.289062500000 1.723999023438 170 170 170
10.968750000000 3.289062500000 1.674999237061 174 174 174
10.968750000000 3.289062500000 1.622997283936 171 171 171
10.968750000000 3.289062500000 1.574996948242 174 174 174
10.968750000000 3.289062500000 1.524997711182 171 171 171
10.968750000000 3.289062500000 1.474998474121 172 172 172
10.968750000000 3.289062500000 1.426998138428 172 172 172
10.968750000000 3.289062500000 1.377998352051 166 166 166
10.968750000000 3.289062500000 1.323997497559 164 164 164
10.937500000000 3.304687500000 1.272998809814 157 157 157
10.968750000000 3.289062500000 1.224998474121 165 165 165
11.468750000000 3.820312500000 4.728000640869 99 99 99
11.468750000000 3.820312500000 4.680995941162 158 158 158
11.437500000000 3.828125000000 4.637996673584 163 163 163
11.468750000000 3.820312500000 4.590000152588 162 162 162
11.468750000000 3.820312500000 4.545001983643 165 165 165
11.468750000000 3.820312500000 4.497997283936 158 158 158
11.406250000000 3.835937500000 4.140995025635 125 125 125
11.406250000000 3.835937500000 4.096996307373 166 166 166
11.406250000000 3.835937500000 4.051998138428 165 165 165
11.406250000000 3.851562500000 4.007999420166 164 164 164
11.406250000000 3.835937500000 3.962001800537 162 162 162
11.406250000000 3.851562500000 3.918994903564 120 120 120
11.687500000000 3.945312500000 4.520000457764 149 149 149
11.687500000000 3.945312500000 4.475002288818 161 161 161
11.687500000000 3.945312500000 4.432994842529 161 161 161
11.687500000000 3.945312500000 4.388996124268 161 161 161
11.687500000000 3.945312500000 4.344997406006 163 163 163
11.687500000000 3.945312500000 4.301998138428 154 154 154
11.687500000000 3.953125000000 4.259998321533 146 146 146
11.656250000000 3.960937500000 4.217998504639 166 166 166
11.656250000000 3.960937500000 4.173000335693 163 163 163
11.656250000000 3.968750000000 4.131000518799 166 166 166
11.656250000000 3.960937500000 4.088001251221 162 162 162
11.656250000000 3.960937500000 4.045001983643 128 128 128
11.500000000000 4.054687500000 3.664997100830 16 16 16
11.500000000000 4.054687500000 3.621997833252 47 47 47
11.500000000000 4.054687500000 3.576999664307 42 42 42
11.500000000000 4.054687500000 3.533000946045 50 50 50
11.531250000000 4.039062500000 3.487995147705 57 57 57
11.531250000000 4.031250000000 3.443996429443 106 106 106
11.500000000000 4.054687500000 3.400997161865 40 40 40
11.468750000000 4.070312500000 3.357997894287 36 36 36
11.718750000000 3.929687500000 1.673999786377 15 15 15
11.687500000000 3.945312500000 1.622997283936 15 15 15
11.687500000000 3.945312500000 1.576999664307 23 23 23
11.687500000000 3.945312500000 1.534000396729 27 27 27
11.593750000000 4.007812500000 1.410999298096 178 178 178
11.625000000000 3.992187500000 1.371997833252 158 158 158
11.968750000000 4.062500000000 4.783000946045 124 124 124
11.968750000000 4.054687500000 4.739002227783 119 119 119
11.937500000000 4.070312500000 4.700000762939 125 125 125
11.937500000000 4.070312500000 4.658000946045 109 109 109
11.937500000000 4.070312500000 4.615001678467 103 103 103
11.937500000000 4.070312500000 4.573001861572 99 99 99
11.937500000000 4.070312500000 4.531002044678 89 89 89
11.968750000000 4.062500000000 4.487995147705 79 79 79
11.937500000000 4.070312500000 4.448001861572 75 75 75
11.937500000000 4.070312500000 4.408000946045 150 150 150
11.937500000000 4.070312500000 4.366001129150 167 167 167
11.937500000000 4.070312500000 4.323001861572 161 161 161
11.937500000000 4.070312500000 4.282001495361 170 170 170
11.937500000000 4.070312500000 4.241001129150 167 167 167
11.937500000000 4.078125000000 4.200000762939 170 170 170
11.937500000000 4.070312500000 4.157001495361 167 167 167
11.937500000000 4.070312500000 4.114002227783 155 155 155
11.750000000000 4.171875000000 3.670001983643 106 106 106
11.750000000000 4.179687500000 3.628002166748 79 79 79
11.781250000000 4.164062500000 3.584995269775 140 140 140
11.750000000000 4.179687500000 3.543994903564 51 51 51
11.781250000000 4.148437500000 3.499996185303 59 59 59
11.906250000000 4.085937500000 3.454998016357 157 157 157
11.875000000000 4.085937500000 3.413997650146 148 148 148
11.875000000000 4.085937500000 3.372997283936 129 129 129
11.875000000000 4.101562500000 3.331996917725 139 139 139
11.875000000000 4.085937500000 3.289997100830 154 154 154
11.781250000000 4.164062500000 3.248996734619 70 70 70
11.781250000000 4.164062500000 3.205997467041 61 61 61
11.781250000000 4.164062500000 3.163997650146 70 70 70
11.750000000000 4.164062500000 3.121997833252 59 59 59
11.750000000000 4.195312500000 3.078998565674 112 112 112
11.718750000000 4.187500000000 3.035999298096 69 69 69
11.718750000000 4.187500000000 2.993999481201 55 55 55
11.562500000000 4.289062500000 1.474998474121 13 13 13
11.468750000000 4.335937500000 1.354000091553 156 156 156
12.187500000000 4.195312500000 4.541996002197 147 147 147
12.187500000000 4.195312500000 4.503002166748 167 167 167
12.187500000000 4.195312500000 4.462001800537 167 167 167
12.187500000000 4.195312500000 4.422000885010 166 166 166
12.187500000000 4.195312500000 4.381999969482 165 165 165
12.187500000000 4.195312500000 4.340000152588 159 159 159
12.156250000000 4.210937500000 4.304996490479 26 26 26
12.187500000000 4.195312500000 4.139995574951 154 154 154
12.187500000000 4.195312500000 4.100002288818 161 161 161
12.187500000000 4.195312500000 4.060001373291 165 165 165
12.187500000000 4.195312500000 4.020999908447 162 162 162
12.187500000000 4.195312500000 3.980998992920 166 166 166
12.187500000000 4.195312500000 3.939998626709 166 166 166
12.187500000000 4.195312500000 3.901996612549 86 86 86
12.000000000000 4.304687500000 3.634998321533 54 54 54
12.000000000000 4.304687500000 3.593997955322 57 57 57
12.000000000000 4.304687500000 3.553997039795 53 53 53
12.000000000000 4.304687500000 3.512996673584 57 57 57
12.000000000000 4.304687500000 3.471996307373 59 59 59
12.000000000000 4.304687500000 3.431995391846 53 53 53
12.000000000000 4.304687500000 3.390995025635 55 55 55
12.000000000000 4.304687500000 3.350002288818 65 65 65
12.000000000000 4.304687500000 3.310001373291 55 55 55
12.000000000000 4.320312500000 3.269001007080 41 41 41
12.437500000000 4.320312500000 4.546001434326 93 93 93
12.437500000000 4.320312500000 4.506000518799 167 167 167
12.437500000000 4.320312500000 4.467998504639 159 159 159
12.406250000000 4.328125000000 3.969997406006 56 56 56
11.218750000000 17.078125000000 3.750995635986 87 87 87
11.218750000000 17.062500000000 3.796001434326 177 177 177
11.218750000000 17.078125000000 3.840000152588 180 180 180
11.218750000000 17.078125000000 3.883998870850 179 179 179
11.218750000000 17.078125000000 3.927997589111 183 183 183
11.218750000000 17.078125000000 3.972995758057 164 164 164
11.281250000000 17.101562500000 4.323001861572 52 52 52
11.281250000000 17.109375000000 4.364002227783 204 204 204
11.281250000000 17.109375000000 4.408000946045 208 208 208
11.312500000000 17.117187500000 4.451999664307 209 209 209
11.312500000000 17.125000000000 4.495998382568 210 210 210
11.312500000000 17.125000000000 4.541996002197 201 201 201
11.375000000000 16.968750000000 3.887996673584 171 171 171
11.406250000000 16.976562500000 3.929996490479 179 179 179
11.375000000000 16.968750000000 3.975002288818 181 181 181
11.375000000000 16.968750000000 4.018001556396 185 185 185
11.375000000000 16.968750000000 4.062000274658 182 182 182
11.375000000000 16.968750000000 4.104999542236 158 158 158
11.406250000000 16.976562500000 4.233997344971 15 15 15
11.406250000000 16.984375000000 4.275997161865 204 204 204
11.406250000000 16.984375000000 4.318996429443 209 209 209
11.406250000000 16.984375000000 4.362995147705 207 207 207
11.437500000000 17.000000000000 4.404994964600 207 207 207
11.437500000000 17.000000000000 4.449001312256 201 201 201
11.625000000000 16.867187500000 1.173999786377 187 187 187
11.593750000000 16.851562500000 1.203998565674 186 186 186
11.406250000000 16.781250000000 3.046997070313 16 16 16
11.406250000000 16.765625000000 3.090000152588 82 82 82
11.406250000000 16.765625000000 3.132999420166 100 100 100
11.406250000000 16.765625000000 3.175998687744 101 101 101
11.406250000000 16.781250000000 3.217998504639 112 112 112
11.406250000000 16.765625000000 3.260997772217 135 135 135
11.406250000000 16.781250000000 3.303997039795 103 103 103
11.468750000000 16.804687500000 3.345996856689 96 96 96
11.468750000000 16.804687500000 3.387996673584 106 106 106
11.437500000000 16.796875000000 3.430995941162 109 109 109
11.406250000000 16.773437500000 3.476001739502 103 103 103
11.406250000000 16.781250000000 3.519001007080 101 101 101
11.406250000000 16.773437500000 3.562000274658 102 102 102
11.531250000000 16.859375000000 3.976001739502 45 45 45
11.562500000000 16.867187500000 4.015995025635 180 180 180
11.562500000000 16.867187500000 4.059001922607 183 183 183
11.562500000000 16.867187500000 4.102001190186 185 185 185
11.562500000000 16.867187500000 4.144001007080 184 184 184
11.562500000000 16.867187500000 4.186000823975 187 187 187
11.562500000000 16.867187500000 4.229999542236 183 183 183
11.562500000000 16.867187500000 4.272998809814 189 189 189
11.562500000000 16.867187500000 4.315998077393 199 199 199
11.562500000000 16.875000000000 4.356998443604 195 195 195
11.781250000000 16.765625000000 1.203998565674 131 131 131
11.781250000000 16.765625000000 1.246997833252 138 138 138
11.781250000000 16.765625000000 1.288997650146 140 140 140
11.781250000000 16.765625000000 1.333999633789 144 144 144
11.781250000000 16.765625000000 1.377998352051 149 149 149
11.750000000000 16.757812500000 1.413997650146 155 155 155
11.750000000000 16.757812500000 1.458999633789 149 149 149
11.718750000000 16.750000000000 1.879997253418 160 160 160
11.718750000000 16.750000000000 1.921997070313 164 164 164
11.718750000000 16.750000000000 1.963996887207 162 162 162
11.718750000000 16.750000000000 2.003997802734 163 163 163
11.718750000000 16.750000000000 2.046997070313 164 164 164
11.718750000000 16.750000000000 2.087997436523 164 164 164
11.718750000000 16.742187500000 2.128997802734 165 165 165
11.718750000000 16.742187500000 2.169998168945 164 164 164
11.718750000000 16.742187500000 2.211997985840 164 164 164
11.718750000000 16.742187500000 2.253997802734 165 165 165
11.718750000000 16.742187500000 2.294998168945 166 166 166
11.718750000000 16.742187500000 2.335998535156 166 166 166
11.718750000000 16.742187500000 2.377998352051 167 167 167
11.718750000000 16.742187500000 2.418998718262 174 174 174
11.718750000000 16.742187500000 2.459999084473 176 176 176
11.687500000000 16.742187500000 2.500000000000 179 179 179
11.718750000000 16.742187500000 2.542999267578 180 180 180
11.718750000000 16.742187500000 2.583999633789 182 182 182
11.718750000000 16.742187500000 2.625999450684 183 183 183
11.718750000000 16.742187500000 2.666000366211 189 189 189
11.718750000000 16.742187500000 2.706996917725 190 190 190
11.718750000000 16.742187500000 2.747997283936 197 197 197
11.718750000000 16.757812500000 2.789997100830 196 196 196
11.718750000000 16.757812500000 2.829998016357 197 197 197
11.718750000000 16.757812500000 2.870998382568 195 195 195
11.718750000000 16.757812500000 2.911998748779 197 197 197
11.718750000000 16.757812500000 2.952999114990 198 198 198
11.718750000000 16.757812500000 2.993999481201 199 199 199
11.718750000000 16.757812500000 3.034000396729 185 185 185
11.718750000000 16.757812500000 3.074996948242 197 197 197
11.718750000000 16.757812500000 3.116001129150 198 198 198
11.718750000000 16.757812500000 3.157001495361 205 205 205
11.718750000000 16.757812500000 3.198001861572 188 188 188
11.718750000000 16.757812500000 3.239002227783 221 221 221
11.718750000000 16.757812500000 3.278995513916 196 196 196
11.718750000000 16.757812500000 3.319995880127 188 188 188
11.718750000000 16.757812500000 3.360996246338 177 177 177
11.687500000000 16.750000000000 3.401996612549 180 180 180
11.718750000000 16.757812500000 3.442996978760 176 176 176
11.687500000000 16.750000000000 3.483997344971 170 170 170
11.718750000000 16.757812500000 3.524997711182 167 167 167
11.687500000000 16.750000000000 3.565998077393 165 165 165
11.718750000000 16.757812500000 3.605998992920 153 153 153
11.718750000000 16.765625000000 3.645999908447 151 151 151
11.718750000000 16.765625000000 3.687000274658 149 149 149
11.718750000000 16.757812500000 3.729000091553 142 142 142
11.718750000000 16.757812500000 3.770000457764 143 143 143
11.718750000000 16.765625000000 3.810001373291 129 129 129
11.718750000000 16.757812500000 3.853000640869 132 132 132
11.718750000000 16.757812500000 3.893001556396 129 129 129
11.718750000000 16.757812500000 3.935001373291 131 131 131
11.718750000000 16.757812500000 3.976001739502 127 127 127
11.718750000000 16.757812500000 4.017002105713 122 122 122
11.718750000000 16.757812500000 4.059001922607 172 172 172
11.718750000000 16.757812500000 4.101001739502 181 181 181
11.718750000000 16.765625000000 4.140995025635 178 178 178
11.718750000000 16.757812500000 4.184001922607 183 183 183
11.718750000000 16.757812500000 4.225002288818 184 184 184
11.718750000000 16.757812500000 4.265995025635 181 181 181
11.718750000000 16.773437500000 4.307994842529 178 178 178
11.718750000000 16.773437500000 4.348995208740 158 158 158
11.718750000000 16.773437500000 4.392002105713 72 72 72
11.718750000000 16.773437500000 4.431995391846 71 71 71
11.718750000000 16.773437500000 4.475002288818 60 60 60
11.718750000000 16.773437500000 4.517002105713 45 45 45
11.718750000000 16.773437500000 4.557994842529 33 33 33
11.718750000000 16.773437500000 4.600002288818 21 21 21
11.687500000000 16.757812500000 4.648998260498 15 15 15
11.718750000000 16.562500000000 2.975997924805 78 78 78
11.718750000000 16.562500000000 3.016998291016 98 98 98
11.781250000000 16.585937500000 3.058998107910 112 112 112
11.781250000000 16.593750000000 3.098995208740 105 105 105
11.812500000000 16.601562500000 3.139995574951 105 105 105
11.812500000000 16.601562500000 3.179996490479 98 98 98
11.750000000000 16.578125000000 3.220996856689 131 131 131
11.750000000000 16.570312500000 3.260997772217 153 153 153
11.750000000000 16.578125000000 3.301998138428 102 102 102
11.812500000000 16.601562500000 3.340999603271 98 98 98
11.812500000000 16.601562500000 3.381999969482 111 111 111
11.781250000000 16.593750000000 3.422000885010 105 105 105
11.750000000000 16.578125000000 3.464000701904 114 114 114
11.750000000000 16.570312500000 3.505001068115 102 102 102
11.750000000000 16.570312500000 3.546001434326 100 100 100
11.718750000000 16.570312500000 3.588001251221 85 85 85
11.843750000000 16.640625000000 3.980998992920 187 187 187
11.843750000000 16.640625000000 4.021999359131 192 192 192
11.843750000000 16.640625000000 4.062000274658 192 192 192
11.875000000000 16.656250000000 4.101001739502 191 191 191
11.875000000000 16.656250000000 4.142002105713 189 189 189
11.843750000000 16.640625000000 4.184001922607 159 159 159
11.843750000000 16.648437500000 4.223995208740 19 19 19
11.875000000000 16.664062500000 4.261997222900 182 182 182
11.875000000000 16.664062500000 4.300998687744 181 181 181
11.875000000000 16.664062500000 4.342998504639 184 184 184
11.875000000000 16.664062500000 4.383998870850 185 185 185
11.875000000000 16.664062500000 4.424999237061 185 185 185
11.875000000000 16.664062500000 4.465999603271 178 178 178
11.875000000000 16.453125000000 3.281002044678 31 31 31
11.906250000000 16.460937500000 3.319995880127 82 82 82
11.906250000000 16.460937500000 3.359996795654 102 102 102
11.906250000000 16.468750000000 3.398998260498 97 97 97
11.906250000000 16.460937500000 3.438999176025 101 101 101
11.906250000000 16.468750000000 3.479000091553 75 75 75
12.000000000000 16.515625000000 3.866001129150 143 143 143
12.000000000000 16.523437500000 3.904994964600 192 192 192
12.000000000000 16.523437500000 3.943996429443 194 194 194
12.000000000000 16.523437500000 3.982997894287 190 190 190
12.000000000000 16.523437500000 4.021999359131 194 194 194
12.000000000000 16.523437500000 4.061000823975 191 191 191
12.031250000000 16.531250000000 4.100002288818 98 98 98
12.062500000000 16.554687500000 4.370998382568 158 158 158
12.062500000000 16.554687500000 4.411998748779 184 184 184
12.062500000000 16.554687500000 4.451000213623 187 187 187
12.062500000000 16.554687500000 4.491001129150 201 201 201
12.062500000000 16.554687500000 4.531002044678 213 213 213
12.062500000000 16.554687500000 4.570995330811 188 188 188
12.062500000000 16.562500000000 4.609996795654 127 127 127
12.156250000000 16.414062500000 3.906002044678 149 149 149
12.156250000000 16.414062500000 3.943996429443 191 191 191
12.156250000000 16.414062500000 3.981998443604 189 189 189
11.406250000000 17.062500000000 4.504001617432 114 114 114
11.406250000000 17.062500000000 4.465000152588 127 127 127
11.375000000000 17.054687500000 4.427997589111 134 134 134
11.375000000000 17.054687500000 4.387996673584 131 131 131
11.375000000000 17.054687500000 4.350002288818 129 129 129
11.375000000000 17.054687500000 4.310001373291 97 97 97
11.312500000000 17.054687500000 4.006999969482 80 80 80
11.281250000000 17.054687500000 3.971996307373 133 133 133
11.281250000000 17.054687500000 3.931995391846 123 123 123
11.281250000000 17.054687500000 3.893001556396 126 126 126
11.281250000000 17.054687500000 3.855998992920 126 126 126
11.281250000000 17.054687500000 3.814998626709 113 113 113
11.281250000000 17.054687500000 3.777996063232 115 115 115
11.781250000000 16.859375000000 4.659000396729 162 162 162
11.812500000000 16.867187500000 4.618999481201 170 170 170
11.812500000000 16.867187500000 4.580997467041 165 165 165
11.812500000000 16.867187500000 4.543994903564 167 167 167
11.812500000000 16.859375000000 4.505001068115 166 166 166
11.812500000000 16.859375000000 4.467998504639 169 169 169
11.812500000000 16.859375000000 4.430995941162 172 172 172
11.781250000000 16.859375000000 4.395000457764 169 169 169
11.812500000000 16.859375000000 4.355998992920 169 169 169
11.781250000000 16.851562500000 4.318996429443 174 174 174
11.812500000000 16.859375000000 4.282001495361 167 167 167
11.781250000000 16.851562500000 4.245998382568 175 175 175
11.781250000000 16.851562500000 4.208995819092 172 172 172
11.781250000000 16.851562500000 4.172000885010 173 173 173
11.781250000000 16.851562500000 4.136997222900 179 179 179
11.781250000000 16.851562500000 4.097995758057 177 177 177
11.781250000000 16.851562500000 4.062000274658 181 181 181
11.812500000000 16.859375000000 4.024997711182 180 180 180
11.812500000000 16.859375000000 3.987995147705 181 181 181
11.812500000000 16.859375000000 3.951999664307 181 181 181
11.812500000000 16.851562500000 3.914997100830 182 182 182
11.812500000000 16.851562500000 3.878002166748 184 184 184
11.812500000000 16.851562500000 3.842998504639 186 186 186
11.781250000000 16.843750000000 3.807994842529 186 186 186
11.812500000000 16.851562500000 3.770999908447 191 191 191
11.812500000000 16.851562500000 3.734996795654 193 193 193
11.812500000000 16.851562500000 3.698001861572 192 192 192
11.812500000000 16.851562500000 3.663997650146 194 194 194
11.812500000000 16.851562500000 3.628002166748 195 195 195
11.812500000000 16.851562500000 3.591999053955 195 195 195
11.812500000000 16.851562500000 3.556995391846 198 198 198
11.812500000000 16.851562500000 3.520000457764 197 197 197
11.812500000000 16.843750000000 3.484996795654 199 199 199
11.812500000000 16.851562500000 3.449001312256 200 200 200
11.812500000000 16.843750000000 3.413997650146 205 205 205
11.812500000000 16.843750000000 3.378002166748 202 202 202
11.812500000000 16.843750000000 3.342998504639 209 209 209
11.812500000000 16.843750000000 3.306995391846 216 216 216
11.812500000000 16.843750000000 3.271999359131 215 215 215
11.812500000000 16.843750000000 3.236995697021 217 217 217
11.812500000000 16.843750000000 3.201000213623 224 224 224
11.781250000000 16.835937500000 3.165996551514 228 228 228
11.781250000000 16.835937500000 3.131000518799 230 230 230
11.781250000000 16.835937500000 3.094997406006 236 236 236
11.781250000000 16.835937500000 3.059997558594 241 241 241
11.781250000000 16.835937500000 3.024997711182 1 1 1
11.812500000000 16.843750000000 2.988998413086 19 19 19
11.812500000000 16.843750000000 2.953998565674 20 20 20
11.812500000000 16.835937500000 2.918998718262 20 20 20
11.812500000000 16.843750000000 2.882999420166 12 12 12
11.812500000000 16.843750000000 2.847999572754 252 252 252
11.781250000000 16.835937500000 2.812999725342 241 241 241
11.781250000000 16.835937500000 2.776996612549 236 236 236
11.812500000000 16.843750000000 2.741996765137 229 229 229
11.812500000000 16.835937500000 2.706996917725 226 226 226
11.812500000000 16.835937500000 2.670997619629 224 224 224
11.812500000000 16.835937500000 2.635997772217 219 219 219
11.812500000000 16.835937500000 2.600997924805 221 221 221
11.812500000000 16.835937500000 2.564998626709 212 212 212
11.812500000000 16.835937500000 2.529998779297 209 209 209
11.812500000000 16.835937500000 2.494998931885 205 205 205
11.812500000000 16.835937500000 2.458999633789 201 201 201
11.812500000000 16.835937500000 2.423000335693 202 202 202
11.812500000000 16.835937500000 2.387996673584 203 203 203
11.812500000000 16.835937500000 2.351997375488 198 198 198
11.812500000000 16.828125000000 2.316997528076 188 188 188
11.812500000000 16.828125000000 2.280998229980 189 189 189
11.812500000000 16.835937500000 2.244998931885 192 192 192
11.781250000000 16.828125000000 2.208000183105 189 189 189
11.812500000000 16.828125000000 2.173999786377 186 186 186
11.781250000000 16.828125000000 2.135997772217 183 183 183
11.812500000000 16.828125000000 2.100997924805 183 183 183
11.812500000000 16.828125000000 2.064998626709 180 180 180
11.781250000000 16.820312500000 2.027999877930 181 181 181
11.812500000000 16.828125000000 1.993000030518 177 177 177
11.781250000000 16.820312500000 1.954998016357 176 176 176
11.781250000000 16.820312500000 1.587997436523 163 163 163
11.781250000000 16.820312500000 1.551998138428 171 171 171
11.781250000000 16.820312500000 1.512996673584 162 162 162
11.781250000000 16.812500000000 1.476997375488 164 164 164
11.812500000000 16.820312500000 1.439998626709 164 164 164
11.812500000000 16.820312500000 1.402999877930 156 156 156
11.812500000000 16.820312500000 1.363998413086 160 160 160
11.781250000000 16.812500000000 1.326000213623 153 153 153
11.812500000000 16.820312500000 1.288997650146 144 144 144
11.781250000000 16.812500000000 1.250000000000 151 151 151
11.781250000000 16.812500000000 1.210998535156 149 149 149
11.812500000000 16.820312500000 1.173999786377 166 166 166
11.750000000000 16.828125000000 1.910999298096 149 149 149
11.937500000000 16.671875000000 4.491001129150 39 39 39
11.906250000000 16.664062500000 4.460994720459 137 137 137
11.906250000000 16.664062500000 4.426998138428 132 132 132
11.937500000000 16.664062500000 4.384998321533 129 129 129
11.906250000000 16.664062500000 4.351001739502 144 144 144
11.906250000000 16.664062500000 4.316997528076 124 124 124
11.906250000000 16.664062500000 4.278995513916 140 140 140
11.875000000000 16.664062500000 4.247997283936 120 120 120
11.875000000000 16.656250000000 4.215999603271 34 34 34
11.875000000000 16.664062500000 4.176998138428 135 135 135
11.875000000000 16.664062500000 4.140995025635 123 123 123
11.875000000000 16.656250000000 4.106998443604 131 131 131
11.875000000000 16.656250000000 4.070995330811 126 126 126
11.875000000000 16.656250000000 4.035999298096 127 127 127
11.875000000000 16.656250000000 3.997997283936 121 121 121
11.625000000000 16.664062500000 3.594997406006 51 51 51
11.625000000000 16.656250000000 3.559001922607 90 90 90
11.656250000000 16.648437500000 3.520999908447 105 105 105
11.625000000000 16.656250000000 3.484996795654 97 97 97
11.625000000000 16.656250000000 3.448001861572 89 89 89
11.656250000000 16.648437500000 3.409000396729 133 133 133
11.687500000000 16.648437500000 3.371997833252 160 160 160
11.687500000000 16.648437500000 3.334995269775 103 103 103
11.718750000000 16.648437500000 3.297000885010 121 121 121
11.718750000000 16.648437500000 3.260997772217 166 166 166
11.687500000000 16.648437500000 3.227001190186 143 143 143
11.687500000000 16.648437500000 3.190998077393 164 164 164
11.656250000000 16.648437500000 3.156002044678 86 86 86
11.625000000000 16.648437500000 3.119998931885 83 83 83
11.656250000000 16.648437500000 3.083999633789 90 90 90
11.625000000000 16.648437500000 3.046997070313 87 87 87
11.625000000000 16.648437500000 3.010997772217 88 88 88
11.656250000000 16.648437500000 2.974998474121 83 83 83
11.687500000000 16.648437500000 2.938999176025 81 81 81
11.593750000000 16.648437500000 2.901996612549 179 179 179
12.187500000000 16.468750000000 4.514995574951 83 83 83
12.187500000000 16.460937500000 4.479000091553 97 97 97
12.125000000000 16.460937500000 4.047000885010 59 59 59
12.125000000000 16.460937500000 4.009998321533 130 130 130
12.125000000000 16.460937500000 3.973995208740 181 181 181
12.125000000000 16.453125000000 3.938999176025 177 177 177
12.125000000000 16.460937500000 3.907001495361 125 125 125
12.125000000000 16.460937500000 3.873996734619 171 171 171
12.125000000000 16.460937500000 3.838001251221 134 134 134
12.125000000000 16.460937500000 3.803997039795 37 37 37
11.937500000000 16.460937500000 3.479999542236 79 79 79
11.937500000000 16.460937500000 3.444995880127 81 81 81
11.937500000000 16.453125000000 3.409999847412 82 82 82
11.906250000000 16.453125000000 3.375995635986 83 83 83
11.937500000000 16.453125000000 3.340999603271 81 81 81
11.906250000000 16.453125000000 3.306995391846 69 69 69
11.781250000000 16.835937500000 4.663997650146 166 166 166
11.781250000000 16.835937500000 4.620998382568 171 171 171
11.781250000000 16.828125000000 4.577999114990 169 169 169
11.781250000000 16.835937500000 4.535999298096 171 171 171
11.781250000000 16.828125000000 4.492000579834 170 170 170
11.781250000000 16.828125000000 4.451000213623 170 170 170
11.781250000000 16.828125000000 4.408000946045 171 171 171
11.781250000000 16.828125000000 4.367000579834 171 171 171
11.781250000000 16.820312500000 4.323001861572 172 172 172
11.781250000000 16.820312500000 4.281002044678 170 170 170
11.781250000000 16.828125000000 4.239002227783 173 173 173
11.781250000000 16.820312500000 4.196994781494 174 174 174
11.781250000000 16.820312500000 4.154994964600 174 174 174
11.781250000000 16.828125000000 4.114002227783 176 176 176
11.781250000000 16.820312500000 4.071994781494 180 180 180
11.781250000000 16.820312500000 4.029994964600 183 183 183
11.781250000000 16.820312500000 3.989002227783 185 185 185
11.781250000000 16.812500000000 3.946994781494 183 183 183
11.781250000000 16.820312500000 3.906002044678 190 190 190
11.781250000000 16.812500000000 3.864002227783 186 186 186
11.781250000000 16.820312500000 3.823001861572 191 191 191
11.812500000000 16.812500000000 3.781002044678 191 191 191
11.781250000000 16.812500000000 3.740001678467 193 193 193
11.781250000000 16.812500000000 3.699001312256 193 193 193
11.781250000000 16.812500000000 3.658000946045 198 198 198
11.812500000000 16.804687500000 3.616001129150 198 198 198
11.781250000000 16.812500000000 3.575000762939 205 205 205
11.812500000000 16.804687500000 3.534000396729 204 204 204
11.812500000000 16.804687500000 3.493000030518 208 208 208
11.812500000000 16.804687500000 3.451999664307 215 215 215
11.781250000000 16.812500000000 3.410999298096 219 219 219
11.812500000000 16.804687500000 3.369998931885 227 227 227
11.812500000000 16.804687500000 3.328998565674 232 232 232
11.812500000000 16.804687500000 3.287998199463 235 235 235
11.812500000000 16.804687500000 3.246997833252 242 242 242
11.812500000000 16.804687500000 3.205997467041 251 251 251
11.750000000000 16.835937500000 3.164997100830 2 2 2
11.750000000000 16.835937500000 3.122997283936 29 29 29
