11.500000000000 17.976562500000 6.409000396729 104 104 104
11.500000000000 17.992187500000 6.370998382568 51 51 51
11.500000000000 17.804687500000 7.873996734619 14 14 14
11.656250000000 17.710937500000 6.932994842529 15 15 15
11.843750000000 17.593750000000 6.415996551514 89 89 89
11.812500000000 17.617187500000 6.376995086670 81 81 81
11.562500000000 17.757812500000 6.410999298096 31 31 31
11.500000000000 17.789062500000 6.385997772217 128 128 128
11.500000000000 17.632812500000 7.802997589111 24 24 24
11.843750000000 17.398437500000 6.390995025635 117 117 117
11.500000000000 17.601562500000 6.418994903564 88 88 88
11.468750000000 17.609375000000 6.372997283936 73 73 73
11.781250000000 17.273437500000 7.688999176025 19 19 19
11.468750000000 17.445312500000 7.725002288818 14 14 14
11.656250000000 17.328125000000 6.726001739502 25 25 25
11.843750000000 17.218750000000 6.423000335693 70 70 70
11.812500000000 17.226562500000 6.381999969482 97 97 97
11.500000000000 17.421875000000 6.399997711182 127 127 127
11.750000000000 17.085937500000 7.616001129150 20 20 20
11.468750000000 17.250000000000 7.639995574951 15 15 15
11.625000000000 17.148437500000 6.607997894287 21 21 21
11.843750000000 17.031250000000 6.401996612549 119 119 119
11.812500000000 17.039062500000 6.364002227783 17 17 17
11.500000000000 17.242187500000 6.429996490479 67 67 67
11.468750000000 17.234375000000 6.383998870850 97 97 97
11.750000000000 16.898437500000 7.531002044678 18 18 18
11.468750000000 17.070312500000 7.569995880127 9 9 9
11.843750000000 16.828125000000 6.473995208740 74 74 74
11.812500000000 16.835937500000 6.434001922607 120 120 120
11.812500000000 16.851562500000 6.387996673584 134 134 134
11.468750000000 17.054687500000 6.413997650146 117 117 117
11.437500000000 17.054687500000 6.369998931885 10 10 10
11.750000000000 16.703125000000 7.457996368408 16 16 16
11.812500000000 16.656250000000 6.416996002197 92 92 92
11.781250000000 16.671875000000 6.385997772217 107 107 107
11.531250000000 16.820312500000 6.410999298096 88 88 88
11.500000000000 16.835937500000 6.378002166748 107 107 107
11.812500000000 16.460937500000 6.399997711182 120 120 120
11.562500000000 16.601562500000 6.422000885010 22 22 22
11.468750000000 16.664062500000 6.414997100830 108 108 108
11.437500000000 16.679687500000 6.376995086670 70 70 70
11.406250000000 16.515625000000 7.393001556396 20 20 20
11.781250000000 16.289062500000 6.432994842529 63 63 63
11.781250000000 16.289062500000 6.387996673584 101 101 101
11.437500000000 16.492187500000 6.454998016357 21 21 21
11.468750000000 16.484375000000 6.398998260498 131 131 131
11.437500000000 16.492187500000 6.152996063232 16 16 16
11.406250000000 16.500000000000 6.108997344971 32 32 32
11.468750000000 16.476562500000 6.042995452881 54 54 54
11.437500000000 16.476562500000 5.999996185303 68 68 68
11.468750000000 16.476562500000 5.944995880127 76 76 76
11.406250000000 16.335937500000 7.317996978760 18 18 18
11.781250000000 16.101562500000 6.415996551514 106 106 106
11.750000000000 16.117187500000 6.375995635986 30 30 30
11.437500000000 16.304687500000 6.435001373291 65 65 65
11.437500000000 16.312500000000 6.387996673584 88 88 88
11.437500000000 16.296875000000 5.929996490479 88 88 88
11.406250000000 16.132812500000 7.234996795654 19 19 19
11.781250000000 15.914062500000 6.398998260498 125 125 125
11.437500000000 16.117187500000 6.417995452881 113 113 113
11.437500000000 16.117187500000 6.368000030518 14 14 14
11.437500000000 16.101562500000 5.958995819092 12 12 12
11.406250000000 16.109375000000 5.917995452881 15 15 15
11.406250000000 15.945312500000 7.166996002197 16 16 16
11.781250000000 15.710937500000 6.427997589111 67 67 67
11.750000000000 15.726562500000 6.385997772217 101 101 101
11.406250000000 15.929687500000 6.406002044678 122 122 122
11.437500000000 15.914062500000 5.948001861572 72 72 72
11.718750000000 15.554687500000 7.052997589111 22 22 22
11.406250000000 15.757812500000 7.091999053955 16 16 16
11.750000000000 15.531250000000 6.409999847412 113 113 113
11.718750000000 15.546875000000 6.375995635986 37 37 37
11.406250000000 15.734375000000 6.430995941162 88 88 88
11.406250000000 15.734375000000 6.387996673584 76 76 76
11.406250000000 15.718750000000 5.923000335693 72 72 72
11.750000000000 15.367187500000 6.965000152588 25 25 25
11.375000000000 15.578125000000 7.020000457764 8 8 8
11.750000000000 15.335937500000 6.435001373291 45 45 45
11.750000000000 15.351562500000 6.393001556396 123 123 123
11.500000000000 15.484375000000 6.415996551514 90 90 90
11.406250000000 15.539062500000 6.408000946045 127 127 127
11.406250000000 15.539062500000 5.953998565674 57 57 57
11.718750000000 15.179687500000 6.896999359131 22 22 22
11.750000000000 15.156250000000 6.416996002197 102 102 102
11.718750000000 15.179687500000 6.381000518799 89 89 89
11.406250000000 15.351562500000 6.438999176025 51 51 51
11.406250000000 15.359375000000 6.388996124268 108 108 108
11.406250000000 15.351562500000 5.935001373291 89 89 89
11.718750000000 14.984375000000 6.817996978760 19 19 19
11.718750000000 14.976562500000 6.407001495361 126 126 126
11.406250000000 15.148437500000 6.413997650146 110 110 110
11.375000000000 15.187500000000 6.380001068115 50 50 50
11.375000000000 15.164062500000 5.914997100830 68 68 68
11.718750000000 14.796875000000 6.753002166748 28 28 28
11.687500000000 14.789062500000 6.396999359131 129 129 129
11.375000000000 14.976562500000 6.404994964600 120 120 120
11.343750000000 15.007812500000 6.378002166748 78 78 78
11.343750000000 15.007812500000 6.320995330811 63 63 63
11.343750000000 14.992187500000 6.268001556396 45 45 45
11.343750000000 14.992187500000 6.210994720459 35 35 35
11.343750000000 14.992187500000 6.160999298096 108 108 108
11.375000000000 14.984375000000 6.106998443604 196 196 196
11.375000000000 14.976562500000 6.053997039795 201 201 201
11.375000000000 14.976562500000 6.003002166748 205 205 205
11.375000000000 14.976562500000 5.948001861572 190 190 190
11.375000000000 14.976562500000 5.898998260498 65 65 65
11.718750000000 14.601562500000 6.675998687744 16 16 16
11.312500000000 14.828125000000 6.781002044678 8 8 8
11.718750000000 14.601562500000 6.423000335693 105 105 105
11.687500000000 14.609375000000 6.381999969482 71 71 71
11.375000000000 14.789062500000 6.434001922607 70 70 70
11.343750000000 14.789062500000 6.393001556396 90 90 90
11.343750000000 14.804687500000 6.137996673584 182 182 182
11.343750000000 14.789062500000 6.087001800537 172 172 172
11.375000000000 14.789062500000 6.032001495361 177 177 177
11.375000000000 14.789062500000 5.980998992920 197 197 197
11.343750000000 14.789062500000 5.932994842529 137 137 137
11.281250000000 14.648437500000 6.712001800537 19 19 19
11.687500000000 14.414062500000 6.408000946045 129 129 129
11.343750000000 14.609375000000 6.416996002197 121 121 121
11.312500000000 14.617187500000 6.173000335693 73 73 73
11.343750000000 14.609375000000 6.116001129150 185 185 185
11.343750000000 14.609375000000 6.063999176025 161 161 161
11.343750000000 14.601562500000 6.010997772217 170 170 170
11.375000000000 14.601562500000 5.955997467041 199 199 199
11.375000000000 14.593750000000 5.904994964600 68 68 68
11.750000000000 14.210937500000 6.564998626709 74 74 74
11.718750000000 14.218750000000 6.523998260498 74 74 74
11.687500000000 14.234375000000 6.438999176025 84 84 84
11.687500000000 14.234375000000 6.387996673584 117 117 117
11.562500000000 14.304687500000 6.402996063232 60 60 60
11.343750000000 14.414062500000 6.446994781494 14 14 14
11.343750000000 14.429687500000 6.401996612549 120 120 120
11.312500000000 14.437500000000 6.148998260498 156 156 156
11.343750000000 14.429687500000 6.096996307373 168 168 168
11.343750000000 14.421875000000 6.041996002197 195 195 195
11.343750000000 14.414062500000 5.984996795654 201 201 201
11.343750000000 14.414062500000 5.938999176025 167 167 167
11.718750000000 14.015625000000 6.497997283936 40 40 40
11.718750000000 14.031250000000 6.453998565674 92 92 92
11.687500000000 14.023437500000 6.404994964600 130 130 130
11.500000000000 14.132812500000 6.448001861572 108 108 108
11.343750000000 14.226562500000 6.423000335693 93 93 93
11.312500000000 14.242187500000 6.387996673584 72 72 72
11.343750000000 14.242187500000 6.175998687744 15 15 15
11.343750000000 14.242187500000 6.126995086670 188 188 188
11.343750000000 14.242187500000 6.075000762939 175 175 175
11.343750000000 14.226562500000 6.020999908447 164 164 164
11.343750000000 14.226562500000 5.967998504639 201 201 201
11.343750000000 14.226562500000 5.920001983643 107 107 107
11.656250000000 13.851562500000 6.400997161865 125 125 125
11.468750000000 13.968750000000 6.449001312256 19 19 19
11.406250000000 14.007812500000 6.427997589111 102 102 102
11.375000000000 14.015625000000 6.386997222900 101 101 101
11.312500000000 14.054687500000 6.159000396729 116 116 116
11.312500000000 14.054687500000 6.107997894287 206 206 206
11.312500000000 14.054687500000 6.056995391846 204 204 204
11.343750000000 14.039062500000 6.001995086670 189 189 189
11.343750000000 14.039062500000 5.950000762939 190 190 190
11.312500000000 14.054687500000 5.906002044678 36 36 36
11.656250000000 13.656250000000 6.423999786377 88 88 88
11.625000000000 13.671875000000 6.385997772217 95 95 95
11.343750000000 13.851562500000 6.437000274658 35 35 35
11.312500000000 13.867187500000 6.394001007080 105 105 105
11.312500000000 13.859375000000 6.137996673584 178 178 178
11.312500000000 13.859375000000 6.085994720459 181 181 181
11.312500000000 13.851562500000 6.032001495361 175 175 175
11.312500000000 13.851562500000 5.980998992920 202 202 202
11.312500000000 13.851562500000 5.930995941162 144 144 144
11.656250000000 13.460937500000 6.404994964600 123 123 123
11.312500000000 13.671875000000 6.423999786377 109 109 109
11.281250000000 13.679687500000 6.382999420166 36 36 36
11.281250000000 13.664062500000 6.168994903564 47 47 47
11.281250000000 13.679687500000 6.118999481201 198 198 198
11.281250000000 13.664062500000 6.065998077393 199 199 199
11.281250000000 13.664062500000 6.013996124268 187 187 187
11.312500000000 13.664062500000 5.963001251221 197 197 197
11.281250000000 13.664062500000 5.912998199463 82 82 82
11.656250000000 13.289062500000 6.392002105713 122 122 122
11.312500000000 13.484375000000 6.399997711182 117 117 117
11.281250000000 13.492187500000 6.152996063232 128 128 128
11.281250000000 13.492187500000 6.105998992920 146 146 146
11.281250000000 13.484375000000 6.045001983643 181 181 181
11.281250000000 13.476562500000 5.992000579834 146 146 146
11.312500000000 13.484375000000 5.939998626709 178 178 178
11.656250000000 13.101562500000 6.418994903564 99 99 99
11.593750000000 13.125000000000 6.394001007080 94 94 94
11.312500000000 13.289062500000 6.434001922607 68 68 68
11.281250000000 13.312500000000 6.392002105713 83 83 83
11.281250000000 13.304687500000 6.131000518799 183 183 183
11.281250000000 13.304687500000 6.077999114990 165 165 165
11.281250000000 13.289062500000 6.021999359131 154 154 154
11.312500000000 13.289062500000 5.967998504639 198 198 198
11.281250000000 13.289062500000 5.920001983643 108 108 108
11.625000000000 12.914062500000 6.403995513916 125 125 125
11.375000000000 13.070312500000 6.427997589111 12 12 12
11.312500000000 13.101562500000 6.411998748779 125 125 125
11.250000000000 13.117187500000 6.163997650146 110 110 110
11.281250000000 13.117187500000 6.109996795654 181 181 181
11.281250000000 13.117187500000 6.055995941162 115 115 115
11.281250000000 13.101562500000 6.001995086670 157 157 157
11.281250000000 13.101562500000 5.950000762939 181 181 181
11.281250000000 13.101562500000 5.901996612549 22 22 22
11.593750000000 12.718750000000 6.434001922607 54 54 54
11.593750000000 12.726562500000 6.383998870850 99 99 99
11.281250000000 12.914062500000 6.437999725342 18 18 18
11.281250000000 12.921875000000 6.394001007080 109 109 109
11.281250000000 12.929687500000 6.139995574951 167 167 167
11.281250000000 12.921875000000 6.084995269775 202 202 202
11.281250000000 12.914062500000 6.032001495361 204 204 204
11.281250000000 12.914062500000 5.979999542236 201 201 201
11.281250000000 12.914062500000 5.926998138428 136 136 136
11.593750000000 12.539062500000 6.413997650146 114 114 114
11.562500000000 12.554687500000 6.378002166748 22 22 22
11.250000000000 12.742187500000 6.423000335693 96 96 96
11.250000000000 12.742187500000 6.379001617432 129 129 129
11.250000000000 12.750000000000 6.332996368408 98 98 98
11.218750000000 12.757812500000 6.283000946045 91 91 91
11.250000000000 12.750000000000 6.229000091553 89 89 89
11.250000000000 12.742187500000 6.173999786377 75 75 75
11.250000000000 12.742187500000 6.117000579834 68 68 68
11.250000000000 12.742187500000 6.062999725342 62 62 62
11.250000000000 12.742187500000 6.010997772217 43 43 43
11.250000000000 12.726562500000 5.956996917725 33 33 33
11.593750000000 12.351562500000 6.402996063232 123 123 123
11.218750000000 12.554687500000 6.411998748779 114 114 114
11.250000000000 12.531250000000 5.937000274658 85 85 85
11.562500000000 12.164062500000 6.437000274658 69 69 69
11.562500000000 12.164062500000 6.385997772217 88 88 88
11.250000000000 12.359375000000 6.438999176025 36 36 36
11.250000000000 12.359375000000 6.390995025635 92 92 92
11.250000000000 12.343750000000 5.915996551514 60 60 60
11.562500000000 11.968750000000 6.414997100830 113 113 113
11.531250000000 12.007812500000 6.390995025635 32 32 32
11.250000000000 12.179687500000 6.422000885010 101 101 101
11.218750000000 12.187500000000 6.381999969482 25 25 25
11.281250000000 12.156250000000 5.944995880127 45 45 45
11.562500000000 11.789062500000 6.444995880127 14 14 14
11.531250000000 11.789062500000 6.401996612549 117 117 117
11.312500000000 11.945312500000 6.421001434326 79 79 79
11.218750000000 11.992187500000 6.404994964600 131 131 131
11.250000000000 11.968750000000 5.928997039795 88 88 88
11.562500000000 11.593750000000 6.428997039795 96 96 96
11.531250000000 11.601562500000 6.383998870850 71 71 71
11.218750000000 11.804687500000 6.437000274658 83 83 83
11.187500000000 11.804687500000 6.389995574951 83 83 83
11.250000000000 11.773437500000 6.007999420166 10 10 10
11.250000000000 11.773437500000 5.957996368408 50 50 50
11.218750000000 11.789062500000 5.911998748779 29 29 29
11.562500000000 11.406250000000 6.410999298096 119 119 119
11.187500000000 11.617187500000 6.420001983643 110 110 110
11.218750000000 11.585937500000 5.944995880127 59 59 59
11.531250000000 11.226562500000 6.450000762939 16 16 16
11.531250000000 11.226562500000 6.397998809814 121 121 121
11.187500000000 11.429687500000 6.404994964600 124 124 124
11.531250000000 11.039062500000 6.428997039795 80 80 80
11.500000000000 11.046875000000 6.387996673584 81 81 81
11.187500000000 11.234375000000 6.436000823975 58 58 58
11.187500000000 11.242187500000 6.387996673584 82 82 82
11.156250000000 11.242187500000 6.130001068115 185 185 185
11.187500000000 11.242187500000 6.075000762939 198 198 198
11.187500000000 11.234375000000 6.021999359131 197 197 197
11.187500000000 11.226562500000 5.966999053955 197 197 197
11.156250000000 11.242187500000 5.921001434326 100 100 100
11.531250000000 10.851562500000 6.407001495361 117 117 117
11.187500000000 11.039062500000 6.414997100830 109 109 109
11.156250000000 11.062500000000 6.162998199463 130 130 130
11.156250000000 11.054687500000 6.107997894287 174 174 174
11.187500000000 11.054687500000 6.051998138428 201 201 201
11.187500000000 11.039062500000 5.998996734619 200 200 200
11.187500000000 11.039062500000 5.948001861572 172 172 172
11.531250000000 10.656250000000 6.437000274658 56 56 56
11.500000000000 10.679687500000 6.395999908447 104 104 104
11.343750000000 10.765625000000 6.425998687744 37 37 37
11.218750000000 10.828125000000 6.421001434326 100 100 100
11.156250000000 10.867187500000 6.396999359131 104 104 104
11.156250000000 10.867187500000 6.139995574951 178 178 178
11.156250000000 10.867187500000 6.085994720459 132 132 132
11.156250000000 10.867187500000 6.034999847412 174 174 174
11.156250000000 10.867187500000 5.981998443604 194 194 194
11.156250000000 10.851562500000 5.924999237061 118 118 118
11.500000000000 10.476562500000 6.430995941162 107 107 107
11.500000000000 10.492187500000 6.383998870850 21 21 21
11.156250000000 10.671875000000 6.429996490479 93 93 93
11.125000000000 10.695312500000 6.394001007080 24 24 24
11.125000000000 10.679687500000 6.177997589111 80 80 80
11.125000000000 10.679687500000 6.123996734619 194 194 194
11.125000000000 10.679687500000 6.069995880127 193 193 193
11.125000000000 10.679687500000 6.019001007080 156 156 156
11.125000000000 10.664062500000 5.960994720459 188 188 188
11.156250000000 10.671875000000 5.909999847412 42 42 42
11.500000000000 10.273437500000 6.452999114990 80 80 80
11.468750000000 10.289062500000 6.413997650146 131 131 131
11.156250000000 10.476562500000 6.411998748779 113 113 113
11.125000000000 10.507812500000 6.163997650146 156 156 156
11.125000000000 10.492187500000 6.109996795654 116 116 116
11.125000000000 10.492187500000 6.054996490479 160 160 160
11.156250000000 10.484375000000 5.997997283936 191 191 191
11.156250000000 10.484375000000 5.946994781494 157 157 157
11.500000000000 10.085937500000 6.534000396729 90 90 90
11.500000000000 10.101562500000 6.491001129150 84 84 84
11.468750000000 10.085937500000 6.441997528076 67 67 67
11.437500000000 10.117187500000 6.407001495361 110 110 110
11.281250000000 10.210937500000 6.430995941162 64 64 64
11.250000000000 10.226562500000 6.393001556396 88 88 88
11.125000000000 10.289062500000 6.394001007080 66 66 66
11.125000000000 10.312500000000 6.196994781494 11 11 11
11.125000000000 10.304687500000 6.140995025635 189 189 189
11.125000000000 10.304687500000 6.087001800537 172 172 172
11.125000000000 10.296875000000 6.033000946045 165 165 165
11.125000000000 10.289062500000 5.977001190186 193 193 193
11.125000000000 10.289062500000 5.923999786377 92 92 92
11.468750000000 9.914062500000 6.580997467041 21 21 21
11.468750000000 9.914062500000 6.421001434326 119 119 119
11.156250000000 10.085937500000 6.521999359131 53 53 53
11.062500000000 10.148437500000 6.509998321533 73 73 73
11.156250000000 10.101562500000 6.423000335693 122 122 122
11.093750000000 10.117187500000 6.173000335693 137 137 137
11.093750000000 10.117187500000 6.116001129150 194 194 194
11.125000000000 10.109375000000 6.060001373291 190 190 190
11.093750000000 10.117187500000 6.010997772217 187 187 187
11.125000000000 10.101562500000 5.951999664307 146 146 146
11.468750000000 9.726562500000 6.664997100830 37 37 37
11.468750000000 9.726562500000 6.455997467041 26 26 26
11.437500000000 9.742187500000 6.409999847412 114 114 114
11.125000000000 9.914062500000 6.456996917725 32 32 32
11.125000000000 9.914062500000 6.403995513916 88 88 88
11.093750000000 9.937500000000 6.151996612549 186 186 186
11.093750000000 9.929687500000 6.095996856689 199 199 199
11.093750000000 9.929687500000 6.043994903564 188 188 188
11.125000000000 9.929687500000 5.986995697021 199 199 199
11.093750000000 9.921875000000 5.937000274658 90 90 90
11.437500000000 9.554687500000 6.712001800537 14 14 14
11.062500000000 9.765625000000 6.679996490479 12 12 12
11.468750000000 9.539062500000 6.437999725342 87 87 87
11.406250000000 9.554687500000 6.400997161865 75 75 75
11.250000000000 9.664062500000 6.427997589111 96 96 96
11.125000000000 9.718750000000 6.428997039795 112 112 112
11.062500000000 9.757812500000 6.403995513916 28 28 28
11.062500000000 9.750000000000 6.187000274658 71 71 71
11.062500000000 9.750000000000 6.133998870850 167 167 167
11.093750000000 9.742187500000 6.076000213623 188 188 188
11.093750000000 9.742187500000 6.023998260498 138 138 138
11.093750000000 9.742187500000 5.969997406006 176 176 176
11.093750000000 9.726562500000 5.912998199463 12 12 12
11.437500000000 9.359375000000 6.791996002197 34 34 34
11.062500000000 9.585937500000 6.723995208740 21 21 21
11.437500000000 9.351562500000 6.421001434326 115 115 115
11.093750000000 9.554687500000 6.424999237061 112 112 112
11.062500000000 9.570312500000 6.173000335693 152 152 152
11.062500000000 9.554687500000 6.115001678467 164 164 164
11.093750000000 9.554687500000 6.057994842529 168 168 168
11.093750000000 9.539062500000 6.000995635986 191 191 191
11.093750000000 9.554687500000 5.951000213623 132 132 132
11.406250000000 9.179687500000 6.833995819092 22 22 22
11.031250000000 9.382812500000 6.805995941162 20 20 20
11.406250000000 9.171875000000 6.406002044678 116 116 116
11.093750000000 9.351562500000 6.449001312256 55 55 55
11.093750000000 9.367187500000 6.406002044678 78 78 78
11.062500000000 9.382812500000 6.148998260498 182 182 182
11.062500000000 9.382812500000 6.095996856689 167 167 167
11.062500000000 9.367187500000 6.038997650146 171 171 171
11.093750000000 9.359375000000 5.981998443604 191 191 191
11.093750000000 9.359375000000 5.928997039795 75 75 75
11.375000000000 9.000000000000 6.928997039795 26 26 26
11.406250000000 8.992187500000 6.438999176025 103 103 103
11.375000000000 9.000000000000 6.396999359131 24 24 24
11.062500000000 9.179687500000 6.435001373291 113 113 113
11.031250000000 9.195312500000 6.180995941162 161 161 161
11.031250000000 9.195312500000 6.128002166748 192 192 192
11.062500000000 9.179687500000 6.067996978760 194 194 194
11.062500000000 9.179687500000 6.011997222900 184 184 184
11.093750000000 9.164062500000 5.954998016357 124 124 124
11.031250000000 9.023437500000 6.935001373291 24 24 24
11.406250000000 8.804687500000 6.415996551514 122 122 122
11.093750000000 8.976562500000 6.458995819092 71 71 71
11.031250000000 8.992187500000 6.420001983643 57 57 57
11.093750000000 8.976562500000 5.982997894287 59 59 59
11.062500000000 8.984375000000 5.937999725342 12 12 12
11.375000000000 8.632812500000 7.055995941162 29 29 29
11.000000000000 8.835937500000 7.023998260498 24 24 24
11.406250000000 8.593750000000 6.441997528076 64 64 64
11.375000000000 8.617187500000 6.407001495361 92 92 92
11.062500000000 8.789062500000 6.443996429443 113 113 113
11.062500000000 8.789062500000 5.966999053955 100 100 100
11.031250000000 8.648437500000 7.063999176025 14 14 14
11.375000000000 8.414062500000 6.430995941162 107 107 107
11.312500000000 8.460937500000 6.412998199463 77 77 77
11.125000000000 8.570312500000 6.444995880127 64 64 64
11.062500000000 8.617187500000 6.426998138428 119 119 119
11.062500000000 8.593750000000 5.939998626709 45 45 45
11.343750000000 8.257812500000 7.194995880127 32 32 32
11.000000000000 8.453125000000 7.157001495361 21 21 21
11.406250000000 8.210937500000 6.451999664307 12 12 12
11.375000000000 8.242187500000 6.416996002197 124 124 124
11.062500000000 8.414062500000 6.454998016357 61 61 61
11.031250000000 8.429687500000 6.413997650146 90 90 90
11.062500000000 8.414062500000 5.975002288818 87 87 87
11.000000000000 8.257812500000 7.242000579834 10 10 10
11.406250000000 8.023437500000 6.479000091553 18 18 18
11.375000000000 8.039062500000 6.434001922607 118 118 118
11.375000000000 8.046875000000 6.394001007080 110 110 110
11.031250000000 8.234375000000 6.437999725342 117 117 117
11.000000000000 8.257812500000 6.397998809814 18 18 18
11.062500000000 8.218750000000 5.946994781494 92 92 92
11.312500000000 7.882812500000 7.319995880127 38 38 38
10.968750000000 8.085937500000 7.284999847412 23 23 23
11.343750000000 7.867187500000 6.423999786377 128 128 128
11.031250000000 8.046875000000 6.465999603271 19 19 19
11.000000000000 8.054687500000 6.420001983643 129 129 129
11.062500000000 8.023437500000 5.975002288818 31 31 31
11.281250000000 7.718750000000 7.378002166748 24 24 24
10.968750000000 7.898437500000 7.378002166748 14 14 14
11.312500000000 7.679687500000 6.460994720459 14 14 14
11.312500000000 7.679687500000 6.411998748779 112 112 112
11.000000000000 7.867187500000 6.454998016357 25 25 25
11.000000000000 7.867187500000 6.406002044678 96 96 96
11.031250000000 7.851562500000 5.963001251221 89 89 89
11.281250000000 7.523437500000 7.472995758057 29 29 29
10.968750000000 7.710937500000 7.427997589111 23 23 23
11.343750000000 7.492187500000 6.443996429443 87 87 87
11.312500000000 7.492187500000 6.397998809814 62 62 62
10.968750000000 7.679687500000 6.437999725342 110 110 110
10.968750000000 7.687500000000 6.388996124268 112 112 112
10.968750000000 7.703125000000 6.345996856689 95 95 95
10.968750000000 7.695312500000 6.287998199463 100 100 100
10.968750000000 7.695312500000 6.230998992920 103 103 103
10.968750000000 7.679687500000 6.171001434326 116 116 116
11.000000000000 7.679687500000 6.108997344971 124 124 124
11.000000000000 7.664062500000 6.052997589111 129 129 129
11.031250000000 7.664062500000 5.995998382568 120 120 120
11.031250000000 7.648437500000 5.938999176025 108 108 108
11.250000000000 7.351562500000 7.517002105713 29 29 29
10.968750000000 7.507812500000 7.512996673584 19 19 19
11.312500000000 7.304687500000 6.426998138428 124 124 124
11.000000000000 7.492187500000 6.421001434326 114 114 114
11.000000000000 7.492187500000 6.145999908447 182 182 182
11.000000000000 7.492187500000 6.085994720459 199 199 199
11.000000000000 7.492187500000 6.035999298096 192 192 192
11.031250000000 7.476562500000 5.976001739502 194 194 194
11.031250000000 7.468750000000 5.922000885010 51 51 51
11.218750000000 7.164062500000 7.614002227783 17 17 17
10.906250000000 7.351562500000 7.573001861572 10 10 10
11.281250000000 7.117187500000 6.454998016357 67 67 67
11.281250000000 7.132812500000 6.418994903564 125 125 125
11.187500000000 7.195312500000 6.403995513916 103 103 103
11.031250000000 7.281250000000 6.421001434326 83 83 83
10.968750000000 7.320312500000 6.403995513916 81 81 81
10.968750000000 7.320312500000 6.181995391846 87 87 87
10.968750000000 7.320312500000 6.122997283936 177 177 177
10.968750000000 7.304687500000 6.065998077393 171 171 171
11.000000000000 7.304687500000 6.009998321533 199 199 199
11.031250000000 7.289062500000 5.946994781494 155 155 155
11.218750000000 6.992187500000 7.657001495361 26 26 26
10.937500000000 7.148437500000 7.650997161865 18 18 18
11.125000000000 7.023437500000 6.568996429443 67 67 67
11.281250000000 6.929687500000 6.438999176025 114 114 114
11.281250000000 6.937500000000 6.389995574951 15 15 15
10.937500000000 7.132812500000 6.430995941162 102 102 102
10.875000000000 7.164062500000 6.404994964600 12 12 12
10.937500000000 7.132812500000 6.162998199463 164 164 164
10.937500000000 7.132812500000 6.106998443604 155 155 155
10.968750000000 7.117187500000 6.043994903564 157 157 157
11.000000000000 7.117187500000 5.989002227783 193 193 193
11.000000000000 7.101562500000 5.931995391846 89 89 89
10.906250000000 6.960937500000 7.701000213623 11 11 11
11.093750000000 6.851562500000 6.671001434326 17 17 17
11.281250000000 6.750000000000 6.421001434326 114 114 114
10.937500000000 6.953125000000 6.414997100830 110 110 110
10.937500000000 6.945312500000 6.139995574951 185 185 185
10.968750000000 6.929687500000 6.080997467041 179 179 179
10.968750000000 6.929687500000 6.026996612549 171 171 171
10.968750000000 6.921875000000 5.968997955322 185 185 185
10.968750000000 6.914062500000 5.915996551514 25 25 25
11.187500000000 6.617187500000 7.804996490479 23 23 23
10.937500000000 6.773437500000 7.787998199463 22 22 22
11.062500000000 6.679687500000 6.769001007080 34 34 34
11.281250000000 6.554687500000 6.451999664307 54 54 54
11.250000000000 6.562500000000 6.409999847412 91 91 91
10.937500000000 6.757812500000 6.446994781494 49 49 49
10.906250000000 6.765625000000 6.400997161865 79 79 79
10.906250000000 6.757812500000 6.179996490479 96 96 96
10.906250000000 6.757812500000 6.124996185303 177 177 177
10.937500000000 6.742187500000 6.062999725342 159 159 159
10.937500000000 6.742187500000 6.011997222900 168 168 168
10.937500000000 6.734375000000 5.952999114990 158 158 158
11.156250000000 6.445312500000 7.855998992920 14 14 14
11.031250000000 6.492187500000 6.865001678467 30 30 30
11.250000000000 6.367187500000 6.436000823975 116 116 116
10.906250000000 6.570312500000 6.427997589111 113 113 113
10.906250000000 6.570312500000 6.159999847412 175 175 175
10.906250000000 6.570312500000 6.103000640869 152 152 152
10.937500000000 6.554687500000 6.041996002197 168 168 168
10.968750000000 6.554687500000 5.984996795654 191 191 191
10.968750000000 6.554687500000 5.931995391846 70 70 70
11.187500000000 6.242187500000 7.939998626709 26 26 26
10.906250000000 6.406250000000 7.935001373291 17 17 17
11.250000000000 6.195312500000 6.467998504639 54 54 54
11.218750000000 6.195312500000 6.422000885010 96 96 96
10.906250000000 6.390625000000 6.460994720459 65 65 65
10.875000000000 6.398437500000 6.409999847412 100 100 100
10.875000000000 6.414062500000 6.369998931885 83 83 83
10.875000000000 6.398437500000 6.307994842529 65 65 65
10.875000000000 6.398437500000 6.253002166748 51 51 51
10.875000000000 6.398437500000 6.191997528076 107 107 107
10.906250000000 6.382812500000 6.131999969482 174 174 174
10.906250000000 6.382812500000 6.076999664307 169 169 169
10.906250000000 6.375000000000 6.021999359131 176 176 176
10.937500000000 6.367187500000 5.962001800537 155 155 155
11.125000000000 6.085937500000 8.006000518799 25 25 25
11.062500000000 6.117187500000 7.089000701904 18 18 18
11.218750000000 6.007812500000 6.449001312256 100 100 100
11.156250000000 6.039062500000 6.418994903564 66 66 66
11.031250000000 6.132812500000 6.434001922607 60 60 60
10.906250000000 6.195312500000 6.432994842529 94 94 94
10.843750000000 6.226562500000 6.395000457764 17 17 17
10.875000000000 6.218750000000 6.172000885010 146 146 146
10.875000000000 6.203125000000 6.114002227783 162 162 162
10.906250000000 6.195312500000 6.052997589111 187 187 187
10.906250000000 6.195312500000 5.999996185303 184 184 184
10.906250000000 6.195312500000 5.948001861572 112 112 112
10.906250000000 6.031250000000 8.071994781494 26 26 26
11.000000000000 5.945312500000 7.202999114990 30 30 30
11.218750000000 5.812500000000 6.427997589111 113 113 113
10.875000000000 6.023437500000 6.424999237061 119 119 119
10.843750000000 6.023437500000 6.152996063232 184 184 184
10.875000000000 6.023437500000 6.094997406006 157 157 157
10.875000000000 6.007812500000 6.037998199463 167 167 167
10.906250000000 6.007812500000 5.979000091553 190 190 190
10.875000000000 6.007812500000 5.929996490479 32 32 32
11.125000000000 5.695312500000 8.144001007080 21 21 21
11.000000000000 5.742187500000 7.295001983643 31 31 31
11.187500000000 5.632812500000 6.469997406006 49 49 49
11.187500000000 5.632812500000 6.416996002197 90 90 90
10.875000000000 5.835937500000 6.455997467041 62 62 62
10.843750000000 5.835937500000 6.407001495361 76 76 76
10.843750000000 5.835937500000 6.189998626709 56 56 56
10.843750000000 5.835937500000 6.136997222900 185 185 185
10.843750000000 5.835937500000 6.077999114990 173 173 173
10.875000000000 5.820312500000 6.019001007080 176 176 176
10.875000000000 5.820312500000 5.964000701904 156 156 156
11.093750000000 5.515625000000 8.193996429443 18 18 18
10.906250000000 5.648437500000 8.214000701904 16 16 16
11.000000000000 5.562500000000 7.389995574951 28 28 28
11.187500000000 5.445312500000 6.446994781494 112 112 112
10.843750000000 5.648437500000 6.437999725342 114 114 114
10.812500000000 5.664062500000 6.171001434326 156 156 156
10.843750000000 5.648437500000 6.109996795654 158 158 158
10.843750000000 5.648437500000 6.055995941162 164 164 164
10.875000000000 5.632812500000 5.992000579834 189 189 189
10.875000000000 5.632812500000 5.935001373291 73 73 73
11.093750000000 5.335937500000 8.292995452881 15 15 15
10.843750000000 5.476562500000 8.265995025635 6 6 6
10.968750000000 5.382812500000 7.485996246338 32 32 32
11.187500000000 5.265625000000 6.479000091553 28 28 28
11.156250000000 5.273437500000 6.426998138428 105 105 105
10.843750000000 5.468750000000 6.466999053955 60 60 60
10.843750000000 5.476562500000 6.414997100830 112 112 112
10.781250000000 5.492187500000 6.374996185303 93 93 93
10.812500000000 5.492187500000 6.313999176025 83 83 83
10.812500000000 5.476562500000 6.256999969482 82 82 82
10.812500000000 5.476562500000 6.201999664307 82 82 82
10.812500000000 5.476562500000 6.147998809814 68 68 68
10.843750000000 5.460937500000 6.082996368408 55 55 55
10.812500000000 5.460937500000 6.032001495361 34 34 34
10.875000000000 5.445312500000 5.964000701904 95 95 95
11.062500000000 5.164062500000 8.340999603271 19 19 19
10.875000000000 5.273437500000 8.357997894287 16 16 16
10.968750000000 5.210937500000 7.594997406006 18 18 18
11.156250000000 5.085937500000 6.455997467041 111 111 111
10.812500000000 5.289062500000 6.450000762939 111 111 111
10.843750000000 5.257812500000 5.940998077393 37 37 37
11.031250000000 4.976562500000 8.402996063232 13 13 13
10.843750000000 5.085937500000 8.400997161865 18 18 18
10.937500000000 5.023437500000 7.699001312256 14 14 14
11.125000000000 4.898437500000 6.493000030518 7 7 7
11.125000000000 4.898437500000 6.439998626709 115 115 115
11.000000000000 4.992187500000 6.451000213623 50 50 50
10.875000000000 5.070312500000 6.457996368408 58 58 58
10.812500000000 5.093750000000 6.423000335693 102 102 102
10.812500000000 5.085937500000 6.202999114990 13 13 13
10.812500000000 5.085937500000 6.148998260498 33 33 33
10.843750000000 5.085937500000 6.084995269775 51 51 51
10.812500000000 5.078125000000 6.033000946045 70 70 70
10.843750000000 5.070312500000 5.972995758057 98 98 98
11.062500000000 4.789062500000 8.500995635986 21 21 21
10.843750000000 4.898437500000 8.506000518799 18 18 18
10.937500000000 4.851562500000 7.807994842529 5 5 5
11.125000000000 4.710937500000 6.479000091553 103 103 103
11.125000000000 4.710937500000 6.425998687744 35 35 35
10.781250000000 4.914062500000 6.460994720459 94 94 94
10.781250000000 4.914062500000 6.409000396729 11 11 11
10.843750000000 4.882812500000 5.951999664307 52 52 52
11.031250000000 4.617187500000 8.556995391846 20 20 20
10.843750000000 4.718750000000 8.560001373291 20 20 20
11.125000000000 4.539062500000 6.456996917725 109 109 109
10.781250000000 4.726562500000 6.491001129150 14 14 14
10.781250000000 4.726562500000 6.435001373291 100 100 100
10.812500000000 4.710937500000 5.987995147705 81 81 81
10.843750000000 4.523437500000 8.654994964600 11 11 11
11.093750000000 4.351562500000 6.487995147705 96 96 96
11.093750000000 4.343750000000 6.429996490479 32 32 32
10.781250000000 4.539062500000 6.463001251221 104 104 104
10.781250000000 4.539062500000 5.968997955322 49 49 49
11.000000000000 4.242187500000 8.712001800537 22 22 22
10.812500000000 4.351562500000 8.709995269775 17 17 17
11.093750000000 4.164062500000 6.460994720459 113 113 113
10.750000000000 4.367187500000 6.504001617432 8 8 8
10.750000000000 4.351562500000 6.444995880127 99 99 99
10.781250000000 4.343750000000 5.997997283936 69 69 69
10.968750000000 4.070312500000 8.762996673584 18 18 18
11.093750000000 3.976562500000 6.496997833252 80 80 80
11.093750000000 3.976562500000 6.451000213623 60 60 60
10.750000000000 4.179687500000 6.484996795654 97 97 97
10.718750000000 4.195312500000 6.441997528076 22 22 22
10.781250000000 4.164062500000 5.978000640869 77 77 77
10.781250000000 3.976562500000 8.861995697021 15 15 15
11.062500000000 3.796875000000 6.481998443604 115 115 115
10.937500000000 3.867187500000 6.482997894287 43 43 43
10.718750000000 3.992187500000 6.465000152588 104 104 104
10.937500000000 3.695312500000 8.932994842529 15 15 15
10.781250000000 3.789062500000 8.909999847412 17 17 17
10.843750000000 3.742187500000 8.445995330811 11 11 11
11.062500000000 3.617187500000 6.513996124268 79 79 79
11.062500000000 3.601562500000 6.458995819092 54 54 54
10.718750000000 3.804687500000 6.495998382568 96 96 96
10.718750000000 3.812500000000 6.448001861572 10 10 10
10.906250000000 3.507812500000 8.978000640869 19 19 19
10.781250000000 3.601562500000 9.017002105713 11 11 11
10.843750000000 3.554687500000 8.563999176025 20 20 20
11.031250000000 3.429687500000 6.491001129150 115 115 115
10.718750000000 3.617187500000 6.528995513916 8 8 8
10.687500000000 3.617187500000 6.477001190186 102 102 102
10.906250000000 3.335937500000 9.025997161865 7 7 7
10.781250000000 3.414062500000 9.066997528076 16 16 16
10.843750000000 3.375000000000 8.668994903564 23 23 23
11.031250000000 3.242187500000 6.526996612549 76 76 76
11.000000000000 3.242187500000 6.479000091553 62 62 62
10.687500000000 3.429687500000 6.508998870850 97 97 97
10.843750000000 3.195312500000 8.775997161865 38 38 38
11.000000000000 3.054687500000 6.501995086670 117 117 117
10.687500000000 3.242187500000 6.487995147705 107 107 107
10.875000000000 2.976562500000 9.206996917725 15 15 15
10.781250000000 3.023437500000 9.215000152588 12 12 12
10.812500000000 3.007812500000 8.892002105713 17 17 17
11.031250000000 2.867187500000 6.537998199463 68 68 68
11.000000000000 2.867187500000 6.486995697021 70 70 70
10.656250000000 3.062500000000 6.524997711182 100 100 100
10.656250000000 3.078125000000 6.479999542236 16 16 16
10.875000000000 2.789062500000 9.249996185303 19 19 19
10.718750000000 2.851562500000 9.283000946045 12 12 12
10.812500000000 2.820312500000 9.008998870850 16 16 16
11.000000000000 2.679687500000 6.517002105713 113 113 113
10.656250000000 2.875000000000 6.501995086670 103 103 103
10.781250000000 2.632812500000 9.351001739502 9 9 9
10.812500000000 2.632812500000 9.121997833252 10 10 10
10.968750000000 2.492187500000 6.548000335693 77 77 77
10.968750000000 2.523437500000 6.507999420166 69 69 69
10.656250000000 2.679687500000 6.525997161865 110 110 110
10.625000000000 2.703125000000 6.485996246338 8 8 8
10.843750000000 2.421875000000 9.425998687744 85 85 85
10.750000000000 2.476562500000 9.437000274658 100 100 100
10.781250000000 2.445312500000 9.243000030518 60 60 60
10.781250000000 2.460937500000 9.193996429443 12 12 12
11.000000000000 2.296875000000 6.512996673584 109 109 109
11.000000000000 2.281250000000 6.451999664307 63 63 63
10.625000000000 2.507812500000 6.512996673584 101 101 101
10.875000000000 2.312500000000 1.597000122070 192 192 192
10.968750000000 2.242187500000 1.572998046875 131 131 131
11.125000000000 2.164062500000 1.555999755859 136 136 136
11.093750000000 2.179687500000 1.501998901367 136 136 136
11.125000000000 2.164062500000 1.458999633789 135 135 135
10.812500000000 2.242187500000 9.562000274658 70 70 70
10.812500000000 2.242187500000 9.494998931885 96 96 96
10.812500000000 2.242187500000 9.423000335693 110 110 110
10.812500000000 2.242187500000 9.337001800537 104 104 104
10.812500000000 2.242187500000 9.271999359131 123 123 123
10.812500000000 2.234375000000 9.187999725342 111 111 111
10.812500000000 2.234375000000 9.117000579834 109 109 109
10.812500000000 2.234375000000 9.045001983643 115 115 115
10.812500000000 2.234375000000 8.966999053955 109 109 109
10.812500000000 2.234375000000 8.901996612549 115 115 115
10.812500000000 2.234375000000 8.829998016357 121 121 121
10.812500000000 2.234375000000 8.758998870850 115 115 115
10.812500000000 2.234375000000 8.690998077393 120 120 120
10.812500000000 2.234375000000 8.621997833252 118 118 118
10.812500000000 2.226562500000 8.548999786377 117 117 117
10.812500000000 2.234375000000 8.484996795654 115 115 115
10.812500000000 2.234375000000 8.417995452881 119 119 119
10.812500000000 2.226562500000 8.342998504639 124 124 124
10.812500000000 2.226562500000 8.282001495361 120 120 120
10.812500000000 2.226562500000 8.219997406006 120 120 120
10.812500000000 2.226562500000 8.147998809814 127 127 127
10.812500000000 2.226562500000 8.083995819092 127 127 127
10.812500000000 2.218750000000 8.015995025635 128 128 128
10.812500000000 2.218750000000 7.952999114990 131 131 131
10.812500000000 2.218750000000 7.888996124268 128 128 128
10.812500000000 2.218750000000 7.826000213623 131 131 131
10.843750000000 2.210937500000 7.757999420166 129 129 129
10.812500000000 2.218750000000 7.700000762939 132 132 132
10.812500000000 2.218750000000 7.636997222900 131 131 131
10.812500000000 2.226562500000 7.577999114990 128 128 128
10.812500000000 2.218750000000 7.513996124268 132 132 132
10.812500000000 2.226562500000 7.455997467041 134 134 134
10.812500000000 2.210937500000 7.395000457764 135 135 135
10.812500000000 2.210937500000 7.333995819092 139 139 139
10.812500000000 2.210937500000 7.273998260498 133 133 133
10.843750000000 2.210937500000 7.201000213623 130 130 130
10.843750000000 2.203125000000 7.145000457764 136 136 136
10.812500000000 2.226562500000 7.098995208740 132 132 132
10.812500000000 2.226562500000 7.039997100830 130 130 130
10.812500000000 2.210937500000 6.979000091553 130 130 130
10.812500000000 2.210937500000 6.921001434326 132 132 132
10.812500000000 2.226562500000 6.866001129150 133 133 133
10.812500000000 2.226562500000 6.806995391846 132 132 132
10.781250000000 2.226562500000 6.756000518799 138 138 138
10.781250000000 2.226562500000 6.699001312256 135 135 135
10.906250000000 2.171875000000 6.600002288818 129 129 129
10.906250000000 2.164062500000 6.538997650146 126 126 126
10.781250000000 2.218750000000 6.524997711182 143 143 143
10.812500000000 2.210937500000 6.464000701904 138 138 138
10.781250000000 2.234375000000 6.420001983643 140 140 140
10.781250000000 2.226562500000 6.360996246338 137 137 137
10.781250000000 2.218750000000 6.302997589111 138 138 138
10.781250000000 2.226562500000 6.254001617432 128 128 128
10.781250000000 2.218750000000 6.193996429443 140 140 140
10.843750000000 2.195312500000 6.118999481201 141 141 141
10.812500000000 2.195312500000 6.074001312256 135 135 135
10.781250000000 2.218750000000 6.031002044678 131 131 131
10.781250000000 2.226562500000 5.978000640869 128 128 128
10.781250000000 2.226562500000 5.926998138428 132 132 132
10.781250000000 2.226562500000 5.870998382568 131 131 131
10.781250000000 2.226562500000 5.821994781494 138 138 138
10.781250000000 2.226562500000 5.767002105713 138 138 138
10.750000000000 2.226562500000 5.716999053955 138 138 138
10.750000000000 2.242187500000 5.667995452881 132 132 132
10.750000000000 2.226562500000 5.612995147705 134 134 134
10.750000000000 2.242187500000 5.561000823975 132 132 132
10.812500000000 2.195312500000 5.487995147705 135 135 135
10.843750000000 2.179687500000 5.429996490479 135 135 135
10.843750000000 2.179687500000 5.378002166748 147 147 147
10.781250000000 2.218750000000 5.340000152588 130 130 130
10.750000000000 2.242187500000 5.301998138428 131 131 131
10.750000000000 2.242187500000 5.249996185303 128 128 128
10.750000000000 2.242187500000 5.199001312256 136 136 136
10.750000000000 2.242187500000 5.145999908447 135 135 135
10.750000000000 2.242187500000 5.095996856689 129 129 129
10.750000000000 2.242187500000 5.042995452881 131 131 131
10.718750000000 2.250000000000 4.993000030518 131 131 131
10.750000000000 2.242187500000 4.941997528076 125 125 125
10.750000000000 2.242187500000 4.890995025635 118 118 118
10.750000000000 2.234375000000 4.837001800537 117 117 117
10.750000000000 2.234375000000 4.785999298096 107 107 107
10.750000000000 2.234375000000 4.733997344971 107 107 107
10.750000000000 2.234375000000 4.685001373291 110 110 110
10.750000000000 2.242187500000 4.634998321533 99 99 99
10.750000000000 2.234375000000 4.583995819092 104 104 104
10.750000000000 2.234375000000 4.533000946045 93 93 93
10.750000000000 2.242187500000 4.482997894287 97 97 97
10.750000000000 2.234375000000 4.431995391846 99 99 99
10.750000000000 2.226562500000 4.381000518799 95 95 95
10.750000000000 2.234375000000 4.330997467041 101 101 101
10.843750000000 2.164062500000 4.267002105713 137 137 137
10.875000000000 2.164062500000 4.216999053955 137 137 137
10.875000000000 2.164062500000 4.166996002197 142 142 142
10.750000000000 2.210937500000 4.129001617432 112 112 112
10.750000000000 2.226562500000 4.080997467041 92 92 92
10.750000000000 2.226562500000 4.029994964600 85 85 85
10.750000000000 2.234375000000 3.981998443604 88 88 88
10.750000000000 2.234375000000 3.932994842529 85 85 85
10.750000000000 2.218750000000 3.881999969482 73 73 73
10.750000000000 2.218750000000 3.831996917725 76 76 76
10.750000000000 2.218750000000 3.783000946045 70 70 70
10.750000000000 2.218750000000 3.732997894287 67 67 67
10.750000000000 2.218750000000 3.684001922607 69 69 69
10.750000000000 2.210937500000 3.633998870850 49 49 49
10.750000000000 2.226562500000 3.584995269775 48 48 48
10.750000000000 2.210937500000 3.534999847412 34 34 34
10.750000000000 2.218750000000 3.485996246338 27 27 27
10.750000000000 2.226562500000 3.437000274658 19 19 19
10.875000000000 2.132812500000 3.143001556396 139 139 139
10.843750000000 2.148437500000 3.093997955322 139 139 139
10.875000000000 2.148437500000 3.045997619629 137 137 137
10.843750000000 2.140625000000 2.996997833252 26 26 26
10.875000000000 2.132812500000 2.116996765137 132 132 132
10.875000000000 2.132812500000 2.069000244141 139 139 139
10.875000000000 2.132812500000 2.018997192383 135 135 135
10.843750000000 2.132812500000 1.967998504639 13 13 13
10.625000000000 2.257812500000 1.564998626709 222 222 222
10.750000000000 2.187500000000 1.542999267578 153 153 153
10.812500000000 2.156250000000 1.504997253418 147 147 147
10.968750000000 2.054687500000 1.494998931885 133 133 133
11.093750000000 1.984375000000 1.475997924805 134 134 134
11.125000000000 1.976562500000 1.434997558594 146 146 146
10.718750000000 2.093750000000 9.525997161865 43 43 43
10.718750000000 2.093750000000 9.449001312256 49 49 49
10.718750000000 2.085937500000 9.379001617432 48 48 48
10.718750000000 2.093750000000 9.296001434326 52 52 52
10.718750000000 2.093750000000 9.220996856689 64 64 64
10.718750000000 2.093750000000 9.150997161865 71 71 71
10.750000000000 2.085937500000 9.063999176025 71 71 71
10.718750000000 2.085937500000 8.994998931885 81 81 81
10.750000000000 2.085937500000 8.920001983643 79 79 79
10.750000000000 2.085937500000 8.851001739502 74 74 74
10.750000000000 2.078125000000 8.768001556396 84 84 84
10.750000000000 2.070312500000 8.696994781494 90 90 90
10.750000000000 2.070312500000 8.629001617432 91 91 91
10.750000000000 2.078125000000 8.564998626709 94 94 94
10.750000000000 2.070312500000 8.487995147705 98 98 98
10.750000000000 2.070312500000 8.423999786377 104 104 104
10.750000000000 2.070312500000 8.356998443604 106 106 106
10.781250000000 2.054687500000 8.278995513916 102 102 102
10.781250000000 2.070312500000 8.216999053955 103 103 103
10.781250000000 2.054687500000 8.148998260498 109 109 109
10.781250000000 2.054687500000 8.074001312256 105 105 105
10.781250000000 2.054687500000 8.012996673584 113 113 113
10.781250000000 2.054687500000 7.944995880127 113 113 113
10.781250000000 2.054687500000 7.883998870850 110 110 110
10.781250000000 2.054687500000 7.817996978760 118 118 118
10.781250000000 2.054687500000 7.756000518799 113 113 113
10.781250000000 2.039062500000 7.689998626709 118 118 118
10.812500000000 2.039062500000 7.622997283936 115 115 115
10.812500000000 2.039062500000 7.561000823975 117 117 117
10.781250000000 2.039062500000 7.503002166748 120 120 120
10.812500000000 2.039062500000 7.437999725342 122 122 122
10.812500000000 2.031250000000 7.373996734619 124 124 124
10.812500000000 2.039062500000 7.314998626709 121 121 121
10.812500000000 2.039062500000 7.256999969482 123 123 123
10.812500000000 2.039062500000 7.196994781494 130 130 130
10.812500000000 2.031250000000 7.133998870850 130 130 130
10.812500000000 2.031250000000 7.074001312256 130 130 130
10.812500000000 2.031250000000 7.015995025635 132 132 132
10.812500000000 2.039062500000 6.960994720459 126 126 126
10.812500000000 2.023437500000 6.896999359131 131 131 131
10.812500000000 2.023437500000 6.840000152588 131 131 131
10.812500000000 2.031250000000 6.784999847412 133 133 133
10.812500000000 2.023437500000 6.722995758057 136 136 136
10.812500000000 2.023437500000 6.660999298096 130 130 130
10.937500000000 1.937500000000 6.543994903564 121 121 121
10.875000000000 1.976562500000 6.519001007080 99 99 99
10.812500000000 2.007812500000 6.483997344971 109 109 109
10.812500000000 2.015625000000 6.438999176025 136 136 136
10.812500000000 2.023437500000 6.383998870850 143 143 143
