17.812500000000 10.390625000000 6.536998748779 208 208 208
17.812500000000 10.390625000000 7.514995574951 83 83 83
17.781250000000 10.695312500000 6.536998748779 231 231 231
17.812500000000 10.695312500000 6.532001495361 191 191 191
17.812500000000 10.695312500000 7.508998870850 72 72 72
17.781250000000 10.992187500000 6.540996551514 201 201 201
17.781250000000 10.992187500000 7.503002166748 99 99 99
17.781250000000 11.296875000000 6.529994964600 203 203 203
17.781250000000 11.289062500000 6.537998199463 224 224 224
17.812500000000 11.296875000000 7.492000579834 66 66 66
17.781250000000 11.601562500000 6.546001434326 204 204 204
17.812500000000 11.601562500000 6.535999298096 57 57 57
17.781250000000 11.601562500000 7.487995147705 98 98 98
17.812500000000 11.601562500000 7.465999603271 45 45 45
17.781250000000 11.898437500000 6.527996063232 94 94 94
17.812500000000 11.898437500000 6.534000396729 195 195 195
17.812500000000 11.898437500000 7.485996246338 66 66 66
17.781250000000 12.195312500000 6.534999847412 200 200 200
17.812500000000 12.187500000000 6.538997650146 72 72 72
17.781250000000 12.195312500000 7.475002288818 75 75 75
17.812500000000 12.187500000000 7.467998504639 72 72 72
17.750000000000 12.492187500000 6.541996002197 63 63 63
17.781250000000 12.492187500000 6.524997711182 198 198 198
17.781250000000 12.484375000000 7.475002288818 80 80 80
17.781250000000 12.796875000000 6.529994964600 205 205 205
17.812500000000 12.796875000000 6.532001495361 178 178 178
17.781250000000 12.789062500000 7.464000701904 90 90 90
17.812500000000 12.789062500000 7.465000152588 92 92 92
17.781250000000 13.093750000000 6.527996063232 185 185 185
17.781250000000 13.085937500000 7.459995269775 87 87 87
17.781250000000 13.390625000000 6.518001556396 206 206 206
17.781250000000 13.382812500000 6.527996063232 211 211 211
17.781250000000 13.390625000000 7.451999664307 57 57 57
17.812500000000 13.390625000000 7.450000762939 102 102 102
17.750000000000 13.703125000000 6.528995513916 53 53 53
17.781250000000 13.695312500000 6.526996612549 205 205 205
17.781250000000 13.703125000000 7.456996917725 100 100 100
17.781250000000 13.992187500000 6.518001556396 191 191 191
17.812500000000 13.992187500000 6.527996063232 196 196 196
17.812500000000 13.992187500000 7.434001922607 95 95 95
17.781250000000 14.304687500000 6.524997711182 165 165 165
17.781250000000 14.289062500000 7.423999786377 106 106 106
17.781250000000 14.601562500000 6.519001007080 146 146 146
17.781250000000 14.601562500000 6.515995025635 220 220 220
17.812500000000 14.609375000000 7.414997100830 90 90 90
17.781250000000 14.898437500000 6.521999359131 220 220 220
17.781250000000 14.906250000000 6.529994964600 96 96 96
17.781250000000 14.906250000000 7.409000396729 111 111 111
17.750000000000 15.203125000000 6.525997161865 81 81 81
17.781250000000 15.203125000000 6.521999359131 203 203 203
17.812500000000 15.195312500000 7.389995574951 78 78 78
17.750000000000 15.500000000000 6.522998809814 247 247 247
17.781250000000 15.500000000000 6.532001495361 210 210 210
17.781250000000 15.507812500000 7.394001007080 105 105 105
17.750000000000 15.804687500000 6.525997161865 63 63 63
17.781250000000 15.804687500000 6.520000457764 220 220 220
17.812500000000 15.804687500000 6.517002105713 82 82 82
17.781250000000 15.796875000000 7.408000946045 79 79 79
17.781250000000 16.101562500000 6.510997772217 165 165 165
17.781250000000 16.101562500000 6.520000457764 198 198 198
17.781250000000 16.101562500000 7.394001007080 91 91 91
17.812500000000 16.101562500000 7.383998870850 76 76 76
17.750000000000 16.398437500000 6.512996673584 65 65 65
17.781250000000 16.398437500000 6.509998321533 254 254 254
17.812500000000 16.398437500000 6.520999908447 148 148 148
17.812500000000 16.398437500000 7.379001617432 81 81 81
17.750000000000 16.710937500000 6.518001556396 99 99 99
17.781250000000 16.710937500000 6.512996673584 220 220 220
17.781250000000 16.710937500000 7.372997283936 65 65 65
17.781250000000 16.710937500000 7.374996185303 92 92 92
17.781250000000 17.007812500000 6.515995025635 244 244 244
17.781250000000 17.000000000000 6.519001007080 235 235 235
17.781250000000 17.007812500000 7.371997833252 90 90 90
17.781250000000 17.296875000000 6.520999908447 192 192 192
17.781250000000 17.304687500000 7.359996795654 88 88 88
17.781250000000 17.601562500000 6.515995025635 156 156 156
17.781250000000 17.601562500000 6.515995025635 207 207 207
17.781250000000 17.601562500000 7.351001739502 105 105 105
17.750000000000 17.898437500000 6.533000946045 226 226 226
17.781250000000 17.898437500000 6.498996734619 80 80 80
17.781250000000 17.898437500000 7.351001739502 66 66 66
17.750000000000 18.195312500000 6.507999420166 149 149 149
17.781250000000 18.195312500000 6.517002105713 233 233 233
17.750000000000 18.203125000000 7.340999603271 97 97 97
17.812500000000 18.210937500000 7.343997955322 70 70 70
17.750000000000 18.507812500000 6.525997161865 42 42 42
17.750000000000 18.500000000000 6.509998321533 204 204 204
17.781250000000 18.507812500000 6.520999908447 110 110 110
17.781250000000 18.507812500000 7.338001251221 91 91 91
17.750000000000 18.796875000000 6.517002105713 51 51 51
17.781250000000 18.804687500000 6.512996673584 176 176 176
17.781250000000 18.789062500000 7.318996429443 71 71 71
17.781250000000 18.796875000000 7.339000701904 87 87 87
17.750000000000 19.101562500000 6.510997772217 244 244 244
17.781250000000 19.093750000000 6.528995513916 234 234 234
17.781250000000 19.093750000000 7.340000152588 94 94 94
17.750000000000 19.398437500000 6.523998260498 57 57 57
17.781250000000 19.398437500000 6.511997222900 206 206 206
17.781250000000 19.398437500000 6.512996673584 54 54 54
17.781250000000 19.398437500000 7.324001312256 86 86 86
17.750000000000 19.703125000000 6.515995025635 113 113 113
17.781250000000 19.695312500000 6.506999969482 194 194 194
17.781250000000 19.695312500000 7.331996917725 104 104 104
17.781250000000 19.695312500000 7.328998565674 48 48 48
17.750000000000 19.992187500000 6.508998870850 237 237 237
17.781250000000 19.992187500000 6.509998321533 122 122 122
17.781250000000 19.992187500000 7.345996856689 77 77 77
17.750000000000 20.289062500000 6.503002166748 68 68 68
17.750000000000 20.289062500000 6.501995086670 185 185 185
17.750000000000 20.289062500000 7.323001861572 60 60 60
17.781250000000 20.289062500000 7.330997467041 95 95 95
17.750000000000 20.593750000000 6.497997283936 226 226 226
17.781250000000 20.585937500000 6.498996734619 230 230 230
17.781250000000 20.585937500000 7.327999114990 93 93 93
17.750000000000 20.898437500000 6.508998870850 220 220 220
17.781250000000 20.898437500000 6.503002166748 90 90 90
17.781250000000 20.898437500000 7.334995269775 78 78 78
17.750000000000 21.195312500000 6.496997833252 103 103 103
17.750000000000 21.195312500000 6.498996734619 204 204 204
17.750000000000 21.195312500000 7.328998565674 90 90 90
17.781250000000 21.195312500000 7.331996917725 63 63 63
17.750000000000 21.492187500000 6.503002166748 221 221 221
17.781250000000 21.492187500000 6.496997833252 216 216 216
17.781250000000 21.492187500000 7.331996917725 92 92 92
17.750000000000 21.796875000000 6.499996185303 226 226 226
17.781250000000 21.796875000000 6.496997833252 70 70 70
17.781250000000 21.796875000000 7.327999114990 86 86 86
17.750000000000 22.093750000000 6.494998931885 124 124 124
17.781250000000 22.101562500000 6.493999481201 211 211 211
17.781250000000 22.101562500000 7.312000274658 95 95 95
17.750000000000 22.406250000000 6.489002227783 231 231 231
17.781250000000 22.398437500000 6.494998931885 228 228 228
17.781250000000 22.398437500000 7.317996978760 82 82 82
17.750000000000 22.703125000000 6.494998931885 89 89 89
17.750000000000 22.710937500000 6.487995147705 254 254 254
17.781250000000 22.710937500000 6.486995697021 107 107 107
17.750000000000 22.710937500000 7.315998077393 64 64 64
17.781250000000 22.703125000000 7.314998626709 83 83 83
17.750000000000 23.007812500000 6.486995697021 123 123 123
17.750000000000 23.007812500000 6.482997894287 212 212 212
17.750000000000 23.007812500000 7.327999114990 95 95 95
17.750000000000 23.304687500000 6.479999542236 254 254 254
17.781250000000 23.304687500000 6.485996246338 241 241 241
17.781250000000 23.304687500000 7.312000274658 78 78 78
17.718750000000 23.617187500000 6.484996795654 106 106 106
17.750000000000 23.609375000000 6.481998443604 254 254 254
17.750000000000 23.617187500000 6.475002288818 96 96 96
17.750000000000 23.617187500000 7.320995330811 30 30 30
17.781250000000 23.617187500000 7.326000213623 90 90 90
17.750000000000 23.914062500000 6.473995208740 154 154 154
17.750000000000 23.914062500000 6.486995697021 228 228 228
17.781250000000 23.914062500000 7.317996978760 96 96 96
17.718750000000 24.210937500000 6.476001739502 52 52 52
17.750000000000 24.210937500000 6.473995208740 254 254 254
17.781250000000 24.210937500000 6.478000640869 254 254 254
17.781250000000 24.210937500000 7.307994842529 77 77 77
17.750000000000 24.507812500000 6.482997894287 92 92 92
17.750000000000 24.515625000000 6.476001739502 254 254 254
17.781250000000 24.523437500000 6.492000579834 94 94 94
17.750000000000 24.523437500000 7.312000274658 90 90 90
17.781250000000 24.523437500000 7.320995330811 72 72 72
17.718750000000 24.812500000000 6.479999542236 121 121 121
17.750000000000 24.820312500000 6.472995758057 224 224 224
17.750000000000 24.820312500000 7.312000274658 94 94 94
17.718750000000 25.117187500000 6.457996368408 41 41 41
17.750000000000 25.117187500000 6.475002288818 254 254 254
17.781250000000 25.117187500000 6.468997955322 254 254 254
17.781250000000 25.117187500000 7.312999725342 80 80 80
17.812500000000 6.273437500000 7.663997650146 82 82 82
17.812500000000 6.851562500000 7.645999908447 79 79 79
17.812500000000 7.445312500000 7.616001129150 77 77 77
17.812500000000 7.742187500000 7.611995697021 84 84 84
17.812500000000 8.046875000000 7.593997955322 86 86 86
17.812500000000 8.335937500000 7.576000213623 85 85 85
17.781250000000 8.640625000000 7.579998016357 83 83 83
17.812500000000 8.632812500000 7.570995330811 61 61 61
17.812500000000 8.929687500000 7.560001373291 83 83 83
17.781250000000 9.242187500000 7.547000885010 45 45 45
17.812500000000 9.218750000000 7.548999786377 96 96 96
17.812500000000 9.523437500000 7.552997589111 94 94 94
17.812500000000 9.820312500000 7.533000946045 85 85 85
17.812500000000 10.101562500000 7.535999298096 93 93 93
17.812500000000 10.406250000000 7.506000518799 92 92 92
17.812500000000 10.703125000000 7.504001617432 80 80 80
17.781250000000 11.007812500000 7.509998321533 92 92 92
17.812500000000 10.992187500000 7.508998870850 81 81 81
17.781250000000 11.289062500000 7.499996185303 99 99 99
17.812500000000 11.593750000000 7.489002227783 102 102 102
17.812500000000 11.898437500000 7.470996856689 92 92 92
17.812500000000 12.187500000000 7.469997406006 98 98 98
17.781250000000 12.492187500000 7.473995208740 105 105 105
17.812500000000 12.492187500000 7.480998992920 77 77 77
17.812500000000 12.789062500000 7.467998504639 103 103 103
17.781250000000 13.101562500000 7.451999664307 94 94 94
17.812500000000 13.085937500000 7.457996368408 102 102 102
17.781250000000 13.382812500000 7.449001312256 99 99 99
17.781250000000 13.695312500000 7.456996917725 81 81 81
17.812500000000 13.679687500000 7.453998565674 108 108 108
17.781250000000 13.984375000000 7.442996978760 104 104 104
17.781250000000 14.289062500000 7.446994781494 46 46 46
17.812500000000 14.281250000000 7.423999786377 118 118 118
17.781250000000 14.593750000000 7.417995452881 103 103 103
17.812500000000 14.585937500000 7.434001922607 61 61 61
17.781250000000 14.890625000000 7.422000885010 106 106 106
17.781250000000 15.195312500000 7.415996551514 104 104 104
17.812500000000 15.179687500000 7.397998809814 50 50 50
17.781250000000 15.492187500000 7.406002044678 108 108 108
17.781250000000 15.796875000000 7.387996673584 107 107 107
17.812500000000 15.789062500000 7.388996124268 79 79 79
17.781250000000 16.085937500000 7.382999420166 102 102 102
17.781250000000 16.382812500000 7.374996185303 96 96 96
17.812500000000 16.382812500000 7.382999420166 78 78 78
17.781250000000 16.695312500000 7.381000518799 99 99 99
17.781250000000 16.992187500000 7.354000091553 71 71 71
17.781250000000 16.984375000000 7.372997283936 110 110 110
17.781250000000 17.289062500000 7.381999969482 106 106 106
17.781250000000 17.585937500000 7.362995147705 106 106 106
17.781250000000 17.890625000000 7.355998992920 102 102 102
17.812500000000 17.882812500000 7.354999542236 62 62 62
17.781250000000 18.179687500000 7.344997406006 100 100 100
17.812500000000 18.476562500000 6.524997711182 56 56 56
17.781250000000 18.492187500000 7.354000091553 70 70 70
17.812500000000 18.476562500000 7.344997406006 114 114 114
17.781250000000 18.789062500000 6.513996124268 140 140 140
17.781250000000 18.789062500000 7.347995758057 104 104 104
17.781250000000 19.070312500000 7.353000640869 110 110 110
17.781250000000 19.382812500000 6.512996673584 159 159 159
17.781250000000 19.382812500000 7.333995819092 105 105 105
17.781250000000 19.367187500000 7.335994720459 46 46 46
17.781250000000 19.664062500000 7.340000152588 110 110 110
17.750000000000 19.976562500000 6.517002105713 155 155 155
17.750000000000 19.976562500000 7.334995269775 84 84 84
17.781250000000 19.960937500000 7.337001800537 99 99 99
17.781250000000 20.273437500000 6.515995025635 140 140 140
17.781250000000 20.273437500000 7.334995269775 103 103 103
17.750000000000 20.578125000000 6.512996673584 146 146 146
17.781250000000 20.554687500000 7.342998504639 109 109 109
17.781250000000 20.867187500000 6.511997222900 154 154 154
17.781250000000 20.867187500000 7.329998016357 85 85 85
17.781250000000 20.851562500000 7.325000762939 96 96 96
17.750000000000 21.164062500000 6.497997283936 169 169 169
17.750000000000 21.164062500000 6.493999481201 148 148 148
17.750000000000 21.164062500000 7.334995269775 100 100 100
17.781250000000 21.476562500000 6.494998931885 156 156 156
17.750000000000 21.476562500000 7.343997955322 48 48 48
17.781250000000 21.460937500000 7.338001251221 119 119 119
17.750000000000 21.781250000000 6.511997222900 92 92 92
17.750000000000 21.765625000000 6.504001617432 161 161 161
17.781250000000 21.773437500000 7.339000701904 98 98 98
17.812500000000 21.750000000000 7.319995880127 59 59 59
17.781250000000 22.070312500000 6.492000579834 159 159 159
17.781250000000 22.054687500000 6.489002227783 165 165 165
17.781250000000 22.062500000000 7.337001800537 101 101 101
17.750000000000 22.367187500000 6.487995147705 183 183 183
17.750000000000 22.359375000000 6.505001068115 84 84 84
17.750000000000 22.367187500000 7.319995880127 49 49 49
17.781250000000 22.351562500000 7.329998016357 114 114 114
17.750000000000 22.671875000000 6.495998382568 58 58 58
17.781250000000 22.664062500000 6.493000030518 169 169 169
17.781250000000 22.664062500000 7.328998565674 104 104 104
17.781250000000 22.648437500000 7.323001861572 57 57 57
17.750000000000 22.976562500000 6.483997344971 178 178 178
17.781250000000 22.960937500000 6.490001678467 166 166 166
17.781250000000 22.960937500000 7.326000213623 100 100 100
17.781250000000 23.273437500000 6.493000030518 166 166 166
17.781250000000 23.273437500000 7.317996978760 54 54 54
17.781250000000 23.257812500000 7.321994781494 108 108 108
17.750000000000 23.585937500000 6.490001678467 123 123 123
17.750000000000 23.570312500000 6.483997344971 179 179 179
17.750000000000 23.562500000000 7.321994781494 99 99 99
17.781250000000 23.554687500000 7.338001251221 63 63 63
17.750000000000 23.875000000000 6.483997344971 151 151 151
17.781250000000 23.867187500000 6.482997894287 173 173 173
17.781250000000 23.851562500000 7.325000762939 101 101 101
17.750000000000 24.179687500000 6.489002227783 167 167 167
17.781250000000 24.164062500000 6.482997894287 160 160 160
17.781250000000 24.164062500000 7.330997467041 110 110 110
17.750000000000 24.468750000000 6.479999542236 172 172 172
17.750000000000 24.468750000000 7.325000762939 91 91 91
17.781250000000 24.460937500000 7.337001800537 75 75 75
17.750000000000 24.773437500000 6.493999481201 129 129 129
17.750000000000 24.757812500000 6.479999542236 179 179 179
17.750000000000 24.757812500000 7.335994720459 101 101 101
17.750000000000 25.070312500000 6.482997894287 171 171 171
17.781250000000 25.070312500000 6.483997344971 163 163 163
17.781250000000 25.054687500000 7.323001861572 116 116 116
17.812500000000 11.843750000000 7.481998443604 31 31 31
17.781250000000 12.445312500000 7.479999542236 58 58 58
17.781250000000 13.039062500000 7.457996368408 64 64 64
17.781250000000 13.648437500000 7.438999176025 74 74 74
17.781250000000 14.257812500000 7.431995391846 75 75 75
17.781250000000 14.859375000000 7.414997100830 73 73 73
17.781250000000 15.171875000000 7.420001983643 34 34 34
17.781250000000 15.468750000000 7.407001495361 77 77 77
17.781250000000 15.773437500000 7.397998809814 40 40 40
17.781250000000 16.062500000000 7.392002105713 77 77 77
17.781250000000 16.382812500000 7.372997283936 63 63 63
17.781250000000 16.664062500000 7.382999420166 102 102 102
17.781250000000 16.976562500000 7.372997283936 72 72 72
17.781250000000 17.273437500000 7.365001678467 99 99 99
17.781250000000 17.578125000000 7.362995147705 78 78 78
17.781250000000 17.882812500000 7.348995208740 63 63 63
17.750000000000 17.867187500000 7.344997406006 55 55 55
17.781250000000 18.171875000000 7.338001251221 95 95 95
17.781250000000 18.476562500000 7.340999603271 74 74 74
17.781250000000 18.773437500000 7.341999053955 102 102 102
17.781250000000 19.070312500000 7.352001190186 83 83 83
17.781250000000 19.382812500000 7.338001251221 58 58 58
17.750000000000 19.367187500000 7.329998016357 81 81 81
17.781250000000 19.671875000000 7.334995269775 96 96 96
17.750000000000 19.976562500000 7.338001251221 78 78 78
17.781250000000 20.289062500000 7.325000762939 54 54 54
17.750000000000 20.273437500000 7.339000701904 79 79 79
17.750000000000 20.570312500000 7.333995819092 95 95 95
17.781250000000 20.882812500000 7.339000701904 76 76 76
17.750000000000 20.867187500000 7.340999603271 31 31 31
17.750000000000 21.179687500000 7.332996368408 101 101 101
17.750000000000 21.484375000000 7.325000762939 83 83 83
17.781250000000 21.789062500000 7.337001800537 70 70 70
17.750000000000 21.781250000000 7.313999176025 41 41 41
17.750000000000 22.085937500000 7.321994781494 96 96 96
17.750000000000 22.398437500000 7.339000701904 83 83 83
17.781250000000 22.710937500000 7.331996917725 71 71 71
17.750000000000 22.687500000000 7.326999664307 55 55 55
17.750000000000 23.007812500000 7.326000213623 97 97 97
17.781250000000 23.304687500000 7.332996368408 91 91 91
17.750000000000 23.304687500000 6.495998382568 127 127 127
17.750000000000 23.617187500000 7.324001312256 81 81 81
17.750000000000 23.617187500000 6.490001678467 45 45 45
17.750000000000 23.914062500000 7.327999114990 101 101 101
17.750000000000 23.914062500000 6.500995635986 138 138 138
17.750000000000 24.218750000000 7.334995269775 90 90 90
17.750000000000 24.218750000000 6.493999481201 146 146 146
17.781250000000 24.539062500000 7.327999114990 80 80 80
17.750000000000 24.523437500000 6.491001129150 99 99 99
17.750000000000 24.523437500000 6.491001129150 176 176 176
17.750000000000 24.820312500000 7.315998077393 92 92 92
17.750000000000 24.820312500000 6.492000579834 158 158 158
17.750000000000 25.132812500000 7.325000762939 94 94 94
17.750000000000 25.132812500000 6.481998443604 148 148 148
17.718750000000 25.117187500000 6.484996795654 47 47 47
17.812500000000 0.148437500000 6.581996917725 184 184 184
17.843750000000 0.148437500000 6.588001251221 94 94 94
17.812500000000 0.148437500000 7.909000396729 60 60 60
17.812500000000 0.445312500000 6.596996307373 143 143 143
17.812500000000 0.437500000000 6.579998016357 255 255 255
17.812500000000 0.445312500000 7.881999969482 86 86 86
17.843750000000 0.445312500000 7.898998260498 73 73 73
17.812500000000 0.750000000000 6.571994781494 235 235 235
17.812500000000 0.742187500000 6.579998016357 217 217 217
17.812500000000 0.750000000000 7.885997772217 71 71 71
17.812500000000 1.039062500000 6.582996368408 201 201 201
17.812500000000 1.039062500000 6.573001861572 130 130 130
17.812500000000 1.054687500000 7.865001678467 91 91 91
17.812500000000 1.335937500000 6.580997467041 148 148 148
17.812500000000 1.335937500000 6.576000213623 234 234 234
17.812500000000 1.335937500000 7.854999542236 92 92 92
17.812500000000 1.648437500000 6.562999725342 224 224 224
17.843750000000 1.640625000000 6.582996368408 189 189 189
17.812500000000 1.648437500000 7.841999053955 83 83 83
17.812500000000 1.945312500000 6.579998016357 209 209 209
17.843750000000 1.945312500000 6.574001312256 106 106 106
17.812500000000 1.945312500000 7.825000762939 80 80 80
17.812500000000 1.945312500000 7.831996917725 87 87 87
17.781250000000 2.242187500000 6.577999114990 177 177 177
17.812500000000 2.242187500000 6.573001861572 254 254 254
17.812500000000 2.242187500000 7.812999725342 69 69 69
17.812500000000 2.554687500000 6.567996978760 231 231 231
17.843750000000 2.554687500000 6.564998626709 167 167 167
17.812500000000 2.554687500000 7.796001434326 59 59 59
17.812500000000 2.554687500000 7.799999237061 99 99 99
17.781250000000 2.851562500000 6.577999114990 82 82 82
17.812500000000 2.851562500000 6.575000762939 213 213 213
17.812500000000 2.851562500000 6.568996429443 96 96 96
17.812500000000 2.851562500000 7.792995452881 71 71 71
17.812500000000 3.148437500000 6.562999725342 254 254 254
17.812500000000 3.148437500000 6.550998687744 254 254 254
17.812500000000 3.148437500000 7.785999298096 92 92 92
17.812500000000 3.445312500000 6.564998626709 216 216 216
17.812500000000 3.445312500000 6.562000274658 154 154 154
17.781250000000 3.445312500000 7.759998321533 87 87 87
17.812500000000 3.742187500000 6.563999176025 157 157 157
17.812500000000 3.750000000000 6.559001922607 254 254 254
17.843750000000 3.742187500000 6.570995330811 101 101 101
17.812500000000 3.750000000000 7.754001617432 59 59 59
17.781250000000 4.046875000000 6.555995941162 254 254 254
17.812500000000 4.039062500000 6.555995941162 224 224 224
17.781250000000 4.054687500000 7.743000030518 86 86 86
17.812500000000 4.054687500000 7.745998382568 87 87 87
17.812500000000 4.335937500000 6.552997589111 252 252 252
17.812500000000 4.335937500000 6.559001922607 174 174 174
17.812500000000 4.351562500000 7.735996246338 75 75 75
17.781250000000 4.648437500000 6.562000274658 199 199 199
17.812500000000 4.640625000000 6.560001373291 254 254 254
17.843750000000 4.632812500000 6.609996795654 108 108 108
17.812500000000 4.648437500000 7.715999603271 94 94 94
17.812500000000 4.937500000000 6.554996490479 254 254 254
17.843750000000 4.945312500000 6.562000274658 211 211 211
17.812500000000 4.945312500000 7.727001190186 88 88 88
17.781250000000 5.234375000000 6.568996429443 148 148 148
17.812500000000 5.242187500000 6.553997039795 254 254 254
17.812500000000 5.242187500000 6.563999176025 133 133 133
17.812500000000 5.242187500000 7.701000213623 97 97 97
17.781250000000 5.539062500000 6.541996002197 254 254 254
17.812500000000 5.546875000000 6.548999786377 230 230 230
17.781250000000 5.539062500000 7.703998565674 96 96 96
17.781250000000 5.835937500000 6.539997100830 226 226 226
17.812500000000 5.835937500000 6.568996429443 146 146 146
17.812500000000 5.843750000000 7.673999786377 73 73 73
17.781250000000 6.132812500000 6.556995391846 178 178 178
17.812500000000 6.132812500000 6.561000823975 254 254 254
17.843750000000 6.132812500000 6.554996490479 165 165 165
17.812500000000 6.132812500000 7.660999298096 89 89 89
17.781250000000 6.429687500000 6.553997039795 254 254 254
17.812500000000 6.429687500000 6.550998687744 184 184 184
17.781250000000 6.445312500000 7.658000946045 78 78 78
17.781250000000 6.726562500000 6.560001373291 135 135 135
17.812500000000 6.734375000000 6.549999237061 254 254 254
17.812500000000 6.726562500000 6.551998138428 169 169 169
17.812500000000 6.734375000000 7.638996124268 87 87 87
17.812500000000 7.023437500000 6.550998687744 162 162 162
17.812500000000 7.023437500000 6.549999237061 254 254 254
17.843750000000 7.023437500000 6.574001312256 152 152 152
17.812500000000 7.023437500000 7.629001617432 91 91 91
17.812500000000 7.335937500000 6.548999786377 254 254 254
17.812500000000 7.335937500000 6.557994842529 217 217 217
17.781250000000 7.617187500000 6.550998687744 94 94 94
17.812500000000 7.632812500000 6.545001983643 254 254 254
17.812500000000 7.625000000000 6.555995941162 166 166 166
17.812500000000 7.632812500000 7.595996856689 95 95 95
17.781250000000 7.929687500000 6.555995941162 254 254 254
17.812500000000 7.921875000000 6.548000335693 254 254 254
17.812500000000 7.914062500000 6.594997406006 156 156 156
17.812500000000 8.226562500000 6.548000335693 254 254 254
17.812500000000 8.226562500000 6.561000823975 174 174 174
17.812500000000 8.226562500000 7.589000701904 86 86 86
17.781250000000 8.523437500000 6.559001922607 186 186 186
17.812500000000 8.523437500000 6.555995941162 254 254 254
17.812500000000 8.515625000000 6.549999237061 178 178 178
17.812500000000 8.523437500000 7.563999176025 63 63 63
17.781250000000 8.820312500000 6.554996490479 255 255 255
17.812500000000 8.812500000000 6.549999237061 254 254 254
17.812500000000 8.812500000000 6.568996429443 151 151 151
17.781250000000 9.109375000000 6.536998748779 217 217 217
17.812500000000 9.117187500000 6.552997589111 145 145 145
17.812500000000 9.117187500000 7.569995880127 90 90 90
17.781250000000 9.414062500000 6.557994842529 99 99 99
17.812500000000 9.414062500000 6.550998687744 204 204 204
17.781250000000 9.414062500000 7.615001678467 97 97 97
17.781250000000 9.710937500000 6.542995452881 215 215 215
17.781250000000 9.710937500000 6.534999847412 254 254 254
17.812500000000 9.710937500000 6.657001495361 137 137 137
17.781250000000 10.007812500000 6.542995452881 233 233 233
17.812500000000 10.007812500000 6.570995330811 149 149 149
17.812500000000 10.007812500000 7.527996063232 85 85 85
17.781250000000 10.304687500000 6.536998748779 117 117 117
17.781250000000 10.312500000000 6.538997650146 205 205 205
17.812500000000 10.304687500000 6.638996124268 138 138 138
17.781250000000 10.609375000000 6.534999847412 233 233 233
17.812500000000 10.601562500000 6.543994903564 184 184 184
17.812500000000 10.601562500000 7.552997589111 84 84 84
17.750000000000 10.906250000000 6.533000946045 99 99 99
17.781250000000 10.898437500000 6.539997100830 218 218 218
17.812500000000 10.898437500000 6.550998687744 83 83 83
17.812500000000 10.898437500000 7.501995086670 48 48 48
17.781250000000 10.898437500000 7.560001373291 96 96 96
17.781250000000 11.210937500000 6.534000396729 220 220 220
17.781250000000 11.203125000000 6.534000396729 221 221 221
17.781250000000 11.500000000000 6.526996612549 211 211 211
17.812500000000 11.500000000000 6.574001312256 162 162 162
17.812500000000 11.507812500000 7.476001739502 98 98 98
17.781250000000 11.796875000000 6.535999298096 182 182 182
17.781250000000 11.796875000000 6.532001495361 255 255 255
17.812500000000 11.804687500000 6.566997528076 153 153 153
17.750000000000 12.109375000000 6.523998260498 255 255 255
17.781250000000 12.109375000000 6.529994964600 229 229 229
17.750000000000 12.406250000000 6.534999847412 115 115 115
17.781250000000 12.406250000000 6.528995513916 215 215 215
17.781250000000 12.703125000000 6.527996063232 232 232 232
17.812500000000 12.695312500000 6.528995513916 246 246 246
17.781250000000 13.007812500000 6.521999359131 66 66 66
17.781250000000 13.007812500000 6.517002105713 255 255 255
17.812500000000 13.000000000000 6.532001495361 186 186 186
17.750000000000 13.304687500000 6.532001495361 211 211 211
17.781250000000 13.296875000000 6.515995025635 254 254 254
17.812500000000 13.304687500000 6.611995697021 157 157 157
17.750000000000 13.601562500000 6.520000457764 57 57 57
17.781250000000 13.601562500000 6.521999359131 255 255 255
17.781250000000 13.601562500000 6.549999237061 162 162 162
17.812500000000 13.601562500000 7.437000274658 69 69 69
17.750000000000 13.906250000000 6.523998260498 246 246 246
17.781250000000 13.914062500000 6.520000457764 254 254 254
17.812500000000 13.906250000000 6.590999603271 151 151 151
17.781250000000 14.210937500000 6.514995574951 254 254 254
17.781250000000 14.210937500000 6.523998260498 155 155 155
17.781250000000 14.210937500000 7.435001373291 84 84 84
17.750000000000 14.507812500000 6.529994964600 175 175 175
17.781250000000 14.507812500000 6.517002105713 251 251 251
17.781250000000 14.507812500000 6.593997955322 148 148 148
17.781250000000 14.812500000000 6.511997222900 254 254 254
17.781250000000 14.804687500000 6.562000274658 241 241 241
17.750000000000 15.117187500000 6.512996673584 135 135 135
17.781250000000 15.117187500000 6.515995025635 254 254 254
17.781250000000 15.117187500000 6.520000457764 157 157 157
17.781250000000 15.414062500000 6.526996612549 254 254 254
17.781250000000 15.421875000000 6.520999908447 254 254 254
17.812500000000 15.414062500000 6.552997589111 161 161 161
17.750000000000 15.710937500000 6.515995025635 111 111 111
17.750000000000 15.710937500000 6.509998321533 254 254 254
17.781250000000 15.710937500000 6.521999359131 157 157 157
17.750000000000 16.007812500000 6.517002105713 226 226 226
17.781250000000 16.023437500000 6.517002105713 254 254 254
17.812500000000 16.015625000000 6.513996124268 158 158 158
17.781250000000 16.320312500000 6.506000518799 254 254 254
17.781250000000 16.312500000000 6.549999237061 255 255 255
17.812500000000 16.320312500000 6.573001861572 104 104 104
17.750000000000 16.617187500000 6.520000457764 146 146 146
17.781250000000 16.617187500000 6.510997772217 254 254 254
17.781250000000 16.617187500000 6.518001556396 153 153 153
17.750000000000 16.914062500000 6.518001556396 254 254 254
17.781250000000 16.914062500000 6.514995574951 254 254 254
17.781250000000 16.914062500000 6.548999786377 152 152 152
17.750000000000 17.218750000000 6.501995086670 85 85 85
17.781250000000 17.210937500000 6.513996124268 254 254 254
17.781250000000 17.210937500000 6.546001434326 223 223 223
17.750000000000 17.507812500000 6.519001007080 169 169 169
17.781250000000 17.507812500000 6.519001007080 254 254 254
17.781250000000 17.507812500000 6.519001007080 154 154 154
17.750000000000 17.804687500000 6.512996673584 254 254 254
17.781250000000 17.804687500000 6.531002044678 254 254 254
17.812500000000 17.812500000000 6.535999298096 74 74 74
17.750000000000 18.117187500000 6.512996673584 106 106 106
17.750000000000 18.109375000000 6.514995574951 252 252 252
17.781250000000 18.109375000000 6.576999664307 154 154 154
17.750000000000 18.406250000000 6.519001007080 237 237 237
17.781250000000 18.398437500000 6.515995025635 212 212 212
17.750000000000 18.703125000000 6.507999420166 81 81 81
17.750000000000 18.695312500000 6.510997772217 245 245 245
17.781250000000 18.695312500000 6.568996429443 142 142 142
17.750000000000 19.007812500000 6.508998870850 254 254 254
17.781250000000 19.007812500000 6.521999359131 255 255 255
17.750000000000 19.304687500000 6.506999969482 234 234 234
17.781250000000 19.304687500000 6.537998199463 147 147 147
17.750000000000 19.601562500000 6.504001617432 136 136 136
17.781250000000 19.601562500000 6.507999420166 236 236 236
17.781250000000 19.609375000000 7.364002227783 112 112 112
17.750000000000 19.914062500000 6.509998321533 245 245 245
17.781250000000 19.906250000000 6.512996673584 186 186 186
17.750000000000 20.210937500000 6.499996185303 100 100 100
17.750000000000 20.203125000000 6.493999481201 223 223 223
17.781250000000 20.195312500000 6.585994720459 135 135 135
17.750000000000 20.500000000000 6.496997833252 254 254 254
17.750000000000 20.507812500000 6.503002166748 250 250 250
17.750000000000 20.804687500000 6.505001068115 212 212 212
17.781250000000 20.804687500000 6.540996551514 154 154 154
17.750000000000 21.101562500000 6.506000518799 114 114 114
17.750000000000 21.101562500000 6.498996734619 227 227 227
17.781250000000 21.117187500000 6.602001190186 145 145 145
17.750000000000 21.398437500000 6.499996185303 247 247 247
17.750000000000 21.398437500000 6.504001617432 255 255 255
17.750000000000 21.695312500000 6.493999481201 209 209 209
17.781250000000 21.710937500000 6.512996673584 142 142 142
17.750000000000 22.007812500000 6.493999481201 119 119 119
17.781250000000 22.015625000000 6.493000030518 241 241 241
17.781250000000 22.007812500000 7.374996185303 108 108 108
17.750000000000 22.312500000000 6.493000030518 254 254 254
17.750000000000 22.320312500000 6.501995086670 247 247 247
17.750000000000 22.617187500000 6.500995635986 214 214 214
17.781250000000 22.609375000000 6.523998260498 155 155 155
17.750000000000 22.914062500000 6.487995147705 125 125 125
17.750000000000 22.914062500000 6.492000579834 254 254 254
17.781250000000 22.914062500000 6.562999725342 149 149 149
17.750000000000 23.210937500000 6.477001190186 254 254 254
17.781250000000 23.210937500000 6.506000518799 255 255 255
17.750000000000 23.507812500000 6.483997344971 209 209 209
17.750000000000 23.523437500000 6.522998809814 146 146 146
17.718750000000 23.820312500000 6.480998992920 188 188 188
17.750000000000 23.820312500000 6.483997344971 254 254 254
17.750000000000 23.828125000000 6.534999847412 141 141 141
17.750000000000 24.132812500000 6.475002288818 254 254 254
17.750000000000 24.125000000000 6.492000579834 254 254 254
17.750000000000 24.421875000000 6.478000640869 231 231 231
17.750000000000 24.414062500000 6.498996734619 150 150 150
17.718750000000 24.718750000000 6.483997344971 164 164 164
17.750000000000 24.726562500000 6.478000640869 254 254 254
17.781250000000 24.726562500000 6.493000030518 151 151 151
17.718750000000 25.023437500000 6.482997894287 254 254 254
17.750000000000 25.023437500000 6.489002227783 254 254 254
17.781250000000 25.039062500000 6.497997283936 49 49 49
17.843750000000 0.226562500000 6.592998504639 163 163 163
17.875000000000 0.226562500000 6.588001251221 174 174 174
17.875000000000 0.242187500000 7.914997100830 96 96 96
17.843750000000 0.523437500000 6.595996856689 172 172 172
17.843750000000 0.523437500000 6.594997406006 125 125 125
17.843750000000 0.523437500000 7.898998260498 101 101 101
17.875000000000 0.539062500000 7.872997283936 64 64 64
17.843750000000 0.820312500000 6.600002288818 169 169 169
17.875000000000 0.835937500000 6.603000640869 57 57 57
17.875000000000 0.828125000000 7.861995697021 92 92 92
17.843750000000 1.117187500000 6.612995147705 113 113 113
17.843750000000 1.132812500000 6.594997406006 183 183 183
17.875000000000 1.132812500000 7.860996246338 105 105 105
17.843750000000 1.421875000000 6.580997467041 182 182 182
17.875000000000 1.445312500000 6.581996917725 161 161 161
17.843750000000 1.429687500000 7.867000579834 105 105 105
17.875000000000 1.445312500000 7.854999542236 58 58 58
17.843750000000 1.726562500000 6.585994720459 176 176 176
17.875000000000 1.742187500000 6.593997955322 48 48 48
17.843750000000 1.742187500000 7.842998504639 96 96 96
17.812500000000 2.023437500000 6.584995269775 171 171 171
17.843750000000 2.039062500000 6.587001800537 189 189 189
17.843750000000 2.039062500000 7.831996917725 81 81 81
17.875000000000 2.039062500000 7.832996368408 95 95 95
17.843750000000 2.335937500000 6.573001861572 183 183 183
17.875000000000 2.335937500000 6.581996917725 150 150 150
17.875000000000 2.335937500000 7.810001373291 97 97 97
17.843750000000 2.632812500000 6.585994720459 173 173 173
17.875000000000 2.640625000000 6.593997955322 47 47 47
17.875000000000 2.648437500000 7.816997528076 98 98 98
17.843750000000 2.929687500000 6.578998565674 105 105 105
17.843750000000 2.937500000000 6.573001861572 186 186 186
17.843750000000 2.937500000000 7.787998199463 89 89 89
17.875000000000 2.945312500000 7.783000946045 86 86 86
17.843750000000 3.234375000000 6.576000213623 193 193 193
17.843750000000 3.242187500000 6.566997528076 181 181 181
17.843750000000 3.242187500000 7.790996551514 89 89 89
17.843750000000 3.523437500000 6.576999664307 53 53 53
17.843750000000 3.539062500000 6.576000213623 184 184 184
17.843750000000 3.539062500000 7.769001007080 87 87 87
17.875000000000 3.554687500000 7.778995513916 89 89 89
17.843750000000 3.820312500000 6.574001312256 162 162 162
17.843750000000 3.835937500000 6.564998626709 203 203 203
17.843750000000 3.851562500000 7.764995574951 94 94 94
17.843750000000 4.148437500000 6.571994781494 206 206 206
17.843750000000 4.148437500000 6.562999725342 194 194 194
17.875000000000 4.164062500000 7.737995147705 98 98 98
17.843750000000 4.445312500000 6.570995330811 186 186 186
17.875000000000 4.460937500000 6.575000762939 62 62 62
17.843750000000 4.453125000000 7.736995697021 98 98 98
17.875000000000 4.460937500000 7.732997894287 78 78 78
17.843750000000 4.734375000000 6.560001373291 197 197 197
17.875000000000 4.750000000000 6.561000823975 209 209 209
17.843750000000 4.757812500000 7.730998992920 96 96 96
17.843750000000 5.039062500000 6.562000274658 204 204 204
17.843750000000 5.054687500000 6.561000823975 170 170 170
17.843750000000 5.046875000000 7.722995758057 77 77 77
17.843750000000 5.054687500000 7.692996978760 92 92 92
17.812500000000 5.335937500000 6.576000213623 85 85 85
17.843750000000 5.351562500000 6.566997528076 198 198 198
17.843750000000 5.351562500000 7.701999664307 99 99 99
17.843750000000 5.648437500000 6.563999176025 202 202 202
17.843750000000 5.648437500000 6.563999176025 202 202 202
17.843750000000 5.664062500000 7.695995330811 99 99 99
17.843750000000 5.945312500000 6.566997528076 206 206 206
17.875000000000 5.953125000000 6.563999176025 157 157 157
17.843750000000 5.945312500000 7.670001983643 96 96 96
17.875000000000 5.960937500000 7.687000274658 66 66 66
17.812500000000 6.242187500000 6.582996368408 126 126 126
17.843750000000 6.250000000000 6.557994842529 213 213 213
17.843750000000 6.257812500000 7.648998260498 90 90 90
17.843750000000 6.539062500000 6.548999786377 209 209 209
17.843750000000 6.554687500000 6.561000823975 186 186 186
17.843750000000 6.546875000000 7.657001495361 80 80 80
17.843750000000 6.562500000000 7.649997711182 97 97 97
17.843750000000 6.835937500000 6.560001373291 204 204 204
17.843750000000 6.851562500000 6.583995819092 137 137 137
17.843750000000 6.851562500000 7.631000518799 97 97 97
17.843750000000 7.148437500000 6.579998016357 109 109 109
17.843750000000 7.148437500000 6.553997039795 211 211 211
17.843750000000 7.164062500000 7.622997283936 96 96 96
17.812500000000 7.445312500000 6.560001373291 212 212 212
17.843750000000 7.445312500000 6.557994842529 215 215 215
17.843750000000 7.445312500000 7.626995086670 95 95 95
17.843750000000 7.460937500000 7.622997283936 85 85 85
17.843750000000 7.742187500000 6.560001373291 205 205 205
17.843750000000 7.757812500000 6.569995880127 136 136 136
17.843750000000 7.757812500000 7.600002288818 94 94 94
17.812500000000 8.039062500000 6.576000213623 94 94 94
17.843750000000 8.054687500000 6.555995941162 212 212 212
17.843750000000 8.062500000000 7.587001800537 104 104 104
17.843750000000 8.335937500000 6.565998077393 215 215 215
17.843750000000 8.351562500000 6.545001983643 222 222 222
17.843750000000 8.351562500000 7.604999542236 95 95 95
17.875000000000 8.359375000000 7.578998565674 74 74 74
17.812500000000 8.640625000000 6.553997039795 220 220 220
17.843750000000 8.648437500000 6.554996490479 178 178 178
17.843750000000 8.648437500000 7.575000762939 101 101 101
17.812500000000 8.937500000000 6.571994781494 89 89 89
17.843750000000 8.945312500000 6.565998077393 211 211 211
17.875000000000 8.960937500000 7.563999176025 101 101 101
17.812500000000 9.242187500000 6.561000823975 182 182 182
17.843750000000 9.242187500000 6.554996490479 215 215 215
17.843750000000 9.242187500000 7.553997039795 100 100 100
17.875000000000 9.257812500000 7.555995941162 60 60 60
17.843750000000 9.531250000000 6.546001434326 219 219 219
17.843750000000 9.546875000000 6.542995452881 202 202 202
17.843750000000 9.546875000000 7.548000335693 87 87 87
17.812500000000 9.835937500000 6.541996002197 253 253 253
17.843750000000 9.851562500000 6.556995391846 197 197 197
17.843750000000 9.851562500000 7.537998199463 91 91 91
17.812500000000 10.140625000000 6.556995391846 148 148 148
17.843750000000 10.148437500000 6.556995391846 204 204 204
17.843750000000 10.148437500000 7.533000946045 99 99 99
17.875000000000 10.164062500000 7.514995574951 49 49 49
17.812500000000 10.429687500000 6.531002044678 225 225 225
17.843750000000 10.445312500000 6.541996002197 170 170 170
17.843750000000 10.445312500000 7.519001007080 93 93 93
17.812500000000 10.726562500000 6.574001312256 96 96 96
17.812500000000 10.734375000000 6.535999298096 232 232 232
17.843750000000 10.742187500000 6.607997894287 141 141 141
17.843750000000 10.750000000000 7.506999969482 93 93 93
17.812500000000 11.039062500000 6.547000885010 196 196 196
17.812500000000 11.039062500000 6.545001983643 216 216 216
17.843750000000 11.046875000000 7.529994964600 109 109 109
17.843750000000 11.062500000000 7.506999969482 44 44 44
17.812500000000 11.328125000000 6.552997589111 91 91 91
17.812500000000 11.335937500000 6.537998199463 228 228 228
17.843750000000 11.343750000000 6.542995452881 195 195 195
17.812500000000 11.632812500000 6.548999786377 66 66 66
17.843750000000 11.648437500000 6.535999298096 206 206 206
17.843750000000 11.648437500000 6.632999420166 158 158 158
17.843750000000 11.648437500000 7.487995147705 75 75 75
17.812500000000 11.937500000000 6.535999298096 214 214 214
17.843750000000 11.945312500000 6.537998199463 217 217 217
17.843750000000 11.945312500000 7.482997894287 95 95 95
17.812500000000 12.242187500000 6.535999298096 214 214 214
17.843750000000 12.250000000000 6.577999114990 153 153 153
17.843750000000 12.257812500000 7.463001251221 103 103 103
17.812500000000 12.539062500000 6.539997100830 175 175 175
17.843750000000 12.546875000000 6.535999298096 218 218 218
17.843750000000 12.546875000000 7.513996124268 106 106 106
17.812500000000 12.843750000000 6.525997161865 227 227 227
17.843750000000 12.851562500000 6.528995513916 213 213 213
17.843750000000 12.851562500000 7.465000152588 115 115 115
17.812500000000 13.140625000000 6.551998138428 65 65 65
17.812500000000 13.148437500000 6.529994964600 208 208 208
17.812500000000 13.156250000000 6.617000579834 170 170 170
17.843750000000 13.164062500000 7.465000152588 54 54 54
17.812500000000 13.429687500000 6.526996612549 241 241 241
17.812500000000 13.445312500000 6.514995574951 238 238 238
17.843750000000 13.453125000000 7.469997406006 109 109 109
17.812500000000 13.726562500000 6.536998748779 80 80 80
17.812500000000 13.742187500000 6.520999908447 214 214 214
17.812500000000 13.750000000000 7.509998321533 116 116 116
17.843750000000 13.757812500000 7.434001922607 58 58 58
17.812500000000 14.039062500000 6.524997711182 212 212 212
17.843750000000 14.054687500000 6.518001556396 221 221 221
17.843750000000 14.054687500000 7.453998565674 107 107 107
17.812500000000 14.351562500000 6.529994964600 213 213 213
17.812500000000 14.359375000000 6.567996978760 169 169 169
17.843750000000 14.367187500000 7.423999786377 98 98 98
17.812500000000 14.648437500000 6.518001556396 243 243 243
17.812500000000 14.656250000000 6.518001556396 253 253 253
17.843750000000 14.664062500000 7.476001739502 113 113 113
17.812500000000 14.953125000000 6.513996124268 223 223 223
17.812500000000 14.960937500000 6.534999847412 185 185 185
17.843750000000 14.968750000000 7.408000946045 101 101 101
17.812500000000 15.250000000000 6.539997100830 124 124 124
17.812500000000 15.257812500000 6.511997222900 239 239 239
17.812500000000 15.265625000000 6.559001922607 169 169 169
17.781250000000 15.554687500000 6.520000457764 252 252 252
17.812500000000 15.570312500000 6.515995025635 252 252 252
17.812500000000 15.867187500000 6.512996673584 238 238 238
17.843750000000 15.867187500000 6.522998809814 169 169 169
17.812500000000 16.164062500000 6.519001007080 220 220 220
17.812500000000 16.164062500000 6.524997711182 252 252 252
17.812500000000 16.460937500000 6.518001556396 252 252 252
17.812500000000 16.468750000000 6.533000946045 253 253 253
17.781250000000 16.757812500000 6.524997711182 60 60 60
17.812500000000 16.765625000000 6.511997222900 234 234 234
17.812500000000 16.773437500000 6.534999847412 165 165 165
17.812500000000 17.062500000000 6.520000457764 201 201 201
17.812500000000 17.070312500000 6.521999359131 252 252 252
17.812500000000 17.085937500000 6.598995208740 157 157 157
17.812500000000 17.367187500000 6.512996673584 252 252 252
17.812500000000 17.382812500000 6.542995452881 253 253 253
17.781250000000 17.664062500000 6.533000946045 160 160 160
17.812500000000 17.664062500000 6.518001556396 252 252 252
17.812500000000 17.679687500000 6.523998260498 152 152 152
17.781250000000 17.976562500000 6.511997222900 252 252 252
17.812500000000 17.976562500000 6.525997161865 253 253 253
17.843750000000 17.992187500000 6.620998382568 137 137 137
17.781250000000 18.257812500000 6.542995452881 122 122 122
17.812500000000 18.273437500000 6.513996124268 252 252 252
17.812500000000 18.281250000000 6.535999298096 152 152 152
17.781250000000 18.562500000000 6.510997772217 237 237 237
17.812500000000 18.578125000000 6.535999298096 241 241 241
17.843750000000 18.585937500000 7.340000152588 98 98 98
17.781250000000 18.875000000000 6.517002105713 235 235 235
17.812500000000 18.882812500000 6.518001556396 172 172 172
17.781250000000 19.164062500000 6.518001556396 160 160 160
17.812500000000 19.164062500000 6.507999420166 225 225 225
17.812500000000 19.179687500000 7.414997100830 105 105 105
17.781250000000 19.460937500000 6.493999481201 247 247 247
17.812500000000 19.476562500000 6.549999237061 241 241 241
17.843750000000 19.492187500000 7.325000762939 72 72 72
17.781250000000 19.757812500000 6.523998260498 72 72 72
17.812500000000 19.773437500000 6.500995635986 213 213 213
17.812500000000 19.773437500000 6.564998626709 160 160 160
17.781250000000 20.070312500000 6.507999420166 234 234 234
17.781250000000 20.078125000000 6.520000457764 253 253 253
17.781250000000 20.367187500000 6.496997833252 223 223 223
17.812500000000 20.382812500000 6.517002105713 158 158 158
17.843750000000 20.382812500000 7.340000152588 52 52 52
17.781250000000 20.656250000000 6.520999908447 110 110 110
17.781250000000 20.664062500000 6.493999481201 217 217 217
17.812500000000 20.671875000000 6.566997528076 153 153 153
17.781250000000 20.960937500000 6.498996734619 213 213 213
17.781250000000 20.976562500000 6.524997711182 238 238 238
17.812500000000 20.992187500000 7.351001739502 93 93 93
17.781250000000 21.273437500000 6.492000579834 230 230 230
17.812500000000 21.289062500000 6.517002105713 152 152 152
17.781250000000 21.562500000000 6.525997161865 93 93 93
17.812500000000 21.585937500000 6.491001129150 220 220 220
17.812500000000 21.585937500000 6.555995941162 160 160 160
17.781250000000 21.867187500000 6.490001678467 212 212 212
17.812500000000 21.890625000000 6.504001617432 253 253 253
17.812500000000 21.898437500000 6.556995391846 142 142 142
17.781250000000 22.179687500000 6.489002227783 251 251 251
17.812500000000 22.195312500000 6.501995086670 205 205 205
17.781250000000 22.476562500000 6.485996246338 225 225 225
17.812500000000 22.492187500000 6.521999359131 161 161 161
17.781250000000 22.773437500000 6.481998443604 218 218 218
17.812500000000 22.789062500000 6.493000030518 253 253 253
17.812500000000 22.804687500000 6.557994842529 139 139 139
17.781250000000 23.093750000000 6.484996795654 243 243 243
17.812500000000 23.101562500000 6.490001678467 198 198 198
17.750000000000 23.390625000000 6.492000579834 89 89 89
17.781250000000 23.398437500000 6.478000640869 234 234 234
17.781250000000 23.414062500000 6.531002044678 163 163 163
17.781250000000 23.695312500000 6.478000640869 223 223 223
17.781250000000 23.710937500000 6.485996246338 252 252 252
