23.062500000000 17.250000000000 63.029998779297 163 163 163
23.062500000000 17.250000000000 63.058998107910 168 168 168
23.062500000000 17.250000000000 63.083999633789 182 182 182
23.078125000000 17.250000000000 63.108001708984 189 189 189
23.078125000000 17.250000000000 63.133995056152 184 184 184
23.109375000000 17.250000000000 63.159000396729 161 161 161
23.796875000000 17.218750000000 63.056999206543 173 173 173
23.765625000000 17.234375000000 63.095001220703 186 186 186
23.750000000000 17.218750000000 63.125999450684 180 180 180
23.765625000000 17.218750000000 63.155998229980 169 169 169
23.765625000000 17.218750000000 63.185997009277 152 152 152
23.765625000000 17.218750000000 63.216995239258 92 92 92
23.109375000000 17.250000000000 63.456001281738 103 103 103
23.765625000000 17.218750000000 63.430999755859 23 23 23
23.765625000000 17.218750000000 63.462997436523 114 114 114
23.093750000000 17.062500000000 62.872001647949 166 166 166
23.093750000000 17.062500000000 62.898994445801 217 217 217
23.093750000000 17.062500000000 62.925994873047 216 216 216
23.093750000000 17.062500000000 62.952995300293 218 218 218
23.109375000000 17.062500000000 62.978996276855 222 222 222
23.109375000000 17.062500000000 63.006996154785 223 223 223
23.718750000000 17.031250000000 62.900001525879 194 194 194
23.671875000000 17.031250000000 62.936996459961 176 176 176
23.671875000000 17.046875000000 62.969001770020 174 174 174
23.703125000000 17.031250000000 62.993995666504 210 210 210
23.703125000000 17.031250000000 63.025001525879 190 190 190
23.140625000000 17.062500000000 63.436996459961 46 46 46
23.718750000000 17.031250000000 63.450996398926 44 44 44
23.109375000000 16.859375000000 62.876998901367 169 169 169
23.109375000000 16.859375000000 62.904998779297 218 218 218
23.109375000000 16.859375000000 62.931999206543 220 220 220
23.109375000000 16.859375000000 62.959999084473 221 221 221
23.109375000000 16.859375000000 62.988998413086 221 221 221
23.109375000000 16.859375000000 63.016998291016 220 220 220
23.703125000000 16.843750000000 62.909996032715 187 187 187
23.703125000000 16.859375000000 62.944000244141 221 221 221
23.703125000000 16.843750000000 62.973999023438 223 223 223
23.703125000000 16.843750000000 63.004997253418 222 222 222
23.703125000000 16.843750000000 63.035995483398 196 196 196
23.171875000000 16.875000000000 63.440994262695 61 61 61
23.671875000000 16.843750000000 63.433998107910 61 61 61
23.109375000000 16.687500000000 62.888000488281 185 185 185
23.109375000000 16.687500000000 62.916000366211 218 218 218
23.109375000000 16.671875000000 62.942001342773 218 218 218
23.109375000000 16.671875000000 62.967994689941 220 220 220
23.109375000000 16.671875000000 62.995994567871 221 221 221
23.109375000000 16.671875000000 63.023994445801 219 219 219
23.703125000000 16.656250000000 62.919998168945 225 225 225
23.703125000000 16.656250000000 62.951995849609 224 224 224
23.687500000000 16.656250000000 62.986000061035 224 224 224
23.687500000000 16.656250000000 63.015998840332 218 218 218
23.703125000000 16.656250000000 63.043998718262 123 123 123
23.187500000000 16.671875000000 63.417999267578 78 78 78
23.640625000000 16.656250000000 63.416999816895 72 72 72
23.093750000000 16.468750000000 62.898994445801 212 212 212
23.093750000000 16.484375000000 62.926994323730 218 218 218
23.093750000000 16.484375000000 62.952995300293 220 220 220
23.093750000000 16.484375000000 62.979995727539 222 222 222
23.093750000000 16.468750000000 63.005996704102 217 217 217
23.140625000000 16.468750000000 63.026000976563 238 238 238
23.687500000000 16.468750000000 62.935997009277 224 224 224
23.687500000000 16.468750000000 62.969001770020 222 222 222
23.687500000000 16.468750000000 62.999000549316 222 222 222
23.671875000000 16.468750000000 63.032997131348 185 185 185
23.203125000000 16.468750000000 63.402000427246 76 76 76
23.609375000000 16.468750000000 63.406997680664 41 41 41
23.234375000000 16.281250000000 62.849998474121 246 246 246
23.093750000000 16.281250000000 62.912994384766 216 216 216
23.093750000000 16.281250000000 62.942001342773 220 220 220
23.093750000000 16.281250000000 62.969001770020 220 220 220
23.109375000000 16.281250000000 62.994995117188 223 223 223
23.109375000000 16.281250000000 63.021995544434 231 231 231
23.734375000000 16.281250000000 62.917999267578 217 217 217
23.703125000000 16.281250000000 62.955001831055 226 226 226
23.687500000000 16.281250000000 62.986999511719 224 224 224
23.687500000000 16.281250000000 63.017997741699 211 211 211
23.687500000000 16.281250000000 63.048995971680 175 175 175
23.234375000000 16.281250000000 63.383995056152 77 77 77
23.093750000000 16.093750000000 62.902000427246 195 195 195
23.093750000000 16.093750000000 62.928001403809 219 219 219
23.093750000000 16.093750000000 62.956001281738 214 214 214
23.093750000000 16.093750000000 62.985000610352 217 217 217
23.093750000000 16.093750000000 63.013000488281 218 218 218
23.109375000000 16.093750000000 63.034996032715 225 225 225
23.671875000000 16.078125000000 62.945999145508 210 210 210
23.671875000000 16.078125000000 62.976997375488 212 212 212
23.671875000000 16.078125000000 63.007995605469 215 215 215
23.671875000000 16.078125000000 63.037994384766 189 189 189
23.265625000000 16.093750000000 63.368995666504 75 75 75
23.531250000000 16.062500000000 63.361999511719 71 71 71
23.109375000000 15.890625000000 62.910995483398 211 211 211
23.109375000000 15.906250000000 62.938995361328 218 218 218
23.109375000000 15.906250000000 62.967994689941 218 218 218
23.109375000000 15.906250000000 62.998001098633 219 219 219
23.109375000000 15.906250000000 63.023994445801 219 219 219
23.187500000000 15.906250000000 63.036994934082 243 243 243
23.671875000000 15.875000000000 62.961997985840 221 221 221
23.671875000000 15.875000000000 62.991996765137 224 224 224
23.671875000000 15.875000000000 63.021995544434 224 224 224
23.671875000000 15.875000000000 63.054000854492 189 189 189
23.312500000000 15.890625000000 63.348999023438 70 70 70
23.484375000000 15.875000000000 63.349998474121 69 69 69
23.109375000000 15.703125000000 62.918998718262 217 217 217
23.109375000000 15.718750000000 62.948997497559 218 218 218
23.109375000000 15.703125000000 62.975997924805 221 221 221
23.109375000000 15.703125000000 63.003997802734 220 220 220
23.109375000000 15.718750000000 63.032997131348 221 221 221
23.312500000000 15.703125000000 63.016998291016 245 245 245
23.671875000000 15.687500000000 62.972999572754 223 223 223
23.671875000000 15.687500000000 63.005996704102 224 224 224
23.671875000000 15.687500000000 63.035995483398 207 207 207
23.671875000000 15.687500000000 63.067001342773 147 147 147
23.328125000000 15.703125000000 63.326995849609 25 25 25
23.437500000000 15.687500000000 63.339996337891 69 69 69
23.125000000000 15.515625000000 62.902999877930 117 117 117
23.125000000000 15.515625000000 62.930999755859 215 215 215
23.125000000000 15.515625000000 62.959999084473 217 217 217
23.125000000000 15.515625000000 62.986999511719 218 218 218
23.109375000000 15.531250000000 63.014999389648 220 220 220
23.109375000000 15.515625000000 63.044998168945 218 218 218
23.609375000000 15.500000000000 62.965995788574 221 221 221
23.640625000000 15.500000000000 62.989997863770 223 223 223
23.656250000000 15.500000000000 63.019001007080 224 224 224
23.640625000000 15.500000000000 63.051994323730 186 186 186
23.390625000000 15.500000000000 63.330001831055 83 83 83
23.125000000000 15.312500000000 62.916000366211 184 184 184
23.125000000000 15.312500000000 62.944000244141 219 219 219
23.125000000000 15.312500000000 62.972003936768 222 222 222
23.125000000000 15.312500000000 63.000000000000 218 218 218
23.125000000000 15.312500000000 63.027000427246 218 218 218
23.156250000000 15.312500000000 63.045997619629 232 232 232
23.640625000000 15.312500000000 62.975997924805 223 223 223
23.640625000000 15.312500000000 63.007995605469 223 223 223
23.640625000000 15.312500000000 63.037994384766 215 215 215
23.640625000000 15.312500000000 63.068000793457 166 166 166
23.359375000000 15.312500000000 63.321998596191 109 109 109
23.125000000000 15.125000000000 62.930999755859 214 214 214
23.125000000000 15.125000000000 62.958999633789 218 218 218
23.125000000000 15.125000000000 62.988002777100 219 219 219
23.125000000000 15.125000000000 63.014999389648 221 221 221
23.125000000000 15.125000000000 63.041999816895 222 222 222
23.609375000000 15.125000000000 62.970001220703 218 218 218
23.625000000000 15.125000000000 62.998001098633 224 224 224
23.625000000000 15.125000000000 63.027000427246 227 227 227
23.609375000000 15.125000000000 63.059997558594 179 179 179
23.109375000000 14.921875000000 62.917999267578 149 149 149
23.125000000000 14.937500000000 62.945999145508 218 218 218
23.125000000000 14.937500000000 62.973999023438 218 218 218
23.109375000000 14.921875000000 63.001998901367 218 218 218
23.140625000000 14.921875000000 63.028999328613 221 221 221
23.125000000000 14.937500000000 63.056999206543 216 216 216
23.562500000000 14.921875000000 62.998001098633 164 164 164
23.593750000000 14.921875000000 63.020996093750 174 174 174
23.609375000000 14.921875000000 63.049999237061 200 200 200
23.609375000000 14.921875000000 63.078994750977 155 155 155
23.140625000000 14.734375000000 62.929000854492 182 182 182
23.140625000000 14.734375000000 62.956001281738 217 217 217
23.140625000000 14.734375000000 62.984001159668 218 218 218
23.140625000000 14.734375000000 63.012001037598 220 220 220
23.140625000000 14.734375000000 63.041000366211 219 219 219
23.218750000000 14.734375000000 63.051994323730 227 227 227
23.593750000000 14.718750000000 63.003997802734 222 222 222
23.593750000000 14.718750000000 63.034996032715 219 219 219
23.593750000000 14.718750000000 63.064998626709 191 191 191
23.125000000000 14.531250000000 62.938995361328 203 203 203
23.140625000000 14.546875000000 62.965995788574 219 219 219
23.140625000000 14.546875000000 62.993995666504 220 220 220
23.140625000000 14.531250000000 63.020996093750 222 222 222
23.140625000000 14.546875000000 63.049999237061 221 221 221
23.453125000000 14.531250000000 63.013000488281 217 217 217
23.578125000000 14.531250000000 63.017997741699 224 224 224
23.578125000000 14.531250000000 63.048995971680 223 223 223
23.578125000000 14.531250000000 63.078994750977 187 187 187
23.343750000000 14.531250000000 63.266998291016 51 51 51
23.140625000000 14.359375000000 62.947998046875 213 213 213
23.140625000000 14.343750000000 62.975997924805 218 218 218
23.140625000000 14.359375000000 63.003002166748 219 219 219
23.140625000000 14.359375000000 63.030998229980 219 219 219
23.140625000000 14.359375000000 63.058998107910 218 218 218
23.500000000000 14.343750000000 63.012001037598 221 221 221
23.562500000000 14.343750000000 63.032997131348 222 222 222
23.562500000000 14.343750000000 63.062995910645 208 208 208
23.578125000000 14.343750000000 63.090995788574 140 140 140
23.328125000000 14.343750000000 63.249000549316 67 67 67
23.140625000000 14.156250000000 62.931999206543 110 110 110
23.140625000000 14.156250000000 62.959999084473 219 219 219
23.140625000000 14.156250000000 62.988998413086 218 218 218
23.140625000000 14.156250000000 63.014999389648 219 219 219
23.171875000000 14.156250000000 63.041999816895 226 226 226
23.187500000000 14.156250000000 63.065994262695 219 219 219
23.546875000000 14.156250000000 63.019001007080 221 221 221
23.546875000000 14.156250000000 63.049999237061 220 220 220
23.546875000000 14.156250000000 63.081001281738 184 184 184
23.328125000000 14.156250000000 63.235000610352 70 70 70
23.156250000000 13.968750000000 62.945999145508 203 203 203
23.156250000000 13.953125000000 62.972999572754 219 219 219
23.156250000000 13.968750000000 63.003002166748 220 220 220
23.156250000000 13.968750000000 63.030998229980 220 220 220
23.156250000000 13.968750000000 63.057998657227 222 222 222
23.296875000000 13.968750000000 63.055999755859 216 216 216
23.515625000000 13.968750000000 63.042999267578 222 222 222
23.500000000000 13.953125000000 63.074996948242 195 195 195
23.546875000000 13.953125000000 63.097999572754 99 99 99
23.171875000000 13.750000000000 62.929000854492 44 44 44
23.140625000000 13.750000000000 62.961997985840 216 216 216
23.140625000000 13.750000000000 62.989997863770 202 202 202
23.140625000000 13.750000000000 63.015998840332 219 219 219
23.140625000000 13.750000000000 63.046997070313 209 209 209
23.140625000000 13.750000000000 63.073997497559 215 215 215
23.453125000000 13.750000000000 63.040000915527 185 185 185
23.484375000000 13.750000000000 63.063995361328 200 200 200
23.484375000000 13.750000000000 63.091995239258 167 167 167
23.156250000000 13.562500000000 62.944000244141 63 63 63
23.156250000000 13.562500000000 62.969001770020 192 192 192
23.156250000000 13.562500000000 62.997001647949 198 198 198
23.156250000000 13.562500000000 63.025001525879 202 202 202
23.156250000000 13.562500000000 63.053001403809 200 200 200
23.171875000000 13.562500000000 63.077995300293 199 199 199
23.484375000000 13.562500000000 63.047996520996 217 217 217
23.484375000000 13.562500000000 63.076995849609 201 201 201
23.500000000000 13.562500000000 63.104995727539 154 154 154
23.281250000000 13.562500000000 63.197998046875 70 70 70
23.187500000000 13.375000000000 62.944000244141 29 29 29
23.187500000000 13.375000000000 62.973999023438 218 218 218
23.187500000000 13.375000000000 63.001998901367 220 220 220
23.187500000000 13.375000000000 63.029998779297 219 219 219
23.187500000000 13.375000000000 63.057998657227 219 219 219
23.203125000000 13.375000000000 63.081001281738 219 219 219
23.453125000000 13.375000000000 63.059997558594 220 220 220
23.453125000000 13.375000000000 63.090995788574 215 215 215
23.453125000000 13.375000000000 63.118995666504 143 143 143
23.390625000000 13.375000000000 63.159996032715 157 157 157
23.437500000000 13.375000000000 63.180999755859 154 154 154
23.437500000000 13.375000000000 63.210998535156 151 151 151
23.437500000000 13.375000000000 63.238998413086 100 100 100
23.187500000000 13.187500000000 62.952995300293 134 134 134
23.171875000000 13.187500000000 62.984001159668 218 218 218
23.171875000000 13.187500000000 63.013000488281 220 220 220
23.171875000000 13.187500000000 63.041999816895 211 211 211
23.171875000000 13.187500000000 63.069999694824 217 217 217
23.296875000000 13.187500000000 63.070999145508 219 219 219
23.453125000000 13.187500000000 63.072998046875 218 218 218
23.453125000000 13.187500000000 63.103996276855 188 188 188
23.281250000000 13.187500000000 63.159996032715 69 69 69
23.171875000000 13.000000000000 62.970001220703 200 200 200
23.171875000000 13.000000000000 62.999000549316 209 209 209
23.171875000000 13.000000000000 63.027999877930 184 184 184
23.171875000000 12.984375000000 63.055999755859 216 216 216
23.171875000000 13.000000000000 63.083000183105 213 213 213
23.437500000000 12.984375000000 63.060997009277 224 224 224
23.421875000000 12.984375000000 63.091995239258 218 218 218
23.312500000000 12.984375000000 63.141998291016 88 88 88
23.203125000000 12.781250000000 62.953994750977 66 66 66
23.171875000000 12.781250000000 62.986999511719 218 218 218
23.171875000000 12.781250000000 63.016998291016 191 191 191
23.171875000000 12.781250000000 63.044998168945 193 193 193
23.171875000000 12.781250000000 63.071998596191 218 218 218
23.234375000000 12.781250000000 63.084999084473 212 212 212
23.406250000000 12.781250000000 63.083000183105 214 214 214
23.359375000000 12.781250000000 63.118995666504 160 160 160
23.187500000000 12.593750000000 62.972999572754 168 168 168
23.187500000000 12.593750000000 63.000999450684 219 219 219
23.187500000000 12.593750000000 63.029998779297 210 210 210
23.187500000000 12.593750000000 63.059997558594 212 212 212
23.187500000000 12.593750000000 63.085998535156 215 215 215
23.375000000000 12.593750000000 63.073997497559 221 221 221
23.359375000000 12.593750000000 63.106994628906 198 198 198
23.187500000000 12.406250000000 62.983001708984 200 200 200
23.187500000000 12.406250000000 63.013000488281 202 202 202
23.187500000000 12.406250000000 63.040000915527 171 171 171
23.171875000000 12.390625000000 63.069999694824 216 216 216
23.187500000000 12.406250000000 63.094001770020 212 212 212
23.343750000000 12.406250000000 63.091995239258 209 209 209
23.359375000000 12.390625000000 63.116996765137 158 158 158
23.171875000000 12.218750000000 62.992996215820 205 205 205
23.171875000000 12.203125000000 63.023994445801 203 203 203
23.171875000000 12.203125000000 63.051994323730 191 191 191
23.171875000000 12.218750000000 63.081001281738 212 212 212
23.203125000000 12.218750000000 63.100997924805 200 200 200
23.359375000000 12.218750000000 63.101997375488 217 217 217
23.390625000000 12.218750000000 63.123001098633 24 24 24
23.187500000000 12.031250000000 62.973999023438 70 70 70
23.171875000000 12.015625000000 63.006996154785 218 218 218
23.140625000000 12.015625000000 63.036994934082 202 202 202
23.171875000000 12.031250000000 63.064998626709 203 203 203
23.171875000000 12.015625000000 63.091995239258 216 216 216
23.328125000000 12.015625000000 63.088996887207 220 220 220
23.328125000000 12.015625000000 63.116996765137 187 187 187
23.171875000000 11.812500000000 62.993995666504 185 185 185
23.171875000000 11.812500000000 63.021995544434 214 214 214
23.171875000000 11.812500000000 63.050994873047 198 198 198
23.171875000000 11.812500000000 63.078994750977 219 219 219
23.203125000000 11.812500000000 63.101997375488 212 212 212
23.328125000000 11.812500000000 63.108001708984 216 216 216
23.218750000000 11.625000000000 62.974998474121 39 39 39
23.171875000000 11.625000000000 63.011001586914 218 218 218
23.187500000000 11.625000000000 63.039001464844 220 220 220
23.187500000000 11.625000000000 63.068000793457 222 222 222
23.187500000000 11.625000000000 63.095001220703 222 222 222
23.281250000000 11.625000000000 63.103996276855 204 204 204
23.328125000000 11.625000000000 63.125999450684 94 94 94
23.203125000000 11.437500000000 62.994995117188 157 157 157
23.203125000000 11.437500000000 63.023994445801 218 218 218
23.203125000000 11.437500000000 63.050994873047 220 220 220
23.171875000000 11.437500000000 63.081001281738 219 219 219
23.203125000000 11.437500000000 63.109001159668 215 215 215
23.265625000000 11.421875000000 63.119995117188 196 196 196
23.187500000000 11.250000000000 63.005996704102 173 173 173
23.187500000000 11.250000000000 63.032997131348 219 219 219
23.187500000000 11.250000000000 63.061996459961 219 219 219
23.187500000000 11.250000000000 63.089996337891 220 220 220
23.218750000000 11.250000000000 63.113998413086 213 213 213
23.265625000000 11.234375000000 63.130996704102 117 117 117
23.187500000000 11.062500000000 63.013999938965 196 196 196
23.187500000000 11.062500000000 63.042999267578 219 219 219
23.187500000000 11.062500000000 63.070999145508 219 219 219
23.187500000000 11.062500000000 63.101997375488 218 218 218
23.218750000000 11.062500000000 63.123001098633 203 203 203
23.203125000000 10.843750000000 63.026000976563 218 218 218
23.203125000000 10.843750000000 63.054000854492 220 220 220
23.203125000000 10.843750000000 63.084999084473 218 218 218
23.203125000000 10.843750000000 63.113002777100 217 217 217
23.234375000000 10.843750000000 63.131996154785 142 142 142
23.187500000000 10.656250000000 63.015998840332 184 184 184
23.187500000000 10.656250000000 63.044998168945 219 219 219
23.187500000000 10.656250000000 63.072998046875 219 219 219
23.187500000000 10.656250000000 63.102996826172 220 220 220
23.187500000000 10.656250000000 63.128997802734 178 178 178
23.187500000000 10.468750000000 63.034000396729 215 215 215
23.187500000000 10.468750000000 63.061996459961 218 218 218
23.171875000000 10.453125000000 63.092994689941 219 219 219
23.187500000000 10.468750000000 63.117996215820 217 217 217
23.234375000000 10.453125000000 63.138999938965 30 30 30
23.171875000000 10.265625000000 63.019001007080 146 146 146
23.171875000000 10.265625000000 63.049999237061 219 219 219
23.171875000000 10.265625000000 63.077995300293 218 218 218
23.171875000000 10.265625000000 63.106994628906 220 220 220
23.171875000000 10.265625000000 63.133995056152 195 195 195
23.171875000000 10.078125000000 63.028999328613 151 151 151
23.156250000000 10.062500000000 63.059997558594 175 175 175
23.156250000000 10.062500000000 63.087997436523 177 177 177
23.171875000000 10.078125000000 63.115997314453 177 177 177
23.171875000000 10.078125000000 63.144001007080 143 143 143
23.203125000000 10.156250000000 63.125000000000 185 185 185
23.171875000000 10.187500000000 63.097999572754 204 204 204
23.187500000000 10.171875000000 63.062995910645 206 206 206
23.203125000000 10.171875000000 63.028999328613 191 191 191
23.234375000000 10.468750000000 63.131996154785 113 113 113
23.187500000000 10.484375000000 63.108001708984 205 205 205
23.187500000000 10.468750000000 63.072998046875 213 213 213
23.187500000000 10.468750000000 63.039001464844 201 201 201
23.218750000000 10.796875000000 63.114997863770 196 196 196
23.187500000000 10.796875000000 63.085998535156 211 211 211
23.203125000000 10.796875000000 63.050994873047 213 213 213
23.218750000000 10.796875000000 63.016998291016 205 205 205
23.250000000000 11.093750000000 63.120994567871 170 170 170
23.203125000000 11.125000000000 63.099998474121 210 210 210
23.187500000000 11.125000000000 63.068000793457 210 210 210
23.203125000000 11.125000000000 63.034996032715 213 213 213
23.203125000000 11.125000000000 62.999000549316 167 167 167
23.281250000000 11.406250000000 63.098999023438 209 209 209
23.203125000000 11.437500000000 63.086997985840 212 212 212
23.187500000000 11.437500000000 63.055000305176 211 211 211
23.203125000000 11.437500000000 63.019996643066 212 212 212
23.312500000000 11.375000000000 62.956001281738 12 12 12
23.343750000000 11.687500000000 63.104995727539 197 197 197
23.218750000000 11.750000000000 63.097999572754 184 184 184
23.187500000000 11.781250000000 63.071998596191 197 197 197
23.187500000000 11.765625000000 63.036994934082 169 169 169
23.187500000000 11.765625000000 63.004997253418 204 204 204
23.343750000000 12.000000000000 63.111000061035 177 177 177
23.328125000000 12.000000000000 63.077995300293 211 211 211
23.187500000000 12.093750000000 63.084999084473 206 206 206
23.187500000000 12.093750000000 63.049999237061 204 204 204
23.187500000000 12.093750000000 63.016998291016 195 195 195
23.187500000000 12.093750000000 62.983001708984 170 170 170
23.390625000000 12.281250000000 63.111000061035 146 146 146
23.375000000000 12.312500000000 63.083999633789 204 204 204
23.203125000000 12.390625000000 63.085998535156 204 204 204
23.187500000000 12.406250000000 63.060997009277 203 203 203
23.187500000000 12.406250000000 63.028999328613 192 192 192
23.203125000000 12.406250000000 62.991996765137 204 204 204
23.390625000000 12.593750000000 63.091995239258 198 198 198
23.390625000000 12.593750000000 63.057998657227 211 211 211
23.187500000000 12.734375000000 63.076995849609 203 203 203
23.187500000000 12.734375000000 63.044998168945 184 184 184
23.187500000000 12.718750000000 63.008995056152 176 176 176
23.187500000000 12.718750000000 62.974998474121 201 201 201
23.406250000000 12.906250000000 63.105995178223 170 170 170
23.421875000000 12.906250000000 63.068000793457 217 217 217
23.328125000000 12.968750000000 63.058998107910 217 217 217
23.187500000000 13.046875000000 63.061996459961 209 209 209
23.187500000000 13.062500000000 63.029998779297 159 159 159
23.187500000000 13.046875000000 62.994995117188 189 189 189
23.187500000000 13.062500000000 62.960998535156 184 184 184
23.484375000000 13.187500000000 63.109001159668 52 52 52
23.453125000000 13.203125000000 63.077995300293 215 215 215
23.453125000000 13.218750000000 63.043998718262 217 217 217
23.203125000000 13.359375000000 63.072998046875 208 208 208
23.187500000000 13.375000000000 63.042999267578 212 212 212
23.187500000000 13.375000000000 63.008995056152 209 209 209
23.187500000000 13.375000000000 62.975997924805 206 206 206
23.187500000000 13.375000000000 62.944000244141 108 108 108
23.515625000000 13.484375000000 63.281997680664 27 27 27
23.453125000000 13.531250000000 63.258995056152 121 121 121
23.453125000000 13.531250000000 63.225997924805 160 160 160
23.453125000000 13.531250000000 63.189998626709 163 163 163
23.421875000000 13.531250000000 63.162994384766 159 159 159
23.484375000000 13.515625000000 63.118995666504 159 159 159
23.484375000000 13.515625000000 63.083999633789 190 190 190
23.484375000000 13.515625000000 63.047996520996 197 197 197
23.375000000000 13.593750000000 63.042999267578 213 213 213
23.156250000000 13.687500000000 63.060997009277 212 212 212
23.156250000000 13.687500000000 63.028999328613 207 207 207
23.171875000000 13.703125000000 62.993995666504 208 208 208
23.171875000000 13.703125000000 62.961997985840 207 207 207
23.328125000000 13.937500000000 63.197998046875 42 42 42
23.515625000000 13.812500000000 63.088996887207 168 168 168
23.515625000000 13.812500000000 63.053001403809 165 165 165
23.484375000000 13.828125000000 63.026000976563 125 125 125
23.171875000000 14.031250000000 63.071998596191 190 190 190
23.156250000000 14.031250000000 63.040000915527 200 200 200
23.156250000000 14.031250000000 63.009994506836 212 212 212
23.156250000000 14.031250000000 62.975997924805 203 203 203
23.156250000000 14.031250000000 62.939998626709 191 191 191
23.562500000000 14.093750000000 63.091995239258 94 94 94
23.546875000000 14.109375000000 63.061996459961 199 199 199
23.562500000000 14.093750000000 63.023994445801 212 212 212
23.546875000000 14.109375000000 62.990997314453 210 210 210
23.156250000000 14.343750000000 63.057998657227 209 209 209
23.156250000000 14.343750000000 63.023994445801 210 210 210
23.156250000000 14.343750000000 62.991996765137 213 213 213
23.156250000000 14.343750000000 62.958000183105 211 211 211
23.156250000000 14.343750000000 62.925994873047 150 150 150
23.343750000000 14.531250000000 63.254997253418 50 50 50
23.578125000000 14.406250000000 63.069999694824 172 172 172
23.562500000000 14.406250000000 63.034996032715 214 214 214
23.578125000000 14.406250000000 62.999000549316 215 215 215
23.140625000000 14.656250000000 63.040000915527 213 213 213
23.140625000000 14.656250000000 63.007995605469 210 210 210
23.140625000000 14.656250000000 62.973999023438 211 211 211
23.140625000000 14.656250000000 62.939998626709 208 208 208
23.359375000000 14.843750000000 63.265998840332 47 47 47
23.593750000000 14.718750000000 63.077995300293 163 163 163
23.593750000000 14.718750000000 63.043998718262 208 208 208
23.593750000000 14.718750000000 63.006996154785 218 218 218
23.593750000000 14.718750000000 62.972003936768 214 214 214
23.156250000000 14.984375000000 63.049999237061 208 208 208
23.140625000000 14.984375000000 63.021995544434 205 205 205
23.140625000000 14.984375000000 62.989997863770 210 210 210
23.140625000000 14.968750000000 62.955001831055 199 199 199
23.140625000000 14.984375000000 62.922996520996 192 192 192
23.625000000000 15.031250000000 63.050994873047 191 191 191
23.625000000000 15.031250000000 63.015998840332 213 213 213
23.625000000000 15.031250000000 62.978996276855 214 214 214
23.593750000000 15.031250000000 62.949996948242 210 210 210
23.125000000000 15.312500000000 63.037994384766 212 212 212
23.125000000000 15.312500000000 63.005996704102 211 211 211
23.125000000000 15.312500000000 62.971000671387 211 211 211
23.140625000000 15.312500000000 62.937995910645 209 209 209
23.125000000000 15.312500000000 62.906997680664 145 145 145
23.390625000000 15.468750000000 63.319999694824 57 57 57
23.656250000000 15.328125000000 63.060997009277 153 153 153
23.640625000000 15.343750000000 63.027999877930 209 209 209
23.656250000000 15.328125000000 62.990997314453 216 216 216
23.640625000000 15.343750000000 62.956001281738 217 217 217
23.656250000000 15.328125000000 62.917999267578 192 192 192
23.125000000000 15.656250000000 63.019996643066 213 213 213
23.125000000000 15.656250000000 62.988002777100 213 213 213
23.125000000000 15.656250000000 62.955001831055 211 211 211
23.125000000000 15.656250000000 62.922996520996 211 211 211
23.125000000000 15.656250000000 62.892997741699 112 112 112
23.359375000000 15.812500000000 63.347003936768 40 40 40
23.656250000000 15.625000000000 63.041000366211 190 190 190
23.656250000000 15.640625000000 63.006996154785 215 215 215
23.656250000000 15.625000000000 62.969001770020 216 216 216
23.656250000000 15.640625000000 62.934997558594 205 205 205
23.125000000000 15.968750000000 63.036994934082 207 207 207
23.125000000000 15.968750000000 63.008995056152 217 217 217
23.125000000000 15.968750000000 62.974998474121 211 211 211
23.125000000000 15.968750000000 62.944999694824 198 198 198
23.125000000000 15.968750000000 62.910995483398 206 206 206
23.515625000000 16.031250000000 63.363998413086 57 57 57
23.281250000000 16.171875000000 63.373001098633 30 30 30
23.671875000000 15.937500000000 63.050994873047 165 165 165
23.671875000000 15.937500000000 63.016998291016 198 198 198
23.671875000000 15.937500000000 62.979995727539 165 165 165
23.609375000000 15.984375000000 62.961997985840 115 115 115
23.671875000000 15.937500000000 62.909996032715 191 191 191
23.109375000000 16.281250000000 63.022994995117 213 213 213
23.109375000000 16.281250000000 62.989997863770 215 215 215
23.109375000000 16.281250000000 62.958999633789 212 212 212
23.109375000000 16.281250000000 62.923995971680 212 212 212
23.109375000000 16.296875000000 62.894996643066 187 187 187
23.593750000000 16.312500000000 63.368995666504 31 31 31
23.218750000000 16.531250000000 63.397994995117 42 42 42
23.703125000000 16.250000000000 63.028999328613 185 185 185
23.703125000000 16.250000000000 62.993995666504 213 213 213
23.703125000000 16.250000000000 62.955001831055 213 213 213
23.703125000000 16.250000000000 62.920997619629 213 213 213
23.718750000000 16.250000000000 62.878002166748 169 169 169
23.109375000000 16.593750000000 63.004997253418 215 215 215
23.109375000000 16.593750000000 62.973999023438 212 212 212
23.125000000000 16.609375000000 62.939998626709 210 210 210
23.109375000000 16.593750000000 62.909000396729 210 210 210
23.109375000000 16.609375000000 62.876998901367 170 170 170
23.656250000000 16.593750000000 63.409000396729 27 27 27
23.171875000000 16.890625000000 63.421997070313 46 46 46
23.703125000000 16.562500000000 63.040000915527 136 136 136
23.703125000000 16.562500000000 63.007995605469 201 201 201
23.703125000000 16.562500000000 62.971000671387 213 213 213
23.703125000000 16.562500000000 62.934997558594 213 213 213
23.703125000000 16.578125000000 62.900001525879 202 202 202
23.109375000000 16.937500000000 63.019001007080 191 191 191
23.109375000000 16.937500000000 62.988998413086 212 212 212
23.109375000000 16.937500000000 62.955001831055 207 207 207
23.109375000000 16.937500000000 62.922996520996 211 211 211
23.109375000000 16.937500000000 62.891998291016 210 210 210
23.109375000000 16.937500000000 62.856994628906 67 67 67
23.703125000000 16.875000000000 63.420997619629 53 53 53
23.109375000000 17.234375000000 63.449996948242 95 95 95
23.078125000000 17.281250000000 63.208000183105 36 36 36
23.078125000000 17.265625000000 63.172996520996 138 138 138
23.734375000000 16.875000000000 62.986999511719 169 169 169
23.734375000000 16.875000000000 62.949996948242 169 169 169
23.078125000000 17.265625000000 63.078994750977 164 164 164
23.078125000000 17.265625000000 63.045997619629 156 156 156
23.093750000000 17.265625000000 63.013000488281 150 150 150
23.109375000000 17.250000000000 62.978996276855 142 142 142
23.109375000000 17.250000000000 62.945999145508 156 156 156
23.109375000000 17.250000000000 62.914001464844 155 155 155
23.109375000000 17.250000000000 62.881996154785 149 149 149
23.203125000000 17.203125000000 62.818000793457 15 15 15
23.750000000000 16.859375000000 63.019001007080 159 159 159
23.765625000000 17.156250000000 63.435997009277 23 23 23
23.734375000000 17.187500000000 63.009994506836 147 147 147
23.703125000000 17.187500000000 62.976997375488 148 148 148
23.734375000000 17.187500000000 62.939998626709 153 153 153
23.703125000000 17.218750000000 62.909996032715 143 143 143
23.171875000000 17.515625000000 63.009994506836 164 164 164
23.109375000000 17.562500000000 62.998001098633 145 145 145
23.109375000000 17.562500000000 62.967994689941 149 149 149
23.109375000000 17.562500000000 62.936996459961 148 148 148
23.109375000000 17.562500000000 62.903999328613 146 146 146
23.109375000000 17.562500000000 62.868995666504 141 141 141
23.171875000000 17.531250000000 62.815994262695 181 181 181
23.234375000000 17.500000000000 62.763000488281 182 182 182
23.250000000000 17.500000000000 62.726997375488 195 195 195
23.234375000000 17.500000000000 62.700996398926 172 172 172
23.234375000000 17.500000000000 62.666999816895 167 167 167
23.218750000000 17.500000000000 62.633995056152 168 168 168
23.218750000000 17.500000000000 62.599998474121 173 173 173
23.218750000000 17.515625000000 62.567001342773 173 173 173
23.218750000000 17.515625000000 62.534996032715 175 175 175
23.218750000000 17.515625000000 62.499000549316 175 175 175
23.218750000000 17.515625000000 62.463996887207 176 176 176
23.218750000000 17.515625000000 62.429000854492 177 177 177
23.218750000000 17.515625000000 62.394996643066 177 177 177
23.218750000000 17.531250000000 62.363002777100 180 180 180
23.187500000000 17.531250000000 62.265998840332 190 190 190
23.218750000000 17.515625000000 62.180000305176 162 162 162
23.203125000000 17.531250000000 62.151000976563 162 162 162
23.156250000000 17.562500000000 62.136001586914 169 169 169
23.156250000000 17.546875000000 62.097003936768 165 165 165
23.578125000000 17.593750000000 63.069999694824 95 95 95
23.421875000000 17.687500000000 63.069999694824 110 110 110
23.281250000000 17.781250000000 63.071998596191 150 150 150
23.234375000000 17.812500000000 63.046997070313 183 183 183
23.234375000000 17.812500000000 63.015998840332 177 177 177
23.218750000000 17.812500000000 62.986000061035 175 175 175
23.015625000000 17.937500000000 63.006996154785 138 138 138
23.046875000000 17.906250000000 62.967994689941 133 133 133
23.046875000000 17.906250000000 62.934997558594 136 136 136
23.046875000000 17.906250000000 62.903999328613 133 133 133
23.046875000000 17.906250000000 62.872001647949 132 132 132
23.046875000000 17.937500000000 62.845001220703 129 129 129
23.218750000000 17.812500000000 62.753997802734 173 173 173
23.234375000000 17.812500000000 62.714996337891 170 170 170
23.234375000000 17.812500000000 62.682998657227 174 174 174
23.234375000000 17.812500000000 62.650001525879 174 174 174
23.234375000000 17.812500000000 62.613998413086 177 177 177
23.234375000000 17.812500000000 62.583000183105 176 176 176
23.234375000000 17.812500000000 62.546997070313 176 176 176
23.234375000000 17.812500000000 62.513999938965 178 178 178
23.203125000000 17.812500000000 62.481994628906 179 179 179
23.234375000000 17.812500000000 62.445999145508 176 176 176
23.203125000000 17.812500000000 62.412994384766 173 173 173
23.203125000000 17.812500000000 62.376998901367 168 168 168
23.296875000000 17.781250000000 62.315994262695 168 168 168
23.328125000000 17.781250000000 62.269001007080 167 167 167
23.328125000000 17.765625000000 62.229995727539 160 160 160
23.328125000000 17.750000000000 62.189998626709 160 160 160
23.328125000000 17.765625000000 62.155998229980 165 165 165
23.328125000000 17.781250000000 62.125000000000 167 167 167
23.593750000000 17.906250000000 63.046997070313 148 148 148
23.578125000000 17.921875000000 63.014999389648 150 150 150
23.578125000000 17.906250000000 62.978996276855 157 157 157
23.578125000000 17.906250000000 62.943000793457 155 155 155
23.578125000000 17.921875000000 62.909000396729 155 155 155
22.953125000000 18.296875000000 63.043998718262 132 132 132
22.859375000000 18.359375000000 63.040000915527 144 144 144
22.843750000000 18.359375000000 63.011001586914 155 155 155
22.843750000000 18.359375000000 62.980995178223 151 151 151
22.843750000000 18.375000000000 62.952995300293 153 153 153
22.843750000000 18.375000000000 62.921997070313 155 155 155
22.843750000000 18.375000000000 62.889999389648 156 156 156
22.843750000000 18.375000000000 62.859001159668 153 153 153
22.843750000000 18.375000000000 62.831001281738 153 153 153
23.609375000000 17.906250000000 62.541999816895 143 143 143
23.562500000000 17.937500000000 62.519996643066 153 153 153
23.546875000000 17.937500000000 62.488002777100 153 153 153
23.546875000000 17.937500000000 62.450996398926 151 151 151
23.546875000000 17.937500000000 62.415000915527 151 151 151
23.531250000000 17.953125000000 62.378997802734 150 150 150
23.875000000000 18.046875000000 62.961997985840 144 144 144
23.875000000000 18.062500000000 62.924999237061 145 145 145
23.875000000000 18.062500000000 62.888999938965 136 136 136
23.875000000000 18.062500000000 62.850997924805 150 150 150
23.921875000000 18.031250000000 62.801994323730 216 216 216
23.953125000000 18.328125000000 63.006996154785 124 124 124
23.921875000000 18.343750000000 62.977996826172 149 149 149
23.890625000000 18.359375000000 62.946998596191 152 152 152
23.890625000000 18.375000000000 62.910995483398 143 143 143
23.890625000000 18.375000000000 62.876998901367 148 148 148
23.890625000000 18.375000000000 62.838996887207 139 139 139
23.921875000000 18.359375000000 62.792999267578 147 147 147
23.171875000000 10.296875000000 63.125999450684 188 188 188
23.203125000000 10.296875000000 63.096000671387 222 222 222
23.171875000000 10.296875000000 63.069000244141 217 217 217
23.203125000000 10.296875000000 63.036994934082 217 217 217
23.203125000000 10.296875000000 63.009994506836 147 147 147
23.218750000000 10.609375000000 63.133995056152 97 97 97
23.203125000000 10.609375000000 63.110000610352 219 219 219
23.203125000000 10.609375000000 63.081001281738 218 218 218
23.218750000000 10.609375000000 63.048995971680 221 221 221
23.203125000000 10.609375000000 63.022994995117 215 215 215
23.203125000000 10.937500000000 63.117996215820 204 204 204
23.171875000000 10.921875000000 63.092994689941 218 218 218
23.171875000000 10.921875000000 63.063995361328 217 217 217
23.203125000000 10.937500000000 63.034000396729 220 220 220
23.203125000000 10.937500000000 63.006996154785 179 179 179
23.265625000000 11.250000000000 63.119995117188 180 180 180
23.203125000000 11.250000000000 63.105995178223 216 216 216
23.187500000000 11.250000000000 63.078994750977 218 218 218
23.203125000000 11.250000000000 63.048995971680 218 218 218
23.203125000000 11.250000000000 63.017997741699 218 218 218
23.218750000000 11.250000000000 62.986999511719 88 88 88
23.328125000000 11.562500000000 63.122001647949 69 69 69
23.281250000000 11.562500000000 63.101997375488 209 209 209
23.187500000000 11.562500000000 63.092994689941 216 216 216
23.187500000000 11.562500000000 63.062995910645 212 212 212
23.187500000000 11.562500000000 63.034996032715 213 213 213
23.203125000000 11.578125000000 63.003997802734 214 214 214
23.328125000000 11.875000000000 63.108001708984 201 201 201
23.250000000000 11.875000000000 63.094001770020 214 214 214
23.171875000000 11.875000000000 63.080001831055 216 216 216
23.171875000000 11.875000000000 63.054000854492 187 187 187
23.171875000000 11.875000000000 63.022994995117 194 194 194
23.171875000000 11.875000000000 62.995994567871 208 208 208
23.359375000000 12.187500000000 63.115997314453 120 120 120
23.359375000000 12.203125000000 63.087997436523 218 218 218
23.187500000000 12.203125000000 63.091995239258 207 207 207
23.171875000000 12.203125000000 63.065994262695 218 218 218
23.171875000000 12.203125000000 63.037994384766 180 180 180
23.171875000000 12.203125000000 63.008995056152 215 215 215
23.171875000000 12.203125000000 62.979995727539 183 183 183
23.375000000000 12.515625000000 63.097003936768 206 206 206
23.328125000000 12.515625000000 63.074996948242 209 209 209
23.187500000000 12.531250000000 63.077995300293 215 215 215
23.187500000000 12.531250000000 63.049999237061 218 218 218
23.187500000000 12.531250000000 63.017997741699 219 219 219
23.187500000000 12.531250000000 62.990997314453 219 219 219
23.203125000000 12.531250000000 62.960998535156 97 97 97
23.390625000000 12.843750000000 63.104995727539 196 196 196
23.421875000000 12.843750000000 63.071998596191 217 217 217
23.234375000000 12.843750000000 63.077995300293 218 218 218
23.187500000000 12.843750000000 63.062995910645 219 219 219
23.187500000000 12.843750000000 63.034000396729 202 202 202
23.187500000000 12.843750000000 63.004997253418 206 206 206
23.187500000000 12.843750000000 62.974998474121 208 208 208
23.453125000000 13.156250000000 63.110000610352 82 82 82
23.421875000000 13.140625000000 63.081001281738 218 218 218
23.453125000000 13.156250000000 63.049999237061 221 221 221
23.171875000000 13.156250000000 63.073997497559 213 213 213
23.171875000000 13.156250000000 63.045997619629 204 204 204
23.187500000000 13.156250000000 63.016998291016 165 165 165
23.187500000000 13.156250000000 62.988002777100 212 212 212
23.171875000000 13.156250000000 62.960998535156 190 190 190
23.468750000000 13.468750000000 63.269996643066 121 121 121
23.453125000000 13.468750000000 63.243995666504 179 179 179
23.468750000000 13.468750000000 63.211997985840 178 178 178
23.468750000000 13.468750000000 63.181999206543 164 164 164
23.421875000000 13.468750000000 63.157997131348 167 167 167
23.453125000000 13.468750000000 63.125000000000 146 146 146
23.437500000000 13.468750000000 63.097999572754 165 165 165
23.468750000000 13.468750000000 63.062995910645 167 167 167
23.328125000000 13.468750000000 63.061996459961 191 191 191
23.187500000000 13.468750000000 63.058998107910 221 221 221
23.187500000000 13.468750000000 63.031997680664 218 218 218
23.187500000000 13.468750000000 63.003002166748 220 220 220
23.187500000000 13.468750000000 62.974998474121 218 218 218
23.187500000000 13.468750000000 62.947998046875 171 171 171
23.328125000000 13.781250000000 63.190994262695 65 65 65
23.515625000000 13.781250000000 63.098999023438 124 124 124
23.484375000000 13.781250000000 63.070999145508 203 203 203
23.484375000000 13.781250000000 63.041999816895 177 177 177
23.171875000000 13.781250000000 63.075996398926 197 197 197
23.156250000000 13.781250000000 63.050994873047 223 223 223
23.156250000000 13.781250000000 63.022994995117 219 219 219
23.156250000000 13.781250000000 62.993995666504 217 217 217
23.140625000000 13.796875000000 62.966995239258 219 219 219
23.140625000000 13.796875000000 62.939998626709 178 178 178
23.328125000000 14.109375000000 63.231994628906 34 34 34
23.531250000000 14.109375000000 63.075996398926 185 185 185
23.531250000000 14.109375000000 63.044998168945 218 218 218
23.546875000000 14.093750000000 63.014999389648 217 217 217
23.171875000000 14.125000000000 63.062995910645 216 216 216
23.140625000000 14.125000000000 63.036994934082 218 218 218
23.140625000000 14.125000000000 63.007995605469 217 217 217
23.140625000000 14.125000000000 62.979995727539 215 215 215
23.140625000000 14.125000000000 62.951995849609 219 219 219
23.343750000000 14.421875000000 63.238002777100 67 67 67
23.578125000000 14.406250000000 63.078994750977 164 164 164
23.562500000000 14.406250000000 63.050994873047 217 217 217
23.578125000000 14.421875000000 63.019001007080 221 221 221
23.453125000000 14.421875000000 63.013000488281 218 218 218
23.140625000000 14.437500000000 63.046997070313 219 219 219
23.140625000000 14.437500000000 63.020996093750 216 216 216
23.140625000000 14.437500000000 62.989997863770 217 217 217
23.140625000000 14.437500000000 62.960998535156 221 221 221
23.140625000000 14.437500000000 62.936996459961 197 197 197
23.625000000000 14.750000000000 63.083999633789 42 42 42
23.578125000000 14.734375000000 63.059997558594 191 191 191
23.609375000000 14.734375000000 63.027999877930 219 219 219
23.609375000000 14.734375000000 62.997001647949 223 223 223
23.203125000000 14.750000000000 63.051994323730 223 223 223
23.156250000000 14.750000000000 63.030998229980 219 219 219
23.156250000000 14.750000000000 63.003002166748 221 221 221
23.140625000000 14.750000000000 62.975997924805 217 217 217
23.140625000000 14.750000000000 62.946998596191 221 221 221
23.140625000000 14.750000000000 62.920997619629 162 162 162
23.375000000000 15.062500000000 63.289001464844 65 65 65
23.609375000000 15.062500000000 63.069999694824 174 174 174
23.625000000000 15.062500000000 63.037994384766 217 217 217
23.625000000000 15.062500000000 63.005996704102 222 222 222
23.609375000000 15.062500000000 62.978996276855 222 222 222
23.156250000000 15.062500000000 63.044998168945 220 220 220
23.125000000000 15.062500000000 63.020996093750 217 217 217
23.140625000000 15.062500000000 62.991996765137 216 216 216
23.140625000000 15.062500000000 62.963996887207 216 216 216
23.140625000000 15.062500000000 62.934997558594 216 216 216
23.125000000000 15.062500000000 62.909996032715 112 112 112
23.375000000000 15.375000000000 63.299999237061 98 98 98
23.625000000000 15.375000000000 63.049999237061 181 181 181
23.656250000000 15.375000000000 63.014999389648 229 229 229
23.625000000000 15.375000000000 62.988002777100 220 220 220
23.625000000000 15.375000000000 62.958999633789 223 223 223
23.109375000000 15.375000000000 63.035995483398 218 218 218
23.140625000000 15.375000000000 63.004997253418 219 219 219
23.140625000000 15.375000000000 62.976997375488 217 217 217
23.109375000000 15.375000000000 62.950996398926 217 217 217
23.140625000000 15.375000000000 62.920997619629 215 215 215
23.109375000000 15.375000000000 62.895996093750 61 61 61
23.437500000000 15.687500000000 63.333000183105 71 71 71
23.671875000000 15.687500000000 63.059997558594 172 172 172
23.671875000000 15.687500000000 63.027000427246 218 218 218
23.671875000000 15.687500000000 62.995994567871 223 223 223
23.671875000000 15.687500000000 62.965995788574 222 222 222
23.171875000000 15.718750000000 63.034996032715 245 245 245
23.109375000000 15.703125000000 63.020996093750 220 220 220
23.125000000000 15.718750000000 62.991996765137 218 218 218
23.125000000000 15.718750000000 62.963996887207 220 220 220
23.125000000000 15.718750000000 62.935997009277 216 216 216
23.109375000000 15.703125000000 62.909000396729 205 205 205
23.500000000000 16.000000000000 63.365997314453 39 39 39
23.671875000000 16.015625000000 63.036994934082 193 193 193
23.671875000000 16.015625000000 63.006996154785 208 208 208
23.656250000000 16.000000000000 62.977996826172 161 161 161
23.500000000000 16.015625000000 62.981994628906 102 102 102
23.109375000000 16.031250000000 63.031997680664 217 217 217
23.109375000000 16.031250000000 63.003997802734 223 223 223
23.109375000000 16.031250000000 62.976997375488 217 217 217
23.109375000000 16.031250000000 62.950996398926 217 217 217
23.109375000000 16.031250000000 62.921997070313 216 216 216
23.109375000000 16.031250000000 62.895996093750 179 179 179
23.578125000000 16.328125000000 63.367996215820 26 26 26
23.250000000000 16.343750000000 63.381996154785 72 72 72
23.687500000000 16.343750000000 63.047996520996 166 166 166
23.703125000000 16.328125000000 63.016998291016 204 204 204
23.703125000000 16.328125000000 62.984001159668 223 223 223
23.703125000000 16.328125000000 62.951995849609 220 220 220
23.718750000000 16.328125000000 62.916000366211 211 211 211
23.093750000000 16.343750000000 63.016998291016 219 219 219
23.109375000000 16.343750000000 62.986999511719 224 224 224
23.109375000000 16.343750000000 62.959999084473 218 218 218
23.093750000000 16.343750000000 62.932998657227 217 217 217
23.093750000000 16.343750000000 62.905998229980 216 216 216
23.281250000000 16.343750000000 62.834999084473 9 9 9
23.656250000000 16.640625000000 63.402000427246 70 70 70
23.203125000000 16.640625000000 63.397994995117 67 67 67
23.703125000000 16.656250000000 63.027999877930 176 176 176
23.703125000000 16.640625000000 62.995994567871 221 221 221
23.703125000000 16.640625000000 62.964996337891 222 222 222
