12.656250000000 19.015625000000 65.159996032715 174 174 174
12.656250000000 19.015625000000 65.125999450684 185 185 185
12.656250000000 19.015625000000 65.089996337891 182 182 182
12.656250000000 19.015625000000 65.055000305176 184 184 184
12.656250000000 19.015625000000 65.020996093750 189 189 189
12.671875000000 19.015625000000 64.984001159668 183 183 183
12.671875000000 19.015625000000 64.949996948242 178 178 178
12.671875000000 19.015625000000 64.810997009277 27 27 27
12.703125000000 19.015625000000 64.775001525879 210 210 210
12.703125000000 19.015625000000 64.741996765137 218 218 218
12.703125000000 19.015625000000 64.708000183105 224 224 224
12.703125000000 19.015625000000 64.674995422363 209 209 209
12.703125000000 19.015625000000 64.639999389648 216 216 216
12.703125000000 19.015625000000 64.606994628906 222 222 222
12.703125000000 19.015625000000 64.572998046875 202 202 202
12.671875000000 19.015625000000 64.540000915527 112 112 112
12.609375000000 19.000000000000 64.071998596191 19 19 19
12.640625000000 19.000000000000 64.037994384766 78 78 78
12.640625000000 19.000000000000 64.003997802734 86 86 86
12.640625000000 19.000000000000 63.970001220703 92 92 92
12.640625000000 19.000000000000 63.936996459961 94 94 94
12.609375000000 19.000000000000 63.902999877930 108 108 108
12.609375000000 19.000000000000 63.868995666504 84 84 84
12.640625000000 19.000000000000 63.834999084473 25 25 25
12.578125000000 18.828125000000 65.258995056152 181 181 181
12.578125000000 18.828125000000 65.224998474121 183 183 183
12.578125000000 18.828125000000 65.188995361328 181 181 181
12.593750000000 18.828125000000 65.151000976563 184 184 184
12.593750000000 18.828125000000 65.115997314453 182 182 182
12.593750000000 18.828125000000 65.080001831055 183 183 183
12.593750000000 18.828125000000 65.045997619629 110 110 110
12.640625000000 18.828125000000 64.693000793457 79 79 79
12.640625000000 18.828125000000 64.658996582031 244 244 244
12.640625000000 18.828125000000 64.626998901367 238 238 238
12.609375000000 18.828125000000 64.594001770020 252 252 252
12.640625000000 18.828125000000 64.557998657227 213 213 213
12.640625000000 18.828125000000 64.523994445801 213 213 213
12.640625000000 18.828125000000 64.490997314453 215 215 215
12.640625000000 18.828125000000 64.457000732422 180 180 180
12.734375000000 10.687500000000 65.315994262695 181 181 181
12.734375000000 10.687500000000 65.280998229980 202 202 202
12.734375000000 10.687500000000 65.249000549316 208 208 208
12.734375000000 10.687500000000 65.213996887207 200 200 200
12.734375000000 10.687500000000 65.180999755859 203 203 203
12.734375000000 10.687500000000 65.145996093750 208 208 208
12.734375000000 10.687500000000 65.111999511719 201 201 201
12.718750000000 10.687500000000 65.080001831055 121 121 121
12.734375000000 10.687500000000 64.809997558594 136 136 136
12.765625000000 10.687500000000 64.775001525879 203 203 203
12.734375000000 10.687500000000 64.742996215820 213 213 213
12.734375000000 10.687500000000 64.708999633789 197 197 197
12.734375000000 10.687500000000 64.676994323730 201 201 201
12.734375000000 10.687500000000 64.643997192383 203 203 203
12.734375000000 10.687500000000 64.611000061035 214 214 214
12.734375000000 10.687500000000 64.578994750977 183 183 183
12.593750000000 10.656250000000 64.089996337891 46 46 46
12.593750000000 10.656250000000 64.056999206543 67 67 67
12.578125000000 10.671875000000 64.023994445801 70 70 70
12.593750000000 10.671875000000 63.989997863770 67 67 67
12.578125000000 10.656250000000 63.957004547119 62 62 62
12.656250000000 10.500000000000 65.211997985840 135 135 135
12.640625000000 10.500000000000 65.179000854492 201 201 201
12.640625000000 10.500000000000 65.143997192383 203 203 203
12.671875000000 10.500000000000 65.110000610352 202 202 202
12.671875000000 10.500000000000 65.074996948242 196 196 196
12.640625000000 10.500000000000 65.041999816895 203 203 203
12.640625000000 10.484375000000 65.007995605469 205 205 205
12.640625000000 10.500000000000 64.974998474121 175 175 175
12.640625000000 10.500000000000 64.940994262695 70 70 70
12.671875000000 10.484375000000 64.903999328613 195 195 195
12.671875000000 10.484375000000 64.870994567871 204 204 204
12.671875000000 10.484375000000 64.836997985840 208 208 208
12.671875000000 10.484375000000 64.803001403809 198 198 198
12.671875000000 10.484375000000 64.769996643066 196 196 196
12.671875000000 10.484375000000 64.736000061035 200 200 200
12.671875000000 10.484375000000 64.702995300293 189 189 189
12.515625000000 10.484375000000 64.210998535156 90 90 90
12.515625000000 10.484375000000 64.178001403809 89 89 89
12.515625000000 10.484375000000 64.142997741699 94 94 94
12.515625000000 10.484375000000 64.110000610352 108 108 108
12.578125000000 10.468750000000 64.074996948242 86 86 86
12.562500000000 10.468750000000 64.041999816895 89 89 89
12.578125000000 10.468750000000 64.007995605469 89 89 89
12.562500000000 10.468750000000 63.974998474121 91 91 91
12.546875000000 10.468750000000 63.940994262695 120 120 120
12.531250000000 10.468750000000 63.906997680664 153 153 153
12.515625000000 10.484375000000 63.873001098633 153 153 153
12.515625000000 10.468750000000 63.838996887207 85 85 85
12.515625000000 10.468750000000 63.805999755859 86 86 86
12.515625000000 10.484375000000 63.770996093750 86 86 86
12.515625000000 10.468750000000 63.738002777100 91 91 91
12.515625000000 10.468750000000 63.703994750977 87 87 87
12.515625000000 10.468750000000 63.669998168945 95 95 95
12.515625000000 10.468750000000 63.636001586914 86 86 86
12.515625000000 10.484375000000 63.600997924805 79 79 79
12.718750000000 10.281250000000 65.603996276855 89 89 89
12.781250000000 10.296875000000 65.550994873047 137 137 137
12.781250000000 10.281250000000 65.514999389648 143 143 143
12.656250000000 10.296875000000 65.513000488281 125 125 125
12.718750000000 10.296875000000 65.467994689941 110 110 110
12.734375000000 10.281250000000 65.425994873047 131 131 131
12.734375000000 10.281250000000 65.389999389648 143 143 143
12.718750000000 10.296875000000 65.362998962402 138 138 138
12.656250000000 10.296875000000 65.338996887207 156 156 156
12.687500000000 10.296875000000 65.297996520996 141 141 141
12.703125000000 10.281250000000 65.261001586914 152 152 152
12.671875000000 10.296875000000 65.233001708984 143 143 143
12.625000000000 10.296875000000 65.207000732422 129 129 129
12.609375000000 10.281250000000 65.176994323730 147 147 147
12.625000000000 10.281250000000 65.139999389648 130 130 130
12.609375000000 10.281250000000 65.109001159668 145 145 145
12.703125000000 10.281250000000 65.057998657227 177 177 177
12.609375000000 10.281250000000 65.041000366211 150 150 150
12.609375000000 10.281250000000 65.005996704102 157 157 157
12.609375000000 10.281250000000 64.972000122070 158 158 158
12.625000000000 10.281250000000 64.934997558594 151 151 151
12.609375000000 10.281250000000 64.902000427246 147 147 147
12.609375000000 10.281250000000 64.869995117188 145 145 145
12.609375000000 10.281250000000 64.833999633789 146 146 146
12.609375000000 10.281250000000 64.800994873047 142 142 142
12.609375000000 10.281250000000 64.766998291016 142 142 142
12.609375000000 10.281250000000 64.731994628906 135 135 135
12.609375000000 10.281250000000 64.698997497559 139 139 139
12.609375000000 10.281250000000 64.665000915527 139 139 139
12.609375000000 10.281250000000 64.631996154785 132 132 132
12.609375000000 10.281250000000 64.597999572754 129 129 129
12.609375000000 10.281250000000 64.563995361328 127 127 127
12.609375000000 10.281250000000 64.530998229980 132 132 132
12.640625000000 10.281250000000 64.497001647949 132 132 132
12.609375000000 10.281250000000 64.464996337891 138 138 138
12.640625000000 10.281250000000 64.430000305176 132 132 132
12.640625000000 10.281250000000 64.396995544434 136 136 136
12.640625000000 10.281250000000 64.362998962402 132 132 132
12.640625000000 10.281250000000 64.330001831055 136 136 136
12.640625000000 10.281250000000 64.296997070313 130 130 130
12.640625000000 10.281250000000 64.263999938965 135 135 135
12.640625000000 10.281250000000 64.229995727539 134 134 134
12.640625000000 10.281250000000 64.196998596191 130 130 130
12.640625000000 10.281250000000 64.162994384766 122 122 122
12.640625000000 10.281250000000 64.129997253418 128 128 128
12.640625000000 10.281250000000 64.097000122070 122 122 122
12.640625000000 10.281250000000 64.063995361328 120 120 120
12.671875000000 10.281250000000 64.030998229980 118 118 118
12.640625000000 10.281250000000 63.998001098633 116 116 116
12.671875000000 10.281250000000 63.964996337891 121 121 121
12.671875000000 10.281250000000 63.932998657227 122 122 122
12.687500000000 10.265625000000 63.900001525879 117 117 117
12.687500000000 10.281250000000 63.866996765137 126 126 126
12.671875000000 10.265625000000 63.833999633789 129 129 129
12.687500000000 10.265625000000 63.801994323730 124 124 124
12.703125000000 10.265625000000 63.769001007080 121 121 121
12.671875000000 10.265625000000 63.735000610352 118 118 118
12.671875000000 10.265625000000 63.701995849609 110 110 110
12.687500000000 10.265625000000 63.669998168945 135 135 135
12.671875000000 10.265625000000 63.636001586914 109 109 109
12.687500000000 10.265625000000 63.603996276855 106 106 106
12.671875000000 10.265625000000 63.569999694824 109 109 109
12.671875000000 10.250000000000 63.537994384766 107 107 107
12.687500000000 10.265625000000 63.505996704102 109 109 109
12.687500000000 10.265625000000 63.472003936768 105 105 105
12.703125000000 10.265625000000 63.105995178223 143 143 143
12.718750000000 10.265625000000 63.075996398926 150 150 150
12.718750000000 10.265625000000 63.041999816895 150 150 150
12.718750000000 10.265625000000 63.007995605469 142 142 142
12.703125000000 10.250000000000 62.973999023438 143 143 143
12.703125000000 10.250000000000 62.939998626709 143 143 143
12.625000000000 10.250000000000 63.129997253418 111 111 111
12.750000000000 10.093750000000 65.548995971680 111 111 111
12.750000000000 10.093750000000 65.507995605469 133 133 133
12.500000000000 10.093750000000 65.542999267578 117 117 117
12.468750000000 10.093750000000 65.516998291016 107 107 107
12.625000000000 10.093750000000 65.436996459961 111 111 111
12.671875000000 10.093750000000 65.396995544434 99 99 99
12.515625000000 10.093750000000 65.182998657227 85 85 85
12.515625000000 10.093750000000 65.147994995117 190 190 190
12.515625000000 10.093750000000 65.113998413086 198 198 198
12.515625000000 10.093750000000 65.078994750977 199 199 199
12.515625000000 10.093750000000 65.043998718262 197 197 197
12.515625000000 10.093750000000 65.006996154785 200 200 200
12.515625000000 10.093750000000 64.972000122070 199 199 199
12.515625000000 10.093750000000 64.939994812012 190 190 190
12.500000000000 10.093750000000 64.905998229980 201 201 201
12.500000000000 10.093750000000 64.870994567871 205 205 205
12.500000000000 10.093750000000 64.836997985840 196 196 196
12.500000000000 10.093750000000 64.801994323730 203 203 203
12.500000000000 10.093750000000 64.767997741699 200 200 200
12.500000000000 10.093750000000 64.733001708984 181 181 181
12.375000000000 10.078125000000 64.194000244141 90 90 90
12.375000000000 10.078125000000 64.158996582031 100 100 100
12.375000000000 10.078125000000 64.125000000000 93 93 93
12.375000000000 10.078125000000 64.089996337891 100 100 100
12.390625000000 10.078125000000 64.055000305176 98 98 98
12.406250000000 10.078125000000 64.020996093750 93 93 93
12.375000000000 10.078125000000 63.986000061035 92 92 92
12.375000000000 10.062500000000 63.951995849609 92 92 92
12.375000000000 10.078125000000 63.916999816895 94 94 94
12.406250000000 10.078125000000 63.882995605469 75 75 75
12.421875000000 10.078125000000 63.848999023438 49 49 49
12.421875000000 10.078125000000 63.814998626709 45 45 45
12.437500000000 9.906250000000 65.290000915527 178 178 178
12.437500000000 9.906250000000 65.252998352051 194 194 194
12.437500000000 9.906250000000 65.217994689941 197 197 197
12.453125000000 9.906250000000 65.180999755859 199 199 199
12.437500000000 9.906250000000 65.145996093750 216 216 216
12.437500000000 9.906250000000 65.111000061035 212 212 212
12.437500000000 9.906250000000 65.075996398926 191 191 191
12.437500000000 9.906250000000 64.831001281738 195 195 195
12.453125000000 9.890625000000 64.795997619629 203 203 203
12.437500000000 9.906250000000 64.761001586914 208 208 208
12.437500000000 9.906250000000 64.726997375488 198 198 198
12.453125000000 9.890625000000 64.690994262695 204 204 204
12.453125000000 9.890625000000 64.656997680664 203 203 203
12.437500000000 9.906250000000 64.623001098633 185 185 185
12.375000000000 9.718750000000 65.315994262695 124 124 124
12.375000000000 9.718750000000 65.279998779297 172 172 172
12.375000000000 9.718750000000 65.243995666504 202 202 202
12.375000000000 9.718750000000 65.208000183105 197 197 197
12.359375000000 9.718750000000 65.173995971680 156 156 156
12.343750000000 9.703125000000 64.750000000000 27 27 27
12.359375000000 9.703125000000 64.712997436523 188 188 188
12.359375000000 9.718750000000 64.678001403809 199 199 199
12.359375000000 9.703125000000 64.642997741699 190 190 190
12.359375000000 9.703125000000 64.608001708984 128 128 128
12.921875000000 19.812500000000 65.301994323730 161 161 161
12.921875000000 19.812500000000 65.262001037598 198 198 198
12.921875000000 19.812500000000 65.224998474121 218 218 218
12.921875000000 19.796875000000 65.185997009277 203 203 203
12.921875000000 19.812500000000 65.147994995117 207 207 207
12.921875000000 19.796875000000 65.110000610352 212 212 212
12.921875000000 19.796875000000 65.071998596191 189 189 189
12.921875000000 19.812500000000 64.735000610352 66 66 66
12.921875000000 19.796875000000 64.697998046875 207 207 207
12.906250000000 19.796875000000 64.660995483398 226 226 226
12.906250000000 19.796875000000 64.624000549316 221 221 221
12.906250000000 19.796875000000 64.586997985840 214 214 214
12.921875000000 19.812500000000 64.548995971680 225 225 225
12.906250000000 19.796875000000 64.512001037598 194 194 194
12.875000000000 19.812500000000 64.475997924805 48 48 48
12.890625000000 19.625000000000 65.174995422363 193 193 193
12.875000000000 19.640625000000 65.138999938965 206 206 206
12.875000000000 19.625000000000 65.099998474121 217 217 217
12.890625000000 19.625000000000 65.060997009277 202 202 202
12.890625000000 19.625000000000 65.022994995117 219 219 219
12.875000000000 19.625000000000 64.986000061035 208 208 208
12.875000000000 19.625000000000 64.947998046875 163 163 163
12.875000000000 19.625000000000 64.796997070313 211 211 211
12.859375000000 19.625000000000 64.761001586914 223 223 223
12.859375000000 19.625000000000 64.722000122070 224 224 224
12.859375000000 19.625000000000 64.684997558594 208 208 208
12.859375000000 19.625000000000 64.646995544434 224 224 224
12.859375000000 19.625000000000 64.609001159668 199 199 199
12.859375000000 19.625000000000 64.571998596191 37 37 37
12.671875000000 19.718750000000 64.001998901367 35 35 35
12.671875000000 19.718750000000 63.962997436523 50 50 50
12.671875000000 19.718750000000 63.923995971680 45 45 45
12.703125000000 19.718750000000 63.886001586914 27 27 27
12.812500000000 19.468750000000 65.088996887207 160 160 160
12.828125000000 19.453125000000 65.047996520996 198 198 198
12.828125000000 19.468750000000 65.011001586914 214 214 214
12.828125000000 19.468750000000 64.972000122070 205 205 205
12.828125000000 19.468750000000 64.933998107910 208 208 208
12.828125000000 19.453125000000 64.894996643066 216 216 216
12.828125000000 19.453125000000 64.858001708984 200 200 200
12.796875000000 19.468750000000 64.821998596191 208 208 208
12.828125000000 19.453125000000 64.781997680664 203 203 203
12.812500000000 19.453125000000 64.744995117188 218 218 218
12.812500000000 19.453125000000 64.706001281738 198 198 198
12.796875000000 19.468750000000 64.669998168945 89 89 89
12.656250000000 19.531250000000 64.136001586914 74 74 74
12.671875000000 19.546875000000 64.097999572754 76 76 76
12.671875000000 19.531250000000 64.058998107910 69 69 69
12.671875000000 19.531250000000 64.019996643066 84 84 84
12.718750000000 19.500000000000 63.983001708984 70 70 70
12.734375000000 19.500000000000 63.945999145508 81 81 81
12.703125000000 19.515625000000 63.905998229980 72 72 72
12.703125000000 19.531250000000 63.866996765137 127 127 127
12.687500000000 19.531250000000 63.827995300293 155 155 155
12.671875000000 19.531250000000 63.786994934082 76 76 76
12.703125000000 19.515625000000 63.750999450684 79 79 79
12.671875000000 19.531250000000 63.708999633789 73 73 73
12.656250000000 19.531250000000 63.668998718262 74 74 74
12.671875000000 19.531250000000 63.630996704102 74 74 74
12.671875000000 19.531250000000 63.591995239258 58 58 58
12.671875000000 19.531250000000 63.553001403809 20 20 20
12.796875000000 19.281250000000 65.185997009277 136 136 136
12.796875000000 19.281250000000 65.146995544434 153 153 153
12.781250000000 19.281250000000 65.109001159668 159 159 159
12.796875000000 19.281250000000 65.069999694824 161 161 161
12.781250000000 19.281250000000 65.032997131348 159 159 159
12.796875000000 19.281250000000 64.993995666504 160 160 160
12.812500000000 19.281250000000 64.953994750977 159 159 159
12.796875000000 19.281250000000 64.916999816895 157 157 157
12.796875000000 19.281250000000 64.877998352051 155 155 155
12.796875000000 19.281250000000 64.840995788574 152 152 152
12.796875000000 19.281250000000 64.800994873047 154 154 154
12.796875000000 19.281250000000 64.763000488281 160 160 160
12.796875000000 19.281250000000 64.724998474121 160 160 160
12.796875000000 19.281250000000 64.686996459961 160 160 160
12.796875000000 19.281250000000 64.648994445801 158 158 158
12.796875000000 19.281250000000 64.611000061035 159 159 159
12.796875000000 19.281250000000 64.572998046875 159 159 159
12.796875000000 19.281250000000 64.534996032715 160 160 160
12.796875000000 19.281250000000 64.497001647949 162 162 162
12.796875000000 19.281250000000 64.458999633789 160 160 160
12.796875000000 19.281250000000 64.420997619629 160 160 160
12.796875000000 19.281250000000 64.382995605469 160 160 160
12.796875000000 19.281250000000 64.345001220703 161 161 161
12.796875000000 19.281250000000 64.306999206543 163 163 163
12.796875000000 19.281250000000 64.268997192383 162 162 162
12.796875000000 19.281250000000 64.230995178223 162 162 162
12.796875000000 19.281250000000 64.194000244141 163 163 163
12.796875000000 19.281250000000 64.155998229980 163 163 163
12.796875000000 19.281250000000 64.117996215820 164 164 164
12.796875000000 19.281250000000 64.080001831055 163 163 163
12.796875000000 19.281250000000 64.041999816895 164 164 164
12.796875000000 19.281250000000 64.003997802734 164 164 164
12.796875000000 19.265625000000 63.965995788574 164 164 164
12.796875000000 19.281250000000 63.928001403809 165 165 165
12.796875000000 19.281250000000 63.889999389648 165 165 165
12.796875000000 19.281250000000 63.851997375488 168 168 168
12.796875000000 19.281250000000 63.813995361328 168 168 168
12.796875000000 19.281250000000 63.776000976563 174 174 174
12.796875000000 19.281250000000 63.738002777100 170 170 170
12.796875000000 19.281250000000 63.699996948242 171 171 171
12.796875000000 19.281250000000 63.660995483398 165 165 165
12.796875000000 19.281250000000 63.623001098633 169 169 169
12.796875000000 19.281250000000 63.584999084473 169 169 169
12.796875000000 19.281250000000 63.546997070313 169 169 169
12.796875000000 19.281250000000 63.507995605469 167 167 167
12.796875000000 19.281250000000 63.469001770020 161 161 161
12.796875000000 19.281250000000 63.430999755859 167 167 167
12.796875000000 19.281250000000 63.392997741699 168 168 168
12.796875000000 19.265625000000 63.353996276855 167 167 167
12.781250000000 19.265625000000 63.314998626709 165 165 165
12.796875000000 19.265625000000 63.277000427246 165 165 165
12.781250000000 19.265625000000 63.236999511719 165 165 165
12.796875000000 19.265625000000 63.199996948242 159 159 159
12.781250000000 19.265625000000 63.157997131348 164 164 164
12.781250000000 19.265625000000 63.119995117188 162 162 162
12.781250000000 19.265625000000 63.080001831055 160 160 160
12.781250000000 19.265625000000 63.041999816895 157 157 157
12.781250000000 19.265625000000 63.001998901367 154 154 154
12.781250000000 19.265625000000 62.962997436523 152 152 152
12.781250000000 19.265625000000 62.922996520996 148 148 148
12.781250000000 19.250000000000 62.884994506836 146 146 146
12.781250000000 19.250000000000 62.846000671387 141 141 141
12.734375000000 19.312500000000 62.784996032715 3 3 3
12.703125000000 19.312500000000 62.739997863770 24 24 24
12.781250000000 19.250000000000 62.684997558594 137 137 137
12.703125000000 19.156250000000 65.097999572754 175 175 175
12.703125000000 19.156250000000 65.059997558594 230 230 230
12.703125000000 19.156250000000 65.020996093750 239 239 239
12.703125000000 19.156250000000 64.980995178223 231 231 231
12.703125000000 19.156250000000 64.942001342773 233 233 233
12.703125000000 19.156250000000 64.902999877930 230 230 230
12.703125000000 19.140625000000 64.862998962402 213 213 213
12.734375000000 19.140625000000 64.823997497559 223 223 223
12.734375000000 19.140625000000 64.784996032715 232 232 232
12.734375000000 19.125000000000 64.745994567871 218 218 218
12.734375000000 19.125000000000 64.708000183105 232 232 232
12.734375000000 19.125000000000 64.668998718262 219 219 219
12.703125000000 19.125000000000 64.630996704102 141 141 141
12.640625000000 19.187500000000 64.128997802734 71 71 71
12.640625000000 19.187500000000 64.089996337891 69 69 69
12.640625000000 19.187500000000 64.050994873047 70 70 70
12.671875000000 19.156250000000 64.013999938965 71 71 71
12.687500000000 19.156250000000 63.974998474121 74 74 74
12.687500000000 19.156250000000 63.936996459961 77 77 77
12.687500000000 19.156250000000 63.897994995117 115 115 115
12.640625000000 19.171875000000 63.856994628906 145 145 145
12.640625000000 19.187500000000 63.817001342773 114 114 114
12.671875000000 19.171875000000 63.778999328613 121 121 121
12.671875000000 19.156250000000 63.741996765137 22 22 22
12.703125000000 19.156250000000 63.703994750977 19 19 19
12.703125000000 19.156250000000 63.665000915527 18 18 18
12.640625000000 19.156250000000 63.622001647949 86 86 86
12.640625000000 19.171875000000 63.582004547119 60 60 60
12.609375000000 19.187500000000 63.540000915527 16 16 16
12.625000000000 19.015625000000 65.208999633789 18 18 18
12.640625000000 19.000000000000 65.166999816895 232 232 232
12.640625000000 19.000000000000 65.126998901367 237 237 237
12.656250000000 19.000000000000 65.084999084473 235 235 235
12.640625000000 19.000000000000 65.046997070313 230 230 230
12.656250000000 19.000000000000 65.005996704102 233 233 233
12.671875000000 19.000000000000 64.966995239258 213 213 213
12.671875000000 18.968750000000 64.767997741699 183 183 183
12.671875000000 18.968750000000 64.728996276855 215 215 215
12.671875000000 18.968750000000 64.690994262695 235 235 235
12.671875000000 18.968750000000 64.652000427246 227 227 227
12.671875000000 18.968750000000 64.612998962402 235 235 235
12.671875000000 18.968750000000 64.573997497559 231 231 231
12.671875000000 18.968750000000 64.534996032715 188 188 188
12.609375000000 19.000000000000 64.028999328613 47 47 47
12.609375000000 19.000000000000 63.989997863770 63 63 63
12.625000000000 19.000000000000 63.950996398926 75 75 75
12.625000000000 19.000000000000 63.911994934082 69 69 69
12.625000000000 19.000000000000 63.873001098633 45 45 45
12.875000000000 18.812500000000 62.503997802734 25 25 25
12.875000000000 18.812500000000 62.463996887207 25 25 25
12.562500000000 18.843750000000 65.279998779297 183 183 183
12.562500000000 18.843750000000 65.239997863770 227 227 227
12.578125000000 18.843750000000 65.199996948242 234 234 234
12.593750000000 18.843750000000 65.157997131348 227 227 227
12.593750000000 18.843750000000 65.117996215820 231 231 231
12.593750000000 18.843750000000 65.077995300293 227 227 227
12.593750000000 18.843750000000 65.037994384766 138 138 138
12.625000000000 18.812500000000 64.638999938965 150 150 150
12.625000000000 18.812500000000 64.599998474121 166 166 166
12.625000000000 18.812500000000 64.560997009277 210 210 210
12.625000000000 18.812500000000 64.521995544434 223 223 223
12.625000000000 18.812500000000 64.483001708984 206 206 206
12.625000000000 18.812500000000 64.444000244141 62 62 62
12.796875000000 10.843750000000 65.208999633789 27 27 27
12.796875000000 10.843750000000 64.681999206543 139 139 139
12.718750000000 10.718750000000 65.364997863770 22 22 22
12.734375000000 10.687500000000 65.321998596191 212 212 212
12.734375000000 10.703125000000 65.284996032715 220 220 220
12.734375000000 10.687500000000 65.245994567871 223 223 223
12.734375000000 10.687500000000 65.207000732422 218 218 218
12.734375000000 10.703125000000 65.169998168945 223 223 223
12.734375000000 10.687500000000 65.129997253418 217 217 217
12.734375000000 10.687500000000 65.091995239258 133 133 133
12.765625000000 10.687500000000 64.785995483398 222 222 222
12.734375000000 10.687500000000 64.749000549316 200 200 200
12.734375000000 10.687500000000 64.710998535156 220 220 220
12.734375000000 10.687500000000 64.672996520996 222 222 222
12.734375000000 10.687500000000 64.636001586914 214 214 214
12.734375000000 10.687500000000 64.597999572754 223 223 223
12.734375000000 10.687500000000 64.560997009277 121 121 121
12.671875000000 10.531250000000 65.237998962402 191 191 191
12.671875000000 10.531250000000 65.198997497559 215 215 215
12.656250000000 10.531250000000 65.160995483398 221 221 221
12.656250000000 10.531250000000 65.122001647949 212 212 212
12.656250000000 10.531250000000 65.083000183105 202 202 202
12.671875000000 10.531250000000 65.042999267578 212 212 212
12.656250000000 10.531250000000 65.005996704102 171 171 171
12.687500000000 10.531250000000 64.888000488281 216 216 216
12.687500000000 10.531250000000 64.850997924805 199 199 199
12.671875000000 10.531250000000 64.812995910645 212 212 212
12.671875000000 10.531250000000 64.775001525879 216 216 216
12.687500000000 10.531250000000 64.736000061035 189 189 189
12.687500000000 10.531250000000 64.697998046875 220 220 220
12.671875000000 10.515625000000 64.659996032715 114 114 114
12.562500000000 10.578125000000 64.202995300293 50 50 50
12.562500000000 10.593750000000 64.164001464844 94 94 94
12.562500000000 10.593750000000 64.125000000000 101 101 101
12.562500000000 10.593750000000 64.086997985840 107 107 107
12.562500000000 10.593750000000 64.047996520996 101 101 101
12.562500000000 10.593750000000 64.008995056152 87 87 87
12.562500000000 10.593750000000 63.970001220703 89 89 89
12.562500000000 10.593750000000 63.930999755859 86 86 86
12.546875000000 10.593750000000 63.891998291016 102 102 102
12.562500000000 10.593750000000 63.852996826172 81 81 81
12.546875000000 10.593750000000 63.813995361328 58 58 58
12.828125000000 10.265625000000 65.534996032715 142 142 142
12.593750000000 10.406250000000 65.547996520996 153 153 153
12.546875000000 10.437500000000 65.518997192383 137 137 137
12.750000000000 10.312500000000 65.436996459961 57 57 57
12.718750000000 10.312500000000 65.400001525879 70 70 70
12.718750000000 10.312500000000 65.283996582031 42 42 42
12.718750000000 10.312500000000 65.244995117188 44 44 44
12.609375000000 10.375000000000 65.146995544434 177 177 177
12.640625000000 10.359375000000 65.103996276855 211 211 211
12.640625000000 10.359375000000 65.064994812012 210 210 210
12.609375000000 10.375000000000 65.030998229980 215 215 215
12.609375000000 10.375000000000 64.989997863770 218 218 218
12.609375000000 10.375000000000 64.950996398926 216 216 216
12.609375000000 10.375000000000 64.912994384766 218 218 218
12.609375000000 10.359375000000 64.874000549316 218 218 218
12.609375000000 10.375000000000 64.835998535156 192 192 192
12.609375000000 10.359375000000 64.795997619629 217 217 217
12.609375000000 10.375000000000 64.757995605469 124 124 124
12.484375000000 10.437500000000 64.219001770020 93 93 93
12.484375000000 10.437500000000 64.180000305176 90 90 90
12.484375000000 10.437500000000 64.140998840332 100 100 100
12.484375000000 10.437500000000 64.101997375488 88 88 88
12.515625000000 10.421875000000 64.062995910645 98 98 98
12.640625000000 10.343750000000 64.028999328613 167 167 167
12.609375000000 10.343750000000 63.989997863770 169 169 169
12.593750000000 10.359375000000 63.950996398926 153 153 153
12.593750000000 10.375000000000 63.911994934082 150 150 150
12.625000000000 10.343750000000 63.875999450684 176 176 176
12.640625000000 10.343750000000 63.838996887207 171 171 171
12.515625000000 10.421875000000 63.789001464844 87 87 87
12.515625000000 10.421875000000 63.749000549316 85 85 85
12.484375000000 10.421875000000 63.708999633789 93 93 93
12.515625000000 10.421875000000 63.670997619629 90 90 90
12.500000000000 10.406250000000 63.630996704102 88 88 88
12.515625000000 10.421875000000 63.592994689941 90 90 90
12.609375000000 10.343750000000 63.565994262695 62 62 62
12.625000000000 10.343750000000 63.529998779297 70 70 70
12.640625000000 10.328125000000 63.491996765137 104 104 104
12.625000000000 10.343750000000 63.451995849609 115 115 115
12.640625000000 10.328125000000 63.415000915527 118 118 118
12.640625000000 10.328125000000 63.375999450684 123 123 123
12.625000000000 10.343750000000 63.335998535156 117 117 117
12.640625000000 10.328125000000 63.297996520996 124 124 124
12.640625000000 10.328125000000 63.258995056152 123 123 123
12.640625000000 10.328125000000 63.219001770020 123 123 123
12.640625000000 10.328125000000 63.180999755859 142 142 142
12.640625000000 10.312500000000 63.141998291016 132 132 132
12.671875000000 10.312500000000 63.108001708984 137 137 137
12.671875000000 10.312500000000 63.070999145508 136 136 136
12.687500000000 10.312500000000 63.034000396729 141 141 141
12.687500000000 10.296875000000 62.994995117188 144 144 144
12.687500000000 10.312500000000 62.955001831055 154 154 154
12.671875000000 10.296875000000 62.915000915527 149 149 149
12.671875000000 10.156250000000 65.624000549316 138 138 138
12.734375000000 10.125000000000 65.569000244141 147 147 147
12.765625000000 10.093750000000 65.520996093750 158 158 158
12.671875000000 10.156250000000 65.505996704102 149 149 149
12.703125000000 10.156250000000 65.463996887207 136 136 136
12.703125000000 10.156250000000 65.423995971680 137 137 137
12.718750000000 10.140625000000 65.379997253418 141 141 141
12.609375000000 10.187500000000 65.359001159668 134 134 134
12.562500000000 10.218750000000 65.330001831055 144 144 144
12.578125000000 10.203125000000 65.286994934082 133 133 133
12.578125000000 10.218750000000 65.248001098633 151 151 151
12.578125000000 10.218750000000 65.208999633789 155 155 155
12.578125000000 10.218750000000 65.168998718262 155 155 155
12.578125000000 10.218750000000 65.129997253418 156 156 156
12.578125000000 10.218750000000 65.090995788574 155 155 155
12.562500000000 10.218750000000 65.053001403809 154 154 154
12.546875000000 10.218750000000 65.013999938965 156 156 156
12.546875000000 10.218750000000 64.974998474121 160 160 160
12.578125000000 10.218750000000 64.934997558594 154 154 154
12.562500000000 10.218750000000 64.895996093750 158 158 158
12.578125000000 10.218750000000 64.855995178223 159 159 159
12.578125000000 10.203125000000 64.817001342773 162 162 162
12.562500000000 10.203125000000 64.777999877930 157 157 157
12.562500000000 10.203125000000 64.739997863770 153 153 153
12.562500000000 10.203125000000 64.700996398926 151 151 151
12.562500000000 10.218750000000 64.661994934082 145 145 145
12.562500000000 10.203125000000 64.623001098633 144 144 144
12.562500000000 10.203125000000 64.583999633789 141 141 141
12.562500000000 10.218750000000 64.545997619629 130 130 130
12.562500000000 10.203125000000 64.506996154785 136 136 136
12.562500000000 10.187500000000 64.467994689941 125 125 125
12.562500000000 10.203125000000 64.429000854492 125 125 125
12.562500000000 10.203125000000 64.390998840332 128 128 128
12.562500000000 10.187500000000 64.351997375488 122 122 122
12.562500000000 10.187500000000 64.312995910645 115 115 115
12.562500000000 10.203125000000 64.275001525879 114 114 114
12.562500000000 10.218750000000 64.236000061035 118 118 118
12.562500000000 10.218750000000 64.196998596191 123 123 123
12.546875000000 10.218750000000 64.157997131348 141 141 141
12.515625000000 10.250000000000 64.117996215820 167 167 167
12.546875000000 10.218750000000 64.080001831055 124 124 124
12.546875000000 10.218750000000 64.041999816895 144 144 144
12.578125000000 10.187500000000 64.003997802734 176 176 176
12.562500000000 10.187500000000 63.964996337891 158 158 158
12.546875000000 10.218750000000 63.924999237061 133 133 133
12.562500000000 10.203125000000 63.887001037598 168 168 168
12.578125000000 10.187500000000 63.849998474121 183 183 183
12.453125000000 10.265625000000 63.800994873047 84 84 84
12.453125000000 10.281250000000 63.759994506836 78 78 78
12.453125000000 10.250000000000 63.722003936768 82 82 82
12.437500000000 10.265625000000 63.680000305176 100 100 100
12.421875000000 10.281250000000 63.638999938965 92 92 92
12.421875000000 10.281250000000 63.598999023438 89 89 89
12.437500000000 10.250000000000 63.561996459961 112 112 112
12.562500000000 10.031250000000 65.508995056152 113 113 113
12.421875000000 10.109375000000 65.498001098633 83 83 83
12.484375000000 10.078125000000 65.205001831055 130 130 130
12.515625000000 10.062500000000 65.159996032715 214 214 214
12.515625000000 10.062500000000 65.122001647949 222 222 222
12.515625000000 10.062500000000 65.082000732422 221 221 221
12.515625000000 10.062500000000 65.041999816895 219 219 219
12.515625000000 10.062500000000 65.002998352051 223 223 223
12.515625000000 10.062500000000 64.962997436523 199 199 199
12.484375000000 10.062500000000 64.923995971680 211 211 211
12.484375000000 10.062500000000 64.884994506836 226 226 226
12.500000000000 10.062500000000 64.845001220703 221 221 221
12.500000000000 10.062500000000 64.805000305176 223 223 223
12.500000000000 10.062500000000 64.765998840332 226 226 226
12.500000000000 10.062500000000 64.725997924805 205 205 205
12.375000000000 10.125000000000 64.214996337891 78 78 78
12.375000000000 10.125000000000 64.174995422363 82 82 82
12.375000000000 10.125000000000 64.134994506836 86 86 86
12.375000000000 10.109375000000 64.095001220703 95 95 95
12.406250000000 10.093750000000 64.055999755859 79 79 79
12.406250000000 10.093750000000 64.015998840332 90 90 90
12.375000000000 10.109375000000 63.974998474121 92 92 92
12.375000000000 10.125000000000 63.934997558594 97 97 97
12.375000000000 10.125000000000 63.894996643066 88 88 88
12.406250000000 10.093750000000 63.856994628906 62 62 62
12.421875000000 10.093750000000 63.817001342773 62 62 62
12.421875000000 10.093750000000 63.777999877930 60 60 60
12.375000000000 10.109375000000 63.735000610352 62 62 62
12.359375000000 10.125000000000 63.693000793457 25 25 25
12.437500000000 9.906250000000 65.273994445801 212 212 212
12.437500000000 9.906250000000 65.235000610352 222 222 222
12.437500000000 9.906250000000 65.194000244141 221 221 221
12.437500000000 9.906250000000 65.153999328613 218 218 218
12.437500000000 9.906250000000 65.112998962402 214 214 214
12.453125000000 9.890625000000 65.071998596191 212 212 212
12.421875000000 9.906250000000 64.875000000000 20 20 20
12.437500000000 9.906250000000 64.833000183105 210 210 210
12.437500000000 9.906250000000 64.793998718262 227 227 227
12.437500000000 9.906250000000 64.752998352051 225 225 225
12.437500000000 9.906250000000 64.713996887207 221 221 221
12.453125000000 9.890625000000 64.673995971680 228 228 228
12.437500000000 9.906250000000 64.634994506836 214 214 214
12.359375000000 9.750000000000 65.349998474121 175 175 175
12.375000000000 9.734375000000 65.308998107910 225 225 225
12.375000000000 9.734375000000 65.266998291016 219 219 219
12.375000000000 9.734375000000 65.226997375488 227 227 227
12.390625000000 9.734375000000 65.184997558594 213 213 213
12.359375000000 9.750000000000 65.147994995117 82 82 82
12.375000000000 9.734375000000 64.741996765137 201 201 201
12.375000000000 9.734375000000 64.701995849609 225 225 225
12.375000000000 9.718750000000 64.661994934082 226 226 226
12.375000000000 9.718750000000 64.622001647949 212 212 212
12.375000000000 9.718750000000 64.582000732422 178 178 178
12.390625000000 9.750000000000 64.545997619629 116 116 116
12.390625000000 9.750000000000 64.584999084473 143 143 143
12.421875000000 9.765625000000 64.625000000000 144 144 144
12.390625000000 9.750000000000 64.665000915527 143 143 143
12.390625000000 9.750000000000 64.703994750977 146 146 146
12.390625000000 9.750000000000 64.742996215820 139 139 139
12.406250000000 9.765625000000 65.140998840332 124 124 124
12.406250000000 9.765625000000 65.180000305176 148 148 148
12.406250000000 9.765625000000 65.222000122070 145 145 145
12.406250000000 9.765625000000 65.261001586914 147 147 147
12.406250000000 9.765625000000 65.303001403809 147 147 147
12.406250000000 9.765625000000 65.341995239258 139 139 139
12.718750000000 10.250000000000 62.886001586914 143 143 143
12.718750000000 10.250000000000 62.922996520996 144 144 144
12.718750000000 10.250000000000 62.960998535156 147 147 147
12.718750000000 10.250000000000 63.000000000000 144 144 144
12.718750000000 10.250000000000 63.040000915527 142 142 142
12.718750000000 10.250000000000 63.078994750977 141 141 141
12.718750000000 10.250000000000 63.116996765137 142 142 142
12.656250000000 10.218750000000 63.141998291016 124 124 124
12.718750000000 10.250000000000 63.193000793457 139 139 139
12.718750000000 10.250000000000 63.231994628906 140 140 140
12.703125000000 10.250000000000 63.269001007080 142 142 142
12.671875000000 10.218750000000 63.297996520996 128 128 128
12.718750000000 10.250000000000 63.346000671387 140 140 140
12.718750000000 10.250000000000 63.382995605469 141 141 141
12.718750000000 10.250000000000 63.420997619629 133 133 133
12.703125000000 10.250000000000 63.458999633789 136 136 136
12.703125000000 10.250000000000 63.494995117188 136 136 136
12.703125000000 10.250000000000 63.534000396729 143 143 143
12.703125000000 10.250000000000 63.570999145508 142 142 142
12.718750000000 10.250000000000 63.610000610352 135 135 135
12.703125000000 10.250000000000 63.646995544434 134 134 134
12.703125000000 10.250000000000 63.684997558594 131 131 131
12.703125000000 10.250000000000 63.722003936768 131 131 131
12.703125000000 10.250000000000 63.759994506836 133 133 133
12.703125000000 10.250000000000 63.796997070313 133 133 133
12.703125000000 10.250000000000 63.834999084473 134 134 134
12.703125000000 10.250000000000 63.872001647949 137 137 137
12.703125000000 10.250000000000 63.909996032715 132 132 132
12.703125000000 10.250000000000 63.946998596191 134 134 134
12.703125000000 10.250000000000 63.985000610352 130 130 130
12.703125000000 10.250000000000 64.021995544434 137 137 137
12.703125000000 10.250000000000 64.059997558594 133 133 133
12.703125000000 10.250000000000 64.097000122070 132 132 132
12.687500000000 10.250000000000 64.133995056152 136 136 136
12.687500000000 10.250000000000 64.171997070313 134 134 134
12.687500000000 10.250000000000 64.208999633789 133 133 133
12.687500000000 10.250000000000 64.247001647949 127 127 127
12.687500000000 10.250000000000 64.283996582031 131 131 131
12.703125000000 10.250000000000 64.320999145508 131 131 131
12.687500000000 10.250000000000 64.359001159668 133 133 133
12.703125000000 10.250000000000 64.395996093750 124 124 124
12.687500000000 10.250000000000 64.433998107910 126 126 126
12.687500000000 10.250000000000 64.472000122070 128 128 128
12.687500000000 10.250000000000 64.508995056152 125 125 125
12.687500000000 10.250000000000 64.546997070313 128 128 128
12.687500000000 10.250000000000 64.583999633789 124 124 124
12.687500000000 10.250000000000 64.622001647949 123 123 123
12.687500000000 10.250000000000 64.659996032715 122 122 122
12.671875000000 10.234375000000 64.697998046875 125 125 125
12.671875000000 10.234375000000 64.736000061035 127 127 127
12.671875000000 10.234375000000 64.772994995117 121 121 121
12.671875000000 10.234375000000 64.810997009277 112 112 112
12.687500000000 10.250000000000 64.847999572754 123 123 123
12.671875000000 10.234375000000 64.888000488281 120 120 120
12.687500000000 10.250000000000 64.923995971680 117 117 117
12.671875000000 10.234375000000 64.963996887207 117 117 117
12.671875000000 10.250000000000 65.001998901367 104 104 104
12.703125000000 10.250000000000 65.034996032715 136 136 136
12.703125000000 10.250000000000 65.073997497559 157 157 157
12.671875000000 10.250000000000 65.114997863770 120 120 120
12.671875000000 10.250000000000 65.154998779297 121 121 121
12.671875000000 10.250000000000 65.193000793457 122 122 122
12.703125000000 10.250000000000 65.226997375488 126 126 126
12.703125000000 10.250000000000 65.264999389648 131 131 131
12.656250000000 10.218750000000 65.313995361328 107 107 107
12.703125000000 10.250000000000 65.342994689941 111 111 111
12.750000000000 10.281250000000 65.373001098633 144 144 144
12.734375000000 10.281250000000 65.412994384766 138 138 138
12.734375000000 10.281250000000 65.450996398926 128 128 128
12.703125000000 10.250000000000 65.494995117188 153 153 153
12.812500000000 10.312500000000 65.511001586914 141 141 141
12.781250000000 10.312500000000 65.555000305176 142 142 142
12.718750000000 10.265625000000 65.609001159668 131 131 131
12.515625000000 10.453125000000 63.562995910645 16 16 16
12.531250000000 10.468750000000 63.602996826172 80 80 80
12.515625000000 10.453125000000 63.640998840332 74 74 74
12.531250000000 10.468750000000 63.680999755859 74 74 74
12.531250000000 10.468750000000 63.720001220703 70 70 70
12.531250000000 10.468750000000 63.758995056152 65 65 65
12.515625000000 10.453125000000 63.796997070313 72 72 72
12.531250000000 10.468750000000 63.836997985840 71 71 71
12.531250000000 10.468750000000 63.875999450684 153 153 153
12.531250000000 10.468750000000 63.914001464844 133 133 133
12.578125000000 10.500000000000 63.955001831055 84 84 84
12.593750000000 10.500000000000 63.993995666504 62 62 62
12.593750000000 10.500000000000 64.031997680664 67 67 67
12.578125000000 10.500000000000 64.069999694824 67 67 67
12.531250000000 10.468750000000 64.106994628906 64 64 64
12.531250000000 10.468750000000 64.145996093750 70 70 70
12.531250000000 10.468750000000 64.183998107910 67 67 67
12.531250000000 10.468750000000 64.222999572754 29 29 29
12.718750000000 10.562500000000 64.634994506836 130 130 130
12.718750000000 10.578125000000 64.671997070313 183 183 183
12.718750000000 10.562500000000 64.710998535156 167 167 167
12.703125000000 10.562500000000 64.748001098633 154 154 154
12.718750000000 10.562500000000 64.784996032715 177 177 177
12.703125000000 10.562500000000 64.823997497559 169 169 169
12.718750000000 10.562500000000 64.861000061035 101 101 101
12.687500000000 10.562500000000 65.014999389648 109 109 109
12.687500000000 10.562500000000 65.053001403809 166 166 166
12.687500000000 10.562500000000 65.090995788574 187 187 187
12.687500000000 10.562500000000 65.128997802734 172 172 172
12.703125000000 10.562500000000 65.166000366211 146 146 146
12.687500000000 10.562500000000 65.206001281738 154 154 154
12.703125000000 10.562500000000 65.241996765137 117 117 117
12.625000000000 18.750000000000 64.532997131348 113 113 113
12.640625000000 18.750000000000 64.570999145508 176 176 176
12.656250000000 18.765625000000 64.608001708984 161 161 161
12.718750000000 19.109375000000 63.717994689941 19 19 19
12.703125000000 19.093750000000 63.754997253418 18 18 18
12.703125000000 19.093750000000 63.792999267578 46 46 46
12.640625000000 19.062500000000 63.826995849609 81 81 81
12.640625000000 19.062500000000 63.864997863770 76 76 76
12.687500000000 19.093750000000 63.905998229980 76 76 76
12.687500000000 19.093750000000 63.944999694824 78 78 78
12.671875000000 19.093750000000 63.981994628906 75 75 75
12.640625000000 19.078125000000 64.018997192383 82 82 82
12.656250000000 19.078125000000 64.057998657227 74 74 74
12.656250000000 19.093750000000 64.096000671387 74 74 74
12.734375000000 19.125000000000 64.625999450684 89 89 89
12.750000000000 19.125000000000 64.662994384766 143 143 143
12.734375000000 19.125000000000 64.700996398926 151 151 151
12.750000000000 19.125000000000 64.738998413086 153 153 153
12.750000000000 19.125000000000 64.776000976563 151 151 151
12.750000000000 19.125000000000 64.813995361328 152 152 152
12.750000000000 19.125000000000 64.851997375488 134 134 134
12.718750000000 19.125000000000 64.891998291016 130 130 130
12.718750000000 19.125000000000 64.930999755859 136 136 136
12.718750000000 19.125000000000 64.971000671387 135 135 135
12.718750000000 19.125000000000 65.007995605469 133 133 133
12.718750000000 19.125000000000 65.047996520996 133 133 133
12.718750000000 19.125000000000 65.084999084473 119 119 119
12.671875000000 19.406250000000 63.432998657227 24 24 24
12.671875000000 19.406250000000 63.471000671387 66 66 66
12.687500000000 19.406250000000 63.512001037598 70 70 70
12.671875000000 19.406250000000 63.549999237061 74 74 74
12.671875000000 19.406250000000 63.587997436523 68 68 68
12.671875000000 19.406250000000 63.625999450684 71 71 71
12.703125000000 19.421875000000 63.666999816895 131 131 131
12.718750000000 19.437500000000 63.706001281738 158 158 158
12.703125000000 19.421875000000 63.742996215820 171 171 171
12.687500000000 19.421875000000 63.779998779297 119 119 119
12.671875000000 19.406250000000 63.817001342773 82 82 82
12.671875000000 19.406250000000 63.855995178223 101 101 101
12.703125000000 19.437500000000 63.895996093750 173 173 173
12.687500000000 19.421875000000 63.932998657227 161 161 161
12.687500000000 19.421875000000 63.971000671387 163 163 163
12.671875000000 19.406250000000 64.008995056152 141 141 141
12.671875000000 19.406250000000 64.045997619629 83 83 83
12.671875000000 19.406250000000 64.083999633789 72 72 72
12.671875000000 19.406250000000 64.123001098633 68 68 68
12.859375000000 19.500000000000 64.643997192383 140 140 140
12.859375000000 19.500000000000 64.680999755859 148 148 148
12.859375000000 19.500000000000 64.717994689941 153 153 153
12.859375000000 19.500000000000 64.754997253418 145 145 145
12.859375000000 19.500000000000 64.791999816895 149 149 149
12.859375000000 19.500000000000 64.828994750977 134 134 134
12.859375000000 19.500000000000 64.866996765137 86 86 86
12.859375000000 19.515625000000 64.902999877930 141 141 141
12.859375000000 19.515625000000 64.939994812012 148 148 148
12.859375000000 19.515625000000 64.977996826172 151 151 151
12.859375000000 19.515625000000 65.013999938965 149 149 149
12.859375000000 19.500000000000 65.053001403809 153 153 153
12.859375000000 19.515625000000 65.089996337891 148 148 148
12.875000000000 19.531250000000 65.125000000000 32 32 32
12.531250000000 19.656250000000 63.951995849609 31 31 31
12.500000000000 19.625000000000 63.988998413086 19 19 19
12.437500000000 19.593750000000 64.026000976563 17 17 17
12.937500000000 19.875000000000 64.554000854492 106 106 106
12.953125000000 19.890625000000 64.588996887207 145 145 145
12.953125000000 19.890625000000 64.625999450684 138 138 138
12.921875000000 19.875000000000 64.664001464844 27 27 27
12.937500000000 19.875000000000 65.104995727539 19 19 19
12.953125000000 19.890625000000 65.138000488281 135 135 135
12.953125000000 19.890625000000 65.175994873047 115 115 115
12.328125000000 9.656250000000 64.694000244141 145 145 145
12.453125000000 9.890625000000 65.263999938965 225 225 225
12.453125000000 9.890625000000 65.222999572754 228 228 228
12.453125000000 9.890625000000 65.182998657227 232 232 232
12.453125000000 9.890625000000 65.142997741699 232 232 232
12.453125000000 9.890625000000 65.102996826172 223 223 223
12.453125000000 9.875000000000 65.061996459961 229 229 229
12.437500000000 9.906250000000 65.023994445801 89 89 89
12.437500000000 9.906250000000 64.863998413086 110 110 110
