22.453125000000 16.453125000000 69.817001342773 138 138 138
20.937500000000 15.609375000000 69.738998413086 145 145 145
18.375000000000 14.187500000000 68.739997863770 107 107 107
18.406250000000 14.187500000000 67.650001525879 207 207 207
18.390625000000 14.187500000000 67.645996093750 47 47 47
21.937500000000 16.437500000000 68.020996093750 113 113 113
22.484375000000 16.765625000000 68.867996215820 124 124 124
22.484375000000 16.781250000000 69.810997009277 148 148 148
20.953125000000 15.906250000000 69.728996276855 130 130 130
20.906250000000 15.890625000000 69.723999023438 58 58 58
18.421875000000 14.500000000000 67.643997192383 186 186 186
18.406250000000 14.484375000000 67.647994995117 219 219 219
21.921875000000 16.734375000000 68.013999938965 80 80 80
21.921875000000 16.718750000000 68.027000427246 51 51 51
22.500000000000 17.062500000000 68.858001708984 82 82 82
22.484375000000 17.046875000000 68.888000488281 74 74 74
22.484375000000 17.062500000000 69.794998168945 111 111 111
22.453125000000 17.046875000000 69.819000244141 61 61 61
20.968750000000 16.218750000000 69.730995178223 73 73 73
20.937500000000 16.203125000000 69.734001159668 118 118 118
18.390625000000 14.781250000000 68.710998535156 91 91 91
18.421875000000 14.796875000000 67.659996032715 220 220 220
18.390625000000 14.781250000000 67.652999877930 116 116 116
21.921875000000 17.015625000000 68.020996093750 111 111 111
22.500000000000 17.343750000000 68.875000000000 125 125 125
22.484375000000 17.343750000000 69.810997009277 134 134 134
20.953125000000 16.500000000000 69.724998474121 140 140 140
18.421875000000 15.093750000000 67.763999938965 160 160 160
18.406250000000 15.093750000000 67.643997192383 205 205 205
21.937500000000 17.312500000000 68.016998291016 117 117 117
22.515625000000 17.640625000000 68.864997863770 128 128 128
22.484375000000 17.640625000000 69.805000305176 142 142 142
20.968750000000 16.812500000000 69.719001770020 124 124 124
20.921875000000 16.781250000000 69.726997375488 71 71 71
18.421875000000 15.375000000000 67.651000976563 176 176 176
18.406250000000 15.375000000000 67.641998291016 207 207 207
21.953125000000 17.625000000000 68.013000488281 71 71 71
21.921875000000 17.625000000000 68.027999877930 60 60 60
22.515625000000 17.968750000000 68.851997375488 65 65 65
22.484375000000 17.937500000000 68.870994567871 98 98 98
22.515625000000 17.968750000000 69.796997070313 46 46 46
22.484375000000 17.937500000000 69.810997009277 112 112 112
20.953125000000 17.093750000000 69.735000610352 126 126 126
18.390625000000 15.656250000000 68.688995361328 62 62 62
18.406250000000 15.656250000000 67.686996459961 234 234 234
18.406250000000 15.656250000000 67.648994445801 186 186 186
21.921875000000 17.906250000000 68.008995056152 114 114 114
22.515625000000 18.250000000000 68.865997314453 130 130 130
22.500000000000 18.250000000000 69.800994873047 143 143 143
20.968750000000 17.375000000000 69.715995788574 122 122 122
20.953125000000 17.375000000000 69.738998413086 75 75 75
18.375000000000 15.953125000000 68.693000793457 93 93 93
18.421875000000 15.968750000000 67.651000976563 208 208 208
18.390625000000 15.937500000000 67.653999328613 139 139 139
21.953125000000 18.218750000000 68.006996154785 99 99 99
22.515625000000 18.562500000000 68.861000061035 90 90 90
22.515625000000 18.531250000000 68.873001098633 63 63 63
22.515625000000 18.562500000000 69.796997070313 71 71 71
22.484375000000 18.531250000000 69.803001403809 103 103 103
21.000000000000 17.718750000000 69.722000122070 36 36 36
20.968750000000 17.687500000000 69.727996826172 126 126 126
18.359375000000 16.250000000000 68.784996032715 97 97 97
18.406250000000 16.250000000000 67.648994445801 196 196 196
21.953125000000 18.515625000000 67.985000610352 35 35 35
21.937500000000 18.500000000000 68.013000488281 88 88 88
22.531250000000 18.843750000000 68.837997436523 20 20 20
22.515625000000 18.843750000000 68.866996765137 126 126 126
22.484375000000 18.828125000000 69.793998718262 142 142 142
20.984375000000 17.984375000000 69.720001220703 133 133 133
18.390625000000 16.546875000000 68.680999755859 37 37 37
18.421875000000 16.562500000000 67.661994934082 157 157 157
18.390625000000 16.562500000000 67.648994445801 208 208 208
21.953125000000 18.812500000000 67.999000549316 114 114 114
22.531250000000 19.125000000000 68.853996276855 131 131 131
22.515625000000 19.125000000000 69.790000915527 142 142 142
20.984375000000 18.281250000000 69.711997985840 121 121 121
20.968750000000 18.281250000000 69.728996276855 83 83 83
18.359375000000 16.843750000000 68.696998596191 106 106 106
18.421875000000 16.843750000000 67.648994445801 206 206 206
18.390625000000 16.843750000000 67.647994995117 108 108 108
21.953125000000 19.109375000000 67.995994567871 105 105 105
22.531250000000 19.437500000000 68.834999084473 87 87 87
22.515625000000 19.421875000000 68.861999511719 76 76 76
22.546875000000 19.437500000000 69.787994384766 24 24 24
22.515625000000 19.421875000000 69.808998107910 123 123 123
20.984375000000 18.578125000000 69.716995239258 133 133 133
18.359375000000 17.125000000000 68.769996643066 95 95 95
18.406250000000 17.156250000000 67.651000976563 197 197 197
18.390625000000 17.140625000000 67.650001525879 45 45 45
21.953125000000 19.406250000000 67.998001098633 119 119 119
22.546875000000 19.734375000000 68.854995727539 136 136 136
22.515625000000 19.734375000000 69.785995483398 128 128 128
22.484375000000 19.718750000000 69.814994812012 25 25 25
21.000000000000 18.875000000000 69.698997497559 113 113 113
20.984375000000 18.875000000000 69.722999572754 92 92 92
18.359375000000 17.406250000000 68.786994934082 98 98 98
18.390625000000 17.437500000000 67.653999328613 201 201 201
21.968750000000 19.703125000000 67.985000610352 98 98 98
22.546875000000 20.031250000000 68.834999084473 73 73 73
22.531250000000 20.031250000000 68.858001708984 93 93 93
22.515625000000 20.031250000000 69.800994873047 133 133 133
20.984375000000 19.171875000000 69.707000732422 135 135 135
18.359375000000 17.718750000000 68.707000732422 53 53 53
18.421875000000 17.750000000000 67.710998535156 167 167 167
18.406250000000 17.734375000000 67.646995544434 199 199 199
21.953125000000 20.000000000000 67.995994567871 109 109 109
22.546875000000 20.328125000000 68.849998474121 134 134 134
22.531250000000 20.312500000000 69.778999328613 124 124 124
22.515625000000 20.312500000000 69.811996459961 31 31 31
21.015625000000 19.484375000000 69.714996337891 115 115 115
20.968750000000 19.468750000000 69.717994689941 86 86 86
18.359375000000 18.000000000000 68.707000732422 99 99 99
18.406250000000 18.031250000000 67.652000427246 185 185 185
18.390625000000 18.031250000000 67.652999877930 160 160 160
21.968750000000 20.281250000000 67.983001708984 120 120 120
22.546875000000 20.625000000000 68.835998535156 113 113 113
22.546875000000 20.625000000000 68.870994567871 26 26 26
22.546875000000 20.625000000000 69.777000427246 43 43 43
22.515625000000 20.609375000000 69.796997070313 111 111 111
21.015625000000 19.781250000000 69.700996398926 49 49 49
21.000000000000 19.765625000000 69.697998046875 118 118 118
18.359375000000 18.296875000000 68.759994506836 101 101 101
18.390625000000 18.312500000000 67.655998229980 175 175 175
21.984375000000 20.593750000000 67.975997924805 69 69 69
21.968750000000 20.593750000000 67.998001098633 57 57 57
22.562500000000 20.937500000000 68.831001281738 22 22 22
22.531250000000 20.906250000000 68.853996276855 119 119 119
22.531250000000 20.906250000000 69.787994384766 149 149 149
21.015625000000 20.062500000000 69.699996948242 132 132 132
18.359375000000 18.609375000000 68.720001220703 91 91 91
18.421875000000 18.625000000000 67.660995483398 156 156 156
18.406250000000 18.625000000000 67.643997192383 185 185 185
21.984375000000 20.890625000000 67.981994628906 117 117 117
22.562500000000 21.218750000000 68.838996887207 113 113 113
22.531250000000 21.203125000000 68.865997314453 18 18 18
22.562500000000 21.218750000000 69.775001525879 48 48 48
22.515625000000 21.203125000000 69.794998168945 112 112 112
21.031250000000 20.375000000000 69.699996948242 60 60 60
21.000000000000 20.359375000000 69.709999084473 117 117 117
18.359375000000 18.890625000000 68.728996276855 100 100 100
18.406250000000 18.906250000000 67.648994445801 176 176 176
18.390625000000 18.906250000000 67.648994445801 163 163 163
21.984375000000 21.187500000000 67.973999023438 52 52 52
21.968750000000 21.187500000000 67.989997863770 65 65 65
22.562500000000 21.500000000000 68.848999023438 129 129 129
22.546875000000 21.515625000000 69.787994384766 138 138 138
21.015625000000 20.656250000000 69.701995849609 131 131 131
21.000000000000 20.656250000000 69.723999023438 27 27 27
18.359375000000 19.187500000000 68.724998474121 97 97 97
18.390625000000 19.218750000000 67.652999877930 180 180 180
18.375000000000 19.218750000000 67.643997192383 93 93 93
21.984375000000 21.484375000000 67.979995727539 116 116 116
22.562500000000 21.812500000000 68.830001831055 113 113 113
22.546875000000 21.812500000000 68.863998413086 31 31 31
22.562500000000 21.828125000000 69.775001525879 26 26 26
22.531250000000 21.812500000000 69.806999206543 120 120 120
21.046875000000 20.968750000000 69.695999145508 62 62 62
21.015625000000 20.968750000000 69.709999084473 114 114 114
18.343750000000 19.468750000000 68.790000915527 104 104 104
18.406250000000 19.500000000000 67.661994934082 176 176 176
22.015625000000 21.796875000000 67.974998474121 102 102 102
22.593750000000 22.125000000000 68.825996398926 48 48 48
22.562500000000 22.109375000000 68.844001770020 113 113 113
22.562500000000 22.109375000000 69.787994384766 146 146 146
21.031250000000 21.265625000000 69.694000244141 135 135 135
18.359375000000 19.781250000000 68.730995178223 96 96 96
18.390625000000 19.812500000000 67.643997192383 170 170 170
18.390625000000 19.812500000000 67.650001525879 175 175 175
21.968750000000 22.078125000000 67.974998474121 103 103 103
22.578125000000 22.421875000000 68.839996337891 137 137 137
22.578125000000 22.421875000000 69.777999877930 84 84 84
22.546875000000 22.406250000000 69.799995422363 91 91 91
21.046875000000 21.562500000000 69.694999694824 111 111 111
21.000000000000 21.546875000000 69.699996948242 93 93 93
18.359375000000 20.078125000000 68.735000610352 102 102 102
18.390625000000 20.093750000000 67.647994995117 172 172 172
22.000000000000 22.375000000000 67.969001770020 110 110 110
22.593750000000 22.718750000000 68.826995849609 88 88 88
22.562500000000 22.718750000000 68.847999572754 85 85 85
22.562500000000 22.718750000000 69.791999816895 150 150 150
21.046875000000 21.859375000000 69.708999633789 129 129 129
18.359375000000 20.375000000000 68.752998352051 85 85 85
18.406250000000 20.390625000000 67.643997192383 177 177 177
22.015625000000 22.687500000000 67.958000183105 23 23 23
22.015625000000 22.687500000000 67.980995178223 91 91 91
22.593750000000 23.015625000000 68.836997985840 137 137 137
22.593750000000 23.015625000000 69.790000915527 109 109 109
22.546875000000 23.000000000000 69.791999816895 75 75 75
21.046875000000 22.171875000000 69.699996948242 113 113 113
21.015625000000 22.156250000000 69.708999633789 60 60 60
18.359375000000 20.687500000000 68.748001098633 100 100 100
18.390625000000 20.703125000000 67.660995483398 146 146 146
22.015625000000 23.000000000000 67.974998474121 111 111 111
22.609375000000 23.312500000000 68.827995300293 85 85 85
22.578125000000 23.312500000000 68.846000671387 69 69 69
22.562500000000 23.312500000000 69.790000915527 147 147 147
21.078125000000 22.484375000000 69.688995361328 26 26 26
21.046875000000 22.468750000000 69.709999084473 121 121 121
18.359375000000 20.968750000000 68.748001098633 101 101 101
18.406250000000 21.000000000000 67.644996643066 178 178 178
22.031250000000 23.296875000000 67.958000183105 24 24 24
22.015625000000 23.281250000000 67.979995727539 89 89 89
22.593750000000 23.609375000000 68.838996887207 142 142 142
22.593750000000 23.625000000000 69.786994934082 105 105 105
22.562500000000 23.593750000000 69.806999206543 70 70 70
21.046875000000 22.765625000000 69.694000244141 121 121 121
21.031250000000 22.750000000000 69.713996887207 49 49 49
18.359375000000 21.281250000000 68.745994567871 42 42 42
18.328125000000 21.265625000000 68.759994506836 98 98 98
22.015625000000 23.593750000000 67.965995788574 116 116 116
22.609375000000 23.937500000000 68.832000732422 96 96 96
22.578125000000 23.906250000000 68.852996826172 61 61 61
22.578125000000 23.921875000000 69.786994934082 148 148 148
21.078125000000 23.078125000000 69.705001831055 47 47 47
21.031250000000 23.062500000000 69.703994750977 109 109 109
18.343750000000 21.562500000000 68.755996704102 94 94 94
18.390625000000 21.593750000000 67.674995422363 88 88 88
22.046875000000 23.906250000000 67.966995239258 77 77 77
22.015625000000 23.875000000000 67.988998413086 33 33 33
22.640625000000 24.218750000000 68.821998596191 22 22 22
22.609375000000 24.218750000000 68.844001770020 128 128 128
22.609375000000 24.218750000000 69.786994934082 132 132 132
21.078125000000 23.375000000000 69.705001831055 129 129 129
18.343750000000 21.843750000000 68.764999389648 104 104 104
22.031250000000 24.187500000000 67.974998474121 117 117 117
22.609375000000 24.531250000000 68.834999084473 132 132 132
22.609375000000 24.531250000000 69.776000976563 26 26 26
22.578125000000 24.500000000000 69.792999267578 126 126 126
21.078125000000 23.671875000000 69.698997497559 101 101 101
21.046875000000 23.656250000000 69.711997985840 86 86 86
18.359375000000 22.156250000000 68.773994445801 100 100 100
22.062500000000 24.500000000000 67.971000671387 73 73 73
22.031250000000 24.468750000000 67.981994628906 53 53 53
22.609375000000 24.812500000000 68.846000671387 129 129 129
22.609375000000 24.812500000000 69.785995483398 125 125 125
22.578125000000 24.812500000000 69.821998596191 17 17 17
21.062500000000 23.968750000000 69.699996948242 133 133 133
18.343750000000 22.453125000000 68.786994934082 100 100 100
22.046875000000 24.781250000000 67.975997924805 112 112 112
22.640625000000 25.125000000000 68.828994750977 101 101 101
22.609375000000 25.109375000000 68.848999023438 42 42 42
22.593750000000 25.125000000000 69.791999816895 145 145 145
21.093750000000 24.281250000000 69.705001831055 93 93 93
21.062500000000 24.250000000000 69.699996948242 99 99 99
18.328125000000 22.750000000000 68.772994995117 98 98 98
22.046875000000 25.093750000000 67.948997497559 53 53 53
22.031250000000 25.093750000000 67.980995178223 65 65 65
22.609375000000 25.406250000000 68.837997436523 127 127 127
22.609375000000 25.421875000000 69.779998779297 105 105 105
22.593750000000 25.406250000000 69.809997558594 52 52 52
21.078125000000 24.562500000000 69.703994750977 124 124 124
18.359375000000 23.046875000000 68.785995483398 57 57 57
22.031250000000 25.375000000000 67.966995239258 108 108 108
22.640625000000 25.718750000000 68.833000183105 103 103 103
22.625000000000 25.718750000000 68.856994628906 23 23 23
22.609375000000 25.718750000000 69.792999267578 137 137 137
21.093750000000 24.875000000000 69.685997009277 93 93 93
21.062500000000 24.843750000000 69.705001831055 95 95 95
18.343750000000 23.343750000000 68.777000427246 92 92 92
22.062500000000 25.687500000000 67.969001770020 69 69 69
22.031250000000 25.656250000000 67.974998474121 53 53 53
22.640625000000 26.015625000000 68.839996337891 123 123 123
22.625000000000 26.015625000000 69.785995483398 131 131 131
22.609375000000 26.000000000000 69.821998596191 15 15 15
21.093750000000 25.171875000000 69.706001281738 126 126 126
18.359375000000 23.656250000000 68.792999267578 32 32 32
22.062500000000 25.984375000000 67.969001770020 115 115 115
22.656250000000 26.328125000000 68.834999084473 110 110 110
22.609375000000 26.312500000000 69.795997619629 131 131 131
21.109375000000 25.468750000000 69.702995300293 111 111 111
21.078125000000 25.468750000000 69.726997375488 69 69 69
18.343750000000 23.937500000000 68.803001403809 97 97 97
22.062500000000 26.281250000000 67.955001831055 28 28 28
22.046875000000 26.281250000000 67.980995178223 83 83 83
22.640625000000 26.625000000000 68.838996887207 131 131 131
22.640625000000 26.625000000000 69.793998718262 115 115 115
22.593750000000 26.609375000000 69.814994812012 45 45 45
21.093750000000 25.765625000000 69.708999633789 123 123 123
22.062500000000 26.593750000000 67.967994689941 111 111 111
22.671875000000 26.937500000000 68.833000183105 82 82 82
22.640625000000 26.906250000000 68.848999023438 80 80 80
22.625000000000 26.921875000000 69.811996459961 149 149 149
21.125000000000 26.062500000000 69.702995300293 97 97 97
21.078125000000 26.062500000000 69.703994750977 94 94 94
22.062500000000 26.875000000000 67.976997375488 97 97 97
22.656250000000 27.218750000000 68.845001220703 129 129 129
22.656250000000 27.218750000000 69.791000366211 92 92 92
22.625000000000 27.218750000000 69.818000793457 75 75 75
21.109375000000 26.375000000000 69.711997985840 121 121 121
22.062500000000 27.187500000000 67.970001220703 110 110 110
22.671875000000 27.531250000000 68.828994750977 93 93 93
22.640625000000 27.515625000000 68.858001708984 63 63 63
22.640625000000 27.515625000000 69.801994323730 139 139 139
21.125000000000 26.687500000000 69.703994750977 106 106 106
21.093750000000 26.656250000000 69.724998474121 74 74 74
22.062500000000 27.484375000000 67.969001770020 95 95 95
22.671875000000 27.812500000000 68.844001770020 133 133 133
22.656250000000 27.828125000000 69.803001403809 100 100 100
22.625000000000 27.812500000000 69.819999694824 57 57 57
21.109375000000 26.968750000000 69.721000671387 120 120 120
22.093750000000 27.781250000000 67.966995239258 100 100 100
22.671875000000 28.125000000000 68.839996337891 94 94 94
22.671875000000 28.125000000000 68.867996215820 71 71 71
22.656250000000 28.125000000000 69.811996459961 139 139 139
21.125000000000 27.281250000000 69.711997985840 109 109 109
21.109375000000 27.250000000000 69.723999023438 73 73 73
22.078125000000 28.093750000000 67.985000610352 102 102 102
22.671875000000 28.421875000000 68.844001770020 130 130 130
22.671875000000 28.437500000000 69.808998107910 94 94 94
22.640625000000 28.421875000000 69.833000183105 70 70 70
21.125000000000 27.562500000000 69.723999023438 124 124 124
22.109375000000 28.375000000000 67.970001220703 57 57 57
22.078125000000 28.375000000000 67.991996765137 55 55 55
22.703125000000 28.718750000000 68.839996337891 28 28 28
22.671875000000 28.718750000000 68.861000061035 112 112 112
22.656250000000 28.718750000000 69.810997009277 135 135 135
21.140625000000 27.875000000000 69.712997436523 81 81 81
21.109375000000 27.859375000000 69.725997924805 100 100 100
22.093750000000 28.687500000000 67.980995178223 106 106 106
21.125000000000 28.171875000000 69.725997924805 124 124 124
21.156250000000 28.468750000000 69.722000122070 99 99 99
21.109375000000 28.468750000000 69.736999511719 79 79 79
21.156250000000 28.781250000000 69.708000183105 16 16 16
21.125000000000 28.765625000000 69.738998413086 111 111 111
18.453125000000 0.062500000000 67.666999816895 81 81 81
18.484375000000 0.062500000000 67.664001464844 253 253 253
18.484375000000 0.046875000000 67.672996520996 253 253 253
18.468750000000 0.343750000000 67.668998718262 253 253 253
18.484375000000 0.343750000000 67.671997070313 253 253 253
18.515625000000 0.343750000000 67.673995971680 112 112 112
18.484375000000 0.656250000000 67.679000854492 249 249 249
18.484375000000 0.656250000000 67.672996520996 253 253 253
18.484375000000 0.640625000000 67.674995422363 214 214 214
18.468750000000 0.968750000000 67.668998718262 98 98 98
18.468750000000 0.953125000000 67.667999267578 253 253 253
18.500000000000 0.937500000000 67.690994262695 253 253 253
18.453125000000 1.265625000000 67.666000366211 35 35 35
18.484375000000 1.250000000000 67.673995971680 253 253 253
18.484375000000 1.250000000000 67.664001464844 253 253 253
18.515625000000 1.234375000000 67.671997070313 29 29 29
18.468750000000 1.562500000000 67.674995422363 253 253 253
18.484375000000 1.562500000000 67.661994934082 253 253 253
18.500000000000 1.546875000000 67.672996520996 170 170 170
20.734375000000 0.250000000000 70.046997070313 131 131 131
18.453125000000 1.875000000000 67.675994873047 106 106 106
18.468750000000 1.843750000000 67.670997619629 253 253 253
18.484375000000 1.843750000000 67.679000854492 253 253 253
20.765625000000 0.546875000000 70.032997131348 143 143 143
18.484375000000 2.156250000000 67.664001464844 253 253 253
18.500000000000 2.156250000000 67.662994384766 253 253 253
18.515625000000 2.125000000000 67.656997680664 39 39 39
20.734375000000 0.843750000000 70.033996582031 91 91 91
20.765625000000 0.843750000000 70.013999938965 102 102 102
21.703125000000 0.250000000000 68.396995544434 106 106 106
18.468750000000 2.468750000000 67.662994384766 253 253 253
18.484375000000 2.437500000000 67.662994384766 253 253 253
18.500000000000 2.437500000000 67.674995422363 119 119 119
20.750000000000 1.156250000000 70.006996154785 131 131 131
22.250000000000 0.250000000000 70.111999511719 148 148 148
22.234375000000 0.250000000000 69.203994750977 119 119 119
22.265625000000 0.234375000000 69.183998107910 51 51 51
21.703125000000 0.562500000000 68.402000427246 76 76 76
21.734375000000 0.562500000000 68.378997802734 48 48 48
18.453125000000 2.750000000000 67.666000366211 128 128 128
18.484375000000 2.750000000000 67.657997131348 253 253 253
18.484375000000 2.750000000000 67.669998168945 183 183 183
20.734375000000 1.453125000000 70.025001525879 19 19 19
20.765625000000 1.437500000000 70.004997253418 129 129 129
22.281250000000 0.546875000000 70.090995788574 154 154 154
22.265625000000 0.531250000000 69.196998596191 158 158 158
21.718750000000 0.859375000000 68.380996704102 112 112 112
18.468750000000 3.062500000000 67.666000366211 253 253 253
18.500000000000 3.046875000000 67.664001464844 253 253 253
20.750000000000 1.750000000000 70.012001037598 97 97 97
20.781250000000 1.718750000000 69.992996215820 68 68 68
22.250000000000 0.859375000000 70.092994689941 95 95 95
22.281250000000 0.843750000000 70.077995300293 99 99 99
22.250000000000 0.843750000000 69.197998046875 15 15 15
22.265625000000 0.843750000000 69.173995971680 140 140 140
21.718750000000 1.140625000000 68.375999450684 114 114 114
18.453125000000 3.359375000000 67.673995971680 241 241 241
18.468750000000 3.343750000000 67.656997680664 253 253 253
18.484375000000 3.343750000000 67.670997619629 78 78 78
20.765625000000 2.031250000000 69.985000610352 132 132 132
22.265625000000 1.140625000000 70.089996337891 145 145 145
22.265625000000 1.125000000000 69.188995361328 87 87 87
22.281250000000 1.125000000000 69.166000366211 99 99 99
21.734375000000 1.437500000000 68.347999572754 107 107 107
18.453125000000 3.656250000000 67.680999755859 98 98 98
18.484375000000 3.656250000000 67.659996032715 253 253 253
18.484375000000 3.640625000000 67.678001403809 164 164 164
20.765625000000 2.312500000000 69.981994628906 139 139 139
22.281250000000 1.437500000000 70.064994812012 161 161 161
22.265625000000 1.421875000000 69.172996520996 146 146 146
22.328125000000 1.406250000000 69.171997070313 18 18 18
21.718750000000 1.750000000000 68.359001159668 54 54 54
21.734375000000 1.750000000000 68.334999084473 63 63 63
18.468750000000 3.968750000000 67.672996520996 253 253 253
18.484375000000 3.937500000000 67.659996032715 253 253 253
20.765625000000 2.625000000000 69.977996826172 100 100 100
20.796875000000 2.625000000000 69.959999084473 77 77 77
22.250000000000 1.750000000000 70.070999145508 82 82 82
22.281250000000 1.718750000000 70.045997619629 99 99 99
22.281250000000 1.718750000000 69.153999328613 153 153 153
21.734375000000 2.046875000000 68.347999572754 107 107 107
18.453125000000 4.250000000000 67.666999816895 253 253 253
18.484375000000 4.250000000000 67.654998779297 253 253 253
20.765625000000 2.937500000000 69.958000183105 142 142 142
22.296875000000 2.031250000000 70.060997009277 158 158 158
22.265625000000 2.031250000000 69.153999328613 98 98 98
22.296875000000 2.015625000000 69.131996154785 87 87 87
21.750000000000 2.343750000000 68.332000732422 112 112 112
18.468750000000 4.562500000000 67.668998718262 159 159 159
18.468750000000 4.562500000000 67.666999816895 253 253 253
18.500000000000 4.546875000000 67.657997131348 126 126 126
20.765625000000 3.218750000000 69.959999084473 47 47 47
20.796875000000 3.218750000000 69.945999145508 119 119 119
22.281250000000 2.343750000000 70.074996948242 29 29 29
22.296875000000 2.328125000000 70.034996032715 142 142 142
22.296875000000 2.312500000000 69.144996643066 155 155 155
21.734375000000 2.640625000000 68.338996887207 37 37 37
21.750000000000 2.625000000000 68.304000854492 76 76 76
18.453125000000 4.859375000000 67.670997619629 253 253 253
18.468750000000 4.843750000000 67.665000915527 199 199 199
20.796875000000 3.531250000000 69.950996398926 104 104 104
20.828125000000 3.500000000000 69.938995361328 56 56 56
22.281250000000 2.625000000000 70.047996520996 100 100 100
22.328125000000 2.625000000000 70.033996582031 91 91 91
22.296875000000 2.609375000000 69.130996704102 159 159 159
21.734375000000 2.921875000000 68.323997497559 77 77 77
21.765625000000 2.906250000000 68.310997009277 38 38 38
18.453125000000 5.156250000000 67.666999816895 225 225 225
18.484375000000 5.140625000000 67.665000915527 253 253 253
20.796875000000 3.812500000000 69.942001342773 139 139 139
22.296875000000 2.906250000000 70.037994384766 150 150 150
22.296875000000 2.906250000000 69.143997192383 30 30 30
22.328125000000 2.906250000000 69.116996765137 135 135 135
21.750000000000 3.218750000000 68.308998107910 106 106 106
18.453125000000 5.453125000000 67.668998718262 107 107 107
18.468750000000 5.437500000000 67.675994873047 253 253 253
18.484375000000 5.437500000000 67.676994323730 81 81 81
20.812500000000 4.093750000000 69.929000854492 131 131 131
22.312500000000 3.203125000000 70.016998291016 152 152 152
22.296875000000 3.203125000000 69.123001098633 115 115 115
22.296875000000 3.187500000000 69.087997436523 62 62 62
21.750000000000 3.515625000000 68.286994934082 115 115 115
18.453125000000 5.750000000000 67.675994873047 246 246 246
18.484375000000 5.750000000000 67.664001464844 167 167 167
20.796875000000 4.406250000000 69.929000854492 104 104 104
20.812500000000 4.375000000000 69.907997131348 47 47 47
22.296875000000 3.515625000000 70.018997192383 103 103 103
22.328125000000 3.500000000000 70.006996154785 70 70 70
22.296875000000 3.500000000000 69.108001708984 157 157 157
21.765625000000 3.812500000000 68.309997558594 25 25 25
21.781250000000 3.812500000000 68.276000976563 79 79 79
18.468750000000 6.062500000000 67.668998718262 232 232 232
18.468750000000 6.046875000000 67.666999816895 253 253 253
20.812500000000 4.687500000000 69.917999267578 139 139 139
22.312500000000 3.812500000000 70.007995605469 160 160 160
22.312500000000 3.812500000000 69.122001647949 49 49 49
22.328125000000 3.781250000000 69.087997436523 122 122 122
21.750000000000 4.109375000000 68.283996582031 97 97 97
18.453125000000 6.359375000000 67.648994445801 163 163 163
18.484375000000 6.343750000000 67.672996520996 253 253 253
18.484375000000 6.328125000000 67.667999267578 38 38 38
20.796875000000 5.000000000000 69.932998657227 78 78 78
20.828125000000 4.984375000000 69.901000976563 110 110 110
22.296875000000 4.109375000000 70.016998291016 41 41 41
22.328125000000 4.093750000000 69.986999511719 138 138 138
22.312500000000 4.093750000000 69.098999023438 126 126 126
22.343750000000 4.078125000000 69.077995300293 24 24 24
21.765625000000 4.406250000000 68.270996093750 113 113 113
18.453125000000 6.640625000000 67.683998107910 244 244 244
18.484375000000 6.625000000000 67.692001342773 140 140 140
20.796875000000 5.281250000000 69.901000976563 119 119 119
20.828125000000 5.281250000000 69.894996643066 37 37 37
22.328125000000 4.406250000000 70.004997253418 115 115 115
22.359375000000 4.375000000000 69.981994628906 56 56 56
22.328125000000 4.390625000000 69.080001831055 154 154 154
21.781250000000 4.703125000000 68.250999450684 105 105 105
18.453125000000 6.937500000000 67.656997680664 203 203 203
18.468750000000 6.937500000000 67.680000305176 248 248 248
20.828125000000 5.593750000000 69.902999877930 145 145 145
22.328125000000 4.687500000000 69.990997314453 158 158 158
22.328125000000 4.687500000000 69.064994812012 142 142 142
21.750000000000 5.015625000000 68.251998901367 21 21 21
21.781250000000 5.000000000000 68.241996765137 84 84 84
18.453125000000 7.250000000000 67.674995422363 123 123 123
18.453125000000 7.250000000000 67.681999206543 254 254 254
18.484375000000 7.250000000000 67.697998046875 47 47 47
20.828125000000 5.875000000000 69.915000915527 63 63 63
20.828125000000 5.875000000000 69.872001647949 119 119 119
22.312500000000 5.000000000000 70.000999450684 20 20 20
22.328125000000 4.968750000000 69.970001220703 131 131 131
22.312500000000 4.968750000000 69.082000732422 90 90 90
22.343750000000 4.968750000000 69.051994323730 82 82 82
21.781250000000 5.312500000000 68.243995666504 96 96 96
18.453125000000 7.531250000000 67.680999755859 233 233 233
18.484375000000 7.531250000000 67.714996337891 137 137 137
20.828125000000 6.187500000000 69.883995056152 136 136 136
22.343750000000 5.281250000000 69.979995727539 133 133 133
22.343750000000 5.281250000000 69.062995910645 151 151 151
21.781250000000 5.593750000000 68.227996826172 111 111 111
18.453125000000 7.843750000000 67.665000915527 214 214 214
18.484375000000 7.843750000000 67.673995971680 214 214 214
20.859375000000 6.468750000000 69.867996215820 132 132 132
22.343750000000 5.578125000000 69.961997985840 144 144 144
22.328125000000 5.578125000000 69.075996398926 49 49 49
22.359375000000 5.562500000000 69.043998718262 119 119 119
21.796875000000 5.890625000000 68.244995117188 41 41 41
21.796875000000 5.875000000000 68.214996337891 69 69 69
18.453125000000 8.156250000000 67.661994934082 168 168 168
18.453125000000 8.140625000000 67.683998107910 246 246 246
20.828125000000 6.781250000000 69.884994506836 105 105 105
20.859375000000 6.750000000000 69.873001098633 75 75 75
22.343750000000 5.875000000000 69.976997375488 91 91 91
22.375000000000 5.875000000000 69.947998046875 98 98 98
22.359375000000 5.875000000000 69.054000854492 117 117 117
22.375000000000 5.875000000000 69.032997131348 35 35 35
21.796875000000 6.187500000000 68.228996276855 95 95 95
18.437500000000 8.453125000000 67.662994384766 33 33 33
18.453125000000 8.437500000000 67.684997558594 224 224 224
18.468750000000 8.437500000000 67.759994506836 139 139 139
20.843750000000 7.062500000000 69.868995666504 136 136 136
22.343750000000 6.187500000000 69.958999633789 135 135 135
22.359375000000 6.156250000000 69.042999267578 147 147 147
21.796875000000 6.500000000000 68.208999633789 117 117 117
18.453125000000 8.750000000000 67.659996032715 208 208 208
18.484375000000 8.750000000000 67.666999816895 206 206 206
20.859375000000 7.343750000000 69.853996276855 138 138 138
22.359375000000 6.468750000000 69.948997497559 147 147 147
22.375000000000 6.453125000000 69.031997680664 141 141 141
21.828125000000 6.781250000000 68.200996398926 122 122 122
18.437500000000 9.062500000000 67.660995483398 159 159 159
18.453125000000 9.031250000000 67.690994262695 244 244 244
20.843750000000 7.671875000000 69.850997924805 106 106 106
20.875000000000 7.656250000000 69.842994689941 70 70 70
22.375000000000 6.781250000000 69.961997985840 95 95 95
22.390625000000 6.750000000000 69.931999206543 90 90 90
22.359375000000 6.750000000000 69.043998718262 104 104 104
22.390625000000 6.750000000000 69.011001586914 51 51 51
21.796875000000 7.078125000000 68.206001281738 58 58 58
21.812500000000 7.062500000000 68.180000305176 56 56 56
18.453125000000 9.359375000000 67.662994384766 91 91 91
18.453125000000 9.343750000000 67.683998107910 229 229 229
20.859375000000 7.968750000000 69.841995239258 144 144 144
22.359375000000 7.062500000000 69.929000854492 152 152 152
22.375000000000 7.062500000000 69.014999389648 148 148 148
21.828125000000 7.375000000000 68.183998107910 113 113 113
18.453125000000 9.656250000000 67.684997558594 240 240 240
18.468750000000 9.625000000000 67.721000671387 159 159 159
20.843750000000 8.281250000000 69.833999633789 84 84 84
20.875000000000 8.250000000000 69.818000793457 93 93 93
22.359375000000 7.375000000000 69.940994262695 55 55 55
22.390625000000 7.359375000000 69.912994384766 116 116 116
22.359375000000 7.375000000000 69.027000427246 51 51 51
22.390625000000 7.343750000000 69.002998352051 108 108 108
21.828125000000 7.671875000000 68.172996520996 110 110 110
18.437500000000 9.937500000000 67.655998229980 202 202 202
18.453125000000 9.937500000000 67.706001281738 254 254 254
20.859375000000 8.562500000000 69.831001281738 142 142 142
22.375000000000 7.656250000000 69.930999755859 124 124 124
22.406250000000 7.640625000000 69.915000915527 21 21 21
22.375000000000 7.656250000000 69.013999938965 116 116 116
22.390625000000 7.625000000000 68.995994567871 20 20 20
21.812500000000 7.968750000000 68.183998107910 50 50 50
21.828125000000 7.968750000000 68.156997680664 60 60 60
18.437500000000 10.250000000000 67.671997070313 85 85 85
18.453125000000 10.250000000000 67.684997558594 250 250 250
18.484375000000 10.250000000000 67.783996582031 139 139 139
20.890625000000 8.843750000000 69.831001281738 150 150 150
22.390625000000 7.968750000000 69.914001464844 151 151 151
22.375000000000 7.937500000000 69.003997802734 142 142 142
21.828125000000 8.250000000000 68.175994873047 90 90 90
18.437500000000 10.562500000000 67.676994323730 231 231 231
18.453125000000 10.531250000000 67.702995300293 165 165 165
20.859375000000 9.156250000000 69.817001342773 74 74 74
20.890625000000 9.140625000000 69.806999206543 118 118 118
22.375000000000 8.250000000000 69.924995422363 38 38 38
22.406250000000 8.250000000000 69.902000427246 124 124 124
22.390625000000 8.234375000000 68.986000061035 123 123 123
21.843750000000 8.562500000000 68.164001464844 126 126 126
18.453125000000 10.843750000000 67.652000427246 188 188 188
18.453125000000 10.843750000000 67.684997558594 225 225 225
20.890625000000 9.437500000000 69.820999145508 145 145 145
22.375000000000 8.546875000000 69.915000915527 134 134 134
22.390625000000 8.531250000000 68.999000549316 125 125 125
22.421875000000 8.515625000000 68.984001159668 23 23 23
21.859375000000 8.843750000000 68.144996643066 94 94 94
18.437500000000 11.156250000000 67.668998718262 128 128 128
18.453125000000 11.156250000000 67.665000915527 220 220 220
18.453125000000 11.156250000000 68.673995971680 60 60 60
20.875000000000 9.750000000000 69.835998535156 38 38 38
20.890625000000 9.734375000000 69.797996520996 130 130 130
22.375000000000 8.859375000000 69.925994873047 17 17 17
22.406250000000 8.843750000000 69.890998840332 143 143 143
22.390625000000 8.828125000000 68.974998474121 147 147 147
21.843750000000 9.156250000000 68.143997192383 104 104 104
18.437500000000 11.437500000000 67.653999328613 204 204 204
18.453125000000 11.468750000000 68.754997253418 102 102 102
20.890625000000 10.031250000000 69.809997558594 111 111 111
20.921875000000 10.031250000000 69.801994323730 33 33 33
22.390625000000 9.156250000000 69.903999328613 110 110 110
22.406250000000 9.125000000000 69.880996704102 61 61 61
22.390625000000 9.140625000000 68.986999511719 78 78 78
22.406250000000 9.125000000000 68.961997985840 76 76 76
21.843750000000 9.453125000000 68.130996704102 124 124 124
18.453125000000 11.750000000000 67.646995544434 197 197 197
18.453125000000 11.750000000000 67.653999328613 197 197 197
20.906250000000 10.343750000000 69.792999267578 140 140 140
22.390625000000 9.437500000000 69.886001586914 148 148 148
22.406250000000 9.437500000000 68.973999023438 119 119 119
21.859375000000 9.750000000000 68.122001647949 95 95 95
18.437500000000 12.062500000000 67.666999816895 100 100 100
18.453125000000 12.046875000000 67.658996582031 209 209 209
18.453125000000 12.062500000000 68.701995849609 95 95 95
20.906250000000 10.625000000000 69.781997680664 135 135 135
22.421875000000 9.718750000000 69.881996154785 155 155 155
22.421875000000 9.718750000000 68.963996887207 145 145 145
21.843750000000 10.046875000000 68.129997253418 45 45 45
21.875000000000 10.031250000000 68.110000610352 63 63 63
18.437500000000 12.343750000000 67.652999877930 204 204 204
18.453125000000 12.343750000000 67.738998413086 162 162 162
20.890625000000 10.921875000000 69.795997619629 96 96 96
20.921875000000 10.906250000000 69.784996032715 72 72 72
22.406250000000 10.031250000000 69.902000427246 83 83 83
22.437500000000 10.015625000000 69.874000549316 101 101 101
22.421875000000 10.000000000000 68.949996948242 127 127 127
21.859375000000 10.343750000000 68.123001098633 109 109 109
18.437500000000 12.640625000000 67.644996643066 199 199 199
18.468750000000 12.640625000000 67.658996582031 187 187 187
20.921875000000 11.218750000000 69.782997131348 138 138 138
22.421875000000 10.328125000000 69.873001098633 154 154 154
22.421875000000 10.328125000000 68.956001281738 131 131 131
21.875000000000 10.640625000000 68.104995727539 105 105 105
18.453125000000 12.953125000000 67.642997741699 147 147 147
18.453125000000 12.937500000000 67.661994934082 217 217 217
18.453125000000 12.953125000000 68.681999206543 77 77 77
20.906250000000 11.515625000000 69.792999267578 84 84 84
20.937500000000 11.500000000000 69.771995544434 89 89 89
22.421875000000 10.625000000000 69.891998291016 66 66 66
22.437500000000 10.609375000000 69.858001708984 113 113 113
22.437500000000 10.609375000000 68.940994262695 140 140 140
21.843750000000 10.937500000000 68.110000610352 68 68 68
21.875000000000 10.921875000000 68.088996887207 43 43 43
18.421875000000 13.250000000000 67.654998779297 36 36 36
18.453125000000 13.250000000000 67.655998229980 206 206 206
18.453125000000 13.234375000000 67.796997070313 152 152 152
20.921875000000 11.812500000000 69.777000427246 129 129 129
20.953125000000 11.781250000000 69.771995544434 17 17 17
22.421875000000 10.921875000000 69.869995117188 134 134 134
22.406250000000 10.906250000000 68.958999633789 51 51 51
22.453125000000 10.906250000000 68.943000793457 99 99 99
21.890625000000 11.218750000000 68.109001159668 108 108 108
18.437500000000 13.546875000000 67.646995544434 198 198 198
18.453125000000 13.531250000000 67.652000427246 203 203 203
20.921875000000 12.093750000000 69.771995544434 144 144 144
22.453125000000 11.203125000000 69.859001159668 151 151 151
22.421875000000 11.203125000000 68.944999694824 91 91 91
22.484375000000 11.187500000000 68.936996459961 47 47 47
21.890625000000 11.515625000000 68.100997924805 117 117 117
18.437500000000 13.843750000000 67.654998779297 105 105 105
18.453125000000 13.828125000000 67.650001525879 206 206 206
18.437500000000 13.859375000000 68.708000183105 108 108 108
20.921875000000 12.406250000000 69.787994384766 31 31 31
20.937500000000 12.390625000000 69.753997802734 129 129 129
22.421875000000 11.500000000000 69.881996154785 25 25 25
22.437500000000 11.500000000000 69.844001770020 133 133 133
22.421875000000 11.484375000000 68.938995361328 142 142 142
21.875000000000 11.812500000000 68.083000183105 116 116 116
18.437500000000 14.125000000000 67.658996582031 213 213 213
18.453125000000 14.125000000000 67.751998901367 162 162 162
20.921875000000 12.687500000000 69.758995056152 124 124 124
20.953125000000 12.671875000000 69.764999389648 36 36 36
22.421875000000 11.796875000000 69.861000061035 122 122 122
22.468750000000 11.781250000000 69.841995239258 21 21 21
22.437500000000 11.781250000000 68.916000366211 121 121 121
21.890625000000 12.125000000000 68.097000122070 49 49 49
21.906250000000 12.093750000000 68.075996398926 61 61 61
18.437500000000 14.437500000000 67.647994995117 209 209 209
18.453125000000 14.421875000000 67.642997741699 165 165 165
20.953125000000 12.984375000000 69.748001098633 138 138 138
22.468750000000 12.093750000000 69.833999633789 145 145 145
22.453125000000 12.078125000000 68.935997009277 121 121 121
21.890625000000 12.406250000000 68.078994750977 116 116 116
18.421875000000 14.750000000000 67.648994445801 159 159 159
18.437500000000 14.718750000000 67.666999816895 224 224 224
18.421875000000 14.750000000000 68.679000854492 68 68 68
20.937500000000 13.281250000000 69.763000488281 105 105 105
20.968750000000 13.281250000000 69.738998413086 64 64 64
22.437500000000 12.406250000000 69.853996276855 111 111 111
22.468750000000 12.375000000000 69.832000732422 71 71 71
22.453125000000 12.375000000000 68.918998718262 141 141 141
21.890625000000 12.687500000000 68.060997009277 106 106 106
18.421875000000 15.031250000000 67.634994506836 43 43 43
18.437500000000 15.031250000000 67.647994995117 200 200 200
18.421875000000 15.062500000000 68.745994567871 100 100 100
20.937500000000 13.578125000000 69.745994567871 146 146 146
22.453125000000 12.687500000000 69.845001220703 149 149 149
22.484375000000 12.656250000000 68.917999267578 124 124 124
21.906250000000 13.000000000000 68.094001770020 24 24 24
21.906250000000 13.000000000000 68.055999755859 73 73 73
18.437500000000 15.328125000000 67.643997192383 206 206 206
18.453125000000 15.312500000000 67.652999877930 176 176 176
20.953125000000 13.875000000000 69.740997314453 138 138 138
22.453125000000 12.968750000000 69.833000183105 150 150 150
22.453125000000 12.968750000000 68.924995422363 66 66 66
22.468750000000 12.953125000000 68.893997192383 81 81 81
21.890625000000 13.296875000000 68.062995910645 74 74 74
21.937500000000 13.281250000000 68.061996459961 28 28 28
18.421875000000 15.625000000000 67.640998840332 142 142 142
18.437500000000 15.625000000000 67.652000427246 210 210 210
18.421875000000 15.640625000000 68.693000793457 98 98 98
20.937500000000 14.156250000000 69.751998901367 82 82 82
20.968750000000 14.140625000000 69.733001708984 95 95 95
22.453125000000 13.265625000000 69.845001220703 64 64 64
22.468750000000 13.250000000000 69.815994262695 108 108 108
22.453125000000 13.250000000000 68.908996582031 123 123 123
21.906250000000 13.593750000000 68.058998107910 112 112 112
18.421875000000 15.937500000000 67.655998229980 53 53 53
18.437500000000 15.906250000000 67.648994445801 190 190 190
18.406250000000 15.937500000000 68.716995239258 100 100 100
20.953125000000 14.453125000000 69.743995666504 145 145 145
22.468750000000 13.546875000000 69.831001281738 146 146 146
22.484375000000 13.546875000000 68.894996643066 132 132 132
21.921875000000 13.875000000000 68.051994323730 109 109 109
18.437500000000 16.218750000000 67.644996643066 203 203 203
18.453125000000 16.218750000000 67.743995666504 160 160 160
20.953125000000 14.750000000000 69.745994567871 71 71 71
20.984375000000 14.750000000000 69.728996276855 112 112 112
22.453125000000 13.875000000000 69.833999633789 62 62 62
22.484375000000 13.843750000000 69.811996459961 115 115 115
22.468750000000 13.843750000000 68.904998779297 120 120 120
21.906250000000 14.187500000000 68.055999755859 99 99 99
18.421875000000 16.531250000000 67.645996093750 201 201 201
18.453125000000 16.515625000000 67.651000976563 161 161 161
18.421875000000 16.531250000000 68.692001342773 43 43 43
20.968750000000 15.062500000000 69.729995727539 141 141 141
22.484375000000 14.156250000000 69.827995300293 140 140 140
22.500000000000 14.140625000000 68.891998291016 143 143 143
21.937500000000 14.468750000000 68.042999267578 113 113 113
18.421875000000 16.828125000000 67.651000976563 151 151 151
18.437500000000 16.812500000000 67.642997741699 199 199 199
18.421875000000 16.843750000000 68.689994812012 105 105 105
20.984375000000 15.343750000000 69.723999023438 133 133 133
22.484375000000 14.437500000000 69.819000244141 146 146 146
22.484375000000 14.437500000000 68.910995483398 33 33 33
22.500000000000 14.437500000000 68.881996154785 106 106 106
21.937500000000 14.781250000000 68.030998229980 88 88 88
18.421875000000 17.125000000000 67.639999389648 41 41 41
18.453125000000 17.125000000000 67.652999877930 191 191 191
18.406250000000 17.156250000000 68.724998474121 97 97 97
20.968750000000 15.640625000000 69.728996276855 76 76 76
21.000000000000 15.625000000000 69.706001281738 104 104 104
22.484375000000 14.750000000000 69.825996398926 71 71 71
22.484375000000 14.718750000000 69.794998168945 109 109 109
22.484375000000 14.734375000000 68.888000488281 107 107 107
22.515625000000 14.718750000000 68.874000549316 25 25 25
21.921875000000 15.062500000000 68.048995971680 78 78 78
21.953125000000 15.062500000000 68.022994995117 32 32 32
18.421875000000 17.406250000000 67.652000427246 201 201 201
18.453125000000 17.406250000000 67.684997558594 169 169 169
18.421875000000 17.421875000000 68.700996398926 57 57 57
20.984375000000 15.921875000000 69.722999572754 147 147 147
22.500000000000 15.031250000000 69.818000793457 151 151 151
22.500000000000 15.031250000000 68.875000000000 146 146 146
21.953125000000 15.343750000000 68.032997131348 122 122 122
18.421875000000 17.718750000000 67.648994445801 195 195 195
18.453125000000 17.718750000000 67.650001525879 169 169 169
18.421875000000 17.750000000000 68.702995300293 95 95 95
20.984375000000 16.250000000000 69.725997924805 87 87 87
21.015625000000 16.218750000000 69.716995239258 97 97 97
22.484375000000 15.343750000000 69.830001831055 82 82 82
22.515625000000 15.328125000000 69.805000305176 100 100 100
22.484375000000 15.343750000000 68.886001586914 102 102 102
22.515625000000 15.312500000000 68.865997314453 43 43 43
21.937500000000 15.656250000000 68.047996520996 61 61 61
21.953125000000 15.640625000000 68.014999389648 52 52 52
18.421875000000 18.031250000000 67.652999877930 162 162 162
18.421875000000 18.015625000000 67.654998779297 188 188 188
18.406250000000 18.046875000000 68.696998596191 100 100 100
20.984375000000 16.531250000000 69.712997436523 147 147 147
22.500000000000 15.625000000000 69.810997009277 154 154 154
22.515625000000 15.625000000000 68.867996215820 150 150 150
21.953125000000 15.953125000000 68.023994445801 116 116 116
18.406250000000 18.328125000000 67.653999328613 63 63 63
18.437500000000 18.312500000000 67.655998229980 188 188 188
18.390625000000 18.343750000000 68.701995849609 94 94 94
20.984375000000 16.843750000000 69.723999023438 82 82 82
21.015625000000 16.812500000000 69.707000732422 101 101 101
22.515625000000 15.937500000000 69.827995300293 74 74 74
22.515625000000 15.921875000000 69.791000366211 99 99 99
22.515625000000 15.937500000000 68.883995056152 85 85 85
22.531250000000 15.906250000000 68.863998413086 81 81 81
21.937500000000 16.265625000000 68.036994934082 21 21 21
21.953125000000 16.250000000000 68.012001037598 78 78 78
18.437500000000 18.625000000000 67.642997741699 201 201 201
18.453125000000 18.609375000000 67.722000122070 161 161 161
18.421875000000 18.640625000000 68.707000732422 68 68 68
21.000000000000 17.125000000000 69.716995239258 132 132 132
21.031250000000 17.093750000000 69.707000732422 20 20 20
22.515625000000 16.218750000000 69.810997009277 140 140 140
22.515625000000 16.218750000000 68.872001647949 143 143 143
21.953125000000 16.562500000000 68.017997741699 100 100 100
18.421875000000 18.906250000000 67.646995544434 164 164 164
18.437500000000 18.906250000000 67.639999389648 179 179 179
18.406250000000 18.937500000000 68.713996887207 104 104 104
21.000000000000 17.406250000000 69.710998535156 144 144 144
22.531250000000 16.500000000000 69.796997070313 147 147 147
22.531250000000 16.500000000000 68.860000610352 141 141 141
21.968750000000 16.843750000000 68.011001586914 122 122 122
18.421875000000 19.234375000000 67.648994445801 60 60 60
18.421875000000 19.218750000000 67.645996093750 175 175 175
18.390625000000 19.250000000000 68.722000122070 97 97 97
20.984375000000 17.718750000000 69.708999633789 109 109 109
21.046875000000 17.703125000000 69.698997497559 67 67 67
22.515625000000 16.812500000000 69.813995361328 122 122 122
22.531250000000 16.796875000000 69.784996032715 51 51 51
22.515625000000 16.812500000000 68.870994567871 106 106 106
22.546875000000 16.781250000000 68.860000610352 30 30 30
