21.218750000000 6.000000000000 2.047973632813 172 172 172
21.234375000000 6.000000000000 2.087982177734 168 168 168
21.250000000000 6.000000000000 2.131988525391 164 164 164
21.265625000000 6.000000000000 2.175994873047 164 164 164
21.296875000000 6.000000000000 2.215972900391 171 171 171
21.312500000000 6.000000000000 2.258972167969 173 173 173
21.312500000000 6.000000000000 2.307983398438 173 173 173
21.343750000000 6.000000000000 2.345977783203 170 170 170
21.359375000000 6.125000000000 2.379974365234 180 180 180
21.359375000000 6.125000000000 2.429992675781 131 131 131
21.343750000000 6.125000000000 2.484985351563 54 54 54
21.250000000000 6.000000000000 7.596984863281 72 72 72
20.968750000000 5.875000000000 1.589996337891 181 181 181
20.968750000000 5.875000000000 1.643981933594 177 177 177
20.968750000000 5.875000000000 1.704986572266 177 177 177
20.984375000000 5.875000000000 1.741973876953 167 167 167
21.000000000000 5.875000000000 1.777984619141 172 172 172
21.062500000000 6.000000000000 1.771972656250 173 173 173
21.218750000000 6.125000000000 2.302978515625 117 117 117
21.218750000000 6.125000000000 2.350982666016 169 169 169
21.218750000000 6.125000000000 2.403991699219 183 183 183
21.218750000000 6.125000000000 2.452972412109 184 184 184
21.218750000000 6.125000000000 2.498992919922 185 185 185
21.218750000000 6.125000000000 2.542999267578 184 184 184
21.218750000000 6.125000000000 2.591979980469 181 181 181
21.234375000000 6.125000000000 2.631988525391 179 179 179
21.250000000000 6.125000000000 2.673980712891 174 174 174
21.265625000000 6.125000000000 2.714996337891 172 172 172
21.265625000000 6.125000000000 2.755981445313 173 173 173
21.296875000000 6.125000000000 2.793975830078 171 171 171
21.296875000000 6.125000000000 2.837982177734 170 170 170
21.328125000000 6.125000000000 2.875000000000 171 171 171
21.328125000000 6.125000000000 2.918975830078 172 172 172
21.343750000000 6.250000000000 2.957000732422 173 173 173
21.343750000000 6.250000000000 3.000976562500 169 169 169
21.375000000000 6.250000000000 3.038970947266 152 152 152
21.375000000000 6.250000000000 3.084991455078 118 118 118
21.218750000000 6.250000000000 2.904998779297 55 55 55
21.218750000000 6.250000000000 2.946990966797 129 129 129
21.234375000000 6.250000000000 2.986999511719 166 166 166
21.218750000000 6.250000000000 3.032989501953 181 181 181
21.218750000000 6.250000000000 3.076995849609 185 185 185
21.234375000000 6.250000000000 3.116973876953 184 184 184
21.218750000000 6.250000000000 3.161987304688 186 186 186
21.234375000000 6.250000000000 3.202972412109 183 183 183
21.234375000000 6.250000000000 3.244995117188 182 182 182
21.234375000000 6.250000000000 3.286987304688 178 178 178
21.265625000000 6.250000000000 3.323974609375 174 174 174
21.265625000000 6.250000000000 3.364990234375 173 173 173
21.281250000000 6.250000000000 3.404998779297 170 170 170
21.296875000000 6.250000000000 3.444976806641 170 170 170
21.312500000000 6.375000000000 3.483978271484 165 165 165
21.328125000000 6.375000000000 3.524993896484 161 161 161
21.343750000000 6.375000000000 3.566986083984 164 164 164
21.359375000000 6.375000000000 3.607971191406 167 167 167
21.375000000000 6.375000000000 3.649993896484 145 145 145
21.375000000000 6.375000000000 3.692993164063 131 131 131
21.390625000000 6.375000000000 3.734985351563 58 58 58
21.328125000000 6.375000000000 8.031982421875 42 42 42
21.218750000000 6.375000000000 3.329986572266 177 177 177
21.218750000000 6.375000000000 3.371978759766 177 177 177
21.375000000000 6.500000000000 3.386993408203 181 181 181
21.234375000000 6.375000000000 3.575988769531 124 124 124
21.250000000000 6.375000000000 3.616973876953 158 158 158
21.234375000000 6.375000000000 3.658996582031 178 178 178
21.234375000000 6.375000000000 3.700988769531 183 183 183
21.234375000000 6.375000000000 3.741973876953 184 184 184
21.234375000000 6.375000000000 3.782989501953 184 184 184
21.234375000000 6.375000000000 3.823974609375 183 183 183
21.250000000000 6.375000000000 3.864990234375 180 180 180
21.234375000000 6.375000000000 3.905975341797 176 176 176
21.265625000000 6.375000000000 3.946990966797 173 173 173
21.281250000000 6.375000000000 3.988983154297 166 166 166
21.296875000000 6.375000000000 4.030975341797 167 167 167
21.296875000000 6.500000000000 4.073974609375 168 168 168
21.312500000000 6.500000000000 4.116973876953 168 168 168
21.328125000000 6.500000000000 4.160980224609 169 169 169
21.359375000000 6.500000000000 4.204986572266 167 167 167
21.359375000000 6.500000000000 4.248992919922 155 155 155
21.375000000000 6.500000000000 4.292999267578 127 127 127
21.375000000000 6.500000000000 4.337982177734 111 111 111
21.312500000000 6.500000000000 7.577972412109 64 64 64
21.328125000000 6.500000000000 8.040985107422 76 76 76
21.203125000000 6.500000000000 3.330993652344 173 173 173
21.203125000000 6.500000000000 3.372985839844 173 173 173
21.406250000000 6.625000000000 3.383972167969 182 182 182
21.250000000000 6.500000000000 4.194976806641 119 119 119
21.250000000000 6.500000000000 4.236999511719 147 147 147
21.234375000000 6.500000000000 4.277984619141 173 173 173
21.234375000000 6.500000000000 4.319976806641 183 183 183
21.234375000000 6.500000000000 4.361999511719 183 183 183
21.234375000000 6.500000000000 4.402984619141 184 184 184
21.234375000000 6.500000000000 4.444976806641 183 183 183
21.250000000000 6.500000000000 4.488983154297 181 181 181
21.250000000000 6.500000000000 4.532989501953 179 179 179
21.265625000000 6.500000000000 4.577972412109 174 174 174
21.296875000000 6.625000000000 4.627990722656 166 166 166
21.328125000000 6.625000000000 4.675994873047 166 166 166
21.343750000000 6.625000000000 4.724975585938 167 167 167
21.359375000000 6.625000000000 4.771972656250 170 170 170
21.359375000000 6.625000000000 4.820983886719 168 168 168
21.390625000000 6.625000000000 4.871978759766 151 151 151
21.406250000000 6.625000000000 4.922973632813 129 129 129
21.406250000000 6.625000000000 4.970977783203 87 87 87
21.343750000000 6.625000000000 7.588989257813 99 99 99
21.343750000000 6.625000000000 8.057983398438 105 105 105
21.218750000000 6.625000000000 3.332000732422 158 158 158
21.203125000000 6.625000000000 3.373992919922 174 174 174
21.406250000000 6.750000000000 3.382995605469 183 183 183
21.265625000000 6.750000000000 4.839996337891 140 140 140
21.281250000000 6.625000000000 4.882995605469 163 163 163
21.265625000000 6.625000000000 4.924987792969 183 183 183
21.265625000000 6.625000000000 4.970977783203 183 183 183
21.265625000000 6.625000000000 5.015991210938 184 184 184
21.250000000000 6.750000000000 5.061981201172 184 184 184
21.250000000000 6.750000000000 5.108978271484 180 180 180
21.265625000000 6.750000000000 5.158996582031 177 177 177
21.281250000000 6.750000000000 5.212982177734 170 170 170
21.312500000000 6.750000000000 5.270996093750 167 167 167
21.343750000000 6.750000000000 5.330993652344 166 166 166
21.359375000000 6.750000000000 5.389984130859 160 160 160
21.375000000000 6.750000000000 5.447998046875 159 159 159
21.406250000000 6.750000000000 5.509979248047 137 137 137
21.406250000000 6.750000000000 5.569000244141 112 112 112
21.343750000000 6.750000000000 8.076995849609 63 63 63
21.187500000000 6.750000000000 3.333984375000 135 135 135
21.187500000000 6.750000000000 3.375000000000 175 175 175
21.375000000000 6.875000000000 3.388000488281 183 183 183
21.453125000000 6.875000000000 3.420989990234 86 86 86
21.421875000000 7.000000000000 5.372985839844 174 174 174
21.390625000000 6.875000000000 5.405975341797 177 177 177
21.234375000000 6.875000000000 5.388977050781 181 181 181
21.250000000000 6.875000000000 5.446990966797 130 130 130
21.265625000000 6.875000000000 5.501983642578 161 161 161
21.265625000000 6.875000000000 5.548980712891 181 181 181
21.250000000000 6.875000000000 5.595977783203 182 182 182
21.265625000000 6.875000000000 5.649993896484 182 182 182
21.265625000000 6.875000000000 5.700988769531 182 182 182
21.265625000000 6.875000000000 5.757995605469 178 178 178
21.281250000000 6.875000000000 5.819000244141 171 171 171
21.312500000000 6.875000000000 5.891998291016 150 150 150
21.343750000000 6.875000000000 5.964996337891 147 147 147
21.359375000000 6.875000000000 6.033996582031 142 142 142
21.375000000000 6.875000000000 6.111999511719 131 131 131
21.390625000000 6.875000000000 6.177978515625 105 105 105
21.359375000000 6.875000000000 7.569000244141 69 69 69
21.375000000000 6.875000000000 7.664978027344 85 85 85
21.343750000000 6.875000000000 7.723999023438 134 134 134
21.359375000000 6.875000000000 7.913970947266 133 133 133
21.343750000000 6.875000000000 8.003997802734 94 94 94
21.171875000000 6.875000000000 3.335998535156 53 53 53
21.187500000000 6.875000000000 3.376983642578 176 176 176
21.281250000000 6.875000000000 3.403991699219 179 179 179
21.453125000000 7.000000000000 3.420989990234 162 162 162
21.437500000000 7.125000000000 5.379974365234 177 177 177
21.453125000000 7.125000000000 5.439971923828 171 171 171
21.218750000000 6.875000000000 5.378997802734 177 177 177
21.234375000000 7.000000000000 5.440979003906 148 148 148
21.265625000000 7.000000000000 6.032989501953 80 80 80
21.281250000000 7.000000000000 6.098999023438 140 140 140
21.265625000000 7.000000000000 6.148986816406 178 178 178
21.265625000000 7.000000000000 6.204986572266 183 183 183
21.265625000000 7.000000000000 6.266998291016 185 185 185
21.265625000000 7.000000000000 6.326995849609 183 183 183
21.265625000000 7.000000000000 6.394989013672 177 177 177
21.296875000000 7.000000000000 6.477996826172 157 157 157
21.328125000000 7.000000000000 6.561981201172 139 139 139
21.375000000000 7.125000000000 6.660980224609 138 138 138
21.406250000000 7.125000000000 6.753997802734 117 117 117
21.421875000000 7.125000000000 6.840972900391 82 82 82
21.375000000000 7.125000000000 7.563995361328 130 130 130
21.375000000000 7.125000000000 7.662994384766 146 146 146
21.375000000000 7.125000000000 7.830993652344 147 147 147
21.343750000000 7.000000000000 7.886993408203 115 115 115
21.359375000000 7.000000000000 8.014984130859 120 120 120
21.343750000000 7.000000000000 8.085998535156 56 56 56
21.546875000000 7.250000000000 1.591979980469 81 81 81
21.390625000000 7.125000000000 3.295989990234 41 41 41
21.171875000000 7.000000000000 3.377990722656 177 177 177
21.171875000000 7.000000000000 3.419982910156 171 171 171
21.437500000000 7.125000000000 3.420989990234 177 177 177
21.468750000000 7.250000000000 3.503997802734 138 138 138
21.421875000000 7.125000000000 3.556976318359 67 67 67
21.406250000000 7.125000000000 3.601989746094 82 82 82
21.406250000000 7.125000000000 3.645996093750 79 79 79
21.406250000000 7.125000000000 3.688995361328 51 51 51
21.406250000000 7.125000000000 3.731994628906 75 75 75
21.406250000000 7.125000000000 3.776000976563 114 114 114
21.421875000000 7.125000000000 3.819000244141 93 93 93
21.406250000000 7.125000000000 3.862976074219 56 56 56
21.421875000000 7.125000000000 3.905975341797 67 67 67
21.421875000000 7.125000000000 3.948974609375 72 72 72
21.406250000000 7.125000000000 3.992980957031 122 122 122
21.390625000000 7.125000000000 4.034973144531 118 118 118
21.406250000000 7.125000000000 4.079986572266 125 125 125
21.406250000000 7.125000000000 4.122985839844 92 92 92
21.421875000000 7.125000000000 4.166992187500 91 91 91
21.421875000000 7.125000000000 4.210998535156 86 86 86
21.421875000000 7.125000000000 4.253997802734 100 100 100
21.421875000000 7.125000000000 4.298980712891 129 129 129
21.406250000000 7.125000000000 4.340972900391 123 123 123
21.406250000000 7.125000000000 4.385986328125 127 127 127
21.406250000000 7.125000000000 4.428985595703 107 107 107
21.406250000000 7.125000000000 4.471984863281 107 107 107
21.406250000000 7.125000000000 4.516998291016 106 106 106
21.390625000000 7.125000000000 4.560974121094 115 115 115
21.390625000000 7.125000000000 4.603973388672 145 145 145
21.390625000000 7.125000000000 4.648986816406 154 154 154
21.390625000000 7.125000000000 4.694000244141 144 144 144
21.390625000000 7.125000000000 4.737976074219 128 128 128
21.390625000000 7.125000000000 4.782989501953 125 125 125
21.390625000000 7.125000000000 4.829986572266 122 122 122
21.406250000000 7.125000000000 4.881988525391 142 142 142
21.406250000000 7.125000000000 4.925994873047 143 143 143
21.390625000000 7.125000000000 4.970977783203 150 150 150
21.390625000000 7.125000000000 5.013977050781 144 144 144
21.375000000000 7.125000000000 5.057983398438 161 161 161
21.359375000000 7.125000000000 5.101989746094 167 167 167
21.375000000000 7.125000000000 5.152984619141 159 159 159
21.375000000000 7.125000000000 5.199981689453 169 169 169
21.359375000000 7.125000000000 5.243988037109 164 164 164
21.359375000000 7.125000000000 5.293975830078 165 165 165
21.453125000000 7.250000000000 5.391998291016 133 133 133
21.437500000000 7.250000000000 5.436981201172 119 119 119
21.203125000000 7.000000000000 5.366973876953 156 156 156
21.234375000000 7.000000000000 5.426971435547 178 178 178
21.296875000000 7.125000000000 6.659973144531 69 69 69
21.296875000000 7.125000000000 6.729980468750 145 145 145
21.281250000000 7.125000000000 6.785980224609 181 181 181
21.281250000000 7.125000000000 6.859985351563 189 189 189
21.281250000000 7.125000000000 6.930999755859 186 186 186
21.296875000000 7.125000000000 7.005981445313 182 182 182
21.312500000000 7.125000000000 7.099975585938 166 166 166
21.359375000000 7.125000000000 7.214996337891 130 130 130
21.375000000000 7.250000000000 7.326995849609 163 163 163
21.359375000000 7.125000000000 7.398986816406 164 164 164
21.359375000000 7.125000000000 7.475982666016 152 152 152
21.343750000000 7.125000000000 7.542999267578 139 139 139
21.343750000000 7.125000000000 7.625000000000 156 156 156
21.375000000000 7.250000000000 7.747985839844 94 94 94
21.390625000000 7.250000000000 7.964996337891 86 86 86
21.328125000000 7.125000000000 7.981994628906 116 116 116
21.546875000000 7.375000000000 1.586975097656 123 123 123
21.640625000000 7.375000000000 1.587982177734 53 53 53
21.296875000000 7.125000000000 2.500976562500 170 170 170
21.296875000000 7.125000000000 2.547973632813 172 172 172
21.296875000000 7.125000000000 2.597991943359 176 176 176
21.296875000000 7.125000000000 2.644989013672 174 174 174
21.296875000000 7.125000000000 2.690979003906 175 175 175
21.296875000000 7.125000000000 2.736999511719 175 175 175
21.296875000000 7.125000000000 2.782989501953 167 167 167
21.296875000000 7.125000000000 2.828979492188 175 175 175
21.296875000000 7.125000000000 2.875976562500 175 175 175
21.312500000000 7.125000000000 2.914978027344 168 168 168
21.296875000000 7.125000000000 2.962982177734 175 175 175
21.312500000000 7.125000000000 3.005981445313 176 176 176
21.296875000000 7.125000000000 3.050994873047 173 173 173
21.296875000000 7.125000000000 3.095977783203 176 176 176
21.296875000000 7.125000000000 3.139984130859 176 176 176
21.296875000000 7.125000000000 3.183990478516 178 178 178
21.312500000000 7.125000000000 3.223999023438 163 163 163
21.312500000000 7.125000000000 3.267974853516 177 177 177
21.312500000000 7.125000000000 3.311981201172 175 175 175
21.156250000000 7.125000000000 3.377990722656 176 176 176
21.156250000000 7.125000000000 3.422973632813 177 177 177
21.296875000000 7.125000000000 3.440979003906 178 178 178
21.296875000000 7.125000000000 3.484985351563 177 177 177
21.312500000000 7.125000000000 3.524993896484 168 168 168
21.296875000000 7.125000000000 3.569000244141 175 175 175
21.296875000000 7.125000000000 3.610992431641 173 173 173
21.296875000000 7.125000000000 3.652984619141 175 175 175
21.312500000000 7.125000000000 3.694000244141 169 169 169
21.296875000000 7.250000000000 3.735992431641 169 169 169
21.296875000000 7.250000000000 3.777984619141 168 168 168
21.312500000000 7.125000000000 3.820983886719 132 132 132
21.296875000000 7.250000000000 3.862976074219 169 169 169
21.296875000000 7.125000000000 3.904998779297 172 172 172
21.296875000000 7.250000000000 3.946990966797 162 162 162
21.296875000000 7.250000000000 3.988983154297 146 146 146
21.296875000000 7.250000000000 4.030975341797 166 166 166
21.281250000000 7.250000000000 4.072998046875 167 167 167
21.296875000000 7.250000000000 4.115997314453 158 158 158
21.296875000000 7.250000000000 4.157989501953 166 166 166
21.296875000000 7.250000000000 4.199981689453 167 167 167
21.296875000000 7.250000000000 4.241973876953 169 169 169
21.296875000000 7.250000000000 4.284973144531 158 158 158
21.312500000000 7.250000000000 4.327972412109 166 166 166
21.296875000000 7.250000000000 4.369995117188 161 161 161
21.296875000000 7.250000000000 4.413970947266 148 148 148
21.296875000000 7.250000000000 4.457000732422 165 165 165
21.312500000000 7.250000000000 4.500976562500 168 168 168
21.296875000000 7.250000000000 4.542999267578 164 164 164
21.296875000000 7.250000000000 4.584991455078 152 152 152
21.281250000000 7.250000000000 4.625976562500 169 169 169
21.281250000000 7.250000000000 4.670989990234 165 165 165
21.296875000000 7.250000000000 4.716979980469 147 147 147
21.281250000000 7.250000000000 4.758972167969 176 176 176
21.281250000000 7.250000000000 4.800994873047 176 176 176
21.281250000000 7.250000000000 4.845977783203 167 167 167
21.281250000000 7.250000000000 4.891998291016 169 169 169
21.281250000000 7.250000000000 4.935974121094 177 177 177
21.281250000000 7.250000000000 4.980987548828 174 174 174
21.281250000000 7.250000000000 5.029998779297 146 146 146
21.265625000000 7.250000000000 5.070983886719 170 170 170
21.281250000000 7.250000000000 5.120971679688 167 167 167
21.281250000000 7.250000000000 5.169982910156 168 168 168
21.281250000000 7.250000000000 5.215972900391 174 174 174
21.281250000000 7.250000000000 5.260986328125 157 157 157
21.250000000000 7.125000000000 5.290985107422 170 170 170
21.203125000000 7.125000000000 5.321990966797 136 136 136
21.234375000000 7.125000000000 5.378997802734 158 158 158
21.218750000000 7.125000000000 5.418975830078 185 185 185
21.218750000000 7.125000000000 5.472991943359 172 172 172
21.359375000000 7.250000000000 5.596984863281 106 106 106
21.375000000000 7.250000000000 5.653991699219 101 101 101
21.359375000000 7.250000000000 5.701995849609 78 78 78
21.359375000000 7.250000000000 5.755981445313 67 67 67
21.359375000000 7.250000000000 5.808990478516 66 66 66
21.359375000000 7.250000000000 5.865997314453 61 61 61
21.343750000000 7.250000000000 5.912994384766 108 108 108
21.375000000000 7.250000000000 5.986999511719 69 69 69
21.359375000000 7.250000000000 6.033996582031 40 40 40
21.437500000000 7.375000000000 7.329986572266 161 161 161
21.437500000000 7.375000000000 7.410980224609 163 163 163
21.281250000000 7.250000000000 7.307983398438 183 183 183
21.281250000000 7.250000000000 7.385986328125 188 188 188
21.281250000000 7.250000000000 7.471984863281 185 185 185
21.281250000000 7.250000000000 7.555999755859 184 184 184
21.296875000000 7.250000000000 7.649993896484 181 181 181
21.390625000000 7.375000000000 8.147979736328 109 109 109
21.453125000000 7.375000000000 8.457000732422 52 52 52
21.437500000000 7.375000000000 8.544982910156 98 98 98
21.437500000000 7.375000000000 8.655975341797 124 124 124
21.421875000000 7.375000000000 8.756988525391 137 137 137
21.406250000000 7.375000000000 8.855987548828 145 145 145
21.406250000000 7.375000000000 8.974975585938 143 143 143
21.250000000000 7.250000000000 2.515991210938 174 174 174
21.250000000000 7.250000000000 2.564971923828 177 177 177
21.250000000000 7.250000000000 2.610992431641 180 180 180
21.234375000000 7.250000000000 2.658996582031 178 178 178
21.250000000000 7.250000000000 2.703979492188 175 175 175
21.234375000000 7.250000000000 2.751983642578 177 177 177
21.250000000000 7.250000000000 2.794982910156 173 173 173
21.234375000000 7.250000000000 2.841979980469 177 177 177
21.250000000000 7.250000000000 2.885986328125 178 178 178
21.265625000000 7.250000000000 2.924987792969 166 166 166
21.250000000000 7.250000000000 2.971984863281 176 176 176
21.250000000000 7.250000000000 3.016998291016 180 180 180
21.250000000000 7.250000000000 3.057983398438 176 176 176
21.250000000000 7.250000000000 3.101989746094 177 177 177
21.250000000000 7.250000000000 3.146972656250 178 178 178
21.250000000000 7.250000000000 3.188995361328 176 176 176
21.250000000000 7.250000000000 3.231994628906 173 173 173
21.250000000000 7.250000000000 3.276000976563 179 179 179
21.187500000000 7.250000000000 3.327972412109 178 178 178
21.156250000000 7.250000000000 3.376983642578 177 177 177
21.156250000000 7.250000000000 3.418975830078 177 177 177
21.187500000000 7.250000000000 3.453979492188 160 160 160
21.187500000000 7.250000000000 3.494995117188 169 169 169
21.250000000000 7.250000000000 3.528991699219 167 167 167
21.250000000000 7.250000000000 3.570983886719 178 178 178
21.250000000000 7.250000000000 3.611999511719 178 178 178
21.250000000000 7.250000000000 3.652984619141 175 175 175
21.265625000000 7.250000000000 3.694976806641 171 171 171
21.265625000000 7.250000000000 3.735992431641 172 172 172
21.265625000000 7.250000000000 3.777984619141 170 170 170
21.281250000000 7.250000000000 3.819000244141 163 163 163
21.265625000000 7.250000000000 3.860992431641 175 175 175
21.265625000000 7.250000000000 3.901977539063 171 171 171
21.265625000000 7.250000000000 3.944000244141 173 173 173
21.265625000000 7.250000000000 3.985992431641 169 169 169
21.265625000000 7.250000000000 4.026977539063 172 172 172
21.281250000000 7.250000000000 4.069976806641 172 172 172
21.281250000000 7.250000000000 4.110992431641 170 170 170
21.281250000000 7.250000000000 4.153991699219 167 167 167
21.281250000000 7.250000000000 4.195983886719 169 169 169
21.281250000000 7.250000000000 4.237976074219 168 168 168
21.281250000000 7.375000000000 4.281982421875 144 144 144
21.281250000000 7.375000000000 4.323974609375 160 160 160
21.281250000000 7.375000000000 4.366973876953 154 154 154
21.281250000000 7.375000000000 4.408996582031 146 146 146
21.281250000000 7.375000000000 4.450988769531 142 142 142
21.281250000000 7.250000000000 4.493988037109 140 140 140
21.281250000000 7.375000000000 4.536987304688 145 145 145
21.281250000000 7.375000000000 4.582000732422 138 138 138
21.281250000000 7.250000000000 4.620971679688 165 165 165
21.281250000000 7.375000000000 4.667999267578 157 157 157
21.281250000000 7.375000000000 4.711975097656 142 142 142
21.265625000000 7.375000000000 4.753997802734 120 120 120
21.265625000000 7.375000000000 4.797973632813 123 123 123
21.281250000000 7.375000000000 4.845977783203 125 125 125
21.281250000000 7.250000000000 4.884979248047 110 110 110
21.265625000000 7.375000000000 4.933990478516 106 106 106
21.265625000000 7.375000000000 4.975982666016 111 111 111
21.265625000000 7.375000000000 5.024993896484 114 114 114
21.265625000000 7.375000000000 5.070983886719 131 131 131
21.281250000000 7.375000000000 5.118988037109 136 136 136
21.265625000000 7.375000000000 5.160980224609 122 122 122
21.265625000000 7.375000000000 5.208984375000 128 128 128
21.328125000000 7.375000000000 5.283996582031 162 162 162
21.375000000000 7.375000000000 5.346984863281 164 164 164
21.187500000000 7.250000000000 5.311981201172 133 133 133
21.203125000000 7.250000000000 5.367980957031 129 129 129
21.171875000000 7.250000000000 5.399993896484 180 180 180
21.203125000000 7.250000000000 5.464996337891 177 177 177
21.203125000000 7.250000000000 5.514984130859 105 105 105
21.437500000000 7.500000000000 6.669982910156 68 68 68
21.437500000000 7.500000000000 6.738983154297 108 108 108
21.437500000000 7.500000000000 6.804992675781 127 127 127
21.437500000000 7.500000000000 6.873992919922 146 146 146
21.437500000000 7.500000000000 6.949981689453 162 162 162
21.437500000000 7.500000000000 7.019989013672 171 171 171
21.421875000000 7.500000000000 7.078979492188 172 172 172
21.406250000000 7.500000000000 7.140991210938 174 174 174
21.406250000000 7.500000000000 7.216979980469 176 176 176
21.406250000000 7.500000000000 7.303985595703 175 175 175
21.406250000000 7.500000000000 7.382995605469 174 174 174
21.359375000000 7.375000000000 7.392974853516 174 174 174
21.250000000000 7.375000000000 7.359985351563 187 187 187
21.250000000000 7.375000000000 7.444976806641 187 187 187
21.265625000000 7.375000000000 7.530975341797 186 186 186
21.265625000000 7.375000000000 7.616973876953 186 186 186
21.406250000000 7.500000000000 7.904998779297 173 173 173
21.359375000000 7.500000000000 7.952972412109 180 180 180
21.343750000000 7.375000000000 7.994995117188 169 169 169
21.328125000000 7.375000000000 8.060974121094 168 168 168
21.312500000000 7.375000000000 8.141998291016 154 154 154
21.296875000000 7.375000000000 8.229980468750 139 139 139
21.265625000000 7.375000000000 8.288970947266 136 136 136
21.281250000000 7.375000000000 8.420989990234 163 163 163
21.312500000000 7.375000000000 8.558990478516 177 177 177
21.296875000000 7.375000000000 8.665985107422 182 182 182
21.296875000000 7.375000000000 8.786987304688 180 180 180
21.296875000000 7.375000000000 8.907989501953 177 177 177
21.296875000000 7.375000000000 9.024993896484 124 124 124
21.140625000000 7.375000000000 3.334991455078 172 172 172
21.140625000000 7.375000000000 3.375976562500 178 178 178
21.156250000000 7.375000000000 3.415985107422 176 176 176
21.156250000000 7.375000000000 3.454986572266 150 150 150
21.156250000000 7.375000000000 3.496978759766 158 158 158
21.125000000000 7.375000000000 3.540985107422 152 152 152
21.468750000000 7.625000000000 4.947998046875 64 64 64
21.468750000000 7.625000000000 4.994995117188 105 105 105
21.468750000000 7.625000000000 5.042999267578 123 123 123
21.453125000000 7.625000000000 5.089996337891 135 135 135
21.453125000000 7.625000000000 5.135986328125 144 144 144
21.453125000000 7.625000000000 5.185974121094 156 156 156
21.453125000000 7.625000000000 5.234985351563 157 157 157
21.437500000000 7.625000000000 5.279998779297 165 165 165
21.437500000000 7.625000000000 5.332977294922 168 168 168
21.421875000000 7.625000000000 5.375000000000 173 173 173
21.156250000000 7.375000000000 5.300994873047 135 135 135
21.203125000000 7.375000000000 5.363983154297 131 131 131
21.156250000000 7.375000000000 5.391998291016 171 171 171
21.203125000000 7.375000000000 5.459991455078 176 176 176
21.203125000000 7.375000000000 5.511993408203 173 173 173
21.437500000000 7.625000000000 5.691986083984 180 180 180
21.421875000000 7.625000000000 5.743988037109 182 182 182
21.437500000000 7.625000000000 5.801971435547 177 177 177
21.437500000000 7.625000000000 5.860992431641 179 179 179
21.437500000000 7.625000000000 5.920989990234 181 181 181
21.453125000000 7.625000000000 5.982971191406 176 176 176
21.453125000000 7.625000000000 6.038970947266 179 179 179
21.375000000000 7.500000000000 6.050994873047 174 174 174
21.343750000000 7.500000000000 6.080993652344 176 176 176
21.343750000000 7.500000000000 6.136993408203 176 176 176
21.406250000000 7.625000000000 6.246978759766 182 182 182
21.468750000000 7.625000000000 6.349975585938 174 174 174
21.453125000000 7.625000000000 6.406982421875 180 180 180
21.453125000000 7.625000000000 6.468994140625 180 180 180
21.437500000000 7.625000000000 6.523986816406 178 178 178
21.390625000000 7.625000000000 6.554992675781 183 183 183
21.343750000000 7.500000000000 6.572998046875 182 182 182
21.312500000000 7.500000000000 6.617980957031 181 181 181
21.281250000000 7.500000000000 6.659973144531 178 178 178
21.265625000000 7.500000000000 6.714996337891 170 170 170
21.218750000000 7.500000000000 6.744995117188 171 171 171
21.250000000000 7.500000000000 6.835998535156 174 174 174
21.250000000000 7.500000000000 6.901977539063 179 179 179
21.250000000000 7.500000000000 6.968994140625 180 180 180
21.234375000000 7.500000000000 7.038970947266 183 183 183
21.234375000000 7.500000000000 7.109985351563 183 183 183
21.234375000000 7.500000000000 7.191986083984 184 184 184
21.250000000000 7.500000000000 7.272979736328 183 183 183
21.234375000000 7.500000000000 7.349975585938 182 182 182
21.234375000000 7.500000000000 7.426971435547 182 182 182
21.250000000000 7.500000000000 7.518981933594 183 183 183
21.250000000000 7.500000000000 7.604980468750 180 180 180
21.265625000000 7.500000000000 7.707977294922 181 181 181
21.265625000000 7.500000000000 7.800994873047 181 181 181
21.265625000000 7.500000000000 7.893981933594 122 122 122
21.281250000000 7.500000000000 8.005981445313 181 181 181
21.265625000000 7.500000000000 8.097991943359 179 179 179
21.281250000000 7.500000000000 8.204986572266 151 151 151
21.265625000000 7.500000000000 8.281982421875 146 146 146
21.218750000000 7.500000000000 8.337982177734 141 141 141
21.171875000000 7.375000000000 8.365997314453 145 145 145
21.156250000000 7.375000000000 8.445983886719 161 161 161
21.453125000000 7.625000000000 1.580993652344 173 173 173
21.453125000000 7.625000000000 1.644989013672 174 174 174
21.453125000000 7.625000000000 1.703979492188 175 175 175
21.453125000000 7.625000000000 1.763000488281 172 172 172
21.453125000000 7.625000000000 1.823974609375 171 171 171
21.484375000000 7.625000000000 1.856994628906 176 176 176
21.546875000000 7.750000000000 1.870971679688 170 170 170
21.484375000000 7.625000000000 3.082977294922 52 52 52
21.468750000000 7.625000000000 3.132995605469 103 103 103
21.468750000000 7.625000000000 3.177978515625 114 114 114
21.468750000000 7.625000000000 3.224975585938 122 122 122
21.140625000000 7.500000000000 3.332977294922 166 166 166
21.140625000000 7.500000000000 3.372985839844 173 173 173
21.140625000000 7.500000000000 3.414978027344 169 169 169
21.109375000000 7.500000000000 3.458984375000 162 162 162
21.140625000000 7.500000000000 3.495971679688 148 148 148
21.125000000000 7.500000000000 3.537994384766 153 153 153
21.421875000000 7.625000000000 3.544982910156 143 143 143
21.437500000000 7.625000000000 3.586975097656 175 175 175
21.437500000000 7.625000000000 3.631988525391 173 173 173
21.421875000000 7.625000000000 3.676971435547 170 170 170
21.421875000000 7.625000000000 3.720977783203 171 171 171
21.437500000000 7.625000000000 3.764984130859 174 174 174
21.437500000000 7.625000000000 3.808990478516 178 178 178
21.437500000000 7.625000000000 3.852996826172 178 178 178
21.437500000000 7.625000000000 3.895996093750 178 178 178
21.437500000000 7.625000000000 3.940979003906 176 176 176
21.437500000000 7.625000000000 3.984985351563 181 181 181
21.437500000000 7.625000000000 4.027984619141 180 180 180
21.453125000000 7.625000000000 4.072998046875 183 183 183
21.453125000000 7.625000000000 4.117980957031 181 181 181
21.468750000000 7.625000000000 4.162994384766 180 180 180
21.453125000000 7.625000000000 4.207000732422 180 180 180
21.468750000000 7.625000000000 4.251983642578 178 178 178
21.453125000000 7.625000000000 4.295989990234 177 177 177
21.453125000000 7.750000000000 4.342987060547 179 179 179
21.468750000000 7.625000000000 4.386993408203 179 179 179
21.468750000000 7.625000000000 4.431976318359 177 177 177
21.468750000000 7.625000000000 4.476989746094 179 179 179
21.453125000000 7.625000000000 4.521972656250 179 179 179
21.468750000000 7.625000000000 4.567993164063 178 178 178
21.453125000000 7.750000000000 4.614990234375 177 177 177
21.453125000000 7.750000000000 4.660980224609 176 176 176
21.453125000000 7.750000000000 4.705993652344 178 178 178
21.453125000000 7.750000000000 4.753997802734 178 178 178
21.453125000000 7.750000000000 4.801971435547 171 171 171
21.312500000000 7.625000000000 4.801971435547 167 167 167
21.296875000000 7.625000000000 4.841979980469 173 173 173
21.296875000000 7.625000000000 4.889984130859 167 167 167
21.296875000000 7.625000000000 4.935974121094 171 171 171
21.453125000000 7.750000000000 5.036987304688 175 175 175
21.453125000000 7.750000000000 5.085998535156 175 175 175
21.437500000000 7.750000000000 5.132995605469 176 176 176
21.390625000000 7.625000000000 5.157989501953 177 177 177
21.328125000000 7.625000000000 5.181976318359 178 178 178
21.296875000000 7.625000000000 5.213989257813 179 179 179
21.281250000000 7.625000000000 5.255981445313 179 179 179
21.281250000000 7.625000000000 5.296997070313 176 176 176
21.265625000000 7.625000000000 5.338989257813 173 173 173
21.250000000000 7.500000000000 5.378997802734 170 170 170
21.171875000000 7.500000000000 5.391998291016 158 158 158
21.203125000000 7.500000000000 5.452972412109 181 181 181
21.218750000000 7.500000000000 5.514984130859 176 176 176
21.218750000000 7.500000000000 5.561981201172 177 177 177
21.218750000000 7.500000000000 5.609985351563 179 179 179
21.218750000000 7.500000000000 5.661987304688 180 180 180
21.218750000000 7.500000000000 5.713989257813 183 183 183
21.218750000000 7.500000000000 5.765991210938 184 184 184
21.218750000000 7.500000000000 5.816986083984 185 185 185
21.218750000000 7.500000000000 5.875976562500 184 184 184
21.218750000000 7.500000000000 5.926971435547 183 183 183
21.218750000000 7.500000000000 5.985992431641 183 183 183
21.218750000000 7.500000000000 6.040985107422 186 186 186
21.218750000000 7.500000000000 6.099975585938 184 184 184
21.218750000000 7.500000000000 6.156982421875 184 184 184
21.234375000000 7.500000000000 6.218994140625 184 184 184
21.234375000000 7.500000000000 6.278991699219 183 183 183
21.234375000000 7.500000000000 6.345001220703 184 184 184
21.250000000000 7.500000000000 6.415985107422 139 139 139
21.250000000000 7.500000000000 6.472991943359 184 184 184
21.234375000000 7.500000000000 6.533996582031 183 183 183
21.250000000000 7.500000000000 6.600982666016 185 185 185
21.234375000000 7.625000000000 6.672973632813 183 183 183
21.234375000000 7.500000000000 6.718994140625 157 157 157
21.187500000000 7.500000000000 6.755981445313 169 169 169
21.156250000000 7.500000000000 6.788970947266 178 178 178
21.171875000000 7.500000000000 6.875000000000 178 178 178
21.250000000000 7.625000000000 7.036987304688 176 176 176
21.250000000000 7.625000000000 7.116973876953 154 154 154
21.250000000000 7.625000000000 7.187988281250 114 114 114
21.250000000000 7.625000000000 7.270996093750 70 70 70
20.953125000000 7.375000000000 8.470001220703 164 164 164
20.906250000000 7.375000000000 8.498992919922 164 164 164
21.390625000000 7.750000000000 1.619995117188 175 175 175
21.390625000000 7.750000000000 1.674987792969 171 171 171
21.406250000000 7.750000000000 1.729980468750 168 168 168
21.390625000000 7.750000000000 1.789978027344 157 157 157
21.406250000000 7.750000000000 1.843994140625 150 150 150
21.406250000000 7.750000000000 1.895996093750 172 172 172
21.437500000000 7.750000000000 1.932983398438 168 168 168
21.453125000000 7.750000000000 1.982971191406 174 174 174
21.453125000000 7.750000000000 2.035980224609 171 171 171
21.453125000000 7.750000000000 2.088989257813 173 173 173
21.453125000000 7.750000000000 2.143981933594 180 180 180
21.453125000000 7.750000000000 2.196990966797 179 179 179
21.453125000000 7.750000000000 2.252990722656 180 180 180
21.468750000000 7.750000000000 2.299987792969 179 179 179
21.468750000000 7.750000000000 2.351989746094 174 174 174
21.343750000000 7.750000000000 2.457977294922 156 156 156
21.343750000000 7.750000000000 2.509979248047 166 166 166
21.343750000000 7.750000000000 2.558990478516 163 163 163
21.453125000000 7.750000000000 2.556976318359 169 169 169
21.468750000000 7.750000000000 2.601989746094 175 175 175
21.468750000000 7.750000000000 2.652984619141 172 172 172
21.468750000000 7.750000000000 2.699981689453 174 174 174
21.468750000000 7.750000000000 2.751983642578 175 175 175
21.468750000000 7.750000000000 2.797973632813 172 172 172
21.468750000000 7.750000000000 2.847991943359 173 173 173
21.468750000000 7.750000000000 2.894989013672 171 171 171
21.468750000000 7.750000000000 2.942993164063 175 175 175
21.453125000000 7.750000000000 2.990997314453 172 172 172
21.468750000000 7.750000000000 3.036987304688 170 170 170
21.468750000000 7.750000000000 3.082977294922 171 171 171
21.468750000000 7.750000000000 3.128997802734 174 174 174
21.453125000000 7.750000000000 3.175994873047 175 175 175
21.468750000000 7.750000000000 3.220001220703 176 176 176
21.453125000000 7.750000000000 3.267974853516 174 174 174
21.312500000000 7.750000000000 3.340972900391 179 179 179
21.140625000000 7.625000000000 3.413970947266 175 175 175
21.156250000000 7.625000000000 3.451995849609 141 141 141
21.296875000000 7.750000000000 3.472991943359 179 179 179
21.265625000000 7.750000000000 3.519989013672 161 161 161
21.265625000000 7.750000000000 3.560974121094 137 137 137
21.250000000000 7.625000000000 3.603973388672 160 160 160
21.234375000000 7.625000000000 3.646972656250 163 163 163
21.218750000000 7.625000000000 3.688995361328 164 164 164
21.234375000000 7.625000000000 3.729980468750 163 163 163
21.250000000000 7.625000000000 3.769989013672 174 174 174
21.234375000000 7.625000000000 3.811981201172 171 171 171
21.218750000000 7.625000000000 3.852996826172 170 170 170
21.218750000000 7.625000000000 3.893981933594 168 168 168
21.203125000000 7.625000000000 3.934997558594 166 166 166
21.187500000000 7.625000000000 3.975982666016 166 166 166
21.187500000000 7.625000000000 4.015991210938 165 165 165
21.187500000000 7.625000000000 4.056976318359 165 165 165
21.171875000000 7.625000000000 4.095977783203 175 175 175
21.156250000000 7.625000000000 4.136993408203 176 176 176
21.156250000000 7.625000000000 4.176971435547 179 179 179
21.171875000000 7.625000000000 4.217987060547 180 180 180
21.156250000000 7.625000000000 4.257995605469 180 180 180
21.156250000000 7.625000000000 4.298980712891 181 181 181
21.156250000000 7.625000000000 4.338989257813 181 181 181
21.156250000000 7.625000000000 4.379974365234 184 184 184
21.171875000000 7.625000000000 4.422973632813 183 183 183
21.156250000000 7.625000000000 4.463989257813 184 184 184
21.156250000000 7.625000000000 4.504974365234 182 182 182
21.156250000000 7.625000000000 4.546997070313 183 183 183
21.171875000000 7.625000000000 4.588989257813 184 184 184
21.171875000000 7.625000000000 4.632995605469 184 184 184
21.171875000000 7.625000000000 4.675994873047 183 183 183
21.171875000000 7.625000000000 4.716979980469 184 184 184
21.171875000000 7.625000000000 4.759979248047 184 184 184
21.171875000000 7.625000000000 4.803985595703 183 183 183
21.171875000000 7.625000000000 4.848999023438 185 185 185
21.187500000000 7.625000000000 4.892974853516 185 185 185
21.171875000000 7.625000000000 4.935974121094 183 183 183
21.187500000000 7.625000000000 4.981994628906 184 184 184
21.187500000000 7.625000000000 5.026000976563 183 183 183
21.187500000000 7.625000000000 5.072998046875 181 181 181
21.187500000000 7.625000000000 5.119995117188 183 183 183
21.187500000000 7.625000000000 5.164978027344 183 183 183
21.187500000000 7.625000000000 5.211975097656 183 183 183
21.187500000000 7.625000000000 5.259979248047 181 181 181
21.203125000000 7.625000000000 5.308990478516 184 184 184
21.203125000000 7.625000000000 5.357971191406 181 181 181
21.187500000000 7.625000000000 5.398986816406 153 153 153
21.187500000000 7.625000000000 5.450988769531 182 182 182
21.203125000000 7.625000000000 5.501983642578 184 184 184
21.203125000000 7.625000000000 5.551971435547 182 182 182
21.203125000000 7.625000000000 5.604980468750 181 181 181
21.218750000000 7.625000000000 5.661987304688 175 175 175
21.218750000000 7.625000000000 5.716979980469 158 158 158
21.218750000000 7.625000000000 5.769989013672 137 137 137
21.203125000000 7.625000000000 5.814971923828 110 110 110
21.218750000000 7.625000000000 5.877990722656 71 71 71
20.984375000000 7.625000000000 6.895996093750 111 111 111
20.921875000000 7.500000000000 6.907989501953 186 186 186
20.906250000000 7.500000000000 6.947998046875 146 146 146
20.875000000000 7.500000000000 8.449981689453 70 70 70
20.812500000000 7.500000000000 8.438995361328 176 176 176
20.750000000000 7.500000000000 8.436981201172 175 175 175
20.703125000000 7.500000000000 8.480987548828 150 150 150
21.046875000000 7.625000000000 1.599975585938 179 179 179
21.046875000000 7.625000000000 1.659973144531 177 177 177
21.046875000000 7.625000000000 1.711975097656 176 176 176
21.046875000000 7.625000000000 1.765991210938 168 168 168
21.046875000000 7.625000000000 1.822998046875 173 173 173
21.046875000000 7.625000000000 1.868988037109 175 175 175
21.109375000000 7.750000000000 1.877990722656 176 176 176
21.203125000000 7.750000000000 1.867980957031 135 135 135
21.250000000000 7.875000000000 1.889984130859 172 172 172
21.312500000000 7.875000000000 1.897979736328 170 170 170
21.343750000000 7.875000000000 1.930999755859 168 168 168
21.281250000000 7.875000000000 2.030975341797 170 170 170
21.203125000000 7.875000000000 2.122985839844 167 167 167
21.203125000000 7.750000000000 2.185974121094 161 161 161
21.187500000000 7.750000000000 2.241973876953 165 165 165
21.171875000000 7.750000000000 2.300994873047 159 159 159
21.171875000000 7.750000000000 2.349975585938 160 160 160
21.156250000000 7.750000000000 2.403991699219 151 151 151
21.140625000000 7.750000000000 2.457977294922 149 149 149
21.125000000000 7.750000000000 2.508972167969 151 151 151
21.140625000000 7.750000000000 2.550994873047 166 166 166
21.125000000000 7.750000000000 2.602996826172 171 171 171
21.125000000000 7.750000000000 2.648986816406 172 172 172
21.125000000000 7.750000000000 2.694000244141 176 176 176
21.109375000000 7.750000000000 2.740997314453 177 177 177
21.109375000000 7.750000000000 2.785980224609 179 179 179
21.109375000000 7.750000000000 2.828979492188 181 181 181
21.125000000000 7.750000000000 2.870971679688 181 181 181
21.109375000000 7.750000000000 2.914978027344 183 183 183
21.109375000000 7.750000000000 2.957977294922 181 181 181
21.125000000000 7.750000000000 2.998992919922 180 180 180
21.125000000000 7.750000000000 3.041992187500 182 182 182
21.125000000000 7.750000000000 3.082977294922 182 182 182
21.125000000000 7.750000000000 3.123992919922 182 182 182
21.125000000000 7.750000000000 3.165985107422 181 181 181
21.125000000000 7.750000000000 3.205993652344 182 182 182
21.125000000000 7.750000000000 3.247985839844 183 183 183
21.125000000000 7.750000000000 3.288970947266 182 182 182
21.140625000000 7.750000000000 3.328979492188 181 181 181
21.140625000000 7.750000000000 3.368988037109 174 174 174
21.140625000000 7.750000000000 3.408996582031 162 162 162
21.109375000000 7.750000000000 3.453979492188 164 164 164
21.140625000000 7.750000000000 3.491973876953 183 183 183
21.140625000000 7.750000000000 3.530975341797 185 185 185
21.140625000000 7.750000000000 3.570983886719 183 183 183
21.156250000000 7.750000000000 3.610992431641 182 182 182
21.140625000000 7.750000000000 3.651977539063 184 184 184
21.156250000000 7.750000000000 3.690979003906 184 184 184
21.140625000000 7.750000000000 3.731994628906 185 185 185
21.156250000000 7.750000000000 3.771972656250 184 184 184
21.156250000000 7.750000000000 3.811981201172 184 184 184
21.156250000000 7.750000000000 3.851989746094 183 183 183
21.156250000000 7.750000000000 3.891998291016 184 184 184
21.156250000000 7.750000000000 3.931976318359 183 183 183
21.156250000000 7.750000000000 3.971984863281 184 184 184
21.156250000000 7.750000000000 4.011993408203 184 184 184
21.156250000000 7.750000000000 4.052978515625 184 184 184
21.156250000000 7.750000000000 4.092987060547 184 184 184
21.140625000000 7.750000000000 4.132995605469 183 183 183
21.156250000000 7.750000000000 4.173980712891 184 184 184
21.156250000000 7.750000000000 4.214996337891 179 179 179
21.156250000000 7.750000000000 4.254974365234 175 175 175
21.171875000000 7.750000000000 4.297973632813 168 168 168
21.171875000000 7.750000000000 4.338989257813 157 157 157
21.171875000000 7.750000000000 4.379974365234 142 142 142
21.171875000000 7.750000000000 4.421997070313 128 128 128
21.156250000000 7.750000000000 4.462982177734 97 97 97
20.828125000000 7.625000000000 6.937988281250 73 73 73
20.796875000000 7.625000000000 6.972991943359 140 140 140
20.734375000000 7.625000000000 6.979980468750 172 172 172
20.718750000000 7.500000000000 7.011993408203 166 166 166
20.687500000000 7.500000000000 7.060974121094 104 104 104
20.671875000000 7.500000000000 8.429992675781 96 96 96
20.625000000000 7.500000000000 8.425994873047 122 122 122
20.562500000000 7.500000000000 8.444000244141 165 165 165
20.968750000000 7.750000000000 1.598999023438 180 180 180
20.953125000000 7.750000000000 1.658996582031 185 185 185
20.953125000000 7.750000000000 1.715972900391 185 185 185
20.953125000000 7.750000000000 1.766998291016 183 183 183
20.953125000000 7.750000000000 1.819976806641 181 181 181
20.968750000000 7.750000000000 1.870971679688 179 179 179
21.015625000000 7.750000000000 1.888000488281 178 178 178
21.062500000000 7.750000000000 1.896972656250 178 178 178
21.078125000000 7.750000000000 1.941986083984 179 179 179
21.093750000000 7.750000000000 1.989990234375 179 179 179
21.078125000000 7.750000000000 2.044982910156 180 180 180
21.078125000000 7.750000000000 2.092987060547 185 185 185
21.093750000000 7.750000000000 2.140991210938 182 182 182
21.078125000000 7.750000000000 2.192993164063 181 181 181
21.093750000000 7.750000000000 2.236999511719 182 182 182
21.093750000000 7.750000000000 2.286987304688 182 182 182
21.093750000000 7.750000000000 2.335998535156 186 186 186
21.093750000000 7.750000000000 2.381988525391 184 184 184
21.093750000000 7.750000000000 2.428985595703 183 183 183
21.093750000000 7.750000000000 2.472991943359 183 183 183
21.093750000000 7.750000000000 2.519989013672 183 183 183
21.109375000000 7.750000000000 2.563995361328 183 183 183
21.109375000000 7.750000000000 2.608978271484 184 184 184
21.109375000000 7.750000000000 2.652984619141 182 182 182
21.109375000000 7.750000000000 2.696990966797 175 175 175
21.109375000000 7.750000000000 2.736999511719 168 168 168
21.125000000000 7.750000000000 2.780975341797 155 155 155
21.125000000000 7.750000000000 2.820983886719 147 147 147
21.109375000000 7.750000000000 2.868988037109 126 126 126
21.109375000000 7.750000000000 2.912994384766 118 118 118
21.109375000000 7.750000000000 2.955993652344 81 81 81
20.578125000000 7.625000000000 7.065979003906 146 146 146
20.531250000000 7.500000000000 7.065979003906 186 186 186
20.515625000000 7.500000000000 7.116973876953 144 144 144
20.421875000000 7.500000000000 8.427978515625 53 53 53
20.359375000000 7.500000000000 8.431976318359 120 120 120
20.953125000000 7.875000000000 1.601989746094 185 185 185
20.953125000000 7.875000000000 1.657989501953 184 184 184
20.953125000000 7.875000000000 1.707000732422 179 179 179
20.968750000000 7.875000000000 1.760986328125 180 180 180
20.953125000000 7.875000000000 1.814971923828 180 180 180
20.968750000000 7.875000000000 1.862976074219 182 182 182
21.031250000000 7.875000000000 1.878997802734 158 158 158
21.078125000000 7.875000000000 1.899993896484 170 170 170
21.156250000000 7.875000000000 1.901977539063 157 157 157
21.234375000000 8.000000000000 1.888000488281 164 164 164
20.375000000000 7.625000000000 7.149993896484 95 95 95
20.328125000000 7.500000000000 7.176971435547 164 164 164
20.203125000000 7.500000000000 8.431976318359 126 126 126
20.953125000000 8.000000000000 1.604980468750 181 181 181
20.968750000000 8.000000000000 1.652984619141 184 184 184
20.968750000000 8.000000000000 1.705993652344 181 181 181
20.968750000000 8.000000000000 1.761993408203 183 183 183
20.968750000000 8.000000000000 1.814971923828 182 182 182
20.984375000000 8.000000000000 1.860992431641 179 179 179
21.015625000000 8.000000000000 1.888000488281 177 177 177
21.078125000000 8.000000000000 1.897979736328 94 94 94
20.156250000000 7.625000000000 7.235992431641 86 86 86
20.125000000000 7.625000000000 7.260986328125 172 172 172
20.078125000000 7.625000000000 7.289978027344 62 62 62
20.015625000000 7.500000000000 8.424987792969 99 99 99
19.968750000000 7.500000000000 8.420989990234 106 106 106
19.968750000000 7.500000000000 7.321990966797 66 66 66
19.921875000000 7.500000000000 7.340972900391 165 165 165
19.890625000000 7.500000000000 7.361999511719 102 102 102
