8.281250000000 13.375000000000 6.355987548828 160 160 160
8.343750000000 13.375000000000 6.610992431641 58 58 58
8.281250000000 13.500000000000 6.487976074219 160 160 160
8.281250000000 13.500000000000 6.350982666016 179 179 179
8.328125000000 13.500000000000 6.610992431641 52 52 52
8.281250000000 13.625000000000 6.486999511719 156 156 156
8.281250000000 13.625000000000 6.346984863281 174 174 174
8.328125000000 13.750000000000 6.609985351563 55 55 55
8.265625000000 13.750000000000 6.488983154297 171 171 171
8.281250000000 13.750000000000 6.347991943359 181 181 181
8.328125000000 13.875000000000 6.614990234375 33 33 33
8.281250000000 13.875000000000 6.491973876953 159 159 159
8.296875000000 13.875000000000 6.352996826172 179 179 179
8.328125000000 14.000000000000 6.620971679688 18 18 18
8.281250000000 14.000000000000 6.495971679688 148 148 148
8.296875000000 14.000000000000 6.356994628906 135 135 135
8.328125000000 14.125000000000 6.621978759766 13 13 13
8.265625000000 14.125000000000 6.502990722656 126 126 126
8.281250000000 14.125000000000 6.363983154297 165 165 165
8.265625000000 14.250000000000 6.503997802734 138 138 138
8.265625000000 14.250000000000 6.367980957031 170 170 170
8.312500000000 14.375000000000 6.625000000000 8 8 8
8.281250000000 14.375000000000 6.500000000000 146 146 146
8.281250000000 14.375000000000 6.362976074219 149 149 149
8.312500000000 14.500000000000 6.625000000000 21 21 21
8.265625000000 14.500000000000 6.500976562500 147 147 147
8.265625000000 14.500000000000 6.362976074219 171 171 171
8.296875000000 14.625000000000 6.621978759766 32 32 32
8.265625000000 14.625000000000 6.493988037109 160 160 160
8.265625000000 14.625000000000 6.356994628906 178 178 178
8.312500000000 14.750000000000 6.609985351563 50 50 50
8.265625000000 14.750000000000 6.485992431641 164 164 164
8.281250000000 14.750000000000 6.348999023438 190 190 190
8.328125000000 14.875000000000 6.600982666016 75 75 75
8.250000000000 14.875000000000 6.481994628906 174 174 174
8.296875000000 14.875000000000 6.337982177734 194 194 194
8.312500000000 15.000000000000 6.596984863281 80 80 80
8.265625000000 15.000000000000 6.474975585938 179 179 179
8.281250000000 15.000000000000 6.334991455078 199 199 199
8.312500000000 15.125000000000 6.592987060547 84 84 84
8.234375000000 15.125000000000 6.474975585938 161 161 161
8.281250000000 15.125000000000 6.332977294922 194 194 194
8.328125000000 15.250000000000 6.595001220703 78 78 78
8.250000000000 15.375000000000 6.476989746094 186 186 186
8.281250000000 15.250000000000 6.335998535156 194 194 194
8.312500000000 15.375000000000 6.600982666016 82 82 82
8.281250000000 15.375000000000 6.476989746094 33 33 33
8.312500000000 15.375000000000 6.332977294922 76 76 76
8.312500000000 15.500000000000 6.608978271484 64 64 64
8.312500000000 15.625000000000 6.611999511719 37 37 37
8.328125000000 15.750000000000 6.614990234375 36 36 36
8.328125000000 15.875000000000 6.609985351563 45 45 45
8.312500000000 15.875000000000 6.343994140625 13 13 13
8.312500000000 16.000000000000 6.610992431641 73 73 73
8.312500000000 16.125000000000 6.605987548828 85 85 85
8.328125000000 16.250000000000 6.596984863281 89 89 89
8.265625000000 16.375000000000 6.741973876953 13 13 13
8.312500000000 16.375000000000 6.589996337891 98 98 98
8.281250000000 16.500000000000 6.731994628906 23 23 23
8.312500000000 16.500000000000 6.585998535156 100 100 100
8.328125000000 16.625000000000 6.580993652344 91 91 91
8.296875000000 16.750000000000 6.588989257813 91 91 91
8.312500000000 16.875000000000 6.588989257813 86 86 86
8.296875000000 16.875000000000 6.322998046875 19 19 19
8.281250000000 17.000000000000 6.878997802734 13 13 13
8.296875000000 17.000000000000 6.595977783203 88 88 88
8.296875000000 17.125000000000 6.880981445313 31 31 31
8.312500000000 17.125000000000 6.601989746094 98 98 98
8.296875000000 17.250000000000 6.601989746094 95 95 95
8.296875000000 17.375000000000 6.600982666016 98 98 98
8.312500000000 17.500000000000 6.595001220703 99 99 99
8.281250000000 17.625000000000 7.007995605469 28 28 28
8.281250000000 17.625000000000 6.590972900391 89 89 89
8.281250000000 17.750000000000 6.579986572266 84 84 84
8.281250000000 18.000000000000 6.574981689453 68 68 68
8.281250000000 18.125000000000 6.570983886719 41 41 41
8.281250000000 18.250000000000 7.118988037109 22 22 22
8.265625000000 18.250000000000 6.570983886719 28 28 28
8.265625000000 18.375000000000 7.121978759766 26 26 26
8.265625000000 18.375000000000 6.574981689453 44 44 44
8.281250000000 18.500000000000 6.573974609375 62 62 62
8.281250000000 18.625000000000 6.584991455078 79 79 79
8.281250000000 18.625000000000 6.586975097656 89 89 89
8.281250000000 18.750000000000 7.283996582031 48 48 48
8.265625000000 18.750000000000 6.593994140625 89 89 89
8.093750000000 18.875000000000 2.924987792969 5 5 5
8.109375000000 18.875000000000 2.794982910156 54 54 54
8.109375000000 18.875000000000 2.663970947266 89 89 89
8.109375000000 18.875000000000 2.532989501953 101 101 101
8.109375000000 18.875000000000 2.398986816406 109 109 109
8.109375000000 18.875000000000 2.266998291016 111 111 111
8.109375000000 18.875000000000 2.134979248047 120 120 120
8.109375000000 18.875000000000 1.998992919922 124 124 124
8.125000000000 18.875000000000 1.867980957031 130 130 130
8.109375000000 18.875000000000 1.732971191406 129 129 129
8.109375000000 18.875000000000 1.596984863281 117 117 117
8.296875000000 18.875000000000 7.273986816406 84 84 84
8.265625000000 18.875000000000 7.148986816406 88 88 88
8.250000000000 18.875000000000 7.013977050781 115 115 115
8.265625000000 18.875000000000 6.872985839844 118 118 118
8.265625000000 18.875000000000 6.732971191406 114 114 114
8.281250000000 18.875000000000 6.591979980469 104 104 104
8.250000000000 18.875000000000 6.464996337891 129 129 129
8.265625000000 18.875000000000 6.325988769531 139 139 139
8.250000000000 18.875000000000 6.192993164063 143 143 143
8.218750000000 19.000000000000 6.061981201172 141 141 141
8.250000000000 18.875000000000 5.925994873047 141 141 141
8.234375000000 18.875000000000 5.794982910156 159 159 159
8.250000000000 18.875000000000 5.660980224609 172 172 172
8.234375000000 18.875000000000 5.529998779297 178 178 178
8.218750000000 19.000000000000 5.398986816406 192 192 192
8.218750000000 19.000000000000 5.267974853516 195 195 195
8.218750000000 19.000000000000 5.136993408203 182 182 182
8.234375000000 18.875000000000 5.005981445313 190 190 190
8.218750000000 19.000000000000 4.875976562500 194 194 194
8.218750000000 19.000000000000 4.745971679688 194 194 194
8.218750000000 19.000000000000 4.616973876953 204 204 204
8.203125000000 19.000000000000 4.487976074219 206 206 206
8.203125000000 19.000000000000 4.357971191406 212 212 212
8.203125000000 19.000000000000 4.228973388672 208 208 208
8.203125000000 19.000000000000 4.098999023438 203 203 203
8.203125000000 19.000000000000 3.970001220703 204 204 204
8.203125000000 19.000000000000 3.840972900391 206 206 206
8.203125000000 19.000000000000 3.711975097656 202 202 202
8.203125000000 19.000000000000 3.582977294922 198 198 198
8.203125000000 19.000000000000 3.452972412109 199 199 199
8.203125000000 19.000000000000 3.323974609375 193 193 193
8.203125000000 19.000000000000 3.194976806641 199 199 199
8.203125000000 19.000000000000 3.063995361328 208 208 208
8.203125000000 19.000000000000 2.934997558594 205 205 205
8.203125000000 19.000000000000 2.804992675781 199 199 199
8.203125000000 19.000000000000 2.673980712891 191 191 191
8.203125000000 19.000000000000 2.542999267578 196 196 196
8.203125000000 19.000000000000 2.411987304688 196 196 196
8.187500000000 19.000000000000 2.279998779297 188 188 188
8.187500000000 19.000000000000 2.147979736328 192 192 192
8.187500000000 19.000000000000 2.013000488281 200 200 200
8.187500000000 19.000000000000 1.880981445313 180 180 180
8.187500000000 19.000000000000 1.747985839844 150 150 150
8.187500000000 19.000000000000 1.612976074219 99 99 99
8.375000000000 19.000000000000 7.384979248047 116 116 116
8.359375000000 19.000000000000 7.245971679688 164 164 164
8.359375000000 19.000000000000 7.110992431641 191 191 191
8.359375000000 19.000000000000 6.971984863281 187 187 187
8.343750000000 19.000000000000 6.836975097656 190 190 190
8.343750000000 19.000000000000 6.700988769531 197 197 197
8.359375000000 19.000000000000 6.564971923828 154 154 154
8.343750000000 19.000000000000 6.432983398438 189 189 189
8.328125000000 19.000000000000 6.301971435547 186 186 186
8.343750000000 19.000000000000 6.165985107422 179 179 179
8.328125000000 19.000000000000 6.035980224609 173 173 173
8.328125000000 19.000000000000 5.903991699219 175 175 175
8.328125000000 19.000000000000 5.770996093750 179 179 179
8.328125000000 19.000000000000 5.639984130859 185 185 185
8.312500000000 19.000000000000 5.511993408203 186 186 186
8.312500000000 19.000000000000 5.381988525391 194 194 194
8.312500000000 19.000000000000 5.250976562500 198 198 198
8.312500000000 19.000000000000 5.121978759766 203 203 203
8.312500000000 19.000000000000 4.991973876953 205 205 205
8.281250000000 19.000000000000 4.863983154297 199 199 199
8.281250000000 19.000000000000 4.735992431641 206 206 206
8.281250000000 19.000000000000 4.606994628906 210 210 210
8.265625000000 19.000000000000 4.478973388672 206 206 206
8.265625000000 19.000000000000 4.349975585938 208 208 208
8.265625000000 19.000000000000 4.221984863281 212 212 212
8.265625000000 19.000000000000 4.092987060547 206 206 206
8.265625000000 19.000000000000 3.964996337891 217 217 217
8.265625000000 19.000000000000 3.836975097656 214 214 214
8.250000000000 19.000000000000 3.707977294922 210 210 210
8.250000000000 19.000000000000 3.578979492188 209 209 209
8.250000000000 19.000000000000 3.450988769531 200 200 200
8.250000000000 19.000000000000 3.321990966797 199 199 199
8.250000000000 19.000000000000 3.192993164063 190 190 190
8.234375000000 19.000000000000 3.062988281250 189 189 189
8.234375000000 19.000000000000 2.932983398438 176 176 176
8.234375000000 19.000000000000 2.802978515625 153 153 153
8.234375000000 19.000000000000 2.672973632813 146 146 146
8.218750000000 19.000000000000 2.540985107422 139 139 139
8.218750000000 19.000000000000 2.409973144531 123 123 123
8.203125000000 19.000000000000 2.276000976563 100 100 100
8.187500000000 19.125000000000 2.142974853516 59 59 59
8.390625000000 19.125000000000 7.369995117188 54 54 54
8.359375000000 19.125000000000 7.236999511719 50 50 50
8.359375000000 19.125000000000 7.095977783203 59 59 59
8.359375000000 19.125000000000 6.958984375000 59 59 59
8.359375000000 19.125000000000 6.821990966797 68 68 68
8.359375000000 19.125000000000 6.689971923828 68 68 68
8.343750000000 19.125000000000 6.554992675781 46 46 46
8.359375000000 19.125000000000 6.418975830078 62 62 62
8.328125000000 19.125000000000 6.291992187500 44 44 44
8.328125000000 19.125000000000 6.160980224609 24 24 24
8.328125000000 19.125000000000 6.026977539063 22 22 22
8.312500000000 19.125000000000 5.895996093750 18 18 18
8.234375000000 19.250000000000 1.608978271484 9 9 9
8.218750000000 19.375000000000 1.598999023438 12 12 12
8.328125000000 9.375000000000 1.689971923828 182 182 182
8.328125000000 9.375000000000 1.803985595703 182 182 182
8.328125000000 9.375000000000 1.918975830078 220 220 220
8.343750000000 9.375000000000 2.038970947266 160 160 160
8.359375000000 9.375000000000 2.154998779297 149 149 149
8.375000000000 9.375000000000 2.272979736328 140 140 140
8.390625000000 9.375000000000 2.386993408203 123 123 123
8.390625000000 9.375000000000 2.500000000000 124 124 124
8.390625000000 9.375000000000 2.612976074219 120 120 120
8.281250000000 9.375000000000 2.713989257813 223 223 223
8.281250000000 9.375000000000 2.826995849609 221 221 221
8.265625000000 9.375000000000 2.939971923828 222 222 222
8.328125000000 9.375000000000 3.056976318359 168 168 168
8.375000000000 9.375000000000 3.171997070313 128 128 128
8.390625000000 9.375000000000 3.282989501953 131 131 131
8.343750000000 9.375000000000 3.393981933594 195 195 195
8.375000000000 9.375000000000 3.505981445313 151 151 151
8.343750000000 9.375000000000 3.616973876953 195 195 195
8.343750000000 9.375000000000 3.728973388672 190 190 190
8.343750000000 9.375000000000 3.839996337891 186 186 186
8.375000000000 9.375000000000 3.950988769531 117 117 117
8.375000000000 9.375000000000 4.062988281250 136 136 136
8.375000000000 9.375000000000 4.174987792969 131 131 131
8.359375000000 9.375000000000 4.286987304688 127 127 127
8.359375000000 9.375000000000 4.398986816406 114 114 114
8.375000000000 9.375000000000 4.510986328125 106 106 106
8.375000000000 9.375000000000 4.622985839844 90 90 90
8.359375000000 9.375000000000 4.736999511719 85 85 85
8.359375000000 9.375000000000 4.850982666016 71 71 71
8.343750000000 9.375000000000 4.965972900391 55 55 55
8.343750000000 9.375000000000 5.078979492188 32 32 32
8.343750000000 9.375000000000 5.194976806641 20 20 20
8.359375000000 9.375000000000 5.306976318359 10 10 10
8.437500000000 9.500000000000 1.715972900391 188 188 188
8.421875000000 9.500000000000 1.828979492188 174 174 174
8.421875000000 9.500000000000 1.942993164063 191 191 191
8.421875000000 9.500000000000 2.056976318359 196 196 196
8.421875000000 9.500000000000 2.168975830078 195 195 195
8.421875000000 9.500000000000 2.282989501953 192 192 192
8.421875000000 9.500000000000 2.395996093750 201 201 201
8.421875000000 9.500000000000 2.508972167969 198 198 198
8.406250000000 9.500000000000 2.619995117188 205 205 205
8.406250000000 9.500000000000 2.731994628906 203 203 203
8.406250000000 9.500000000000 2.842987060547 211 211 211
8.421875000000 9.500000000000 2.955993652344 255 255 255
8.406250000000 9.500000000000 3.065979003906 211 211 211
8.406250000000 9.500000000000 3.176971435547 188 188 188
8.421875000000 9.500000000000 3.288970947266 223 223 223
8.406250000000 9.500000000000 3.398986816406 225 225 225
8.421875000000 9.500000000000 3.509979248047 224 224 224
8.421875000000 9.500000000000 3.620971679688 210 210 210
8.406250000000 9.500000000000 3.731994628906 221 221 221
8.421875000000 9.500000000000 3.842987060547 221 221 221
8.406250000000 9.500000000000 3.953979492188 211 211 211
8.421875000000 9.500000000000 4.063995361328 222 222 222
8.406250000000 9.500000000000 4.175994873047 219 219 219
8.406250000000 9.500000000000 4.286987304688 213 213 213
8.406250000000 9.500000000000 4.398986816406 211 211 211
8.406250000000 9.500000000000 4.510986328125 208 208 208
8.406250000000 9.500000000000 4.622985839844 198 198 198
8.406250000000 9.500000000000 4.734985351563 198 198 198
8.406250000000 9.500000000000 4.846984863281 202 202 202
8.406250000000 9.500000000000 4.959991455078 197 197 197
8.406250000000 9.500000000000 5.074981689453 197 197 197
8.390625000000 9.500000000000 5.188995361328 194 194 194
8.406250000000 9.500000000000 5.301971435547 194 194 194
8.390625000000 9.500000000000 5.416992187500 193 193 193
8.406250000000 9.500000000000 5.531982421875 192 192 192
8.390625000000 9.500000000000 5.649993896484 187 187 187
8.390625000000 9.500000000000 5.764984130859 187 187 187
8.390625000000 9.500000000000 5.880981445313 185 185 185
8.390625000000 9.500000000000 5.998992919922 181 181 181
8.390625000000 9.500000000000 6.117980957031 178 178 178
8.390625000000 9.500000000000 6.238983154297 163 163 163
8.390625000000 9.500000000000 6.356994628906 175 175 175
8.375000000000 9.500000000000 6.479980468750 166 166 166
8.375000000000 9.500000000000 6.601989746094 173 173 173
8.375000000000 9.500000000000 6.725982666016 168 168 168
8.375000000000 9.500000000000 6.847991943359 173 173 173
8.375000000000 9.500000000000 6.972991943359 166 166 166
8.375000000000 9.500000000000 7.100982666016 166 166 166
8.375000000000 9.500000000000 7.225982666016 172 172 172
8.375000000000 9.500000000000 7.353973388672 139 139 139
8.375000000000 9.500000000000 7.482971191406 167 167 167
8.296875000000 9.625000000000 2.612976074219 124 124 124
8.281250000000 9.625000000000 2.723999023438 221 221 221
8.281250000000 9.625000000000 2.837982177734 218 218 218
8.296875000000 9.625000000000 2.950988769531 219 219 219
8.343750000000 9.625000000000 3.067993164063 100 100 100
8.375000000000 9.625000000000 3.180999755859 105 105 105
8.359375000000 9.625000000000 3.291992187500 108 108 108
8.328125000000 9.625000000000 3.401977539063 148 148 148
8.328125000000 9.625000000000 6.623992919922 136 136 136
8.343750000000 9.750000000000 6.625000000000 149 149 149
8.343750000000 9.875000000000 6.627990722656 147 147 147
8.296875000000 10.000000000000 7.265991210938 86 86 86
8.328125000000 10.000000000000 6.627990722656 142 142 142
8.312500000000 10.375000000000 7.119995117188 71 71 71
8.343750000000 10.375000000000 6.608978271484 112 112 112
8.328125000000 10.500000000000 6.607971191406 147 147 147
8.312500000000 10.500000000000 7.107971191406 69 69 69
8.343750000000 10.625000000000 6.599975585938 154 154 154
8.343750000000 10.750000000000 6.600982666016 146 146 146
8.328125000000 10.875000000000 6.601989746094 146 146 146
8.312500000000 10.875000000000 6.980987548828 83 83 83
8.328125000000 11.000000000000 6.600982666016 123 123 123
8.328125000000 11.125000000000 6.609985351563 101 101 101
8.343750000000 11.250000000000 6.608978271484 74 74 74
8.281250000000 11.250000000000 6.875000000000 52 52 52
8.312500000000 11.375000000000 6.616973876953 52 52 52
8.296875000000 11.375000000000 6.868988037109 84 84 84
8.312500000000 11.500000000000 6.610992431641 75 75 75
8.296875000000 11.625000000000 6.252990722656 16 16 16
8.328125000000 11.625000000000 6.607971191406 76 76 76
8.312500000000 11.750000000000 6.602996826172 104 104 104
8.328125000000 11.875000000000 6.589996337891 131 131 131
8.328125000000 12.000000000000 6.587982177734 122 122 122
8.296875000000 12.000000000000 6.718994140625 77 77 77
8.312500000000 12.125000000000 6.582977294922 123 123 123
8.296875000000 12.125000000000 6.711975097656 31 31 31
8.312500000000 12.375000000000 6.580993652344 128 128 128
8.312500000000 12.500000000000 6.582000732422 112 112 112
8.328125000000 12.625000000000 6.585998535156 97 97 97
8.296875000000 12.750000000000 6.236999511719 17 17 17
8.328125000000 12.750000000000 6.591979980469 94 94 94
8.296875000000 12.875000000000 6.240997314453 80 80 80
8.296875000000 12.875000000000 6.599975585938 52 52 52
8.296875000000 13.000000000000 6.241973876953 87 87 87
8.328125000000 13.000000000000 6.595977783203 22 22 22
8.296875000000 13.125000000000 6.240997314453 50 50 50
8.312500000000 13.125000000000 6.597991943359 54 54 54
8.296875000000 13.125000000000 6.233978271484 68 68 68
8.281250000000 13.125000000000 6.360992431641 202 202 202
8.265625000000 13.125000000000 6.484985351563 147 147 147
8.312500000000 13.125000000000 6.593994140625 79 79 79
8.281250000000 13.250000000000 6.232971191406 15 15 15
8.265625000000 13.250000000000 6.354980468750 158 158 158
8.250000000000 13.250000000000 6.481994628906 173 173 173
8.328125000000 13.250000000000 6.582000732422 108 108 108
8.281250000000 13.375000000000 6.347991943359 184 184 184
8.265625000000 13.375000000000 6.473999023438 183 183 183
8.328125000000 13.375000000000 6.577972412109 106 106 106
8.265625000000 13.500000000000 6.342987060547 180 180 180
8.265625000000 13.500000000000 6.466979980469 192 192 192
8.312500000000 13.500000000000 6.573974609375 117 117 117
8.281250000000 13.625000000000 6.337982177734 184 184 184
8.250000000000 13.625000000000 6.464996337891 194 194 194
8.312500000000 13.625000000000 6.569976806641 126 126 126
8.265625000000 13.750000000000 6.340972900391 187 187 187
8.250000000000 13.750000000000 6.465972900391 194 194 194
8.296875000000 13.875000000000 6.570983886719 113 113 113
8.265625000000 13.875000000000 6.345001220703 156 156 156
8.265625000000 13.875000000000 6.467987060547 185 185 185
8.312500000000 14.000000000000 6.572998046875 104 104 104
8.281250000000 14.125000000000 6.225982666016 47 47 47
8.265625000000 14.125000000000 6.348999023438 170 170 170
8.265625000000 14.125000000000 6.471984863281 144 144 144
8.296875000000 14.125000000000 6.577972412109 96 96 96
8.265625000000 14.250000000000 6.230987548828 65 65 65
8.265625000000 14.250000000000 6.356994628906 165 165 165
8.250000000000 14.250000000000 6.482971191406 153 153 153
8.312500000000 14.250000000000 6.583984375000 70 70 70
8.265625000000 14.375000000000 6.241973876953 95 95 95
8.265625000000 14.375000000000 6.364990234375 191 191 191
8.265625000000 14.375000000000 6.486999511719 125 125 125
8.281250000000 14.375000000000 6.599975585938 12 12 12
8.281250000000 14.500000000000 6.242980957031 100 100 100
8.265625000000 14.500000000000 6.366973876953 137 137 137
8.265625000000 14.500000000000 6.491973876953 121 121 121
8.265625000000 14.625000000000 6.244995117188 90 90 90
8.265625000000 14.625000000000 6.368988037109 153 153 153
8.250000000000 14.625000000000 6.491973876953 130 130 130
8.296875000000 14.625000000000 6.602996826172 9 9 9
8.281250000000 14.750000000000 6.237976074219 76 76 76
8.265625000000 14.750000000000 6.364990234375 177 177 177
8.250000000000 14.750000000000 6.487976074219 133 133 133
8.296875000000 14.750000000000 6.595977783203 36 36 36
8.296875000000 14.875000000000 6.233978271484 39 39 39
8.265625000000 14.875000000000 6.359985351563 150 150 150
8.250000000000 14.875000000000 6.484985351563 162 162 162
8.312500000000 14.875000000000 6.589996337891 80 80 80
8.265625000000 15.000000000000 6.350982666016 154 154 154
8.250000000000 15.000000000000 6.479980468750 191 191 191
8.296875000000 15.000000000000 6.586975097656 116 116 116
8.265625000000 15.125000000000 6.342987060547 159 159 159
8.234375000000 15.125000000000 6.472991943359 191 191 191
8.296875000000 15.125000000000 6.576995849609 129 129 129
8.265625000000 15.250000000000 6.343994140625 167 167 167
8.250000000000 15.250000000000 6.468994140625 192 192 192
8.296875000000 15.250000000000 6.575988769531 125 125 125
8.296875000000 15.375000000000 6.571990966797 123 123 123
8.296875000000 15.500000000000 6.572998046875 132 132 132
8.265625000000 15.625000000000 6.223999023438 12 12 12
8.296875000000 15.625000000000 6.582000732422 99 99 99
8.296875000000 15.750000000000 6.227996826172 44 44 44
8.312500000000 15.750000000000 6.583984375000 70 70 70
8.296875000000 15.875000000000 6.231994628906 60 60 60
8.296875000000 15.875000000000 6.595977783203 59 59 59
8.281250000000 16.000000000000 6.237976074219 22 22 22
8.296875000000 16.000000000000 6.597991943359 97 97 97
8.296875000000 16.125000000000 6.233978271484 41 41 41
8.296875000000 16.125000000000 6.595977783203 73 73 73
8.281250000000 16.250000000000 6.233978271484 15 15 15
8.296875000000 16.250000000000 6.590972900391 90 90 90
8.296875000000 16.375000000000 6.582000732422 112 112 112
8.281250000000 16.375000000000 6.709991455078 89 89 89
8.296875000000 16.500000000000 6.569976806641 138 138 138
8.312500000000 16.625000000000 6.565979003906 144 144 144
8.296875000000 16.750000000000 6.562988281250 136 136 136
8.296875000000 16.875000000000 6.561981201172 137 137 137
8.265625000000 16.875000000000 6.813995361328 90 90 90
8.296875000000 17.000000000000 6.563995361328 148 148 148
8.250000000000 17.000000000000 6.822998046875 25 25 25
8.312500000000 17.125000000000 6.567993164063 140 140 140
8.296875000000 17.250000000000 6.572998046875 135 135 135
8.281250000000 17.375000000000 6.582977294922 132 132 132
8.296875000000 17.500000000000 6.582000732422 119 119 119
8.265625000000 17.500000000000 6.962982177734 78 78 78
8.296875000000 17.625000000000 6.582000732422 138 138 138
8.281250000000 17.750000000000 6.578979492188 147 147 147
8.265625000000 17.875000000000 6.571990966797 138 138 138
8.265625000000 17.875000000000 7.067993164063 64 64 64
8.281250000000 18.125000000000 6.559997558594 135 135 135
8.250000000000 18.125000000000 7.069000244141 36 36 36
8.281250000000 18.250000000000 6.553985595703 85 85 85
8.234375000000 18.375000000000 6.559997558594 90 90 90
8.250000000000 18.500000000000 6.554992675781 92 92 92
8.265625000000 18.500000000000 7.169982910156 89 89 89
8.265625000000 18.625000000000 6.553985595703 79 79 79
8.250000000000 18.625000000000 7.182983398438 12 12 12
8.265625000000 18.625000000000 6.558990478516 99 99 99
8.265625000000 18.750000000000 6.569976806641 117 117 117
8.203125000000 18.875000000000 1.550994873047 87 87 87
8.203125000000 18.875000000000 1.667999267578 126 126 126
8.187500000000 18.875000000000 1.780975341797 158 158 158
8.203125000000 18.875000000000 1.898986816406 169 169 169
8.203125000000 18.875000000000 2.013977050781 192 192 192
8.203125000000 18.875000000000 2.127990722656 187 187 187
8.203125000000 18.875000000000 2.241973876953 186 186 186
8.218750000000 18.875000000000 2.357971191406 187 187 187
8.218750000000 18.875000000000 2.471984863281 191 191 191
8.218750000000 18.875000000000 2.584991455078 194 194 194
8.218750000000 18.875000000000 2.697998046875 199 199 199
8.218750000000 18.875000000000 2.810974121094 196 196 196
8.218750000000 18.875000000000 2.922973632813 198 198 198
8.234375000000 18.875000000000 3.034973144531 204 204 204
8.218750000000 18.875000000000 3.146972656250 203 203 203
8.250000000000 18.875000000000 3.259979248047 204 204 204
8.234375000000 18.875000000000 3.370971679688 205 205 205
8.250000000000 18.875000000000 3.481994628906 204 204 204
8.250000000000 18.875000000000 3.593994140625 208 208 208
8.250000000000 18.875000000000 3.704986572266 196 196 196
8.234375000000 18.875000000000 3.816986083984 208 208 208
8.250000000000 18.875000000000 3.927978515625 213 213 213
8.250000000000 18.875000000000 4.038970947266 207 207 207
8.250000000000 18.875000000000 4.151000976563 198 198 198
8.250000000000 18.875000000000 4.263000488281 209 209 209
8.281250000000 18.875000000000 4.820983886719 211 211 211
8.281250000000 18.875000000000 4.933990478516 213 213 213
8.296875000000 18.875000000000 5.045989990234 196 196 196
8.296875000000 18.875000000000 5.158996582031 207 207 207
8.296875000000 18.875000000000 5.731994628906 177 177 177
8.312500000000 18.875000000000 5.845977783203 185 185 185
8.312500000000 18.875000000000 5.963989257813 174 174 174
8.312500000000 18.875000000000 6.079986572266 172 172 172
8.328125000000 18.875000000000 6.196990966797 178 178 178
8.328125000000 18.875000000000 6.314971923828 175 175 175
8.328125000000 18.875000000000 6.433990478516 174 174 174
8.328125000000 18.875000000000 6.553985595703 180 180 180
8.328125000000 18.875000000000 6.675994873047 183 183 183
8.343750000000 18.875000000000 6.794982910156 182 182 182
8.359375000000 19.000000000000 6.912994384766 173 173 173
8.359375000000 19.000000000000 7.038970947266 184 184 184
8.359375000000 19.000000000000 7.163970947266 182 182 182
8.359375000000 19.000000000000 7.285980224609 161 161 161
8.234375000000 18.875000000000 4.714996337891 151 151 151
8.281250000000 18.875000000000 5.276000976563 157 157 157
8.140625000000 19.000000000000 2.237976074219 6 6 6
8.125000000000 19.125000000000 2.350982666016 37 37 37
8.125000000000 19.125000000000 2.464996337891 61 61 61
8.171875000000 19.000000000000 2.582000732422 98 98 98
8.156250000000 19.000000000000 2.694976806641 134 134 134
8.156250000000 19.000000000000 2.807983398438 154 154 154
8.171875000000 19.000000000000 2.921997070313 159 159 159
8.171875000000 19.000000000000 3.033996582031 177 177 177
8.187500000000 19.000000000000 3.147979736328 188 188 188
8.187500000000 19.000000000000 3.259979248047 175 175 175
8.187500000000 19.000000000000 3.371978759766 180 180 180
8.187500000000 19.000000000000 3.483978271484 184 184 184
8.187500000000 19.000000000000 3.595977783203 189 189 189
8.203125000000 19.000000000000 3.707977294922 186 186 186
8.203125000000 19.000000000000 3.819976806641 184 184 184
8.203125000000 19.000000000000 3.931976318359 179 179 179
8.218750000000 19.000000000000 4.042999267578 173 173 173
8.218750000000 19.000000000000 4.154998779297 180 180 180
8.218750000000 19.000000000000 4.266998291016 183 183 183
8.218750000000 19.000000000000 4.378997802734 175 175 175
8.234375000000 19.000000000000 4.489990234375 172 172 172
8.250000000000 19.000000000000 4.714996337891 175 175 175
8.250000000000 19.000000000000 4.826995849609 171 171 171
8.250000000000 19.000000000000 4.938995361328 158 158 158
8.265625000000 19.000000000000 5.052978515625 154 154 154
8.265625000000 19.000000000000 5.166992187500 148 148 148
8.265625000000 19.000000000000 5.280975341797 145 145 145
8.281250000000 19.000000000000 5.622985839844 119 119 119
8.265625000000 19.000000000000 5.741973876953 126 126 126
8.281250000000 19.000000000000 5.856994628906 119 119 119
8.281250000000 19.000000000000 5.974975585938 105 105 105
8.281250000000 19.000000000000 6.091979980469 103 103 103
8.265625000000 19.000000000000 6.213989257813 95 95 95
8.281250000000 19.000000000000 6.330993652344 85 85 85
8.281250000000 19.000000000000 6.450988769531 75 75 75
8.281250000000 19.000000000000 6.571990966797 32 32 32
8.281250000000 19.000000000000 6.695983886719 27 27 27
8.296875000000 19.000000000000 6.812988281250 10 10 10
8.234375000000 19.000000000000 4.602996826172 161 161 161
8.234375000000 19.000000000000 5.399993896484 112 112 112
8.203125000000 19.250000000000 1.547973632813 60 60 60
8.218750000000 19.375000000000 1.656982421875 7 7 7
8.171875000000 19.625000000000 1.748992919922 22 22 22
8.296875000000 9.375000000000 1.820983886719 255 255 255
8.421875000000 9.375000000000 1.976989746094 43 43 43
8.421875000000 9.375000000000 2.106994628906 45 45 45
8.437500000000 9.375000000000 2.241973876953 23 23 23
8.437500000000 9.500000000000 2.372985839844 1 1 1
8.421875000000 9.500000000000 1.717987060547 191 191 191
8.437500000000 9.500000000000 1.852996826172 176 176 176
8.421875000000 9.500000000000 1.979980468750 207 207 207
8.437500000000 9.500000000000 2.113983154297 201 201 201
8.421875000000 9.500000000000 2.243988037109 198 198 198
8.406250000000 9.500000000000 2.372985839844 216 216 216
8.406250000000 9.625000000000 2.503997802734 213 213 213
8.406250000000 9.625000000000 2.633972167969 215 215 215
8.406250000000 9.625000000000 2.763000488281 218 218 218
8.406250000000 9.625000000000 2.891998291016 222 222 222
8.406250000000 9.625000000000 3.020996093750 209 209 209
8.406250000000 9.625000000000 3.148986816406 199 199 199
8.406250000000 9.625000000000 3.276977539063 227 227 227
8.406250000000 9.625000000000 3.405975341797 228 228 228
8.406250000000 9.625000000000 3.533996582031 228 228 228
8.390625000000 9.625000000000 3.660980224609 228 228 228
8.406250000000 9.625000000000 3.788970947266 229 229 229
8.406250000000 9.625000000000 3.916992187500 230 230 230
8.406250000000 9.625000000000 4.044982910156 228 228 228
8.406250000000 9.625000000000 4.172973632813 229 229 229
8.406250000000 9.625000000000 4.300994873047 229 229 229
8.390625000000 9.625000000000 4.429992675781 228 228 228
8.390625000000 9.625000000000 4.557983398438 229 229 229
8.406250000000 9.625000000000 4.686981201172 217 217 217
8.390625000000 9.625000000000 4.814971923828 227 227 227
8.390625000000 9.625000000000 4.944976806641 223 223 223
8.390625000000 9.625000000000 5.073974609375 223 223 223
8.390625000000 9.625000000000 5.204986572266 222 222 222
8.390625000000 9.625000000000 5.333984375000 218 218 218
8.390625000000 9.625000000000 5.464996337891 224 224 224
8.390625000000 9.625000000000 5.595977783203 184 184 184
8.390625000000 9.625000000000 5.728973388672 220 220 220
8.375000000000 9.625000000000 5.862976074219 206 206 206
8.390625000000 9.625000000000 5.992980957031 213 213 213
8.375000000000 9.625000000000 6.127990722656 205 205 205
8.375000000000 9.625000000000 6.260986328125 168 168 168
8.375000000000 9.625000000000 6.395996093750 197 197 197
8.375000000000 9.625000000000 6.530975341797 158 158 158
8.406250000000 9.625000000000 6.661987304688 111 111 111
8.390625000000 9.625000000000 6.802978515625 144 144 144
8.375000000000 9.625000000000 6.941986083984 143 143 143
8.375000000000 9.625000000000 7.080993652344 141 141 141
8.375000000000 9.625000000000 7.220977783203 137 137 137
8.359375000000 9.625000000000 7.367980957031 117 117 117
8.359375000000 9.625000000000 7.506988525391 114 114 114
8.312500000000 9.625000000000 1.694000244141 182 182 182
8.250000000000 9.500000000000 1.812988281250 247 247 247
8.343750000000 9.625000000000 1.965972900391 112 112 112
8.312500000000 9.625000000000 2.092987060547 140 140 140
8.328125000000 9.625000000000 2.226989746094 136 136 136
8.312500000000 9.625000000000 2.356994628906 131 131 131
8.328125000000 9.625000000000 2.490997314453 156 156 156
8.312500000000 9.625000000000 2.619995117188 155 155 155
8.281250000000 9.625000000000 2.745971679688 221 221 221
8.296875000000 9.625000000000 2.877990722656 225 225 225
8.296875000000 9.625000000000 3.008972167969 225 225 225
8.343750000000 9.625000000000 3.141998291016 149 149 149
8.328125000000 9.625000000000 3.270996093750 180 180 180
8.328125000000 9.625000000000 3.398986816406 209 209 209
8.312500000000 9.625000000000 3.528991699219 200 200 200
8.328125000000 9.625000000000 3.657989501953 186 186 186
8.328125000000 9.625000000000 3.786987304688 213 213 213
8.328125000000 9.625000000000 3.915985107422 204 204 204
8.328125000000 9.625000000000 4.044982910156 191 191 191
8.312500000000 9.625000000000 4.173980712891 193 193 193
8.328125000000 9.625000000000 4.302978515625 131 131 131
8.328125000000 9.625000000000 4.431976318359 186 186 186
8.343750000000 9.625000000000 4.560974121094 175 175 175
8.343750000000 9.625000000000 4.689971923828 143 143 143
8.328125000000 9.625000000000 4.820983886719 164 164 164
8.343750000000 9.625000000000 4.948974609375 157 157 157
8.328125000000 9.625000000000 5.080993652344 150 150 150
8.343750000000 9.625000000000 5.209991455078 152 152 152
8.328125000000 9.625000000000 5.342987060547 148 148 148
8.328125000000 9.625000000000 5.475982666016 152 152 152
8.328125000000 9.625000000000 5.605987548828 140 140 140
8.328125000000 9.625000000000 5.736999511719 153 153 153
8.343750000000 9.625000000000 5.869995117188 149 149 149
8.328125000000 9.625000000000 6.003997802734 140 140 140
8.343750000000 9.625000000000 6.136993408203 149 149 149
8.328125000000 9.625000000000 6.276000976563 148 148 148
8.328125000000 9.625000000000 6.407989501953 148 148 148
8.328125000000 9.625000000000 6.544982910156 141 141 141
8.328125000000 9.750000000000 6.676971435547 97 97 97
8.328125000000 9.625000000000 6.819976806641 136 136 136
8.328125000000 9.625000000000 6.957977294922 141 141 141
8.328125000000 9.625000000000 7.097991943359 139 139 139
8.328125000000 9.625000000000 7.239990234375 139 139 139
8.328125000000 9.750000000000 7.375000000000 113 113 113
8.312500000000 9.750000000000 7.520996093750 112 112 112
8.281250000000 9.750000000000 2.608978271484 21 21 21
8.281250000000 9.750000000000 2.740997314453 181 181 181
8.281250000000 9.750000000000 2.871978759766 174 174 174
8.281250000000 9.750000000000 3.001983642578 170 170 170
8.359375000000 9.750000000000 6.671997070313 15 15 15
8.328125000000 9.875000000000 6.673980712891 17 17 17
8.328125000000 10.000000000000 6.668975830078 22 22 22
8.296875000000 10.000000000000 7.234985351563 16 16 16
8.328125000000 10.125000000000 6.660980224609 19 19 19
8.296875000000 10.125000000000 7.229980468750 44 44 44
8.343750000000 10.250000000000 6.657989501953 9 9 9
8.328125000000 10.625000000000 7.089996337891 9 9 9
8.296875000000 11.125000000000 6.959991455078 26 26 26
8.296875000000 11.125000000000 6.958984375000 32 32 32
8.312500000000 11.250000000000 6.535980224609 62 62 62
8.328125000000 11.250000000000 6.665985107422 14 14 14
8.296875000000 11.625000000000 6.383972167969 13 13 13
8.296875000000 11.750000000000 6.792999267578 28 28 28
8.343750000000 12.000000000000 6.244995117188 26 26 26
8.328125000000 12.125000000000 6.252990722656 59 59 59
8.312500000000 12.125000000000 6.526977539063 5 5 5
8.296875000000 12.375000000000 6.260986328125 64 64 64
8.296875000000 12.375000000000 6.534973144531 6 6 6
8.296875000000 12.250000000000 6.675994873047 32 32 32
8.312500000000 12.500000000000 6.260986328125 55 55 55
8.312500000000 12.625000000000 6.260986328125 69 69 69
8.281250000000 12.625000000000 6.538970947266 49 49 49
8.296875000000 12.750000000000 6.260986328125 81 81 81
8.281250000000 12.750000000000 6.398986816406 54 54 54
8.281250000000 12.750000000000 6.533996582031 57 57 57
8.312500000000 12.875000000000 6.251983642578 67 67 67
8.312500000000 13.000000000000 6.244995117188 54 54 54
8.296875000000 13.125000000000 6.240997314453 45 45 45
8.312500000000 13.125000000000 6.233978271484 24 24 24
8.281250000000 13.125000000000 6.373992919922 113 113 113
8.265625000000 13.125000000000 6.513977050781 70 70 70
8.281250000000 13.250000000000 6.237976074219 28 28 28
8.265625000000 13.250000000000 6.376983642578 186 186 186
8.265625000000 13.250000000000 6.513977050781 40 40 40
8.296875000000 13.375000000000 6.239990234375 36 36 36
8.281250000000 13.375000000000 6.377990722656 138 138 138
8.296875000000 13.375000000000 6.508972167969 22 22 22
8.281250000000 13.500000000000 6.245971679688 63 63 63
8.281250000000 13.500000000000 6.382995605469 140 140 140
8.281250000000 13.500000000000 6.518981933594 12 12 12
8.281250000000 13.625000000000 6.252990722656 85 85 85
8.281250000000 13.625000000000 6.390991210938 138 138 138
8.281250000000 13.875000000000 6.257995605469 97 97 97
8.281250000000 13.875000000000 6.393981933594 176 176 176
8.312500000000 13.875000000000 6.518981933594 19 19 19
8.281250000000 14.000000000000 6.256988525391 102 102 102
8.265625000000 14.000000000000 6.399993896484 215 215 215
8.281250000000 14.000000000000 6.531982421875 18 18 18
8.265625000000 14.125000000000 6.259979248047 78 78 78
8.250000000000 14.125000000000 6.397979736328 182 182 182
8.265625000000 14.125000000000 6.531982421875 70 70 70
8.250000000000 14.250000000000 6.252990722656 67 67 67
8.250000000000 14.250000000000 6.389984130859 164 164 164
8.250000000000 14.250000000000 6.523986816406 8 8 8
8.265625000000 14.375000000000 6.241973876953 26 26 26
8.265625000000 14.375000000000 6.379974365234 155 155 155
8.250000000000 14.375000000000 6.518981933594 32 32 32
8.265625000000 14.500000000000 6.370971679688 140 140 140
8.265625000000 14.500000000000 6.507995605469 62 62 62
8.265625000000 14.625000000000 6.361999511719 138 138 138
8.265625000000 14.625000000000 6.497985839844 93 93 93
8.265625000000 14.750000000000 6.354980468750 158 158 158
8.250000000000 14.750000000000 6.495971679688 110 110 110
8.265625000000 14.875000000000 6.357971191406 157 157 157
8.265625000000 14.875000000000 6.493988037109 108 108 108
8.265625000000 15.000000000000 6.358978271484 158 158 158
8.265625000000 15.000000000000 6.492980957031 112 112 112
8.265625000000 15.125000000000 6.361999511719 175 175 175
8.250000000000 15.125000000000 6.502990722656 68 68 68
8.296875000000 15.375000000000 6.227996826172 10 10 10
8.281250000000 15.375000000000 6.365997314453 184 184 184
8.265625000000 15.375000000000 6.505981445313 39 39 39
8.296875000000 15.500000000000 6.227996826172 6 6 6
8.296875000000 15.875000000000 6.351989746094 22 22 22
8.296875000000 15.875000000000 6.609985351563 22 22 22
8.296875000000 16.000000000000 6.601989746094 77 77 77
8.328125000000 16.125000000000 6.588989257813 67 67 67
8.312500000000 16.250000000000 6.585998535156 66 66 66
8.296875000000 16.375000000000 6.588989257813 66 66 66
8.281250000000 16.375000000000 6.729980468750 1 1 1
8.296875000000 16.625000000000 6.591979980469 63 63 63
8.265625000000 16.625000000000 6.734985351563 37 37 37
8.296875000000 16.750000000000 6.595001220703 45 45 45
8.281250000000 16.875000000000 6.332977294922 50 50 50
8.250000000000 16.875000000000 6.474975585938 39 39 39
8.296875000000 16.875000000000 6.600982666016 42 42 42
8.296875000000 17.000000000000 6.599975585938 35 35 35
8.312500000000 17.125000000000 6.597991943359 69 69 69
8.312500000000 17.125000000000 6.875000000000 31 31 31
8.281250000000 17.250000000000 6.597991943359 68 68 68
8.281250000000 17.250000000000 6.875000000000 24 24 24
8.281250000000 17.375000000000 6.589996337891 90 90 90
8.281250000000 17.500000000000 6.582977294922 112 112 112
8.281250000000 17.625000000000 6.574981689453 100 100 100
8.265625000000 17.625000000000 6.987976074219 30 30 30
8.281250000000 17.750000000000 6.565979003906 94 94 94
8.265625000000 17.750000000000 6.983978271484 21 21 21
8.265625000000 17.875000000000 6.565979003906 96 96 96
8.296875000000 18.125000000000 6.564971923828 99 99 99
8.281250000000 18.250000000000 6.566986083984 98 98 98
8.265625000000 18.250000000000 7.121978759766 12 12 12
8.265625000000 18.375000000000 6.576995849609 109 109 109
8.265625000000 18.375000000000 7.127990722656 44 44 44
8.281250000000 18.500000000000 6.576995849609 104 104 104
8.265625000000 18.625000000000 6.579986572266 105 105 105
8.265625000000 18.750000000000 6.577972412109 89 89 89
8.281250000000 18.750000000000 7.258972167969 12 12 12
8.265625000000 18.875000000000 6.570983886719 82 82 82
8.312500000000 18.875000000000 7.241973876953 86 86 86
8.281250000000 18.875000000000 4.343994140625 19 19 19
8.265625000000 18.875000000000 4.472991943359 28 28 28
8.265625000000 19.000000000000 4.598999023438 62 62 62
8.281250000000 19.000000000000 4.726989746094 99 99 99
8.265625000000 19.000000000000 4.855987548828 121 121 121
8.281250000000 19.000000000000 4.983978271484 131 131 131
8.281250000000 19.000000000000 5.111999511719 148 148 148
8.312500000000 19.000000000000 5.237976074219 135 135 135
8.312500000000 19.000000000000 5.366973876953 136 136 136
8.312500000000 19.000000000000 5.494995117188 138 138 138
8.312500000000 19.000000000000 5.625000000000 133 133 133
8.328125000000 19.000000000000 5.752990722656 141 141 141
8.328125000000 19.000000000000 5.885986328125 154 154 154
8.343750000000 19.000000000000 6.013977050781 133 133 133
8.328125000000 19.000000000000 6.147979736328 143 143 143
8.343750000000 19.000000000000 6.277984619141 150 150 150
8.343750000000 19.000000000000 6.409973144531 150 150 150
8.343750000000 19.000000000000 6.544982910156 164 164 164
8.343750000000 19.000000000000 6.678985595703 156 156 156
8.359375000000 19.000000000000 6.811981201172 159 159 159
8.359375000000 19.000000000000 6.945983886719 164 164 164
8.359375000000 19.000000000000 7.085998535156 187 187 187
8.359375000000 19.000000000000 7.222991943359 183 183 183
8.375000000000 19.000000000000 7.355987548828 144 144 144
8.187500000000 19.000000000000 1.610992431641 99 99 99
8.171875000000 19.000000000000 1.738983154297 132 132 132
8.187500000000 19.000000000000 1.875976562500 160 160 160
8.187500000000 19.000000000000 2.008972167969 192 192 192
8.187500000000 19.000000000000 2.140991210938 180 180 180
8.187500000000 19.000000000000 2.272979736328 189 189 189
8.203125000000 19.000000000000 2.405975341797 178 178 178
8.203125000000 19.000000000000 2.535980224609 200 200 200
8.203125000000 19.000000000000 2.666992187500 207 207 207
8.203125000000 19.000000000000 2.795989990234 200 200 200
8.203125000000 19.000000000000 2.925994873047 213 213 213
8.218750000000 19.000000000000 3.054992675781 217 217 217
8.218750000000 19.000000000000 3.183990478516 215 215 215
8.218750000000 19.000000000000 3.312988281250 219 219 219
8.234375000000 19.000000000000 3.440979003906 223 223 223
8.234375000000 19.000000000000 3.569976806641 223 223 223
8.234375000000 19.000000000000 3.697998046875 218 218 218
8.234375000000 19.000000000000 3.825988769531 225 225 225
8.250000000000 19.000000000000 3.952972412109 224 224 224
8.250000000000 19.000000000000 4.080993652344 228 228 228
8.250000000000 19.000000000000 4.208984375000 229 229 229
8.265625000000 19.000000000000 4.336975097656 228 228 228
8.265625000000 19.000000000000 4.464996337891 228 228 228
8.265625000000 19.000000000000 4.592987060547 228 228 228
8.265625000000 19.000000000000 4.720977783203 223 223 223
8.265625000000 19.000000000000 4.848999023438 225 225 225
8.281250000000 19.000000000000 4.976989746094 219 219 219
8.281250000000 19.000000000000 5.106994628906 219 219 219
8.265625000000 19.125000000000 5.234985351563 214 214 214
8.265625000000 19.125000000000 5.364990234375 218 218 218
8.281250000000 19.125000000000 5.492980957031 207 207 207
8.296875000000 19.125000000000 5.620971679688 203 203 203
8.281250000000 19.125000000000 5.753997802734 200 200 200
8.281250000000 19.125000000000 5.885986328125 212 212 212
8.296875000000 19.125000000000 6.013977050781 185 185 185
8.296875000000 19.125000000000 6.145996093750 173 173 173
8.281250000000 19.125000000000 6.282989501953 183 183 183
8.296875000000 19.125000000000 6.415985107422 171 171 171
8.296875000000 19.125000000000 6.549987792969 149 149 149
8.296875000000 19.125000000000 6.682983398438 176 176 176
8.296875000000 19.125000000000 6.820983886719 174 174 174
8.296875000000 19.125000000000 6.957977294922 157 157 157
8.296875000000 19.125000000000 7.093994140625 146 146 146
8.296875000000 19.125000000000 7.232971191406 125 125 125
8.312500000000 19.125000000000 7.371978759766 88 88 88
8.078125000000 19.125000000000 1.578979492188 183 183 183
8.093750000000 19.125000000000 1.715972900391 196 196 196
8.093750000000 19.125000000000 1.851989746094 181 181 181
8.109375000000 19.125000000000 1.986999511719 185 185 185
8.109375000000 19.125000000000 2.120971679688 196 196 196
8.125000000000 19.125000000000 2.253997802734 195 195 195
8.125000000000 19.125000000000 2.385986328125 174 174 174
8.125000000000 19.125000000000 2.517974853516 179 179 179
8.125000000000 19.125000000000 2.649993896484 193 193 193
8.140625000000 19.125000000000 2.780975341797 212 212 212
8.140625000000 19.125000000000 2.910980224609 208 208 208
8.140625000000 19.125000000000 3.041992187500 216 216 216
8.140625000000 19.125000000000 3.171997070313 208 208 208
8.140625000000 19.125000000000 3.300994873047 218 218 218
8.156250000000 19.125000000000 3.430999755859 222 222 222
8.156250000000 19.125000000000 3.559997558594 221 221 221
8.140625000000 19.125000000000 3.689971923828 217 217 217
8.156250000000 19.125000000000 3.819000244141 207 207 207
8.156250000000 19.125000000000 3.946990966797 212 212 212
8.156250000000 19.125000000000 4.075988769531 195 195 195
8.171875000000 19.125000000000 4.204986572266 202 202 202
8.171875000000 19.125000000000 4.333984375000 180 180 180
8.171875000000 19.125000000000 4.462982177734 166 166 166
8.171875000000 19.125000000000 4.591979980469 166 166 166
8.171875000000 19.125000000000 4.721984863281 155 155 155
8.187500000000 19.125000000000 4.850982666016 151 151 151
8.171875000000 19.125000000000 4.981994628906 128 128 128
8.171875000000 19.125000000000 5.110992431641 112 112 112
8.171875000000 19.125000000000 5.241973876953 104 104 104
8.171875000000 19.125000000000 5.373992919922 96 96 96
8.187500000000 19.125000000000 5.502990722656 74 74 74
8.156250000000 19.125000000000 5.638977050781 35 35 35
28.609375000000 7.875000000000 1.696990966797 28 28 28
28.390625000000 9.000000000000 6.334991455078 21 21 21
28.406250000000 9.000000000000 6.194976806641 86 86 86
28.437500000000 9.000000000000 6.053985595703 138 138 138
28.437500000000 9.000000000000 5.910980224609 154 154 154
28.437500000000 9.000000000000 5.768981933594 183 183 183
28.406250000000 9.000000000000 5.625976562500 175 175 175
28.421875000000 9.000000000000 5.484985351563 196 196 196
28.437500000000 9.000000000000 5.345001220703 198 198 198
28.437500000000 9.000000000000 5.204986572266 193 193 193
28.437500000000 9.000000000000 5.064971923828 201 201 201
28.437500000000 9.000000000000 4.925994873047 199 199 199
28.453125000000 9.000000000000 4.786987304688 207 207 207
28.453125000000 9.000000000000 4.647979736328 205 205 205
28.453125000000 9.000000000000 4.507995605469 205 205 205
28.453125000000 9.000000000000 4.369995117188 202 202 202
28.453125000000 9.000000000000 4.230987548828 210 210 210
28.453125000000 9.000000000000 4.091979980469 216 216 216
28.468750000000 9.000000000000 3.953979492188 214 214 214
28.468750000000 9.000000000000 3.814971923828 203 203 203
