17.906250000000 3.750000000000 8.468994140625 78 78 78
17.906250000000 3.875000000000 8.464996337891 66 66 66
17.906250000000 4.125000000000 8.462982177734 36 36 36
17.906250000000 4.250000000000 8.473999023438 31 31 31
17.906250000000 4.375000000000 8.455993652344 28 28 28
17.843750000000 5.375000000000 8.440979003906 40 40 40
17.828125000000 5.500000000000 8.454986572266 69 69 69
17.828125000000 5.625000000000 8.449981689453 70 70 70
17.765625000000 10.500000000000 8.362976074219 54 54 54
17.765625000000 10.625000000000 8.372985839844 68 68 68
17.750000000000 10.750000000000 8.375976562500 77 77 77
17.765625000000 10.875000000000 8.366973876953 58 58 58
17.765625000000 11.000000000000 8.364990234375 41 41 41
17.781250000000 12.500000000000 8.334991455078 32 32 32
17.765625000000 12.625000000000 8.340972900391 39 39 39
17.781250000000 12.750000000000 8.343994140625 36 36 36
17.781250000000 12.875000000000 8.333984375000 33 33 33
17.781250000000 13.000000000000 8.335998535156 40 40 40
17.781250000000 13.125000000000 8.340972900391 39 39 39
17.781250000000 13.250000000000 8.341979980469 44 44 44
17.781250000000 13.375000000000 8.330993652344 68 68 68
17.765625000000 13.500000000000 8.325988769531 79 79 79
17.781250000000 13.625000000000 8.324981689453 77 77 77
17.765625000000 13.750000000000 8.321990966797 74 74 74
17.765625000000 13.875000000000 8.302978515625 56 56 56
17.765625000000 14.125000000000 8.313995361328 50 50 50
17.765625000000 14.250000000000 8.319976806641 45 45 45
17.765625000000 14.375000000000 8.310974121094 43 43 43
17.765625000000 14.500000000000 8.314971923828 70 70 70
17.765625000000 14.625000000000 8.301971435547 64 64 64
17.765625000000 14.750000000000 8.319000244141 67 67 67
17.765625000000 14.875000000000 8.311981201172 40 40 40
17.750000000000 15.000000000000 8.300994873047 36 36 36
17.796875000000 16.625000000000 8.269989013672 44 44 44
17.781250000000 16.750000000000 8.268981933594 43 43 43
17.781250000000 16.875000000000 8.282989501953 57 57 57
17.781250000000 17.000000000000 8.286987304688 78 78 78
17.781250000000 17.125000000000 8.276000976563 78 78 78
17.765625000000 17.250000000000 8.288970947266 79 79 79
17.781250000000 17.375000000000 8.285980224609 81 81 81
17.781250000000 17.500000000000 8.265991210938 78 78 78
17.765625000000 17.625000000000 8.284973144531 88 88 88
17.765625000000 17.750000000000 8.269989013672 81 81 81
17.765625000000 17.875000000000 8.283996582031 74 74 74
17.765625000000 17.875000000000 8.278991699219 54 54 54
17.796875000000 18.625000000000 8.273986816406 35 35 35
17.796875000000 18.750000000000 8.265991210938 45 45 45
17.796875000000 18.875000000000 8.263977050781 45 45 45
17.796875000000 19.000000000000 8.252990722656 44 44 44
17.796875000000 19.125000000000 8.256988525391 49 49 49
17.796875000000 19.250000000000 8.253997802734 49 49 49
17.796875000000 19.375000000000 8.255981445313 54 54 54
17.796875000000 19.500000000000 8.273986816406 65 65 65
17.796875000000 19.625000000000 8.256988525391 86 86 86
17.796875000000 19.750000000000 8.260986328125 74 74 74
17.781250000000 19.875000000000 8.251983642578 58 58 58
17.781250000000 21.000000000000 8.246978759766 40 40 40
17.796875000000 21.125000000000 8.253997802734 64 64 64
17.781250000000 21.250000000000 8.238983154297 72 72 72
17.781250000000 21.375000000000 8.243988037109 81 81 81
17.781250000000 21.500000000000 8.242980957031 76 76 76
17.796875000000 22.750000000000 8.233978271484 57 57 57
17.796875000000 22.875000000000 8.228973388672 74 74 74
17.796875000000 23.000000000000 8.240997314453 73 73 73
18.093750000000 0.000000000000 8.515991210938 58 58 58
20.781250000000 0.000000000000 7.761993408203 76 76 76
18.093750000000 0.125000000000 8.519989013672 60 60 60
20.781250000000 0.125000000000 7.767974853516 93 93 93
18.078125000000 0.250000000000 8.517974853516 55 55 55
20.781250000000 0.375000000000 7.778991699219 100 100 100
18.093750000000 0.500000000000 8.526977539063 51 51 51
18.093750000000 0.625000000000 8.519989013672 39 39 39
20.843750000000 0.625000000000 7.761993408203 46 46 46
20.843750000000 0.750000000000 7.772979736328 89 89 89
20.828125000000 0.875000000000 7.769989013672 95 95 95
20.859375000000 1.000000000000 7.781982421875 121 121 121
20.906250000000 1.500000000000 7.761993408203 46 46 46
20.906250000000 1.625000000000 7.770996093750 84 84 84
18.015625000000 1.625000000000 8.490997314453 35 35 35
20.906250000000 1.750000000000 7.780975341797 124 124 124
18.015625000000 1.750000000000 8.487976074219 42 42 42
18.015625000000 1.875000000000 8.495971679688 88 88 88
18.000000000000 2.000000000000 8.487976074219 86 86 86
18.015625000000 2.125000000000 8.488983154297 57 57 57
20.937500000000 2.250000000000 7.750976562500 79 79 79
18.015625000000 2.250000000000 8.493988037109 53 53 53
20.968750000000 2.375000000000 7.765991210938 81 81 81
18.000000000000 2.375000000000 8.489990234375 40 40 40
20.984375000000 2.375000000000 7.769989013672 108 108 108
20.984375000000 2.500000000000 7.783996582031 117 117 117
21.015625000000 2.875000000000 7.753997802734 64 64 64
21.031250000000 3.000000000000 7.768981933594 87 87 87
21.015625000000 3.125000000000 7.778991699219 122 122 122
21.046875000000 3.375000000000 7.789978027344 39 39 39
17.937500000000 3.625000000000 8.463989257813 36 36 36
21.078125000000 3.750000000000 7.763000488281 51 51 51
17.921875000000 3.875000000000 8.470977783203 85 85 85
21.109375000000 3.750000000000 7.779998779297 75 75 75
17.921875000000 4.000000000000 8.480987548828 91 91 91
21.109375000000 3.875000000000 7.783996582031 100 100 100
17.937500000000 4.125000000000 8.477996826172 65 65 65
21.109375000000 4.000000000000 7.782989501953 122 122 122
17.921875000000 4.250000000000 8.470977783203 74 74 74
17.921875000000 4.375000000000 8.458984375000 40 40 40
17.906250000000 4.375000000000 8.463989257813 40 40 40
21.156250000000 4.500000000000 7.760986328125 55 55 55
17.906250000000 4.500000000000 8.458984375000 55 55 55
21.171875000000 4.625000000000 7.782989501953 113 113 113
17.890625000000 4.625000000000 8.460998535156 41 41 41
21.171875000000 4.750000000000 7.780975341797 138 138 138
17.890625000000 4.750000000000 8.450988769531 51 51 51
21.171875000000 4.875000000000 7.779998779297 121 121 121
17.890625000000 4.875000000000 8.475982666016 41 41 41
21.171875000000 5.000000000000 7.790985107422 102 102 102
21.203125000000 5.000000000000 7.743988037109 42 42 42
21.203125000000 5.125000000000 7.754974365234 96 96 96
21.203125000000 5.250000000000 7.758972167969 102 102 102
21.187500000000 5.375000000000 7.823974609375 138 138 138
21.203125000000 5.375000000000 7.757995605469 105 105 105
21.218750000000 5.375000000000 7.669982910156 141 141 141
21.234375000000 5.375000000000 7.774993896484 121 121 121
21.281250000000 5.375000000000 7.747985839844 81 81 81
21.234375000000 5.375000000000 7.577972412109 162 162 162
17.843750000000 5.875000000000 8.444976806641 42 42 42
17.828125000000 6.000000000000 8.446990966797 77 77 77
17.828125000000 6.125000000000 8.437988281250 92 92 92
17.812500000000 6.250000000000 8.440979003906 84 84 84
17.828125000000 6.375000000000 8.444976806641 79 79 79
17.828125000000 6.500000000000 8.431976318359 64 64 64
17.828125000000 6.500000000000 8.420989990234 45 45 45
17.828125000000 6.625000000000 8.450988769531 54 54 54
17.796875000000 8.875000000000 8.393981933594 36 36 36
17.781250000000 9.000000000000 8.402984619141 56 56 56
17.796875000000 9.125000000000 8.392974853516 52 52 52
17.781250000000 9.250000000000 8.393981933594 59 59 59
17.781250000000 9.375000000000 8.393981933594 55 55 55
17.781250000000 9.500000000000 8.389984130859 61 61 61
17.781250000000 9.625000000000 8.402984619141 79 79 79
17.781250000000 9.750000000000 8.395996093750 70 70 70
17.781250000000 9.875000000000 8.388000488281 77 77 77
17.796875000000 10.000000000000 8.394989013672 81 81 81
17.781250000000 10.125000000000 8.385986328125 87 87 87
17.781250000000 10.250000000000 8.388977050781 102 102 102
17.781250000000 10.375000000000 8.384979248047 83 83 83
17.781250000000 10.500000000000 8.376983642578 40 40 40
17.796875000000 12.125000000000 8.350982666016 45 45 45
17.796875000000 12.250000000000 8.354980468750 56 56 56
17.796875000000 12.375000000000 8.352996826172 53 53 53
17.796875000000 12.500000000000 8.345001220703 47 47 47
17.781250000000 12.625000000000 8.339996337891 49 49 49
17.796875000000 12.750000000000 8.326995849609 50 50 50
17.796875000000 12.875000000000 8.346984863281 47 47 47
17.796875000000 13.000000000000 8.325988769531 44 44 44
17.796875000000 13.125000000000 8.339996337891 43 43 43
17.796875000000 13.250000000000 8.338989257813 61 61 61
17.796875000000 13.375000000000 8.337982177734 76 76 76
17.781250000000 13.500000000000 8.332000732422 94 94 94
17.796875000000 13.625000000000 8.327972412109 95 95 95
17.796875000000 13.875000000000 8.313995361328 69 69 69
17.781250000000 13.875000000000 8.313995361328 64 64 64
17.781250000000 14.125000000000 8.311981201172 65 65 65
17.796875000000 14.250000000000 8.309997558594 69 69 69
17.796875000000 14.375000000000 8.322998046875 59 59 59
17.765625000000 14.500000000000 8.314971923828 87 87 87
17.781250000000 14.625000000000 8.316986083984 81 81 81
17.781250000000 14.750000000000 8.324981689453 75 75 75
17.781250000000 14.875000000000 8.297973632813 54 54 54
17.812500000000 16.625000000000 8.289978027344 24 24 24
17.812500000000 16.750000000000 8.276000976563 47 47 47
17.812500000000 16.875000000000 8.279998779297 50 50 50
17.812500000000 17.000000000000 8.273986816406 45 45 45
17.812500000000 17.125000000000 8.273986816406 55 55 55
17.796875000000 17.250000000000 8.282989501953 45 45 45
17.812500000000 17.375000000000 8.278991699219 47 47 47
17.796875000000 17.500000000000 8.276000976563 45 45 45
17.796875000000 17.625000000000 8.276000976563 49 49 49
17.796875000000 17.875000000000 8.274993896484 58 58 58
17.796875000000 18.000000000000 8.278991699219 73 73 73
17.796875000000 18.000000000000 8.274993896484 86 86 86
17.781250000000 18.125000000000 8.277984619141 74 74 74
17.828125000000 19.750000000000 8.241973876953 50 50 50
17.828125000000 19.875000000000 8.255981445313 60 60 60
17.812500000000 20.000000000000 8.252990722656 60 60 60
17.812500000000 20.125000000000 8.263977050781 76 76 76
17.812500000000 20.250000000000 8.251983642578 82 82 82
17.812500000000 20.375000000000 8.250976562500 86 86 86
17.796875000000 20.500000000000 8.239990234375 82 82 82
17.796875000000 20.750000000000 8.246978759766 86 86 86
17.812500000000 21.625000000000 8.232971191406 35 35 35
17.812500000000 21.875000000000 8.230987548828 48 48 48
17.828125000000 22.000000000000 8.238983154297 64 64 64
17.812500000000 22.125000000000 8.221984863281 61 61 61
17.812500000000 22.250000000000 8.234985351563 62 62 62
13.500000000000 0.000000000000 8.332000732422 143 143 143
14.625000000000 0.125000000000 8.250000000000 162 162 162
13.500000000000 0.125000000000 8.322998046875 149 149 149
14.609375000000 0.250000000000 8.250976562500 167 167 167
13.515625000000 0.250000000000 8.317993164063 142 142 142
14.625000000000 0.250000000000 8.243988037109 171 171 171
13.500000000000 0.375000000000 8.323974609375 143 143 143
14.484375000000 0.375000000000 8.188995361328 59 59 59
14.609375000000 0.375000000000 8.243988037109 173 173 173
13.500000000000 0.500000000000 8.310974121094 135 135 135
14.500000000000 0.625000000000 8.172973632813 78 78 78
14.625000000000 0.500000000000 8.237976074219 168 168 168
13.500000000000 0.625000000000 8.309997558594 125 125 125
14.484375000000 0.750000000000 8.179992675781 91 91 91
14.625000000000 0.625000000000 8.237976074219 167 167 167
13.531250000000 0.750000000000 8.283996582031 91 91 91
14.484375000000 0.875000000000 8.180999755859 133 133 133
14.625000000000 0.750000000000 8.233978271484 133 133 133
13.578125000000 0.875000000000 8.246978759766 80 80 80
14.875000000000 0.875000000000 7.593994140625 78 78 78
14.500000000000 0.875000000000 8.171997070313 155 155 155
14.609375000000 0.875000000000 8.246978759766 82 82 82
13.562500000000 1.000000000000 8.255981445313 115 115 115
14.890625000000 1.000000000000 7.595977783203 96 96 96
14.500000000000 1.000000000000 8.173980712891 157 157 157
14.593750000000 1.000000000000 8.252990722656 20 20 20
13.578125000000 1.125000000000 8.236999511719 103 103 103
14.890625000000 1.125000000000 7.593994140625 112 112 112
14.484375000000 1.125000000000 8.176971435547 157 157 157
14.562500000000 1.125000000000 8.209991455078 127 127 127
14.609375000000 1.125000000000 8.232971191406 67 67 67
13.593750000000 1.250000000000 8.235992431641 100 100 100
14.875000000000 1.250000000000 7.588989257813 111 111 111
14.484375000000 1.250000000000 8.168975830078 165 165 165
13.593750000000 1.375000000000 8.227996826172 102 102 102
14.875000000000 1.375000000000 7.587982177734 109 109 109
14.500000000000 1.375000000000 8.167999267578 170 170 170
13.562500000000 1.500000000000 8.234985351563 91 91 91
14.875000000000 1.500000000000 7.587982177734 104 104 104
14.484375000000 1.500000000000 8.159973144531 166 166 166
14.593750000000 1.500000000000 8.236999511719 34 34 34
13.562500000000 1.625000000000 8.228973388672 102 102 102
14.875000000000 1.625000000000 7.582977294922 106 106 106
14.468750000000 1.625000000000 8.160980224609 165 165 165
14.578125000000 1.625000000000 8.243988037109 20 20 20
13.578125000000 1.750000000000 8.220001220703 99 99 99
14.859375000000 1.750000000000 7.577972412109 106 106 106
14.468750000000 1.750000000000 8.159973144531 170 170 170
14.578125000000 1.750000000000 8.236999511719 24 24 24
13.562500000000 1.875000000000 8.225982666016 97 97 97
14.859375000000 1.875000000000 7.580993652344 114 114 114
14.468750000000 1.875000000000 8.162994384766 170 170 170
14.578125000000 1.875000000000 8.237976074219 19 19 19
13.562500000000 2.000000000000 8.220001220703 121 121 121
14.859375000000 2.000000000000 7.580993652344 145 145 145
14.468750000000 2.000000000000 8.148986816406 173 173 173
13.578125000000 2.125000000000 8.224975585938 126 126 126
14.859375000000 2.125000000000 7.573974609375 164 164 164
14.468750000000 2.125000000000 8.147979736328 150 150 150
13.453125000000 2.250000000000 8.236999511719 17 17 17
13.562500000000 2.250000000000 8.231994628906 140 140 140
14.859375000000 2.250000000000 7.575988769531 170 170 170
14.468750000000 2.250000000000 8.139984130859 108 108 108
13.437500000000 2.375000000000 8.246978759766 17 17 17
13.562500000000 2.375000000000 8.230987548828 136 136 136
14.875000000000 2.375000000000 7.576995849609 170 170 170
14.484375000000 2.375000000000 8.144989013672 91 91 91
13.437500000000 2.500000000000 8.247985839844 79 79 79
13.562500000000 2.500000000000 8.223999023438 147 147 147
14.859375000000 2.500000000000 7.573974609375 173 173 173
13.437500000000 2.625000000000 8.243988037109 62 62 62
13.562500000000 2.625000000000 8.217987060547 156 156 156
14.859375000000 2.625000000000 7.573974609375 173 173 173
14.453125000000 2.625000000000 8.166992187500 19 19 19
13.437500000000 2.750000000000 8.244995117188 76 76 76
13.546875000000 2.750000000000 8.220977783203 155 155 155
14.859375000000 2.750000000000 7.560974121094 171 171 171
13.421875000000 2.875000000000 8.237976074219 75 75 75
13.531250000000 2.875000000000 8.217987060547 147 147 147
14.859375000000 2.875000000000 7.569976806641 169 169 169
13.421875000000 3.000000000000 8.243988037109 51 51 51
13.546875000000 3.000000000000 8.217987060547 157 157 157
14.843750000000 3.125000000000 7.559997558594 170 170 170
13.421875000000 3.125000000000 8.228973388672 48 48 48
13.546875000000 3.125000000000 8.205993652344 148 148 148
14.828125000000 3.250000000000 7.564971923828 174 174 174
13.406250000000 3.250000000000 8.237976074219 28 28 28
13.531250000000 3.250000000000 8.207977294922 154 154 154
14.843750000000 3.375000000000 7.557983398438 172 172 172
13.390625000000 3.375000000000 8.239990234375 25 25 25
13.515625000000 3.375000000000 8.208984375000 155 155 155
14.843750000000 3.500000000000 7.550994873047 171 171 171
13.406250000000 3.500000000000 8.226989746094 83 83 83
13.531250000000 3.500000000000 8.201995849609 145 145 145
14.843750000000 3.500000000000 7.559997558594 160 160 160
14.500000000000 3.625000000000 8.166992187500 17 17 17
17.968750000000 3.625000000000 8.490997314453 79 79 79
13.390625000000 3.625000000000 8.230987548828 88 88 88
13.531250000000 3.625000000000 8.191986083984 129 129 129
14.843750000000 3.625000000000 7.554992675781 141 141 141
14.500000000000 3.625000000000 8.162994384766 75 75 75
17.968750000000 3.750000000000 8.478973388672 54 54 54
13.406250000000 3.750000000000 8.222991943359 99 99 99
13.546875000000 3.750000000000 8.184997558594 107 107 107
14.843750000000 3.750000000000 7.546997070313 106 106 106
14.515625000000 3.750000000000 8.156982421875 93 93 93
13.390625000000 3.875000000000 8.227996826172 110 110 110
13.531250000000 3.875000000000 8.192993164063 69 69 69
14.812500000000 3.875000000000 7.580993652344 90 90 90
14.500000000000 3.875000000000 8.159973144531 122 122 122
13.406250000000 4.000000000000 8.228973388672 113 113 113
13.531250000000 4.000000000000 8.210998535156 34 34 34
14.750000000000 4.000000000000 7.644989013672 93 93 93
14.500000000000 4.000000000000 8.156982421875 136 136 136
13.406250000000 4.125000000000 8.218994140625 112 112 112
13.515625000000 4.125000000000 8.202972412109 39 39 39
14.703125000000 4.125000000000 7.694976806641 93 93 93
14.515625000000 4.125000000000 8.153991699219 133 133 133
13.390625000000 4.250000000000 8.223999023438 95 95 95
13.531250000000 4.250000000000 8.184997558594 85 85 85
14.828125000000 4.250000000000 7.565979003906 94 94 94
14.500000000000 4.250000000000 8.151977539063 113 113 113
13.390625000000 4.375000000000 8.220001220703 106 106 106
13.531250000000 4.375000000000 8.191986083984 80 80 80
14.781250000000 4.375000000000 7.600982666016 85 85 85
14.515625000000 4.375000000000 8.141998291016 124 124 124
13.390625000000 4.500000000000 8.210998535156 101 101 101
13.546875000000 4.500000000000 8.179992675781 87 87 87
14.796875000000 4.500000000000 7.584991455078 95 95 95
14.500000000000 4.500000000000 8.147979736328 116 116 116
13.375000000000 4.625000000000 8.220001220703 101 101 101
13.531250000000 4.625000000000 8.180999755859 99 99 99
14.812500000000 4.625000000000 7.556976318359 95 95 95
14.500000000000 4.625000000000 8.140991210938 99 99 99
13.375000000000 4.750000000000 8.207000732422 97 97 97
13.515625000000 4.750000000000 8.184997558594 92 92 92
14.781250000000 4.750000000000 7.596984863281 93 93 93
14.484375000000 4.750000000000 8.141998291016 103 103 103
13.375000000000 4.875000000000 8.207977294922 103 103 103
13.531250000000 4.875000000000 8.183990478516 69 69 69
14.734375000000 4.875000000000 7.634979248047 97 97 97
14.484375000000 4.875000000000 8.143981933594 121 121 121
13.375000000000 5.000000000000 8.209991455078 122 122 122
14.390625000000 5.125000000000 8.038970947266 95 95 95
14.468750000000 5.000000000000 8.143981933594 142 142 142
17.859375000000 5.125000000000 8.460998535156 56 56 56
13.375000000000 5.125000000000 8.201995849609 121 121 121
14.375000000000 5.250000000000 8.052978515625 110 110 110
14.484375000000 5.125000000000 8.147979736328 155 155 155
17.859375000000 5.250000000000 8.457000732422 47 47 47
13.375000000000 5.250000000000 8.213989257813 134 134 134
14.375000000000 5.375000000000 8.058990478516 142 142 142
14.484375000000 5.250000000000 8.140991210938 162 162 162
17.875000000000 5.375000000000 8.461975097656 45 45 45
13.390625000000 5.375000000000 8.207977294922 145 145 145
14.359375000000 5.500000000000 8.064971923828 152 152 152
14.484375000000 5.375000000000 8.138977050781 167 167 167
17.875000000000 5.500000000000 8.453979492188 75 75 75
13.375000000000 5.625000000000 8.213989257813 146 146 146
14.375000000000 5.625000000000 8.060974121094 157 157 157
14.500000000000 5.500000000000 8.138000488281 172 172 172
17.859375000000 5.625000000000 8.452972412109 83 83 83
13.390625000000 5.750000000000 8.198974609375 153 153 153
14.765625000000 5.625000000000 7.513000488281 67 67 67
14.359375000000 5.750000000000 8.064971923828 166 166 166
14.484375000000 5.625000000000 8.142974853516 168 168 168
17.859375000000 5.750000000000 8.452972412109 74 74 74
13.390625000000 5.875000000000 8.200988769531 151 151 151
14.765625000000 5.750000000000 7.502990722656 66 66 66
14.359375000000 5.875000000000 8.062988281250 167 167 167
14.484375000000 5.750000000000 8.135986328125 168 168 168
17.875000000000 5.875000000000 8.461975097656 44 44 44
13.390625000000 6.000000000000 8.194000244141 156 156 156
14.765625000000 5.875000000000 7.500976562500 65 65 65
14.359375000000 6.000000000000 8.054992675781 168 168 168
14.468750000000 5.875000000000 8.140991210938 170 170 170
13.359375000000 6.125000000000 8.202972412109 155 155 155
14.750000000000 6.125000000000 7.494995117188 65 65 65
14.359375000000 6.125000000000 8.057983398438 170 170 170
14.484375000000 6.125000000000 8.134979248047 168 168 168
13.359375000000 6.125000000000 8.192993164063 146 146 146
14.765625000000 6.250000000000 7.493988037109 64 64 64
14.375000000000 6.125000000000 8.050994873047 166 166 166
14.468750000000 6.250000000000 8.134979248047 168 168 168
13.375000000000 6.250000000000 8.194000244141 155 155 155
14.765625000000 6.375000000000 7.490997314453 78 78 78
14.359375000000 6.250000000000 8.050994873047 167 167 167
14.468750000000 6.375000000000 8.138977050781 168 168 168
13.390625000000 6.375000000000 8.183990478516 159 159 159
14.765625000000 6.375000000000 7.483978271484 102 102 102
14.359375000000 6.375000000000 8.044982910156 163 163 163
14.453125000000 6.375000000000 8.132995605469 162 162 162
13.390625000000 6.500000000000 8.161987304688 148 148 148
14.750000000000 6.500000000000 7.488983154297 131 131 131
14.375000000000 6.500000000000 8.050994873047 144 144 144
14.468750000000 6.500000000000 8.128997802734 135 135 135
13.406250000000 6.625000000000 8.146972656250 139 139 139
14.750000000000 6.625000000000 7.488983154297 157 157 157
14.375000000000 6.625000000000 8.046997070313 114 114 114
14.484375000000 6.625000000000 8.118988037109 102 102 102
17.796875000000 6.750000000000 8.436981201172 21 21 21
13.437500000000 6.750000000000 8.141998291016 133 133 133
14.734375000000 6.750000000000 7.500976562500 161 161 161
14.359375000000 6.750000000000 8.054992675781 88 88 88
14.468750000000 6.750000000000 8.133972167969 85 85 85
17.796875000000 6.875000000000 8.440979003906 38 38 38
13.437500000000 6.875000000000 8.129974365234 133 133 133
14.734375000000 6.875000000000 7.494995117188 172 172 172
17.796875000000 7.125000000000 8.428985595703 50 50 50
13.437500000000 7.000000000000 8.130981445313 138 138 138
14.750000000000 7.000000000000 7.493988037109 172 172 172
17.781250000000 7.125000000000 8.440979003906 32 32 32
13.453125000000 7.125000000000 8.122985839844 135 135 135
14.750000000000 7.125000000000 7.492980957031 171 171 171
17.796875000000 7.250000000000 8.442993164063 33 33 33
13.437500000000 7.250000000000 8.133972167969 132 132 132
14.734375000000 7.250000000000 7.496978759766 171 171 171
14.343750000000 7.250000000000 8.062988281250 15 15 15
14.453125000000 7.250000000000 8.147979736328 23 23 23
13.421875000000 7.375000000000 8.123992919922 129 129 129
14.750000000000 7.375000000000 7.487976074219 172 172 172
13.406250000000 7.500000000000 8.129974365234 131 131 131
14.734375000000 7.625000000000 7.487976074219 173 173 173
14.453125000000 7.625000000000 8.143981933594 23 23 23
13.421875000000 7.625000000000 8.130981445313 134 134 134
14.734375000000 7.750000000000 7.481994628906 172 172 172
14.437500000000 7.750000000000 8.138977050781 39 39 39
13.421875000000 7.750000000000 8.114990234375 128 128 128
14.718750000000 7.875000000000 7.485992431641 172 172 172
17.781250000000 7.875000000000 8.426971435547 60 60 60
13.406250000000 7.875000000000 8.120971679688 136 136 136
14.734375000000 8.000000000000 7.477996826172 174 174 174
17.765625000000 8.000000000000 8.426971435547 53 53 53
13.406250000000 8.125000000000 8.120971679688 144 144 144
14.734375000000 8.125000000000 7.478973388672 170 170 170
17.781250000000 8.125000000000 8.424987792969 59 59 59
13.421875000000 8.250000000000 8.118988037109 157 157 157
14.734375000000 8.250000000000 7.481994628906 148 148 148
17.765625000000 8.250000000000 8.432983398438 63 63 63
13.421875000000 8.375000000000 8.119995117188 151 151 151
14.718750000000 8.375000000000 7.479980468750 127 127 127
17.765625000000 8.375000000000 8.410980224609 61 61 61
13.421875000000 8.500000000000 8.121978759766 133 133 133
14.718750000000 8.500000000000 7.505981445313 115 115 115
17.765625000000 8.625000000000 8.411987304688 58 58 58
13.281250000000 8.625000000000 8.155975341797 15 15 15
13.437500000000 8.625000000000 8.117980957031 133 133 133
14.671875000000 8.625000000000 7.545989990234 118 118 118
17.781250000000 8.625000000000 8.422973632813 45 45 45
13.421875000000 8.750000000000 8.119995117188 136 136 136
14.703125000000 8.750000000000 7.513000488281 110 110 110
13.406250000000 8.750000000000 8.122985839844 155 155 155
14.734375000000 8.875000000000 7.476989746094 122 122 122
13.406250000000 8.875000000000 8.117980957031 154 154 154
14.718750000000 9.000000000000 7.476989746094 140 140 140
13.406250000000 9.000000000000 8.113983154297 160 160 160
14.718750000000 9.125000000000 7.474975585938 140 140 140
13.406250000000 9.125000000000 8.108978271484 150 150 150
14.703125000000 9.250000000000 7.483978271484 113 113 113
13.406250000000 9.250000000000 8.109985351563 145 145 145
14.703125000000 9.375000000000 7.490997314453 113 113 113
13.406250000000 9.375000000000 8.112976074219 152 152 152
14.703125000000 9.500000000000 7.486999511719 116 116 116
13.250000000000 9.625000000000 8.148986816406 51 51 51
13.406250000000 9.625000000000 8.105987548828 96 96 96
14.281250000000 9.625000000000 7.977996826172 110 110 110
14.359375000000 9.625000000000 8.089996337891 83 83 83
13.250000000000 9.750000000000 8.144989013672 77 77 77
13.375000000000 9.750000000000 8.123992919922 47 47 47
14.296875000000 9.750000000000 7.981994628906 121 121 121
14.390625000000 9.750000000000 8.073974609375 98 98 98
13.281250000000 9.875000000000 8.138000488281 86 86 86
14.281250000000 9.875000000000 7.990997314453 143 143 143
14.375000000000 9.875000000000 8.085998535156 122 122 122
13.250000000000 10.000000000000 8.156982421875 102 102 102
14.281250000000 10.000000000000 7.988983154297 151 151 151
14.375000000000 10.000000000000 8.079986572266 141 141 141
13.250000000000 10.125000000000 8.147979736328 98 98 98
14.281250000000 10.125000000000 7.991973876953 156 156 156
14.375000000000 10.125000000000 8.095977783203 142 142 142
13.234375000000 10.250000000000 8.146972656250 95 95 95
14.265625000000 10.250000000000 7.994995117188 154 154 154
14.359375000000 10.250000000000 8.087982177734 134 134 134
17.812500000000 10.250000000000 8.396972656250 59 59 59
13.234375000000 10.375000000000 8.143981933594 88 88 88
14.265625000000 10.375000000000 7.990997314453 144 144 144
14.359375000000 10.375000000000 8.091979980469 121 121 121
17.812500000000 10.375000000000 8.375976562500 84 84 84
13.218750000000 10.500000000000 8.148986816406 86 86 86
14.265625000000 10.500000000000 7.988983154297 149 149 149
14.359375000000 10.500000000000 8.071990966797 118 118 118
17.812500000000 10.500000000000 8.372985839844 88 88 88
13.218750000000 10.625000000000 8.147979736328 80 80 80
13.359375000000 10.625000000000 8.126983642578 38 38 38
14.265625000000 10.625000000000 7.981994628906 137 137 137
14.359375000000 10.625000000000 8.080993652344 107 107 107
17.796875000000 10.625000000000 8.377990722656 65 65 65
13.203125000000 10.750000000000 8.143981933594 79 79 79
13.359375000000 10.750000000000 8.114990234375 29 29 29
14.265625000000 10.750000000000 7.986999511719 142 142 142
14.359375000000 10.750000000000 8.079986572266 116 116 116
17.796875000000 10.750000000000 8.377990722656 46 46 46
13.234375000000 10.875000000000 8.138000488281 87 87 87
14.265625000000 10.875000000000 7.979980468750 152 152 152
14.359375000000 10.875000000000 8.072998046875 129 129 129
17.812500000000 10.875000000000 8.377990722656 47 47 47
13.218750000000 11.000000000000 8.140991210938 96 96 96
14.250000000000 11.000000000000 7.982971191406 159 159 159
14.343750000000 11.000000000000 8.076995849609 136 136 136
17.796875000000 11.000000000000 8.369995117188 48 48 48
13.218750000000 11.125000000000 8.141998291016 107 107 107
14.640625000000 11.125000000000 7.444976806641 74 74 74
14.250000000000 11.125000000000 7.992980957031 168 168 168
14.359375000000 11.125000000000 8.079986572266 157 157 157
17.796875000000 11.250000000000 8.366973876953 46 46 46
13.234375000000 11.250000000000 8.142974853516 116 116 116
14.640625000000 11.250000000000 7.435974121094 88 88 88
14.250000000000 11.250000000000 7.993988037109 165 165 165
14.343750000000 11.250000000000 8.088989257813 167 167 167
17.781250000000 11.375000000000 8.367980957031 47 47 47
13.234375000000 11.375000000000 8.140991210938 121 121 121
14.625000000000 11.375000000000 7.445983886719 101 101 101
14.250000000000 11.375000000000 7.988983154297 165 165 165
14.343750000000 11.375000000000 8.085998535156 170 170 170
17.796875000000 11.500000000000 8.364990234375 46 46 46
13.218750000000 11.500000000000 8.145996093750 130 130 130
14.625000000000 11.500000000000 7.441986083984 110 110 110
14.265625000000 11.500000000000 7.992980957031 163 163 163
14.343750000000 11.500000000000 8.083984375000 164 164 164
17.781250000000 11.625000000000 8.349975585938 49 49 49
13.218750000000 11.625000000000 8.144989013672 131 131 131
14.640625000000 11.625000000000 7.434997558594 119 119 119
14.265625000000 11.625000000000 7.990997314453 161 161 161
14.343750000000 11.625000000000 8.082000732422 163 163 163
17.781250000000 11.750000000000 8.356994628906 55 55 55
13.218750000000 11.750000000000 8.151977539063 127 127 127
14.625000000000 11.750000000000 7.439971923828 111 111 111
14.250000000000 11.750000000000 7.996978759766 165 165 165
14.328125000000 11.750000000000 8.080993652344 163 163 163
13.203125000000 11.875000000000 8.148986816406 120 120 120
14.625000000000 11.875000000000 7.439971923828 96 96 96
14.234375000000 11.875000000000 7.989990234375 167 167 167
14.312500000000 11.875000000000 8.082000732422 163 163 163
13.187500000000 12.000000000000 8.151000976563 108 108 108
14.625000000000 12.000000000000 7.442993164063 65 65 65
14.234375000000 12.000000000000 7.990997314453 164 164 164
14.328125000000 12.000000000000 8.079986572266 153 153 153
13.203125000000 12.125000000000 8.142974853516 107 107 107
14.625000000000 12.125000000000 7.434997558594 70 70 70
14.218750000000 12.125000000000 7.989990234375 165 165 165
14.312500000000 12.125000000000 8.078979492188 157 157 157
13.203125000000 12.250000000000 8.141998291016 104 104 104
14.609375000000 12.250000000000 7.444976806641 76 76 76
14.218750000000 12.250000000000 7.987976074219 166 166 166
14.312500000000 12.250000000000 8.077972412109 157 157 157
13.203125000000 12.375000000000 8.136993408203 99 99 99
14.593750000000 12.375000000000 7.445983886719 55 55 55
14.218750000000 12.375000000000 7.986999511719 165 165 165
14.312500000000 12.375000000000 8.079986572266 154 154 154
13.203125000000 12.500000000000 8.135986328125 118 118 118
14.609375000000 12.500000000000 7.439971923828 106 106 106
14.218750000000 12.500000000000 7.988983154297 169 169 169
14.312500000000 12.500000000000 8.082977294922 166 166 166
13.203125000000 12.625000000000 8.141998291016 122 122 122
14.609375000000 12.625000000000 7.442993164063 115 115 115
14.218750000000 12.625000000000 7.991973876953 166 166 166
14.312500000000 12.625000000000 8.077972412109 172 172 172
13.203125000000 12.750000000000 8.141998291016 142 142 142
14.609375000000 12.750000000000 7.439971923828 139 139 139
14.218750000000 12.750000000000 7.989990234375 153 153 153
14.312500000000 12.750000000000 8.083984375000 171 171 171
13.203125000000 12.875000000000 8.129974365234 156 156 156
14.593750000000 12.875000000000 7.444000244141 160 160 160
14.218750000000 12.875000000000 7.995971679688 108 108 108
14.312500000000 12.875000000000 8.083984375000 145 145 145
13.218750000000 13.125000000000 8.120971679688 156 156 156
14.609375000000 13.000000000000 7.444000244141 162 162 162
14.218750000000 13.000000000000 7.996978759766 94 94 94
14.312500000000 13.000000000000 8.082000732422 144 144 144
13.218750000000 13.250000000000 8.125976562500 154 154 154
14.609375000000 13.125000000000 7.449981689453 167 167 167
14.218750000000 13.125000000000 7.989990234375 99 99 99
14.312500000000 13.125000000000 8.085998535156 140 140 140
13.203125000000 13.375000000000 8.136993408203 156 156 156
14.593750000000 13.250000000000 7.449981689453 159 159 159
14.203125000000 13.250000000000 7.998992919922 111 111 111
14.296875000000 13.250000000000 8.093994140625 143 143 143
13.187500000000 13.500000000000 8.134979248047 145 145 145
14.593750000000 13.375000000000 7.440979003906 150 150 150
14.218750000000 13.375000000000 7.992980957031 127 127 127
14.312500000000 13.375000000000 8.082977294922 156 156 156
13.187500000000 13.500000000000 8.138000488281 148 148 148
14.578125000000 13.625000000000 7.442993164063 147 147 147
14.203125000000 13.500000000000 7.990997314453 134 134 134
14.296875000000 13.625000000000 8.082977294922 161 161 161
17.812500000000 13.625000000000 8.332000732422 58 58 58
13.187500000000 13.625000000000 8.138977050781 149 149 149
14.578125000000 13.750000000000 7.441986083984 145 145 145
14.187500000000 13.625000000000 7.993988037109 140 140 140
14.296875000000 13.750000000000 8.082000732422 159 159 159
17.828125000000 13.750000000000 8.320983886719 76 76 76
13.171875000000 13.750000000000 8.133972167969 147 147 147
14.562500000000 13.875000000000 7.442993164063 152 152 152
14.203125000000 13.750000000000 7.991973876953 139 139 139
14.296875000000 13.875000000000 8.077972412109 161 161 161
17.812500000000 13.875000000000 8.322998046875 78 78 78
13.171875000000 13.875000000000 8.127990722656 158 158 158
14.578125000000 14.000000000000 7.437988281250 158 158 158
14.203125000000 13.875000000000 7.987976074219 116 116 116
14.296875000000 14.000000000000 8.083984375000 147 147 147
17.812500000000 14.000000000000 8.329986572266 79 79 79
13.187500000000 14.000000000000 8.132995605469 156 156 156
14.578125000000 14.125000000000 7.437988281250 167 167 167
14.187500000000 14.125000000000 7.994995117188 91 91 91
14.296875000000 14.125000000000 8.075988769531 122 122 122
17.828125000000 14.125000000000 8.332977294922 77 77 77
13.203125000000 14.125000000000 8.119995117188 152 152 152
14.578125000000 14.250000000000 7.442993164063 171 171 171
14.187500000000 14.250000000000 8.005981445313 32 32 32
14.296875000000 14.250000000000 8.074981689453 74 74 74
17.812500000000 14.250000000000 8.332000732422 80 80 80
13.218750000000 14.250000000000 8.098999023438 142 142 142
14.578125000000 14.375000000000 7.448974609375 172 172 172
17.796875000000 14.375000000000 8.320983886719 76 76 76
13.234375000000 14.375000000000 8.087982177734 133 133 133
14.578125000000 14.500000000000 7.452972412109 168 168 168
17.796875000000 14.500000000000 8.347991943359 76 76 76
13.250000000000 14.500000000000 8.088989257813 127 127 127
14.578125000000 14.500000000000 7.453979492188 159 159 159
13.250000000000 14.625000000000 8.082977294922 127 127 127
14.578125000000 14.625000000000 7.449981689453 161 161 161
13.250000000000 14.750000000000 8.077972412109 126 126 126
14.578125000000 14.750000000000 7.458984375000 165 165 165
13.234375000000 14.875000000000 8.086975097656 130 130 130
14.562500000000 14.875000000000 7.452972412109 168 168 168
13.203125000000 15.000000000000 8.113983154297 150 150 150
14.562500000000 15.125000000000 7.451995849609 173 173 173
13.187500000000 15.125000000000 8.125000000000 154 154 154
14.546875000000 15.250000000000 7.450988769531 178 178 178
14.187500000000 15.125000000000 8.002990722656 43 43 43
14.265625000000 15.250000000000 8.095001220703 59 59 59
13.187500000000 15.250000000000 8.108978271484 143 143 143
14.562500000000 15.375000000000 7.449981689453 172 172 172
13.203125000000 15.375000000000 8.104980468750 141 141 141
14.546875000000 15.500000000000 7.451995849609 172 172 172
13.203125000000 15.500000000000 8.108978271484 138 138 138
14.546875000000 15.625000000000 7.455993652344 171 171 171
13.218750000000 15.625000000000 8.085998535156 118 118 118
14.562500000000 15.750000000000 7.452972412109 146 146 146
13.218750000000 15.875000000000 8.079986572266 133 133 133
14.562500000000 15.875000000000 7.452972412109 122 122 122
13.218750000000 16.000000000000 8.085998535156 143 143 143
14.562500000000 16.000000000000 7.448974609375 101 101 101
13.218750000000 16.125000000000 8.077972412109 135 135 135
14.562500000000 16.125000000000 7.449981689453 111 111 111
13.218750000000 16.250000000000 8.082000732422 143 143 143
14.546875000000 16.250000000000 7.465972900391 89 89 89
13.218750000000 16.375000000000 8.080993652344 138 138 138
14.546875000000 16.375000000000 7.457000732422 107 107 107
13.218750000000 16.500000000000 8.084991455078 126 126 126
14.546875000000 16.500000000000 7.455993652344 138 138 138
13.203125000000 16.625000000000 8.085998535156 118 118 118
14.546875000000 16.625000000000 7.462982177734 156 156 156
13.171875000000 16.750000000000 8.107971191406 121 121 121
14.531250000000 16.750000000000 7.460998535156 163 163 163
13.171875000000 16.875000000000 8.097991943359 118 118 118
14.515625000000 16.875000000000 7.460998535156 169 169 169
13.171875000000 16.875000000000 8.091979980469 116 116 116
14.515625000000 17.000000000000 7.455993652344 165 165 165
13.187500000000 17.000000000000 8.083984375000 115 115 115
14.515625000000 17.125000000000 7.466979980469 149 149 149
13.187500000000 17.250000000000 8.079986572266 120 120 120
14.515625000000 17.250000000000 7.462982177734 121 121 121
13.171875000000 17.375000000000 8.086975097656 133 133 133
14.515625000000 17.375000000000 7.460998535156 95 95 95
13.171875000000 17.500000000000 8.090972900391 143 143 143
14.500000000000 17.500000000000 7.474975585938 64 64 64
14.171875000000 17.500000000000 8.067993164063 61 61 61
13.171875000000 17.625000000000 8.088989257813 139 139 139
14.515625000000 17.625000000000 7.472991943359 77 77 77
14.171875000000 17.625000000000 8.072998046875 56 56 56
13.171875000000 17.750000000000 8.099975585938 138 138 138
14.484375000000 17.750000000000 7.477996826172 82 82 82
14.156250000000 17.750000000000 8.078979492188 26 26 26
13.171875000000 17.875000000000 8.087982177734 122 122 122
14.500000000000 17.875000000000 7.464996337891 111 111 111
13.156250000000 18.000000000000 8.091979980469 113 113 113
14.515625000000 18.000000000000 7.464996337891 152 152 152
13.140625000000 18.125000000000 8.102996826172 106 106 106
14.500000000000 18.125000000000 7.471984863281 163 163 163
14.078125000000 18.125000000000 8.053985595703 37 37 37
13.109375000000 18.250000000000 8.129974365234 127 127 127
14.484375000000 18.250000000000 7.463989257813 172 172 172
14.093750000000 18.250000000000 8.019989013672 97 97 97
13.109375000000 18.375000000000 8.115997314453 118 118 118
14.484375000000 18.375000000000 7.467987060547 167 167 167
14.093750000000 18.375000000000 8.034973144531 75 75 75
13.125000000000 18.500000000000 8.103973388672 105 105 105
14.484375000000 18.500000000000 7.462982177734 164 164 164
14.078125000000 18.625000000000 8.029998779297 66 66 66
13.125000000000 18.625000000000 8.111999511719 108 108 108
14.468750000000 18.750000000000 7.465972900391 168 168 168
14.078125000000 18.750000000000 8.031982421875 80 80 80
13.140625000000 18.875000000000 8.096984863281 108 108 108
14.468750000000 18.875000000000 7.468994140625 162 162 162
14.093750000000 18.875000000000 8.036987304688 48 48 48
13.140625000000 19.000000000000 8.097991943359 103 103 103
14.468750000000 19.000000000000 7.476989746094 136 136 136
13.140625000000 19.125000000000 8.103973388672 118 118 118
14.484375000000 19.125000000000 7.470001220703 104 104 104
14.125000000000 19.125000000000 8.078979492188 17 17 17
13.140625000000 19.250000000000 8.100982666016 122 122 122
14.468750000000 19.250000000000 7.477996826172 105 105 105
14.125000000000 19.250000000000 8.079986572266 24 24 24
13.140625000000 19.375000000000 8.104980468750 112 112 112
14.453125000000 19.375000000000 7.476989746094 132 132 132
13.125000000000 19.500000000000 8.102996826172 97 97 97
14.468750000000 19.500000000000 7.472991943359 163 163 163
14.062500000000 19.500000000000 8.048980712891 59 59 59
13.093750000000 19.625000000000 8.131988525391 100 100 100
14.453125000000 19.625000000000 7.475982666016 172 172 172
14.046875000000 19.625000000000 8.042999267578 124 124 124
13.062500000000 19.625000000000 8.147979736328 120 120 120
14.437500000000 19.750000000000 7.473999023438 173 173 173
14.031250000000 19.750000000000 8.042999267578 155 155 155
13.046875000000 19.750000000000 8.156982421875 139 139 139
14.453125000000 19.875000000000 7.473999023438 168 168 168
14.046875000000 19.875000000000 8.038970947266 167 167 167
13.031250000000 19.875000000000 8.158996582031 147 147 147
14.437500000000 20.000000000000 7.472991943359 172 172 172
14.031250000000 19.875000000000 8.047973632813 167 167 167
13.046875000000 20.000000000000 8.156982421875 141 141 141
14.437500000000 20.125000000000 7.475982666016 169 169 169
14.031250000000 20.125000000000 8.043975830078 166 166 166
13.031250000000 20.125000000000 8.164978027344 145 145 145
14.437500000000 20.250000000000 7.473999023438 171 171 171
14.031250000000 20.250000000000 8.049987792969 164 164 164
13.046875000000 20.250000000000 8.159973144531 121 121 121
14.421875000000 20.375000000000 7.480987548828 171 171 171
14.031250000000 20.375000000000 8.055999755859 168 168 168
13.046875000000 20.375000000000 8.147979736328 108 108 108
14.421875000000 20.500000000000 7.479980468750 171 171 171
14.031250000000 20.500000000000 8.052978515625 160 160 160
13.031250000000 20.625000000000 8.144989013672 100 100 100
14.421875000000 20.625000000000 7.482971191406 173 173 173
14.015625000000 20.625000000000 8.058990478516 160 160 160
13.000000000000 20.750000000000 8.170989990234 115 115 115
14.421875000000 20.750000000000 7.485992431641 174 174 174
14.015625000000 20.750000000000 8.059997558594 167 167 167
13.015625000000 20.875000000000 8.165985107422 143 143 143
14.406250000000 20.875000000000 7.485992431641 167 167 167
14.015625000000 20.875000000000 8.053985595703 167 167 167
13.000000000000 21.000000000000 8.168975830078 162 162 162
14.406250000000 21.000000000000 7.472991943359 152 152 152
14.015625000000 21.000000000000 8.056976318359 157 157 157
14.125000000000 21.000000000000 8.132995605469 69 69 69
12.984375000000 21.125000000000 8.164978027344 155 155 155
13.109375000000 21.125000000000 8.163970947266 14 14 14
14.390625000000 21.125000000000 7.487976074219 121 121 121
14.015625000000 21.125000000000 8.051971435547 130 130 130
14.125000000000 21.125000000000 8.119995117188 126 126 126
17.796875000000 21.250000000000 8.248992919922 57 57 57
12.968750000000 21.250000000000 8.160980224609 122 122 122
13.109375000000 21.250000000000 8.148986816406 105 105 105
14.390625000000 21.250000000000 7.490997314453 62 62 62
14.000000000000 21.250000000000 8.059997558594 77 77 77
14.125000000000 21.250000000000 8.119995117188 171 171 171
12.968750000000 21.375000000000 8.164978027344 121 121 121
13.093750000000 21.375000000000 8.146972656250 111 111 111
14.375000000000 21.375000000000 7.487976074219 64 64 64
14.000000000000 21.375000000000 8.048980712891 74 74 74
14.109375000000 21.375000000000 8.119995117188 168 168 168
12.968750000000 21.500000000000 8.158996582031 118 118 118
13.109375000000 21.500000000000 8.147979736328 121 121 121
14.375000000000 21.500000000000 7.483978271484 36 36 36
13.968750000000 21.500000000000 8.061981201172 51 51 51
14.046875000000 21.500000000000 8.084991455078 72 72 72
14.093750000000 21.500000000000 8.126983642578 166 166 166
12.968750000000 21.625000000000 8.162994384766 117 117 117
13.093750000000 21.625000000000 8.149993896484 114 114 114
14.375000000000 21.625000000000 7.481994628906 38 38 38
14.109375000000 21.625000000000 8.121978759766 169 169 169
12.953125000000 21.750000000000 8.163970947266 119 119 119
13.109375000000 21.750000000000 8.143981933594 110 110 110
14.375000000000 21.750000000000 7.488983154297 53 53 53
13.953125000000 21.875000000000 8.071990966797 17 17 17
14.093750000000 21.750000000000 8.133972167969 170 170 170
12.968750000000 21.875000000000 8.173980712891 132 132 132
13.109375000000 21.875000000000 8.154998779297 104 104 104
14.375000000000 21.875000000000 7.483978271484 58 58 58
13.968750000000 22.000000000000 8.059997558594 39 39 39
14.078125000000 21.875000000000 8.131988525391 171 171 171
12.968750000000 22.000000000000 8.169982910156 117 117 117
13.093750000000 22.125000000000 8.149993896484 115 115 115
14.359375000000 22.000000000000 7.493988037109 27 27 27
14.078125000000 22.000000000000 8.136993408203 174 174 174
12.953125000000 22.125000000000 8.174987792969 131 131 131
13.078125000000 22.250000000000 8.161987304688 89 89 89
14.359375000000 22.250000000000 7.495971679688 63 63 63
13.953125000000 22.250000000000 8.075988769531 44 44 44
14.078125000000 22.125000000000 8.133972167969 171 171 171
12.968750000000 22.375000000000 8.171997070313 130 130 130
13.093750000000 22.375000000000 8.155975341797 103 103 103
14.359375000000 22.375000000000 7.497985839844 16 16 16
14.093750000000 22.250000000000 8.115997314453 165 165 165
13.046875000000 22.375000000000 8.084991455078 119 119 119
13.078125000000 22.375000000000 8.163970947266 140 140 140
14.171875000000 22.500000000000 7.996978759766 110 110 110
13.109375000000 22.500000000000 8.017974853516 183 183 183
13.062500000000 22.500000000000 8.158996582031 151 151 151
14.187500000000 22.625000000000 7.982971191406 101 101 101
17.828125000000 22.625000000000 8.299987792969 86 86 86
13.093750000000 22.625000000000 8.006988525391 172 172 172
13.046875000000 22.625000000000 8.159973144531 130 130 130
14.390625000000 22.750000000000 7.538970947266 69 69 69
14.078125000000 22.625000000000 8.113983154297 87 87 87
17.828125000000 22.750000000000 8.237976074219 54 54 54
13.062500000000 22.750000000000 8.148986816406 121 121 121
14.406250000000 22.750000000000 7.514984130859 77 77 77
13.953125000000 22.750000000000 8.116973876953 18 18 18
14.031250000000 22.875000000000 8.141998291016 71 71 71
17.828125000000 22.875000000000 8.232971191406 53 53 53
13.062500000000 22.875000000000 8.147979736328 115 115 115
14.390625000000 22.875000000000 7.524993896484 118 118 118
13.984375000000 22.875000000000 8.101989746094 73 73 73
14.031250000000 23.000000000000 8.142974853516 16 16 16
17.812500000000 23.000000000000 8.231994628906 57 57 57
13.046875000000 23.000000000000 8.153991699219 111 111 111
14.390625000000 23.000000000000 7.523986816406 138 138 138
13.968750000000 23.125000000000 8.101989746094 103 103 103
17.812500000000 23.125000000000 8.241973876953 54 54 54
13.062500000000 23.125000000000 8.148986816406 110 110 110
14.375000000000 23.250000000000 7.523986816406 139 139 139
13.968750000000 23.250000000000 8.106994628906 99 99 99
17.812500000000 23.375000000000 8.257995605469 43 43 43
13.046875000000 23.375000000000 8.154998779297 114 114 114
14.375000000000 23.375000000000 7.521972656250 133 133 133
13.953125000000 23.375000000000 8.118988037109 86 86 86
17.812500000000 23.500000000000 8.252990722656 30 30 30
13.046875000000 23.500000000000 8.159973144531 121 121 121
14.375000000000 23.500000000000 7.526977539063 127 127 127
13.968750000000 23.500000000000 8.113983154297 84 84 84
17.812500000000 23.500000000000 8.237976074219 19 19 19
13.031250000000 23.625000000000 8.165985107422 119 119 119
14.437500000000 23.625000000000 7.345001220703 99 99 99
