29.093750000000 3.281250000000 60.648994445801 113 113 113
29.093750000000 3.281250000000 60.691993713379 116 116 116
29.093750000000 3.281250000000 60.730003356934 113 113 113
29.093750000000 3.281250000000 60.762992858887 115 115 115
29.093750000000 3.281250000000 60.795997619629 111 111 111
29.093750000000 3.281250000000 60.836997985840 110 110 110
29.109375000000 3.281250000000 60.883003234863 109 109 109
29.109375000000 3.281250000000 60.924995422363 115 115 115
29.093750000000 3.281250000000 60.952003479004 114 114 114
29.109375000000 3.281250000000 60.999000549316 112 112 112
29.078125000000 3.281250000000 61.030006408691 106 106 106
29.109375000000 3.281250000000 61.079002380371 107 107 107
29.109375000000 3.281250000000 61.122001647949 109 109 109
29.109375000000 3.281250000000 61.168998718262 108 108 108
29.109375000000 3.281250000000 61.206993103027 101 101 101
29.109375000000 3.281250000000 61.245002746582 109 109 109
29.109375000000 3.281250000000 61.286994934082 97 97 97
29.109375000000 3.281250000000 61.331993103027 98 98 98
29.109375000000 3.281250000000 61.383003234863 104 104 104
29.093750000000 3.281250000000 61.415992736816 97 97 97
29.109375000000 3.281250000000 61.471992492676 93 93 93
29.109375000000 3.281250000000 61.513999938965 97 97 97
29.109375000000 3.281250000000 61.555992126465 99 99 99
29.109375000000 3.296875000000 61.614997863770 98 98 98
29.109375000000 3.281250000000 61.655998229980 97 97 97
29.109375000000 3.281250000000 61.706001281738 98 98 98
29.109375000000 3.296875000000 61.756996154785 99 99 99
29.109375000000 3.281250000000 61.801002502441 96 96 96
29.109375000000 3.296875000000 61.866004943848 96 96 96
29.109375000000 3.296875000000 61.909004211426 99 99 99
29.109375000000 3.281250000000 61.952003479004 96 96 96
29.109375000000 3.296875000000 62.013999938965 96 96 96
29.109375000000 3.296875000000 62.064994812012 94 94 94
29.109375000000 3.296875000000 62.120994567871 94 94 94
29.109375000000 3.296875000000 62.181999206543 95 95 95
29.109375000000 3.296875000000 62.237998962402 119 119 119
29.078125000000 3.281250000000 62.245002746582 193 193 193
29.046875000000 3.281250000000 62.275993347168 198 198 198
29.046875000000 3.265625000000 62.310005187988 191 191 191
29.046875000000 3.265625000000 62.366996765137 169 169 169
29.109375000000 3.312500000000 62.508003234863 90 90 90
29.109375000000 3.296875000000 62.588005065918 83 83 83
29.109375000000 3.312500000000 62.657005310059 81 81 81
29.109375000000 3.312500000000 62.719001770020 81 81 81
29.109375000000 3.312500000000 62.784004211426 84 84 84
29.109375000000 3.312500000000 62.853996276855 87 87 87
29.109375000000 3.312500000000 62.924995422363 87 87 87
29.109375000000 3.312500000000 62.993995666504 85 85 85
29.109375000000 3.312500000000 63.056999206543 83 83 83
29.109375000000 3.312500000000 63.133995056152 133 133 133
29.109375000000 3.312500000000 63.178993225098 168 168 168
29.078125000000 3.281250000000 63.178993225098 171 171 171
29.046875000000 3.250000000000 63.185005187988 165 165 165
28.984375000000 3.218750000000 63.168998718262 137 137 137
29.015625000000 3.250000000000 63.299995422363 120 120 120
29.140625000000 3.312500000000 63.588005065918 109 109 109
29.109375000000 3.312500000000 63.644996643066 45 45 45
29.078125000000 3.437500000000 60.480003356934 116 116 116
28.890625000000 3.343750000000 60.543006896973 37 37 37
28.875000000000 3.328125000000 60.558006286621 97 97 97
28.859375000000 3.312500000000 60.583992004395 162 162 162
28.828125000000 3.312500000000 60.597999572754 171 171 171
28.828125000000 3.312500000000 60.614006042480 168 168 168
28.796875000000 3.281250000000 60.622001647949 177 177 177
28.796875000000 3.281250000000 60.642997741699 150 150 150
28.765625000000 3.281250000000 60.663002014160 151 151 151
28.734375000000 3.250000000000 60.665992736816 111 111 111
28.734375000000 3.250000000000 60.702995300293 88 88 88
28.703125000000 3.218750000000 60.696006774902 67 67 67
28.796875000000 3.296875000000 62.396003723145 111 111 111
28.750000000000 3.281250000000 62.383003234863 187 187 187
28.718750000000 3.250000000000 62.387992858887 186 186 186
28.687500000000 3.234375000000 62.403999328613 178 178 178
28.671875000000 3.218750000000 62.428001403809 166 166 166
28.640625000000 3.218750000000 62.454002380371 55 55 55
28.875000000000 3.343750000000 63.148994445801 86 86 86
28.859375000000 3.343750000000 63.172996520996 149 149 149
28.828125000000 3.312500000000 63.196998596191 162 162 162
28.781250000000 3.296875000000 63.185997009277 162 162 162
28.750000000000 3.281250000000 63.185997009277 162 162 162
28.703125000000 3.250000000000 63.183998107910 158 158 158
28.671875000000 3.218750000000 63.172996520996 123 123 123
28.640625000000 3.218750000000 63.187004089355 22 22 22
28.593750000000 3.343750000000 60.760002136230 64 64 64
28.546875000000 3.312500000000 60.758995056152 128 128 128
28.546875000000 3.312500000000 60.773994445801 129 129 129
28.515625000000 3.312500000000 60.777992248535 162 162 162
28.484375000000 3.296875000000 60.790992736816 193 193 193
28.484375000000 3.281250000000 60.806999206543 185 185 185
28.453125000000 3.281250000000 60.823005676270 177 177 177
28.437500000000 3.250000000000 60.834999084473 159 159 159
28.421875000000 3.250000000000 60.853996276855 151 151 151
28.406250000000 3.250000000000 60.872993469238 120 120 120
28.531250000000 3.328125000000 62.396995544434 142 142 142
28.500000000000 3.312500000000 62.387001037598 176 176 176
28.453125000000 3.281250000000 62.385993957520 173 173 173
28.421875000000 3.281250000000 62.388999938965 150 150 150
28.390625000000 3.250000000000 62.377998352051 143 143 143
28.375000000000 3.234375000000 62.400993347168 96 96 96
28.578125000000 3.359375000000 63.152000427246 89 89 89
28.546875000000 3.343750000000 63.178001403809 146 146 146
28.515625000000 3.312500000000 63.191001892090 168 168 168
28.484375000000 3.312500000000 63.194999694824 163 163 163
28.437500000000 3.281250000000 63.176002502441 148 148 148
28.406250000000 3.281250000000 63.193000793457 150 150 150
28.375000000000 3.234375000000 63.202995300293 133 133 133
28.375000000000 3.234375000000 63.280998229980 149 149 149
28.359375000000 3.218750000000 63.336997985840 158 158 158
28.359375000000 3.218750000000 63.413993835449 151 151 151
28.359375000000 3.234375000000 63.497993469238 104 104 104
28.171875000000 3.281250000000 60.984992980957 85 85 85
28.156250000000 3.281250000000 61.012992858887 144 144 144
28.140625000000 3.265625000000 61.021003723145 172 172 172
28.125000000000 3.250000000000 61.030998229980 166 166 166
28.109375000000 3.250000000000 61.056999206543 121 121 121
28.093750000000 3.250000000000 61.068992614746 47 47 47
28.156250000000 3.281250000000 62.377006530762 98 98 98
28.140625000000 3.281250000000 62.375999450684 128 128 128
28.109375000000 3.250000000000 62.383003234863 93 93 93
28.421875000000 3.453125000000 63.555992126465 154 154 154
28.406250000000 3.437500000000 63.581001281738 22 22 22
27.828125000000 3.281250000000 61.142997741699 123 123 123
27.812500000000 3.250000000000 61.148994445801 176 176 176
27.781250000000 3.250000000000 61.133003234863 174 174 174
27.765625000000 3.234375000000 61.150993347168 165 165 165
27.765625000000 3.234375000000 61.204994201660 148 148 148
27.765625000000 3.234375000000 61.249992370605 121 121 121
27.765625000000 3.234375000000 61.282997131348 69 69 69
27.859375000000 3.281250000000 62.364006042480 39 39 39
27.828125000000 3.281250000000 62.357994079590 121 121 121
27.812500000000 3.250000000000 62.361991882324 128 128 128
27.781250000000 3.250000000000 62.379005432129 66 66 66
27.546875000000 3.281250000000 61.131004333496 77 77 77
27.515625000000 3.265625000000 61.131004333496 131 131 131
27.500000000000 3.250000000000 61.137001037598 139 139 139
27.484375000000 3.250000000000 61.142005920410 111 111 111
27.468750000000 3.234375000000 61.163002014160 49 49 49
27.500000000000 3.250000000000 61.413002014160 102 102 102
27.484375000000 3.250000000000 61.424003601074 144 144 144
27.468750000000 3.234375000000 61.439002990723 157 157 157
27.437500000000 3.218750000000 61.452003479004 145 145 145
27.421875000000 3.218750000000 61.467994689941 110 110 110
27.531250000000 3.281250000000 62.349998474121 83 83 83
27.515625000000 3.265625000000 62.347999572754 139 139 139
27.484375000000 3.250000000000 62.355003356934 136 136 136
27.453125000000 3.234375000000 62.353004455566 45 45 45
27.218750000000 3.281250000000 61.133995056152 115 115 115
27.203125000000 3.265625000000 61.131004333496 147 147 147
27.171875000000 3.250000000000 61.138999938965 139 139 139
27.171875000000 3.250000000000 61.142997741699 95 95 95
27.140625000000 3.234375000000 61.622993469238 95 95 95
27.140625000000 3.234375000000 61.637992858887 138 138 138
27.109375000000 3.218750000000 61.650001525879 152 152 152
27.093750000000 3.203125000000 61.670005798340 130 130 130
27.078125000000 3.187500000000 61.681999206543 77 77 77
27.203125000000 3.265625000000 62.325004577637 116 116 116
27.171875000000 3.250000000000 62.340995788574 157 157 157
27.140625000000 3.250000000000 62.340995788574 116 116 116
26.953125000000 3.296875000000 61.060005187988 82 82 82
26.937500000000 3.281250000000 61.092994689941 151 151 151
26.921875000000 3.281250000000 61.051002502441 170 170 170
26.921875000000 3.281250000000 61.101997375488 158 158 158
26.890625000000 3.265625000000 61.133003234863 154 154 154
26.875000000000 3.265625000000 61.135002136230 112 112 112
26.828125000000 3.234375000000 61.823997497559 48 48 48
26.796875000000 3.218750000000 61.838996887207 110 110 110
26.781250000000 3.218750000000 61.857002258301 138 138 138
26.765625000000 3.187500000000 61.866004943848 139 139 139
26.750000000000 3.187500000000 61.887001037598 106 106 106
26.640625000000 3.312500000000 61.010002136230 104 104 104
26.640625000000 3.281250000000 61.049995422363 132 132 132
26.640625000000 3.296875000000 61.114997863770 151 151 151
26.609375000000 3.281250000000 61.118995666504 164 164 164
26.593750000000 3.281250000000 61.118995666504 141 141 141
26.578125000000 3.250000000000 61.124992370605 84 84 84
26.593750000000 3.281250000000 62.308998107910 109 109 109
26.546875000000 3.265625000000 62.305000305176 149 149 149
26.531250000000 3.250000000000 62.267997741699 142 142 142
26.484375000000 3.218750000000 62.077003479004 114 114 114
26.453125000000 3.203125000000 62.047996520996 129 129 129
26.453125000000 3.187500000000 62.056999206543 135 135 135
26.421875000000 3.171875000000 62.084999084473 107 107 107
26.359375000000 3.312500000000 60.948997497559 120 120 120
26.359375000000 3.312500000000 60.976005554199 131 131 131
26.359375000000 3.312500000000 61.111991882324 140 140 140
26.328125000000 3.281250000000 61.114006042480 175 175 175
26.312500000000 3.281250000000 61.112998962402 163 163 163
26.296875000000 3.281250000000 61.127998352051 117 117 117
26.281250000000 3.281250000000 62.217002868652 87 87 87
26.171875000000 3.203125000000 60.838005065918 156 156 156
26.156250000000 3.187500000000 60.853996276855 119 119 119
26.218750000000 3.250000000000 62.299003601074 106 106 106
26.203125000000 3.218750000000 62.256004333496 137 137 137
26.171875000000 3.203125000000 62.230995178223 150 150 150
26.140625000000 3.203125000000 62.208992004395 159 159 159
26.109375000000 3.187500000000 62.263999938965 122 122 122
26.109375000000 3.171875000000 62.273002624512 108 108 108
26.250000000000 3.250000000000 62.368003845215 128 128 128
26.171875000000 3.390625000000 60.844001770020 52 52 52
26.171875000000 3.375000000000 60.844993591309 147 147 147
26.171875000000 3.390625000000 62.366004943848 117 117 117
26.171875000000 3.375000000000 62.364997863770 128 128 128
26.078125000000 3.328125000000 61.127998352051 55 55 55
26.046875000000 3.312500000000 61.118003845215 142 142 142
26.046875000000 3.312500000000 61.111000061035 179 179 179
26.015625000000 3.296875000000 61.083992004395 173 173 173
26.015625000000 3.281250000000 61.099998474121 178 178 178
25.984375000000 3.281250000000 61.107994079590 157 157 157
25.968750000000 3.265625000000 62.291999816895 85 85 85
25.953125000000 3.250000000000 62.280998229980 162 162 162
25.921875000000 3.250000000000 62.288002014160 161 161 161
25.906250000000 3.250000000000 62.290000915527 99 99 99
25.765625000000 3.328125000000 61.111000061035 100 100 100
25.750000000000 3.328125000000 61.103004455566 170 170 170
25.734375000000 3.312500000000 61.105003356934 196 196 196
25.890625000000 3.187500000000 62.428993225098 42 42 42
26.109375000000 3.218750000000 62.293998718262 48 48 48
25.953125000000 3.312500000000 61.137992858887 153 153 153
25.953125000000 3.312500000000 61.107994079590 169 169 169
25.921875000000 3.312500000000 61.101997375488 189 189 189
25.906250000000 3.328125000000 61.105995178223 162 162 162
25.890625000000 3.343750000000 61.129997253418 98 98 98
29.484375000000 3.625000000000 55.583992004395 176 176 176
29.437500000000 3.609375000000 55.575996398926 151 151 151
29.421875000000 3.609375000000 55.553993225098 148 148 148
29.421875000000 3.625000000000 55.530998229980 169 169 169
29.421875000000 3.609375000000 55.510993957520 156 156 156
29.390625000000 3.625000000000 55.508003234863 144 144 144
29.328125000000 3.609375000000 55.510993957520 153 153 153
29.265625000000 3.625000000000 55.515998840332 151 151 151
29.234375000000 3.625000000000 55.512992858887 157 157 157
29.171875000000 3.625000000000 55.510993957520 151 151 151
29.125000000000 3.609375000000 55.519996643066 140 140 140
28.953125000000 3.625000000000 55.588996887207 147 147 147
28.953125000000 3.625000000000 55.575996398926 155 155 155
28.953125000000 3.625000000000 55.551994323730 153 153 153
28.937500000000 3.625000000000 55.534004211426 156 156 156
28.906250000000 3.625000000000 55.521003723145 160 160 160
28.890625000000 3.625000000000 55.504997253418 153 153 153
28.921875000000 3.625000000000 55.467002868652 159 159 159
28.937500000000 3.625000000000 55.435997009277 150 150 150
29.078125000000 3.328125000000 59.310997009277 146 146 146
29.078125000000 3.328125000000 59.278999328613 140 140 140
29.078125000000 3.328125000000 59.256996154785 143 143 143
29.078125000000 3.328125000000 59.230003356934 143 143 143
29.078125000000 3.328125000000 59.204002380371 140 140 140
29.078125000000 3.328125000000 59.183006286621 143 143 143
29.062500000000 3.328125000000 59.153999328613 139 139 139
29.078125000000 3.328125000000 59.133003234863 143 143 143
29.062500000000 3.328125000000 59.105003356934 146 146 146
29.078125000000 3.328125000000 59.083992004395 148 148 148
29.078125000000 3.328125000000 59.060005187988 152 152 152
29.062500000000 3.328125000000 59.032997131348 147 147 147
29.062500000000 3.328125000000 59.010002136230 148 148 148
29.062500000000 3.328125000000 58.984992980957 153 153 153
29.078125000000 3.328125000000 58.965995788574 150 150 150
29.062500000000 3.328125000000 58.939002990723 154 154 154
29.062500000000 3.328125000000 58.915000915527 151 151 151
29.062500000000 3.328125000000 58.892005920410 149 149 149
29.078125000000 3.328125000000 58.872001647949 155 155 155
29.062500000000 3.328125000000 58.846992492676 153 153 153
29.062500000000 3.328125000000 58.823997497559 157 157 157
29.078125000000 3.328125000000 58.808006286621 155 155 155
29.062500000000 3.328125000000 58.777992248535 154 154 154
29.062500000000 3.328125000000 58.758995056152 158 158 158
29.062500000000 3.328125000000 58.734992980957 157 157 157
29.062500000000 3.328125000000 58.713996887207 158 158 158
29.062500000000 3.328125000000 58.691001892090 158 158 158
29.062500000000 3.328125000000 58.672004699707 158 158 158
29.078125000000 3.328125000000 58.652000427246 160 160 160
29.046875000000 3.312500000000 58.625999450684 155 155 155
29.046875000000 3.312500000000 58.605003356934 156 156 156
29.046875000000 3.312500000000 58.581001281738 157 157 157
29.062500000000 3.328125000000 58.564994812012 154 154 154
29.078125000000 3.328125000000 58.545997619629 161 161 161
29.046875000000 3.312500000000 58.519996643066 160 160 160
29.046875000000 3.312500000000 58.499992370605 156 156 156
29.046875000000 3.312500000000 58.478004455566 156 156 156
29.046875000000 3.312500000000 58.458992004395 159 159 159
29.046875000000 3.312500000000 58.435997009277 159 159 159
29.046875000000 3.312500000000 58.416999816895 156 156 156
29.046875000000 3.312500000000 58.396003723145 158 158 158
29.046875000000 3.312500000000 58.375999450684 158 158 158
29.046875000000 3.312500000000 58.353996276855 155 155 155
29.046875000000 3.312500000000 58.333992004395 160 160 160
29.046875000000 3.312500000000 58.314002990723 159 159 159
29.046875000000 3.312500000000 58.295005798340 160 160 160
29.046875000000 3.312500000000 58.273994445801 159 159 159
29.046875000000 3.312500000000 58.252998352051 159 159 159
29.046875000000 3.312500000000 58.234001159668 163 163 163
29.046875000000 3.312500000000 58.213996887207 161 161 161
29.046875000000 3.312500000000 58.196006774902 162 162 162
29.046875000000 3.312500000000 58.176002502441 166 166 166
29.046875000000 3.312500000000 58.155998229980 162 162 162
29.046875000000 3.312500000000 58.137001037598 165 165 165
29.046875000000 3.312500000000 58.116996765137 168 168 168
29.046875000000 3.312500000000 58.096992492676 165 165 165
29.046875000000 3.312500000000 58.079994201660 171 171 171
29.046875000000 3.312500000000 58.060005187988 170 170 170
29.046875000000 3.312500000000 58.040992736816 170 170 170
29.046875000000 3.312500000000 58.021003723145 174 174 174
29.046875000000 3.312500000000 57.999992370605 172 172 172
29.046875000000 3.312500000000 57.982002258301 175 175 175
29.046875000000 3.312500000000 57.963996887207 175 175 175
29.046875000000 3.312500000000 57.946006774902 175 175 175
29.046875000000 3.312500000000 57.926002502441 178 178 178
29.046875000000 3.312500000000 57.905998229980 178 178 178
29.046875000000 3.312500000000 57.887001037598 182 182 182
29.046875000000 3.312500000000 57.868995666504 186 186 186
29.046875000000 3.312500000000 57.851005554199 187 187 187
29.046875000000 3.312500000000 57.833000183105 189 189 189
29.046875000000 3.312500000000 57.812995910645 184 184 184
29.046875000000 3.312500000000 57.793998718262 188 188 188
29.046875000000 3.312500000000 57.775993347168 190 190 190
29.046875000000 3.312500000000 57.758003234863 186 186 186
29.046875000000 3.312500000000 57.739006042480 189 189 189
29.046875000000 3.312500000000 57.719993591309 188 188 188
29.046875000000 3.312500000000 57.702003479004 194 194 194
29.046875000000 3.312500000000 57.683006286621 195 195 195
29.046875000000 3.312500000000 57.665000915527 190 190 190
29.046875000000 3.312500000000 57.646995544434 200 200 200
29.046875000000 3.312500000000 57.629005432129 206 206 206
29.046875000000 3.312500000000 57.611000061035 202 202 202
29.046875000000 3.312500000000 57.592002868652 204 204 204
29.046875000000 3.312500000000 57.573997497559 206 206 206
29.046875000000 3.312500000000 57.555992126465 206 206 206
29.046875000000 3.312500000000 57.536994934082 203 203 203
29.046875000000 3.312500000000 57.519004821777 206 206 206
29.046875000000 3.312500000000 57.500999450684 202 202 202
29.046875000000 3.312500000000 57.482994079590 206 206 206
29.046875000000 3.312500000000 57.465003967285 210 210 210
29.046875000000 3.312500000000 57.446006774902 202 202 202
29.046875000000 3.312500000000 57.428001403809 200 200 200
29.046875000000 3.312500000000 57.409996032715 210 210 210
29.046875000000 3.312500000000 57.392005920410 248 248 248
29.046875000000 3.312500000000 57.374000549316 241 241 241
29.046875000000 3.312500000000 57.355995178223 229 229 229
29.046875000000 3.312500000000 57.338005065918 230 230 230
29.046875000000 3.312500000000 57.319999694824 233 233 233
29.046875000000 3.312500000000 57.301994323730 241 241 241
29.046875000000 3.312500000000 57.282997131348 232 232 232
29.046875000000 3.312500000000 57.265007019043 224 224 224
29.046875000000 3.312500000000 57.247001647949 232 232 232
29.046875000000 3.312500000000 57.228996276855 226 226 226
29.046875000000 3.312500000000 57.211006164551 227 227 227
29.046875000000 3.312500000000 57.191993713379 227 227 227
29.046875000000 3.312500000000 57.174003601074 215 215 215
29.046875000000 3.312500000000 57.155998229980 222 222 222
29.046875000000 3.312500000000 57.137992858887 220 220 220
29.046875000000 3.312500000000 57.120002746582 214 214 214
29.046875000000 3.312500000000 57.101997375488 220 220 220
29.046875000000 3.312500000000 57.083000183105 220 220 220
29.046875000000 3.312500000000 57.066001892090 214 214 214
29.046875000000 3.312500000000 57.045997619629 212 212 212
29.015625000000 3.312500000000 57.030006408691 205 205 205
29.046875000000 3.312500000000 57.010993957520 204 204 204
29.015625000000 3.312500000000 56.993003845215 203 203 203
29.015625000000 3.312500000000 56.974998474121 197 197 197
29.015625000000 3.312500000000 56.956993103027 200 200 200
29.015625000000 3.312500000000 56.939002990723 191 191 191
29.015625000000 3.312500000000 56.920005798340 189 189 189
29.015625000000 3.312500000000 56.900993347168 192 192 192
29.015625000000 3.312500000000 56.883995056152 186 186 186
29.015625000000 3.312500000000 56.864997863770 188 188 188
29.015625000000 3.312500000000 56.846992492676 183 183 183
29.015625000000 3.312500000000 56.829002380371 187 187 187
29.015625000000 3.312500000000 56.810005187988 189 189 189
29.015625000000 3.312500000000 56.790992736816 180 180 180
29.015625000000 3.312500000000 56.773002624512 184 184 184
29.015625000000 3.312500000000 56.754997253418 190 190 190
29.015625000000 3.312500000000 56.734992980957 185 185 185
29.015625000000 3.312500000000 56.715995788574 183 183 183
29.015625000000 3.312500000000 56.698005676270 179 179 179
29.015625000000 3.312500000000 56.678993225098 178 178 178
29.015625000000 3.312500000000 56.661003112793 175 175 175
29.015625000000 3.312500000000 56.642005920410 174 174 174
29.015625000000 3.312500000000 56.622993469238 174 174 174
29.015625000000 3.312500000000 56.603996276855 170 170 170
29.015625000000 3.312500000000 56.584999084473 169 169 169
29.015625000000 3.312500000000 56.566993713379 162 162 162
29.015625000000 3.312500000000 56.547004699707 164 164 164
29.015625000000 3.312500000000 56.527000427246 164 164 164
29.015625000000 3.312500000000 56.508995056152 159 159 159
29.015625000000 3.312500000000 56.486991882324 163 163 163
29.015625000000 3.312500000000 56.469001770020 162 162 162
29.000000000000 3.312500000000 56.452003479004 160 160 160
29.015625000000 3.296875000000 56.430992126465 160 160 160
29.015625000000 3.296875000000 56.411003112793 162 162 162
29.015625000000 3.296875000000 56.390998840332 162 162 162
29.000000000000 3.312500000000 56.372993469238 161 161 161
29.015625000000 3.296875000000 56.351997375488 158 158 158
29.015625000000 3.312500000000 56.331001281738 160 160 160
29.000000000000 3.312500000000 56.314002990723 156 156 156
29.015625000000 3.312500000000 56.291999816895 161 161 161
29.015625000000 3.296875000000 56.273002624512 160 160 160
29.015625000000 3.296875000000 56.252006530762 157 157 157
29.015625000000 3.296875000000 56.232002258301 160 160 160
29.015625000000 3.296875000000 56.211997985840 156 156 156
29.000000000000 3.312500000000 56.193000793457 159 159 159
29.000000000000 3.312500000000 56.172004699707 153 153 153
29.000000000000 3.312500000000 56.152000427246 156 156 156
29.015625000000 3.296875000000 56.129997253418 156 156 156
29.000000000000 3.312500000000 56.109992980957 156 156 156
29.000000000000 3.312500000000 56.090995788574 155 155 155
29.000000000000 3.312500000000 56.069999694824 155 155 155
29.000000000000 3.312500000000 56.049003601074 152 152 152
29.000000000000 3.312500000000 56.027000427246 158 158 158
29.015625000000 3.296875000000 56.004005432129 154 154 154
29.015625000000 3.296875000000 55.982994079590 152 152 152
29.000000000000 3.312500000000 55.965995788574 152 152 152
29.000000000000 3.312500000000 55.943992614746 151 151 151
29.000000000000 3.312500000000 55.920005798340 155 155 155
29.015625000000 3.296875000000 55.896003723145 153 153 153
29.000000000000 3.312500000000 55.875999450684 155 155 155
29.015625000000 3.296875000000 55.851997375488 155 155 155
29.000000000000 3.312500000000 55.833000183105 154 154 154
29.000000000000 3.312500000000 55.810997009277 158 158 158
29.000000000000 3.312500000000 55.788002014160 157 157 157
29.000000000000 3.312500000000 55.765998840332 155 155 155
29.000000000000 3.312500000000 55.741996765137 163 163 163
28.984375000000 3.296875000000 55.724998474121 173 173 173
28.984375000000 3.296875000000 55.700996398926 167 167 167
28.984375000000 3.296875000000 55.678993225098 170 170 170
28.984375000000 3.296875000000 55.655006408691 174 174 174
28.984375000000 3.296875000000 55.635002136230 168 168 168
28.984375000000 3.296875000000 55.609001159668 166 166 166
28.984375000000 3.296875000000 55.584999084473 163 163 163
28.984375000000 3.296875000000 55.560997009277 165 165 165
28.984375000000 3.296875000000 55.540000915527 170 170 170
28.984375000000 3.296875000000 55.512001037598 203 203 203
28.953125000000 3.312500000000 55.512001037598 150 150 150
28.921875000000 3.281250000000 55.510993957520 144 144 144
28.921875000000 3.281250000000 55.482994079590 157 157 157
28.890625000000 3.437500000000 55.491996765137 137 137 137
28.921875000000 3.453125000000 55.508003234863 137 137 137
28.953125000000 3.468750000000 55.508995056152 147 147 147
28.968750000000 3.500000000000 55.519004821777 164 164 164
28.984375000000 3.500000000000 55.536994934082 146 146 146
28.984375000000 3.500000000000 55.566001892090 140 140 140
28.984375000000 3.500000000000 55.592002868652 140 140 140
28.984375000000 3.500000000000 55.620994567871 143 143 143
28.984375000000 3.500000000000 55.642005920410 145 145 145
28.984375000000 3.500000000000 55.672004699707 150 150 150
29.015625000000 3.515625000000 55.680000305176 209 209 209
28.890625000000 3.125000000000 55.482002258301 145 145 145
28.890625000000 3.125000000000 55.506996154785 139 139 139
28.921875000000 3.140625000000 55.513999938965 153 153 153
28.953125000000 3.156250000000 55.530006408691 151 151 151
28.984375000000 3.187500000000 55.525001525879 141 141 141
29.031250000000 3.187500000000 55.530006408691 144 144 144
29.109375000000 3.234375000000 55.504997253418 141 141 141
29.140625000000 3.265625000000 55.508003234863 136 136 136
29.265625000000 3.328125000000 55.459999084473 159 159 159
29.250000000000 3.312500000000 55.495994567871 132 132 132
29.296875000000 3.343750000000 55.499000549316 143 143 143
29.343750000000 3.375000000000 55.500999450684 156 156 156
29.390625000000 3.390625000000 55.502998352051 166 166 166
29.390625000000 3.406250000000 55.521995544434 149 149 149
29.390625000000 3.406250000000 55.558006286621 139 139 139
29.390625000000 3.406250000000 55.586006164551 132 132 132
29.390625000000 3.406250000000 55.611000061035 133 133 133
29.390625000000 3.406250000000 55.638999938965 134 134 134
29.390625000000 3.406250000000 55.670005798340 138 138 138
29.406250000000 3.406250000000 55.693992614746 143 143 143
29.390625000000 3.406250000000 55.724998474121 143 143 143
29.390625000000 3.406250000000 55.752006530762 152 152 152
29.390625000000 3.406250000000 55.780006408691 155 155 155
29.390625000000 3.406250000000 55.808998107910 148 148 148
29.390625000000 3.406250000000 55.840003967285 152 152 152
29.390625000000 3.406250000000 55.868003845215 150 150 150
29.390625000000 3.406250000000 55.896003723145 145 145 145
29.312500000000 3.343750000000 55.958992004395 137 137 137
29.203125000000 3.281250000000 56.040000915527 107 107 107
29.203125000000 3.281250000000 56.066001892090 109 109 109
29.203125000000 3.281250000000 56.090003967285 108 108 108
29.203125000000 3.281250000000 56.116004943848 108 108 108
29.203125000000 3.281250000000 56.140998840332 108 108 108
29.250000000000 3.312500000000 56.148994445801 132 132 132
29.390625000000 3.375000000000 56.109992980957 159 159 159
29.390625000000 3.375000000000 56.137001037598 152 152 152
29.406250000000 3.406250000000 56.161003112793 150 150 150
29.390625000000 3.375000000000 56.187995910645 149 149 149
29.390625000000 3.375000000000 56.215995788574 148 148 148
29.406250000000 3.406250000000 56.239006042480 144 144 144
29.390625000000 3.375000000000 56.265998840332 146 146 146
29.406250000000 3.406250000000 56.288993835449 146 146 146
29.406250000000 3.406250000000 56.314994812012 148 148 148
29.390625000000 3.375000000000 56.342994689941 148 148 148
29.390625000000 3.375000000000 56.370002746582 147 147 147
29.390625000000 3.375000000000 56.392005920410 151 151 151
29.390625000000 3.375000000000 56.418006896973 149 149 149
29.390625000000 3.375000000000 56.441993713379 149 149 149
29.390625000000 3.375000000000 56.471000671387 146 146 146
29.390625000000 3.375000000000 56.493995666504 147 147 147
29.390625000000 3.375000000000 56.519996643066 154 154 154
29.406250000000 3.375000000000 56.541999816895 155 155 155
29.390625000000 3.375000000000 56.568000793457 152 152 152
29.390625000000 3.375000000000 56.594001770020 151 151 151
29.390625000000 3.375000000000 56.618003845215 154 154 154
29.390625000000 3.375000000000 56.644996643066 149 149 149
29.390625000000 3.375000000000 56.668998718262 152 152 152
29.390625000000 3.375000000000 56.691993713379 152 152 152
29.390625000000 3.375000000000 56.717002868652 151 151 151
29.406250000000 3.375000000000 56.739997863770 153 153 153
29.390625000000 3.375000000000 56.765007019043 157 157 157
29.406250000000 3.375000000000 56.786994934082 162 162 162
29.390625000000 3.375000000000 56.812995910645 159 159 159
29.390625000000 3.375000000000 56.836997985840 159 159 159
29.390625000000 3.375000000000 56.861000061035 160 160 160
29.390625000000 3.375000000000 56.885002136230 160 160 160
29.390625000000 3.375000000000 56.907997131348 158 158 158
29.375000000000 3.359375000000 56.933998107910 154 154 154
29.390625000000 3.375000000000 56.954994201660 163 163 163
29.390625000000 3.375000000000 56.980003356934 160 160 160
29.390625000000 3.375000000000 57.002006530762 163 163 163
29.265625000000 3.281250000000 57.049003601074 124 124 124
29.234375000000 3.281250000000 57.075004577637 126 126 126
29.234375000000 3.281250000000 57.097999572754 137 137 137
29.234375000000 3.281250000000 57.118995666504 138 138 138
29.234375000000 3.281250000000 57.140998840332 140 140 140
29.234375000000 3.281250000000 57.163993835449 132 132 132
29.234375000000 3.281250000000 57.185997009277 113 113 113
29.390625000000 3.343750000000 57.191001892090 174 174 174
29.359375000000 3.343750000000 57.217002868652 221 221 221
29.343750000000 3.343750000000 57.241004943848 224 224 224
29.359375000000 3.343750000000 57.262992858887 223 223 223
29.359375000000 3.343750000000 57.286003112793 220 220 220
29.359375000000 3.343750000000 57.308998107910 225 225 225
29.359375000000 3.343750000000 57.331993103027 225 225 225
29.359375000000 3.343750000000 57.353996276855 227 227 227
29.359375000000 3.343750000000 57.377998352051 227 227 227
29.359375000000 3.343750000000 57.400993347168 216 216 216
29.390625000000 3.343750000000 57.422004699707 161 161 161
29.390625000000 3.343750000000 57.446006774902 160 160 160
29.390625000000 3.343750000000 57.467994689941 162 162 162
29.390625000000 3.343750000000 57.491996765137 161 161 161
29.390625000000 3.343750000000 57.515007019043 162 162 162
29.390625000000 3.343750000000 57.536994934082 160 160 160
29.390625000000 3.343750000000 57.560005187988 156 156 156
29.390625000000 3.343750000000 57.583992004395 158 158 158
29.390625000000 3.343750000000 57.607002258301 158 158 158
29.390625000000 3.343750000000 57.629005432129 157 157 157
29.390625000000 3.343750000000 57.652000427246 151 151 151
29.390625000000 3.343750000000 57.676002502441 149 149 149
29.375000000000 3.343750000000 57.698005676270 151 151 151
29.375000000000 3.343750000000 57.721000671387 150 150 150
29.375000000000 3.343750000000 57.743995666504 149 149 149
29.375000000000 3.343750000000 57.767005920410 152 152 152
29.375000000000 3.343750000000 57.790000915527 149 149 149
29.375000000000 3.343750000000 57.812995910645 150 150 150
29.375000000000 3.343750000000 57.836006164551 153 153 153
29.375000000000 3.343750000000 57.859992980957 156 156 156
29.375000000000 3.343750000000 57.881996154785 158 158 158
29.375000000000 3.343750000000 57.905998229980 165 165 165
29.375000000000 3.343750000000 57.928993225098 164 164 164
29.375000000000 3.343750000000 57.950996398926 161 161 161
29.375000000000 3.343750000000 57.974998474121 170 170 170
29.359375000000 3.312500000000 57.997001647949 169 169 169
29.375000000000 3.343750000000 58.021003723145 171 171 171
29.375000000000 3.343750000000 58.043998718262 171 171 171
29.375000000000 3.343750000000 58.068000793457 167 167 167
29.375000000000 3.343750000000 58.090995788574 173 173 173
29.359375000000 3.312500000000 58.112998962402 172 172 172
29.359375000000 3.312500000000 58.137001037598 173 173 173
29.359375000000 3.312500000000 58.159996032715 176 176 176
29.359375000000 3.312500000000 58.180000305176 172 172 172
29.250000000000 3.250000000000 58.183998107910 117 117 117
29.203125000000 3.218750000000 58.200996398926 156 156 156
29.203125000000 3.218750000000 58.222999572754 164 164 164
29.203125000000 3.218750000000 58.245002746582 169 169 169
29.203125000000 3.218750000000 58.267997741699 175 175 175
29.203125000000 3.218750000000 58.290992736816 174 174 174
29.328125000000 3.312500000000 58.336997985840 166 166 166
29.359375000000 3.312500000000 58.370002746582 168 168 168
29.359375000000 3.312500000000 58.396003723145 172 172 172
29.359375000000 3.312500000000 58.418006896973 173 173 173
29.390625000000 3.343750000000 58.446006774902 172 172 172
29.359375000000 3.312500000000 58.467994689941 177 177 177
29.359375000000 3.312500000000 58.491996765137 173 173 173
29.359375000000 3.312500000000 58.515998840332 173 173 173
29.359375000000 3.312500000000 58.538993835449 169 169 169
29.359375000000 3.312500000000 58.564002990723 171 171 171
29.359375000000 3.312500000000 58.586006164551 171 171 171
29.359375000000 3.312500000000 58.611991882324 172 172 172
29.359375000000 3.312500000000 58.635993957520 170 170 170
29.359375000000 3.312500000000 58.663002014160 171 171 171
29.359375000000 3.312500000000 58.685997009277 169 169 169
29.359375000000 3.312500000000 58.708992004395 168 168 168
29.359375000000 3.312500000000 58.732002258301 163 163 163
29.359375000000 3.312500000000 58.756996154785 164 164 164
29.359375000000 3.312500000000 58.780998229980 165 165 165
29.359375000000 3.312500000000 58.806999206543 169 169 169
29.359375000000 3.312500000000 58.831993103027 167 167 167
29.359375000000 3.312500000000 58.855003356934 169 169 169
29.359375000000 3.296875000000 58.879997253418 164 164 164
29.359375000000 3.296875000000 58.903999328613 166 166 166
29.359375000000 3.296875000000 58.930000305176 164 164 164
29.343750000000 3.296875000000 58.952003479004 166 166 166
29.359375000000 3.296875000000 58.980003356934 165 165 165
29.359375000000 3.296875000000 59.006996154785 165 165 165
29.359375000000 3.296875000000 59.030998229980 167 167 167
29.359375000000 3.296875000000 59.058006286621 168 168 168
29.343750000000 3.281250000000 59.079994201660 169 169 169
29.359375000000 3.296875000000 59.107002258301 169 169 169
29.343750000000 3.281250000000 59.131996154785 171 171 171
29.359375000000 3.296875000000 59.159996032715 167 167 167
29.343750000000 3.281250000000 59.183998107910 160 160 160
29.343750000000 3.281250000000 59.211006164551 159 159 159
29.343750000000 3.281250000000 59.239006042480 158 158 158
29.343750000000 3.281250000000 59.262001037598 161 161 161
29.343750000000 3.281250000000 59.286994934082 160 160 160
29.343750000000 3.281250000000 59.314994812012 156 156 156
29.453125000000 3.109375000000 55.390998840332 162 162 162
29.453125000000 3.109375000000 55.424003601074 164 164 164
29.375000000000 3.062500000000 55.491996765137 121 121 121
29.421875000000 3.093750000000 55.504005432129 142 142 142
29.437500000000 3.093750000000 55.519996643066 169 169 169
29.437500000000 3.093750000000 55.543998718262 150 150 150
29.453125000000 3.109375000000 55.564994812012 188 188 188
29.375000000000 3.437500000000 59.314002990723 84 84 84
29.375000000000 3.437500000000 59.286994934082 93 93 93
29.375000000000 3.437500000000 59.258003234863 94 94 94
29.375000000000 3.437500000000 59.230995178223 95 95 95
29.359375000000 3.421875000000 59.202995300293 96 96 96
29.359375000000 3.437500000000 59.172004699707 93 93 93
29.359375000000 3.437500000000 59.148002624512 95 95 95
29.359375000000 3.437500000000 59.120002746582 97 97 97
29.390625000000 3.437500000000 59.099998474121 98 98 98
29.375000000000 3.437500000000 59.071998596191 94 94 94
29.359375000000 3.437500000000 59.040992736816 95 95 95
29.359375000000 3.437500000000 59.012992858887 100 100 100
29.359375000000 3.421875000000 58.991004943848 101 101 101
29.359375000000 3.437500000000 58.963996887207 103 103 103
29.359375000000 3.437500000000 58.935997009277 92 92 92
29.359375000000 3.437500000000 58.911003112793 98 98 98
29.359375000000 3.437500000000 58.883995056152 103 103 103
29.359375000000 3.437500000000 58.855995178223 95 95 95
29.359375000000 3.437500000000 58.834999084473 100 100 100
29.359375000000 3.437500000000 58.808998107910 100 100 100
29.359375000000 3.421875000000 58.784004211426 110 110 110
29.375000000000 3.421875000000 58.762992858887 106 106 106
29.359375000000 3.437500000000 58.732994079590 113 113 113
29.375000000000 3.421875000000 58.711006164551 113 113 113
29.359375000000 3.421875000000 58.683998107910 115 115 115
29.359375000000 3.421875000000 58.659004211426 116 116 116
29.375000000000 3.421875000000 58.635993957520 128 128 128
29.359375000000 3.421875000000 58.609001159668 124 124 124
29.375000000000 3.421875000000 58.586997985840 132 132 132
29.359375000000 3.421875000000 58.560997009277 131 131 131
29.359375000000 3.421875000000 58.534996032715 123 123 123
29.359375000000 3.437500000000 58.510002136230 127 127 127
29.359375000000 3.437500000000 58.486000061035 129 129 129
29.375000000000 3.421875000000 58.463996887207 129 129 129
29.359375000000 3.421875000000 58.437004089355 118 118 118
29.359375000000 3.421875000000 58.413002014160 130 130 130
29.359375000000 3.437500000000 58.387992858887 132 132 132
29.359375000000 3.437500000000 58.362998962402 132 132 132
29.359375000000 3.437500000000 58.340995788574 137 137 137
29.296875000000 3.468750000000 58.303001403809 161 161 161
29.328125000000 3.468750000000 58.280998229980 160 160 160
29.296875000000 3.453125000000 58.256996154785 157 157 157
29.296875000000 3.453125000000 58.232994079590 166 166 166
29.296875000000 3.453125000000 58.209999084473 157 157 157
29.359375000000 3.437500000000 58.193992614746 135 135 135
29.359375000000 3.437500000000 58.172996520996 128 128 128
29.359375000000 3.421875000000 58.150993347168 127 127 127
29.359375000000 3.421875000000 58.127006530762 120 120 120
29.359375000000 3.421875000000 58.103004455566 122 122 122
29.359375000000 3.437500000000 58.077995300293 119 119 119
29.359375000000 3.421875000000 58.055992126465 129 129 129
29.359375000000 3.437500000000 58.030998229980 130 130 130
29.359375000000 3.437500000000 58.008003234863 127 127 127
29.359375000000 3.437500000000 57.984992980957 123 123 123
29.359375000000 3.437500000000 57.961997985840 128 128 128
29.359375000000 3.437500000000 57.937995910645 126 126 126
29.359375000000 3.437500000000 57.915000915527 132 132 132
29.359375000000 3.437500000000 57.892005920410 126 126 126
29.359375000000 3.437500000000 57.868003845215 124 124 124
29.359375000000 3.437500000000 57.844001770020 128 128 128
29.359375000000 3.437500000000 57.821998596191 129 129 129
29.359375000000 3.437500000000 57.797996520996 124 124 124
29.359375000000 3.437500000000 57.775993347168 135 135 135
29.359375000000 3.437500000000 57.752998352051 133 133 133
29.359375000000 3.437500000000 57.728996276855 140 140 140
29.359375000000 3.437500000000 57.706001281738 137 137 137
29.359375000000 3.437500000000 57.683006286621 139 139 139
29.359375000000 3.437500000000 57.659996032715 145 145 145
29.359375000000 3.437500000000 57.637001037598 135 135 135
29.359375000000 3.437500000000 57.614006042480 142 142 142
29.359375000000 3.437500000000 57.590995788574 139 139 139
29.359375000000 3.437500000000 57.568000793457 139 139 139
29.359375000000 3.437500000000 57.545005798340 137 137 137
29.359375000000 3.437500000000 57.521003723145 136 136 136
29.359375000000 3.437500000000 57.497993469238 136 136 136
29.359375000000 3.437500000000 57.476005554199 137 137 137
29.359375000000 3.437500000000 57.452003479004 134 134 134
29.359375000000 3.437500000000 57.428993225098 134 134 134
29.359375000000 3.437500000000 57.407005310059 146 146 146
29.328125000000 3.437500000000 57.385002136230 182 182 182
29.328125000000 3.437500000000 57.361991882324 189 189 189
29.328125000000 3.437500000000 57.338996887207 184 184 184
29.328125000000 3.437500000000 57.316001892090 160 160 160
29.328125000000 3.437500000000 57.291999816895 143 143 143
29.328125000000 3.437500000000 57.269996643066 183 183 183
29.328125000000 3.437500000000 57.247001647949 184 184 184
29.328125000000 3.437500000000 57.224006652832 186 186 186
29.328125000000 3.437500000000 57.200004577637 143 143 143
29.359375000000 3.437500000000 57.176002502441 134 134 134
29.359375000000 3.437500000000 57.152000427246 138 138 138
29.359375000000 3.437500000000 57.129005432129 141 141 141
29.328125000000 3.437500000000 57.105995178223 130 130 130
29.359375000000 3.437500000000 57.081993103027 132 132 132
29.328125000000 3.437500000000 57.060005187988 125 125 125
29.359375000000 3.421875000000 57.032005310059 148 148 148
29.359375000000 3.421875000000 57.008995056152 143 143 143
29.359375000000 3.437500000000 56.986000061035 143 143 143
29.359375000000 3.421875000000 56.961006164551 138 138 138
29.359375000000 3.437500000000 56.937995910645 139 139 139
29.375000000000 3.421875000000 56.913002014160 135 135 135
29.390625000000 3.406250000000 56.887992858887 141 141 141
29.375000000000 3.421875000000 56.864997863770 139 139 139
29.359375000000 3.421875000000 56.842994689941 140 140 140
29.375000000000 3.421875000000 56.818000793457 139 139 139
29.359375000000 3.421875000000 56.793998718262 143 143 143
29.359375000000 3.421875000000 56.769996643066 138 138 138
29.359375000000 3.421875000000 56.745994567871 141 141 141
29.390625000000 3.406250000000 56.719001770020 141 141 141
29.375000000000 3.421875000000 56.696998596191 141 141 141
29.359375000000 3.421875000000 56.672996520996 139 139 139
29.359375000000 3.421875000000 56.650993347168 139 139 139
29.359375000000 3.421875000000 56.625999450684 142 142 142
29.375000000000 3.421875000000 56.599006652832 145 145 145
29.390625000000 3.406250000000 56.571998596191 144 144 144
29.375000000000 3.421875000000 56.549003601074 143 143 143
29.359375000000 3.421875000000 56.527000427246 143 143 143
29.375000000000 3.421875000000 56.499992370605 140 140 140
29.375000000000 3.421875000000 56.476005554199 144 144 144
29.375000000000 3.421875000000 56.450004577637 146 146 146
29.359375000000 3.421875000000 56.426994323730 147 147 147
29.390625000000 3.406250000000 56.398002624512 149 149 149
29.375000000000 3.421875000000 56.375999450684 145 145 145
29.359375000000 3.406250000000 56.353004455566 147 147 147
29.375000000000 3.421875000000 56.325004577637 147 147 147
29.390625000000 3.406250000000 56.295005798340 146 146 146
29.375000000000 3.421875000000 56.273002624512 146 146 146
29.375000000000 3.421875000000 56.247993469238 146 146 146
29.390625000000 3.406250000000 56.215995788574 147 147 147
29.390625000000 3.406250000000 56.189994812012 145 145 145
29.390625000000 3.406250000000 56.163993835449 148 148 148
29.343750000000 3.421875000000 56.157005310059 134 134 134
29.328125000000 3.437500000000 56.135002136230 128 128 128
29.328125000000 3.437500000000 56.111000061035 129 129 129
29.328125000000 3.437500000000 56.083000183105 128 128 128
29.328125000000 3.437500000000 56.058998107910 121 121 121
29.328125000000 3.437500000000 56.027992248535 119 119 119
29.390625000000 3.406250000000 55.972999572754 142 142 142
29.421875000000 3.390625000000 55.941001892090 143 143 143
29.421875000000 3.390625000000 55.913002014160 146 146 146
29.390625000000 3.406250000000 55.890007019043 144 144 144
29.406250000000 3.406250000000 55.859001159668 148 148 148
29.421875000000 3.390625000000 55.829994201660 149 149 149
29.406250000000 3.406250000000 55.805000305176 148 148 148
29.406250000000 3.406250000000 55.775993347168 151 151 151
29.421875000000 3.390625000000 55.747001647949 146 146 146
29.421875000000 3.375000000000 55.715003967285 142 142 142
29.421875000000 3.375000000000 55.687004089355 143 143 143
29.421875000000 3.390625000000 55.659996032715 140 140 140
29.421875000000 3.375000000000 55.627998352051 140 140 140
29.421875000000 3.375000000000 55.601005554199 134 134 134
29.421875000000 3.390625000000 55.575004577637 132 132 132
29.406250000000 3.406250000000 55.547004699707 145 145 145
29.406250000000 3.406250000000 55.519004821777 162 162 162
29.375000000000 3.406250000000 55.506996154785 158 158 158
29.328125000000 3.437500000000 55.504997253418 149 149 149
29.265625000000 3.468750000000 55.510993957520 142 142 142
29.234375000000 3.500000000000 55.510993957520 146 146 146
29.171875000000 3.515625000000 55.510002136230 158 158 158
29.140625000000 3.546875000000 55.510993957520 146 146 146
29.093750000000 3.562500000000 55.512001037598 140 140 140
29.015625000000 3.593750000000 55.523002624512 135 135 135
28.984375000000 3.640625000000 55.528999328613 144 144 144
28.953125000000 3.656250000000 55.513999938965 139 139 139
28.937500000000 3.656250000000 55.502998352051 126 126 126
29.078125000000 3.281250000000 59.305992126465 130 130 130
29.078125000000 3.281250000000 59.280006408691 131 131 131
29.078125000000 3.281250000000 59.254005432129 135 135 135
29.078125000000 3.281250000000 59.230003356934 132 132 132
29.078125000000 3.281250000000 59.204002380371 136 136 136
29.078125000000 3.281250000000 59.176002502441 135 135 135
29.078125000000 3.281250000000 59.152000427246 134 134 134
29.078125000000 3.281250000000 59.125999450684 132 132 132
29.078125000000 3.281250000000 59.103996276855 135 135 135
29.078125000000 3.281250000000 59.079994201660 133 133 133
29.078125000000 3.281250000000 59.053993225098 135 135 135
29.078125000000 3.281250000000 59.025993347168 133 133 133
29.078125000000 3.281250000000 59.000999450684 135 135 135
29.078125000000 3.281250000000 58.976997375488 135 135 135
29.078125000000 3.281250000000 58.952995300293 137 137 137
29.078125000000 3.281250000000 58.928001403809 133 133 133
29.078125000000 3.281250000000 58.905006408691 137 137 137
29.078125000000 3.281250000000 58.879997253418 134 134 134
29.078125000000 3.281250000000 58.857994079590 139 139 139
29.078125000000 3.281250000000 58.831001281738 136 136 136
29.078125000000 3.281250000000 58.808998107910 135 135 135
29.078125000000 3.281250000000 58.786994934082 140 140 140
29.078125000000 3.281250000000 58.760002136230 137 137 137
29.078125000000 3.281250000000 58.736991882324 140 140 140
29.078125000000 3.281250000000 58.713005065918 137 137 137
29.078125000000 3.281250000000 58.689002990723 137 137 137
29.078125000000 3.281250000000 58.666999816895 138 138 138
29.078125000000 3.281250000000 58.642997741699 133 133 133
29.078125000000 3.281250000000 58.620002746582 136 136 136
29.078125000000 3.281250000000 58.597999572754 136 136 136
29.078125000000 3.281250000000 58.575996398926 135 135 135
29.078125000000 3.296875000000 58.549003601074 136 136 136
29.078125000000 3.281250000000 58.530006408691 140 140 140
29.078125000000 3.281250000000 58.506996154785 141 141 141
