32.968750000000 16.593750000000 59.972999572754 93 93 93
32.984375000000 16.593750000000 60.023994445801 87 87 87
32.984375000000 16.593750000000 60.073005676270 113 113 113
32.937500000000 16.593750000000 60.103996276855 129 129 129
32.937500000000 16.593750000000 60.148002624512 63 63 63
32.984375000000 16.593750000000 60.213996887207 53 53 53
32.984375000000 16.593750000000 60.262992858887 32 32 32
32.984375000000 16.593750000000 60.312995910645 17 17 17
33.109375000000 16.609375000000 61.402000427246 69 69 69
33.046875000000 16.593750000000 61.416999816895 106 106 106
32.953125000000 16.593750000000 61.418998718262 118 118 118
32.968750000000 16.765625000000 60.092002868652 144 144 144
32.953125000000 16.781250000000 60.135993957520 55 55 55
33.015625000000 16.781250000000 61.381004333496 70 70 70
33.000000000000 16.937500000000 60.081993103027 19 19 19
32.984375000000 16.953125000000 60.118995666504 154 154 154
33.015625000000 16.937500000000 61.295005798340 94 94 94
32.968750000000 17.125000000000 60.096000671387 104 104 104
32.953125000000 17.109375000000 60.133995056152 114 114 114
33.015625000000 17.125000000000 61.221000671387 92 92 92
32.953125000000 17.281250000000 60.114006042480 147 147 147
32.937500000000 17.312500000000 60.157005310059 34 34 34
33.015625000000 17.312500000000 61.133995056152 96 96 96
32.984375000000 17.468750000000 60.101997375488 32 32 32
32.953125000000 17.468750000000 60.137992858887 152 152 152
32.984375000000 17.484375000000 61.049003601074 82 82 82
32.953125000000 17.625000000000 60.120002746582 118 118 118
32.937500000000 17.656250000000 60.159004211426 108 108 108
32.984375000000 17.656250000000 60.974998474121 81 81 81
32.953125000000 17.812500000000 60.140998840332 152 152 152
32.921875000000 17.828125000000 60.176994323730 24 24 24
32.953125000000 17.812500000000 60.881996154785 68 68 68
32.937500000000 18.000000000000 60.114997863770 40 40 40
32.921875000000 18.000000000000 60.157005310059 155 155 155
32.953125000000 18.000000000000 60.812995910645 61 61 61
32.921875000000 18.171875000000 60.137001037598 121 121 121
32.906250000000 18.156250000000 60.174995422363 112 112 112
32.968750000000 18.187500000000 60.734992980957 55 55 55
32.906250000000 18.343750000000 60.152000427246 155 155 155
32.906250000000 18.343750000000 60.198997497559 23 23 23
32.953125000000 18.343750000000 60.653999328613 53 53 53
32.921875000000 18.500000000000 60.137001037598 35 35 35
32.906250000000 18.500000000000 60.172996520996 148 148 148
32.953125000000 18.531250000000 60.584999084473 19 19 19
32.937500000000 18.531250000000 60.622001647949 17 17 17
32.906250000000 18.687500000000 60.150993347168 106 106 106
32.906250000000 18.687500000000 60.196006774902 133 133 133
32.921875000000 18.687500000000 60.541999816895 33 33 33
32.890625000000 18.875000000000 60.170005798340 143 143 143
32.859375000000 18.875000000000 60.198997497559 94 94 94
32.921875000000 18.875000000000 60.461006164551 24 24 24
32.921875000000 19.046875000000 60.150993347168 46 46 46
32.890625000000 19.031250000000 60.187995910645 149 149 149
32.921875000000 19.046875000000 60.344001770020 22 22 22
32.890625000000 19.218750000000 60.161994934082 109 109 109
32.859375000000 19.218750000000 60.200996398926 129 129 129
32.906250000000 19.218750000000 60.265998840332 13 13 13
32.890625000000 19.218750000000 60.303001403809 16 16 16
32.875000000000 19.390625000000 60.181999206543 144 144 144
32.859375000000 19.390625000000 60.221000671387 80 80 80
32.890625000000 19.562500000000 60.161994934082 40 40 40
32.859375000000 19.562500000000 60.196998596191 163 163 163
32.859375000000 19.750000000000 59.898002624512 105 105 105
32.875000000000 19.734375000000 60.178001403809 123 123 123
32.828125000000 19.750000000000 60.211006164551 136 136 136
32.875000000000 19.921875000000 59.874992370605 43 43 43
32.859375000000 19.906250000000 59.915992736816 65 65 65
32.843750000000 19.906250000000 60.189994812012 157 157 157
32.843750000000 19.906250000000 60.239006042480 67 67 67
32.859375000000 20.093750000000 59.896003723145 105 105 105
32.859375000000 20.093750000000 60.176002502441 61 61 61
32.828125000000 20.093750000000 60.209999084473 160 160 160
32.859375000000 20.265625000000 59.915992736816 117 117 117
32.828125000000 20.250000000000 60.187004089355 130 130 130
32.828125000000 20.281250000000 60.226005554199 122 122 122
32.828125000000 20.437500000000 59.887992858887 59 59 59
32.828125000000 20.437500000000 59.933998107910 58 58 58
32.828125000000 20.437500000000 60.204002380371 149 149 149
32.828125000000 20.437500000000 60.252998352051 24 24 24
32.843750000000 20.625000000000 59.907997131348 118 118 118
32.859375000000 20.625000000000 59.956001281738 142 142 142
32.859375000000 20.625000000000 60.002006530762 143 143 143
32.843750000000 20.625000000000 60.045005798340 133 133 133
32.859375000000 20.609375000000 60.103004455566 133 133 133
32.859375000000 20.625000000000 60.146995544434 132 132 132
32.843750000000 20.625000000000 60.185005187988 141 141 141
32.796875000000 20.625000000000 60.217994689941 157 157 157
32.812500000000 20.625000000000 60.269004821777 23 23 23
32.828125000000 20.781250000000 59.926002502441 118 118 118
32.828125000000 20.796875000000 60.198005676270 117 117 117
32.796875000000 20.796875000000 60.236991882324 126 126 126
32.828125000000 20.968750000000 59.900993347168 67 67 67
32.828125000000 20.968750000000 59.946006774902 63 63 63
32.796875000000 20.968750000000 60.213996887207 157 157 157
32.781250000000 20.968750000000 60.252998352051 37 37 37
32.828125000000 21.125000000000 59.926002502441 136 136 136
32.828125000000 21.125000000000 59.971000671387 210 210 210
32.828125000000 21.125000000000 60.017997741699 209 209 209
32.843750000000 21.156250000000 60.068000793457 208 208 208
32.843750000000 21.156250000000 60.114997863770 212 212 212
32.828125000000 21.156250000000 60.157997131348 111 111 111
32.828125000000 21.140625000000 60.198005676270 82 82 82
32.781250000000 21.156250000000 60.230995178223 146 146 146
32.828125000000 21.312500000000 59.944999694824 178 178 178
32.828125000000 21.312500000000 59.991004943848 206 206 206
32.828125000000 21.312500000000 60.038993835449 203 203 203
32.828125000000 21.312500000000 60.084999084473 201 201 201
32.828125000000 21.312500000000 60.133995056152 198 198 198
32.828125000000 21.312500000000 60.178001403809 34 34 34
32.796875000000 21.312500000000 60.208992004395 129 129 129
32.781250000000 21.312500000000 60.252006530762 112 112 112
32.828125000000 21.500000000000 59.918998718262 77 77 77
32.812500000000 21.500000000000 59.959999084473 203 203 203
32.812500000000 21.500000000000 60.006996154785 148 148 148
32.828125000000 21.500000000000 60.058006286621 159 159 159
32.828125000000 21.500000000000 60.109001159668 159 159 159
32.828125000000 21.500000000000 60.157005310059 175 175 175
32.781250000000 21.500000000000 60.228004455566 159 159 159
32.781250000000 21.500000000000 60.273994445801 35 35 35
32.812500000000 21.687500000000 59.935997009277 144 144 144
32.796875000000 21.671875000000 59.980003356934 207 207 207
32.812500000000 21.671875000000 60.028999328613 207 207 207
32.812500000000 21.671875000000 60.077995300293 204 204 204
32.828125000000 21.671875000000 60.125999450684 194 194 194
32.828125000000 21.671875000000 60.172996520996 109 109 109
32.796875000000 21.671875000000 60.208992004395 90 90 90
32.765625000000 21.671875000000 60.243003845215 152 152 152
32.796875000000 21.843750000000 59.956001281738 179 179 179
32.796875000000 21.843750000000 59.999000549316 205 205 205
32.796875000000 21.843750000000 60.049995422363 193 193 193
32.828125000000 21.843750000000 60.099998474121 180 180 180
32.796875000000 21.843750000000 60.144004821777 194 194 194
32.796875000000 21.843750000000 60.185005187988 25 25 25
32.765625000000 21.843750000000 60.221992492676 140 140 140
32.765625000000 21.859375000000 60.265007019043 117 117 117
32.796875000000 22.031250000000 59.928993225098 93 93 93
32.796875000000 22.031250000000 59.976005554199 202 202 202
32.796875000000 22.015625000000 60.021995544434 153 153 153
32.796875000000 22.031250000000 60.066993713379 207 207 207
32.796875000000 22.031250000000 60.116004943848 210 210 210
32.796875000000 22.031250000000 60.163993835449 169 169 169
32.765625000000 22.015625000000 60.198005676270 12 12 12
32.765625000000 22.031250000000 60.236991882324 163 163 163
32.734375000000 22.031250000000 60.280006408691 26 26 26
32.796875000000 22.218750000000 59.948997497559 153 153 153
32.796875000000 22.218750000000 59.995994567871 206 206 206
32.796875000000 22.203125000000 60.043998718262 179 179 179
32.796875000000 22.203125000000 60.090003967285 201 201 201
32.796875000000 22.203125000000 60.140007019043 192 192 192
32.796875000000 22.218750000000 60.181999206543 104 104 104
32.765625000000 22.218750000000 60.213996887207 96 96 96
32.734375000000 22.203125000000 60.256004333496 144 144 144
32.796875000000 22.375000000000 59.930000305176 23 23 23
32.781250000000 22.375000000000 59.972999572754 189 189 189
32.781250000000 22.375000000000 60.013999938965 195 195 195
32.781250000000 22.375000000000 60.064002990723 171 171 171
32.796875000000 22.375000000000 60.116996765137 175 175 175
32.796875000000 22.375000000000 60.159004211426 193 193 193
32.781250000000 22.375000000000 60.200996398926 17 17 17
32.750000000000 22.375000000000 60.232994079590 141 141 141
32.734375000000 22.375000000000 60.275001525879 103 103 103
32.796875000000 22.562500000000 59.946998596191 102 102 102
32.765625000000 22.546875000000 59.986000061035 209 209 209
32.796875000000 22.562500000000 60.038002014160 163 163 163
32.765625000000 22.546875000000 60.081993103027 197 197 197
32.796875000000 22.562500000000 60.135993957520 154 154 154
32.796875000000 22.562500000000 60.178001403809 155 155 155
32.765625000000 22.546875000000 60.221000671387 20 20 20
32.734375000000 22.562500000000 60.250999450684 161 161 161
32.765625000000 22.718750000000 59.959999084473 162 162 162
32.765625000000 22.718750000000 60.006004333496 203 203 203
32.765625000000 22.718750000000 60.058998107910 148 148 148
32.765625000000 22.718750000000 60.107002258301 137 137 137
32.765625000000 22.718750000000 60.152000427246 184 184 184
32.765625000000 22.718750000000 60.196006774902 91 91 91
32.750000000000 22.718750000000 60.232994079590 100 100 100
32.718750000000 22.734375000000 60.265998840332 145 145 145
32.765625000000 22.906250000000 59.943000793457 23 23 23
32.750000000000 22.906250000000 59.980003356934 192 192 192
32.765625000000 22.906250000000 60.027992248535 200 200 200
32.765625000000 22.906250000000 60.075004577637 176 176 176
32.765625000000 22.906250000000 60.122993469238 173 173 173
32.765625000000 22.906250000000 60.170997619629 185 185 185
32.734375000000 22.906250000000 60.252006530762 145 145 145
32.734375000000 22.906250000000 60.290000915527 85 85 85
32.734375000000 23.078125000000 59.952003479004 102 102 102
32.734375000000 23.078125000000 59.999992370605 203 203 203
32.765625000000 23.093750000000 60.045997619629 147 147 147
32.765625000000 23.093750000000 60.092994689941 203 203 203
32.765625000000 23.078125000000 60.144996643066 145 145 145
32.765625000000 23.093750000000 60.187995910645 161 161 161
32.734375000000 23.093750000000 60.224006652832 22 22 22
32.703125000000 23.078125000000 60.263999938965 161 161 161
32.703125000000 23.093750000000 60.308006286621 14 14 14
32.734375000000 23.250000000000 59.967002868652 124 124 124
32.734375000000 23.250000000000 60.017997741699 107 107 107
32.734375000000 23.250000000000 60.066993713379 111 111 111
32.750000000000 23.250000000000 60.114997863770 105 105 105
32.750000000000 23.250000000000 60.161003112793 102 102 102
32.765625000000 23.250000000000 60.215003967285 91 91 91
32.718750000000 23.265625000000 60.237998962402 114 114 114
32.687500000000 23.250000000000 60.278999328613 147 147 147
32.734375000000 23.437500000000 59.950004577637 16 16 16
32.734375000000 23.437500000000 59.987998962402 95 95 95
32.703125000000 23.437500000000 60.262001037598 147 147 147
32.687500000000 23.437500000000 60.297996520996 82 82 82
32.718750000000 23.593750000000 59.965995788574 99 99 99
32.703125000000 23.609375000000 60.236991882324 42 42 42
32.671875000000 23.625000000000 60.273002624512 161 161 161
32.734375000000 23.781250000000 59.987998962402 102 102 102
32.703125000000 23.781250000000 60.254005432129 118 118 118
32.671875000000 23.781250000000 60.295005798340 131 131 131
32.734375000000 23.968750000000 59.967994689941 68 68 68
32.703125000000 23.953125000000 60.006996154785 19 19 19
32.687500000000 23.968750000000 60.226997375488 43 43 43
32.671875000000 23.968750000000 60.269004821777 155 155 155
32.671875000000 23.953125000000 60.312995910645 90 90 90
32.703125000000 24.125000000000 59.982002258301 115 115 115
32.703125000000 24.125000000000 60.254997253418 61 61 61
32.671875000000 24.125000000000 60.290000915527 154 154 154
32.703125000000 24.125000000000 60.396003723145 79 79 79
32.703125000000 24.312500000000 59.961006164551 37 37 37
32.703125000000 24.312500000000 60.006996154785 58 58 58
32.656250000000 24.312500000000 60.265998840332 132 132 132
32.640625000000 24.312500000000 60.308998107910 112 112 112
32.671875000000 24.312500000000 60.461997985840 81 81 81
32.687500000000 24.484375000000 59.980995178223 108 108 108
32.671875000000 24.468750000000 60.250999450684 24 24 24
32.671875000000 24.484375000000 60.288993835449 161 161 161
32.687500000000 24.484375000000 60.541999816895 81 81 81
32.671875000000 24.656250000000 59.999000549316 117 117 117
32.671875000000 24.656250000000 60.045997619629 110 110 110
32.671875000000 24.656250000000 60.088996887207 110 110 110
32.703125000000 24.656250000000 60.140998840332 114 114 114
32.703125000000 24.656250000000 60.189002990723 128 128 128
32.703125000000 24.656250000000 60.236991882324 129 129 129
32.640625000000 24.656250000000 60.258995056152 138 138 138
32.640625000000 24.656250000000 60.301002502441 137 137 137
32.671875000000 24.656250000000 60.607002258301 53 53 53
32.640625000000 24.656250000000 60.642997741699 17 17 17
32.656250000000 24.843750000000 60.284004211426 138 138 138
32.656250000000 24.843750000000 60.333000183105 79 79 79
32.656250000000 24.843750000000 60.719993591309 73 73 73
32.640625000000 25.015625000000 60.260993957520 36 36 36
32.625000000000 25.000000000000 60.297996520996 161 161 161
32.656250000000 25.015625000000 60.793006896973 92 92 92
32.625000000000 25.187500000000 60.277992248535 127 127 127
32.609375000000 25.187500000000 60.319999694824 106 106 106
32.640625000000 25.187500000000 60.868003845215 102 102 102
32.609375000000 25.359375000000 60.299003601074 157 157 157
32.640625000000 25.359375000000 60.939994812012 93 93 93
32.609375000000 25.531250000000 60.277992248535 119 119 119
32.609375000000 25.531250000000 60.318000793457 118 118 118
32.640625000000 25.531250000000 61.017997741699 91 91 91
32.609375000000 25.718750000000 60.297004699707 158 158 158
32.578125000000 25.718750000000 60.334999084473 21 21 21
32.656250000000 25.718750000000 61.101997375488 87 87 87
32.609375000000 25.890625000000 60.277992248535 86 86 86
32.578125000000 25.890625000000 60.312995910645 145 145 145
32.640625000000 25.890625000000 61.172004699707 75 75 75
32.609375000000 25.890625000000 61.211997985840 25 25 25
32.593750000000 26.062500000000 60.295005798340 151 151 151
32.578125000000 26.062500000000 60.331993103027 58 58 58
32.625000000000 26.062500000000 61.247993469238 64 64 64
32.609375000000 26.062500000000 61.293006896973 42 42 42
32.593750000000 26.234375000000 60.273002624512 84 84 84
32.578125000000 26.218750000000 60.314002990723 153 153 153
32.640625000000 26.250000000000 61.331993103027 64 64 64
32.609375000000 26.234375000000 61.368995666504 47 47 47
32.578125000000 26.406250000000 60.291999816895 153 153 153
32.562500000000 26.406250000000 60.333000183105 77 77 77
32.625000000000 26.406250000000 61.407997131348 39 39 39
32.609375000000 26.406250000000 61.454002380371 81 81 81
32.593750000000 26.578125000000 60.275993347168 20 20 20
32.562500000000 26.578125000000 60.308998107910 159 159 159
32.609375000000 26.593750000000 61.482002258301 81 81 81
32.578125000000 26.593750000000 61.512992858887 90 90 90
32.640625000000 26.750000000000 60.275993347168 18 18 18
32.562500000000 26.750000000000 60.286994934082 128 128 128
32.484375000000 26.750000000000 60.297004699707 142 142 142
32.453125000000 26.750000000000 60.329002380371 82 82 82
32.546875000000 26.765625000000 60.418006896973 24 24 24
32.546875000000 26.765625000000 60.467994689941 38 38 38
32.546875000000 26.765625000000 60.513999938965 57 57 57
32.546875000000 26.765625000000 60.562004089355 68 68 68
32.546875000000 26.765625000000 60.609992980957 84 84 84
32.546875000000 26.765625000000 60.657997131348 96 96 96
32.546875000000 26.765625000000 60.708000183105 93 93 93
32.546875000000 26.765625000000 60.752006530762 95 95 95
32.515625000000 26.750000000000 60.791999816895 93 93 93
32.546875000000 26.765625000000 60.849006652832 98 98 98
32.515625000000 26.750000000000 60.890007019043 105 105 105
32.546875000000 26.765625000000 60.952995300293 117 117 117
32.546875000000 26.765625000000 60.997993469238 108 108 108
32.546875000000 26.765625000000 61.051002502441 122 122 122
32.546875000000 26.765625000000 61.096000671387 130 130 130
32.546875000000 26.765625000000 61.150993347168 131 131 131
32.546875000000 26.765625000000 61.206001281738 132 132 132
32.546875000000 26.765625000000 61.260993957520 135 135 135
32.546875000000 26.765625000000 61.312004089355 144 144 144
32.546875000000 26.781250000000 61.366996765137 154 154 154
32.546875000000 26.781250000000 61.420005798340 163 163 163
32.546875000000 26.781250000000 61.471992492676 169 169 169
32.546875000000 26.781250000000 61.525993347168 173 173 173
32.546875000000 26.765625000000 61.575996398926 136 136 136
32.546875000000 26.765625000000 61.629997253418 170 170 170
32.546875000000 26.781250000000 61.689994812012 167 167 167
32.546875000000 26.781250000000 61.745994567871 162 162 162
32.546875000000 26.781250000000 61.803001403809 144 144 144
32.546875000000 26.781250000000 61.859992980957 142 142 142
32.546875000000 26.765625000000 61.907997131348 147 147 147
32.531250000000 26.781250000000 61.956993103027 17 17 17
32.328125000000 26.890625000000 55.047996520996 176 176 176
32.328125000000 26.906250000000 55.088996887207 179 179 179
32.328125000000 26.906250000000 55.127998352051 182 182 182
32.328125000000 26.906250000000 55.172004699707 179 179 179
32.328125000000 26.906250000000 55.215003967285 181 181 181
32.328125000000 26.906250000000 55.254005432129 182 182 182
32.328125000000 26.906250000000 55.295005798340 179 179 179
32.343750000000 26.906250000000 55.657997131348 184 184 184
32.359375000000 26.906250000000 55.693992614746 183 183 183
32.359375000000 26.906250000000 55.974006652832 186 186 186
32.359375000000 26.906250000000 56.012992858887 191 191 191
32.343750000000 26.906250000000 56.053001403809 192 192 192
32.359375000000 26.906250000000 56.090995788574 195 195 195
32.359375000000 26.906250000000 56.129997253418 199 199 199
32.359375000000 26.906250000000 56.168998718262 199 199 199
32.359375000000 26.906250000000 56.208000183105 199 199 199
32.343750000000 26.906250000000 56.247993469238 200 200 200
32.359375000000 26.906250000000 56.284004211426 201 201 201
32.359375000000 26.906250000000 56.323997497559 201 201 201
32.359375000000 26.906250000000 56.361991882324 203 203 203
32.359375000000 26.906250000000 56.400993347168 201 201 201
32.359375000000 26.906250000000 56.439002990723 204 204 204
32.359375000000 26.906250000000 56.476997375488 208 208 208
32.359375000000 26.906250000000 56.515007019043 209 209 209
32.359375000000 26.906250000000 56.553993225098 209 209 209
32.359375000000 26.906250000000 56.592002868652 210 210 210
32.359375000000 26.906250000000 56.629997253418 213 213 213
32.359375000000 26.906250000000 56.668006896973 215 215 215
32.375000000000 26.906250000000 56.704994201660 213 213 213
32.375000000000 26.906250000000 56.743995666504 211 211 211
32.375000000000 26.906250000000 56.780998229980 213 213 213
32.375000000000 26.906250000000 56.818992614746 209 209 209
32.375000000000 26.906250000000 56.857994079590 213 213 213
32.375000000000 26.906250000000 56.894996643066 215 215 215
32.359375000000 26.906250000000 56.933006286621 221 221 221
32.359375000000 26.906250000000 56.971000671387 220 220 220
32.375000000000 26.906250000000 57.008995056152 222 222 222
32.390625000000 26.906250000000 57.045997619629 225 225 225
32.390625000000 26.906250000000 57.083992004395 227 227 227
32.390625000000 26.906250000000 57.122001647949 221 221 221
32.390625000000 26.906250000000 57.159996032715 222 222 222
32.390625000000 26.906250000000 57.196998596191 225 225 225
32.390625000000 26.906250000000 57.234992980957 224 224 224
32.390625000000 26.906250000000 57.273002624512 220 220 220
32.390625000000 26.906250000000 57.310997009277 220 220 220
32.390625000000 26.906250000000 57.347999572754 220 220 220
32.390625000000 26.906250000000 57.385993957520 218 218 218
32.390625000000 26.906250000000 57.424003601074 222 222 222
32.390625000000 26.906250000000 57.461997985840 222 222 222
32.390625000000 26.906250000000 57.499992370605 210 210 210
32.390625000000 26.906250000000 57.536994934082 211 211 211
32.390625000000 26.906250000000 57.575004577637 217 217 217
32.406250000000 26.906250000000 57.614006042480 215 215 215
32.390625000000 26.906250000000 57.650993347168 211 211 211
32.390625000000 26.906250000000 57.689002990723 213 213 213
32.390625000000 26.906250000000 57.726997375488 210 210 210
32.406250000000 26.906250000000 57.765998840332 207 207 207
32.390625000000 26.906250000000 57.803001403809 206 206 206
32.406250000000 26.906250000000 57.842002868652 205 205 205
32.390625000000 26.921875000000 57.879997253418 208 208 208
32.406250000000 26.906250000000 57.918006896973 205 205 205
32.406250000000 26.906250000000 57.956993103027 206 206 206
32.406250000000 26.906250000000 57.995002746582 201 201 201
32.406250000000 26.906250000000 58.032997131348 202 202 202
32.421875000000 26.906250000000 58.073005676270 198 198 198
32.406250000000 26.906250000000 58.111000061035 200 200 200
32.406250000000 26.906250000000 58.148994445801 201 201 201
32.421875000000 26.906250000000 58.187995910645 196 196 196
32.421875000000 26.921875000000 58.226997375488 198 198 198
32.421875000000 26.921875000000 58.265007019043 194 194 194
32.421875000000 26.921875000000 58.305000305176 198 198 198
32.421875000000 26.921875000000 58.342994689941 196 196 196
32.437500000000 26.906250000000 58.383003234863 195 195 195
32.437500000000 26.906250000000 58.422004699707 193 193 193
32.421875000000 26.921875000000 58.461006164551 196 196 196
32.437500000000 26.906250000000 58.500999450684 199 199 199
32.437500000000 26.906250000000 58.540992736816 196 196 196
32.437500000000 26.906250000000 58.579994201660 196 196 196
32.437500000000 26.906250000000 58.618995666504 197 197 197
32.453125000000 26.937500000000 58.659996032715 194 194 194
32.453125000000 26.921875000000 58.700004577637 193 193 193
32.453125000000 26.937500000000 58.739006042480 189 189 189
32.437500000000 26.906250000000 58.777992248535 188 188 188
32.453125000000 26.921875000000 58.819999694824 191 191 191
32.453125000000 26.921875000000 58.859992980957 187 187 187
32.453125000000 26.921875000000 58.900001525879 185 185 185
32.453125000000 26.921875000000 58.943000793457 190 190 190
32.453125000000 26.921875000000 58.984001159668 189 189 189
32.453125000000 26.921875000000 59.025001525879 189 189 189
32.468750000000 26.921875000000 59.066001892090 181 181 181
32.468750000000 26.921875000000 59.107002258301 186 186 186
32.468750000000 26.921875000000 59.150001525879 187 187 187
32.468750000000 26.921875000000 59.191001892090 182 182 182
32.468750000000 26.921875000000 59.232002258301 184 184 184
32.468750000000 26.921875000000 59.273994445801 182 182 182
32.484375000000 26.906250000000 59.318000793457 179 179 179
32.484375000000 26.906250000000 59.359992980957 186 186 186
32.484375000000 26.906250000000 59.402000427246 182 182 182
32.484375000000 26.906250000000 59.444999694824 182 182 182
32.484375000000 26.937500000000 59.489006042480 182 182 182
32.468750000000 26.921875000000 59.525993347168 180 180 180
32.484375000000 26.937500000000 59.575996398926 179 179 179
32.484375000000 26.937500000000 59.620002746582 176 176 176
32.484375000000 26.921875000000 59.665000915527 172 172 172
32.484375000000 26.921875000000 59.708000183105 169 169 169
32.484375000000 26.937500000000 59.749000549316 169 169 169
32.484375000000 26.937500000000 59.793006896973 160 160 160
32.484375000000 26.937500000000 59.836997985840 154 154 154
32.484375000000 26.937500000000 59.879997253418 147 147 147
32.515625000000 26.937500000000 59.928001403809 139 139 139
32.515625000000 26.937500000000 59.972999572754 130 130 130
32.515625000000 26.921875000000 60.019004821777 118 118 118
32.515625000000 26.921875000000 60.068000793457 115 115 115
32.515625000000 26.921875000000 60.111000061035 107 107 107
32.515625000000 26.921875000000 60.157005310059 107 107 107
32.515625000000 26.921875000000 60.204002380371 101 101 101
32.531250000000 26.937500000000 60.250999450684 92 92 92
32.531250000000 26.937500000000 60.299995422363 86 86 86
32.531250000000 26.937500000000 60.347999572754 95 95 95
32.531250000000 26.937500000000 60.390007019043 102 102 102
32.546875000000 26.937500000000 60.443992614746 97 97 97
32.546875000000 26.937500000000 60.495994567871 74 74 74
32.546875000000 26.937500000000 60.538993835449 42 42 42
32.531250000000 26.937500000000 60.584999084473 12 12 12
32.390625000000 26.906250000000 55.609001159668 112 112 112
33.015625000000 16.437500000000 59.392997741699 11 11 11
33.015625000000 16.437500000000 59.444999694824 15 15 15
33.015625000000 16.437500000000 59.491004943848 28 28 28
33.000000000000 16.421875000000 59.538002014160 37 37 37
33.000000000000 16.421875000000 59.588005065918 63 63 63
33.015625000000 16.437500000000 59.642005920410 73 73 73
33.000000000000 16.421875000000 59.689994812012 62 62 62
33.000000000000 16.421875000000 59.741004943848 73 73 73
33.000000000000 16.421875000000 59.790992736816 81 81 81
33.000000000000 16.421875000000 59.842002868652 89 89 89
32.984375000000 16.406250000000 59.888999938965 98 98 98
33.000000000000 16.421875000000 59.943000793457 104 104 104
33.000000000000 16.421875000000 59.995994567871 100 100 100
32.984375000000 16.406250000000 60.040000915527 110 110 110
33.000000000000 16.421875000000 60.094993591309 119 119 119
32.984375000000 16.406250000000 60.146003723145 108 108 108
33.000000000000 16.421875000000 60.200996398926 129 129 129
33.000000000000 16.421875000000 60.250999450684 118 118 118
33.000000000000 16.421875000000 60.305992126465 128 128 128
33.000000000000 16.421875000000 60.359001159668 128 128 128
32.984375000000 16.406250000000 60.407997131348 121 121 121
33.000000000000 16.421875000000 60.465995788574 132 132 132
33.000000000000 16.421875000000 60.515998840332 134 134 134
32.984375000000 16.421875000000 60.568992614746 139 139 139
32.984375000000 16.421875000000 60.622993469238 152 152 152
32.984375000000 16.406250000000 60.674003601074 150 150 150
32.984375000000 16.421875000000 60.728996276855 154 154 154
32.984375000000 16.406250000000 60.782997131348 160 160 160
32.984375000000 16.421875000000 60.842002868652 140 140 140
32.984375000000 16.421875000000 60.896003723145 156 156 156
32.984375000000 16.421875000000 60.950996398926 156 156 156
32.984375000000 16.421875000000 61.004997253418 148 148 148
32.984375000000 16.421875000000 61.055000305176 140 140 140
33.000000000000 16.421875000000 61.120994567871 144 144 144
32.984375000000 16.406250000000 61.168998718262 140 140 140
32.984375000000 16.406250000000 61.226005554199 140 140 140
32.984375000000 16.421875000000 61.286994934082 140 140 140
32.984375000000 16.421875000000 61.338005065918 144 144 144
32.984375000000 16.421875000000 61.396003723145 144 144 144
32.984375000000 16.421875000000 61.454002380371 137 137 137
32.984375000000 16.421875000000 61.512001037598 136 136 136
32.984375000000 16.421875000000 61.571006774902 146 146 146
32.984375000000 16.421875000000 61.629005432129 148 148 148
32.984375000000 16.421875000000 61.687004089355 148 148 148
32.984375000000 16.421875000000 61.747001647949 150 150 150
32.984375000000 16.421875000000 61.806999206543 168 168 168
32.984375000000 16.437500000000 61.870002746582 178 178 178
32.796875000000 16.453125000000 55.224006652832 190 190 190
32.796875000000 16.453125000000 55.271995544434 191 191 191
32.796875000000 16.453125000000 55.321006774902 193 193 193
32.828125000000 16.468750000000 55.361991882324 186 186 186
32.843750000000 16.484375000000 55.403999328613 178 178 178
32.859375000000 16.500000000000 55.450996398926 182 182 182
32.859375000000 16.500000000000 55.499992370605 176 176 176
32.859375000000 16.500000000000 55.547996520996 175 175 175
32.859375000000 16.500000000000 55.596992492676 178 178 178
32.859375000000 16.500000000000 55.646995544434 180 180 180
32.859375000000 16.500000000000 55.698005676270 183 183 183
32.843750000000 16.484375000000 55.747001647949 181 181 181
32.859375000000 16.500000000000 55.793998718262 173 173 173
32.843750000000 16.484375000000 55.846000671387 199 199 199
32.859375000000 16.500000000000 55.892997741699 188 188 188
32.859375000000 16.500000000000 55.941001892090 187 187 187
32.843750000000 16.484375000000 55.989997863770 191 191 191
32.843750000000 16.484375000000 56.038002014160 194 194 194
32.843750000000 16.484375000000 56.086997985840 194 194 194
32.843750000000 16.484375000000 56.133995056152 195 195 195
32.843750000000 16.484375000000 56.183006286621 189 189 189
32.843750000000 16.484375000000 56.230003356934 203 203 203
32.843750000000 16.484375000000 56.277992248535 204 204 204
32.859375000000 16.500000000000 56.325004577637 197 197 197
32.843750000000 16.484375000000 56.372993469238 196 196 196
32.843750000000 16.484375000000 56.420997619629 200 200 200
32.843750000000 16.500000000000 56.467994689941 201 201 201
32.843750000000 16.484375000000 56.515007019043 200 200 200
32.843750000000 16.500000000000 56.562004089355 198 198 198
32.843750000000 16.484375000000 56.609001159668 198 198 198
32.843750000000 16.484375000000 56.655998229980 215 215 215
32.843750000000 16.500000000000 56.702995300293 220 220 220
32.843750000000 16.500000000000 56.749992370605 218 218 218
32.843750000000 16.500000000000 56.797004699707 219 219 219
32.843750000000 16.484375000000 56.842994689941 213 213 213
32.843750000000 16.484375000000 56.888999938965 215 215 215
32.859375000000 16.500000000000 56.935997009277 213 213 213
32.843750000000 16.500000000000 56.982994079590 203 203 203
32.843750000000 16.500000000000 57.030006408691 201 201 201
32.843750000000 16.500000000000 57.075996398926 217 217 217
32.843750000000 16.500000000000 57.122001647949 225 225 225
32.843750000000 16.500000000000 57.168998718262 223 223 223
32.843750000000 16.500000000000 57.215003967285 217 217 217
32.843750000000 16.500000000000 57.262001037598 217 217 217
32.843750000000 16.500000000000 57.308006286621 222 222 222
32.843750000000 16.500000000000 57.353996276855 223 223 223
32.843750000000 16.500000000000 57.400001525879 223 223 223
32.843750000000 16.500000000000 57.446998596191 223 223 223
32.843750000000 16.500000000000 57.493003845215 226 226 226
32.843750000000 16.500000000000 57.538993835449 228 228 228
32.843750000000 16.500000000000 57.584999084473 225 225 225
32.843750000000 16.500000000000 57.631996154785 221 221 221
32.843750000000 16.500000000000 57.678001403809 220 220 220
32.859375000000 16.500000000000 57.724006652832 219 219 219
32.859375000000 16.500000000000 57.771003723145 224 224 224
32.859375000000 16.500000000000 57.816993713379 205 205 205
32.859375000000 16.500000000000 57.862998962402 194 194 194
32.859375000000 16.500000000000 57.909004211426 211 211 211
32.859375000000 16.500000000000 57.956001281738 214 214 214
32.859375000000 16.500000000000 58.002006530762 215 215 215
32.859375000000 16.500000000000 58.049003601074 210 210 210
32.859375000000 16.500000000000 58.094993591309 216 216 216
32.859375000000 16.500000000000 58.142005920410 215 215 215
32.859375000000 16.500000000000 58.189002990723 218 218 218
32.859375000000 16.500000000000 58.234992980957 211 211 211
32.859375000000 16.500000000000 58.282005310059 214 214 214
32.859375000000 16.500000000000 58.327995300293 213 213 213
32.859375000000 16.500000000000 58.375999450684 211 211 211
32.859375000000 16.515625000000 58.422996520996 207 207 207
32.859375000000 16.515625000000 58.469001770020 200 200 200
32.859375000000 16.515625000000 58.517005920410 200 200 200
32.859375000000 16.515625000000 58.562995910645 201 201 201
32.859375000000 16.515625000000 58.611000061035 207 207 207
32.859375000000 16.515625000000 58.657997131348 207 207 207
32.859375000000 16.515625000000 58.704994201660 196 196 196
32.859375000000 16.515625000000 58.752998352051 195 195 195
32.859375000000 16.500000000000 58.801002502441 195 195 195
32.859375000000 16.515625000000 58.849006652832 196 196 196
32.859375000000 16.500000000000 58.896995544434 197 197 197
32.875000000000 16.515625000000 58.946006774902 199 199 199
32.875000000000 16.515625000000 58.993995666504 205 205 205
32.875000000000 16.515625000000 59.041999816895 188 188 188
32.875000000000 16.515625000000 59.090003967285 191 191 191
32.875000000000 16.515625000000 59.138999938965 193 193 193
32.875000000000 16.515625000000 59.185997009277 188 188 188
32.890625000000 16.531250000000 59.236000061035 191 191 191
32.890625000000 16.531250000000 59.284996032715 187 187 187
32.890625000000 16.531250000000 59.334999084473 181 181 181
32.890625000000 16.531250000000 59.383995056152 184 184 184
32.890625000000 16.531250000000 59.431999206543 184 184 184
32.890625000000 16.531250000000 59.482994079590 182 182 182
32.890625000000 16.531250000000 59.532005310059 179 179 179
32.890625000000 16.531250000000 59.581001281738 179 179 179
32.890625000000 16.531250000000 59.633003234863 178 178 178
32.890625000000 16.531250000000 59.683006286621 176 176 176
32.890625000000 16.531250000000 59.734001159668 176 176 176
32.921875000000 16.562500000000 59.786003112793 172 172 172
32.890625000000 16.531250000000 59.833000183105 170 170 170
32.921875000000 16.562500000000 59.887992858887 167 167 167
32.890625000000 16.531250000000 59.935997009277 157 157 157
32.890625000000 16.531250000000 59.986000061035 146 146 146
32.921875000000 16.546875000000 60.041999816895 135 135 135
32.921875000000 16.562500000000 60.094001770020 145 145 145
32.921875000000 16.562500000000 60.140998840332 124 124 124
32.921875000000 16.562500000000 60.196006774902 135 135 135
32.921875000000 16.562500000000 60.247993469238 128 128 128
32.921875000000 16.562500000000 60.297004699707 111 111 111
32.921875000000 16.562500000000 60.353996276855 114 114 114
32.921875000000 16.562500000000 60.405006408691 102 102 102
32.921875000000 16.562500000000 60.461006164551 82 82 82
32.921875000000 16.562500000000 60.510993957520 66 66 66
32.921875000000 16.562500000000 60.564002990723 53 53 53
32.921875000000 16.562500000000 60.620002746582 24 24 24
32.921875000000 16.562500000000 60.674995422363 12 12 12
33.015625000000 16.625000000000 61.448997497559 111 111 111
32.953125000000 16.593750000000 61.461997985840 97 97 97
32.906250000000 16.562500000000 61.495994567871 83 83 83
32.734375000000 16.593750000000 55.112998962402 185 185 185
32.765625000000 16.593750000000 55.155998229980 186 186 186
32.765625000000 16.609375000000 55.202003479004 184 184 184
32.765625000000 16.609375000000 55.252006530762 181 181 181
32.765625000000 16.609375000000 55.301002502441 178 178 178
32.781250000000 16.625000000000 55.349006652832 183 183 183
32.781250000000 16.625000000000 55.396003723145 187 187 187
32.781250000000 16.625000000000 55.446006774902 181 181 181
32.765625000000 16.609375000000 55.497993469238 182 182 182
32.781250000000 16.625000000000 55.543006896973 176 176 176
32.796875000000 16.625000000000 55.588996887207 181 181 181
32.796875000000 16.625000000000 55.637001037598 180 180 180
32.812500000000 16.640625000000 55.683998107910 187 187 187
32.812500000000 16.640625000000 55.732994079590 179 179 179
32.859375000000 16.656250000000 55.767005920410 218 218 218
32.796875000000 16.625000000000 55.831001281738 165 165 165
32.812500000000 16.640625000000 55.877006530762 156 156 156
32.812500000000 16.640625000000 55.922996520996 149 149 149
32.812500000000 16.640625000000 55.972999572754 141 141 141
32.828125000000 16.640625000000 56.017005920410 168 168 168
32.859375000000 16.671875000000 56.055000305176 236 236 236
32.859375000000 16.671875000000 56.103996276855 224 224 224
32.828125000000 16.656250000000 56.161994934082 119 119 119
32.828125000000 16.640625000000 56.206993103027 102 102 102
32.828125000000 16.656250000000 56.254997253418 64 64 64
32.828125000000 16.656250000000 56.303993225098 12 12 12
32.953125000000 16.750000000000 60.127998352051 128 128 128
32.937500000000 16.734375000000 60.174003601074 9 9 9
33.015625000000 16.781250000000 61.402000427246 61 61 61
32.953125000000 16.906250000000 60.150001525879 134 134 134
33.015625000000 16.968750000000 61.318000793457 19 19 19
32.984375000000 16.953125000000 61.364006042480 19 19 19
32.953125000000 17.093750000000 60.131004333496 93 93 93
32.921875000000 17.093750000000 60.176002502441 87 87 87
32.984375000000 17.125000000000 61.277992248535 56 56 56
32.937500000000 17.265625000000 60.150993347168 122 122 122
32.984375000000 17.296875000000 61.187995910645 83 83 83
32.937500000000 17.437500000000 60.170997619629 135 135 135
32.984375000000 17.468750000000 61.107002258301 83 83 83
32.937500000000 17.609375000000 60.140998840332 75 75 75
32.921875000000 17.609375000000 60.187995910645 96 96 96
32.968750000000 17.656250000000 61.012001037598 75 75 75
32.921875000000 17.781250000000 60.163993835449 121 121 121
32.921875000000 17.781250000000 60.213005065918 16 16 16
32.968750000000 17.812500000000 60.928001403809 39 39 39
32.968750000000 17.812500000000 60.984001159668 19 19 19
32.921875000000 17.968750000000 60.144996643066 20 20 20
32.906250000000 17.937500000000 60.189002990723 129 129 129
32.953125000000 17.968750000000 60.894004821777 72 72 72
32.921875000000 18.125000000000 60.166999816895 95 95 95
32.890625000000 18.125000000000 60.215003967285 93 93 93
32.921875000000 18.140625000000 60.805992126465 90 90 90
32.890625000000 18.312500000000 60.183998107910 130 130 130
32.890625000000 18.281250000000 60.230995178223 8 8 8
32.921875000000 18.312500000000 60.724998474121 94 94 94
32.906250000000 18.468750000000 60.161994934082 30 30 30
32.890625000000 18.468750000000 60.206993103027 127 127 127
32.921875000000 18.500000000000 60.640007019043 85 85 85
32.890625000000 18.640625000000 60.185997009277 116 116 116
32.890625000000 18.640625000000 60.237998962402 57 57 57
32.921875000000 18.656250000000 60.562004089355 86 86 86
32.921875000000 18.843750000000 60.180992126465 18 18 18
32.859375000000 18.812500000000 60.209999084473 128 128 128
32.906250000000 18.812500000000 60.482002258301 68 68 68
32.890625000000 19.000000000000 60.187995910645 82 82 82
32.875000000000 18.984375000000 60.234992980957 131 131 131
32.890625000000 19.000000000000 60.405006408691 69 69 69
32.859375000000 19.156250000000 60.204002380371 122 122 122
32.859375000000 19.156250000000 60.256996154785 50 50 50
32.906250000000 19.187500000000 60.323997497559 38 38 38
32.859375000000 19.343750000000 60.180992126465 102 102 102
32.843750000000 19.328125000000 60.226997375488 132 132 132
32.859375000000 19.343750000000 60.280998229980 46 46 46
32.859375000000 19.500000000000 60.206993103027 116 116 116
32.843750000000 19.500000000000 60.254997253418 91 91 91
32.859375000000 19.687500000000 59.935005187988 86 86 86
32.875000000000 19.687500000000 60.193992614746 9 9 9
32.843750000000 19.687500000000 60.234001159668 137 137 137
32.859375000000 19.843750000000 59.907997131348 48 48 48
32.859375000000 19.859375000000 59.959999084473 21 21 21
32.828125000000 19.843750000000 60.206993103027 88 88 88
32.828125000000 19.843750000000 60.254997253418 119 119 119
32.859375000000 20.031250000000 59.928993225098 97 97 97
32.828125000000 20.031250000000 60.226997375488 132 132 132
32.828125000000 20.031250000000 60.275001525879 30 30 30
32.843750000000 20.218750000000 59.952003479004 77 77 77
32.828125000000 20.187500000000 60.202995300293 51 51 51
32.828125000000 20.187500000000 60.249000549316 134 134 134
32.828125000000 20.375000000000 59.928001403809 82 82 82
32.828125000000 20.375000000000 60.228004455566 119 119 119
32.796875000000 20.359375000000 60.275001525879 71 71 71
32.843750000000 20.562500000000 59.958992004395 99 99 99
32.828125000000 20.562500000000 60.211006164551 29 29 29
32.796875000000 20.531250000000 60.254005432129 143 143 143
32.812500000000 20.718750000000 59.928993225098 66 66 66
32.796875000000 20.718750000000 59.972999572754 14 14 14
32.812500000000 20.718750000000 60.230995178223 109 109 109
32.812500000000 20.718750000000 60.278999328613 102 102 102
32.812500000000 20.875000000000 59.950996398926 105 105 105
32.796875000000 20.890625000000 60.245994567871 133 133 133
32.796875000000 20.906250000000 60.301002502441 14 14 14
32.828125000000 21.078125000000 59.930992126465 68 68 68
32.828125000000 21.078125000000 59.980995178223 148 148 148
32.828125000000 21.093750000000 60.036003112793 169 169 169
32.828125000000 21.078125000000 60.086006164551 180 180 180
32.843750000000 21.093750000000 60.140007019043 188 188 188
32.828125000000 21.093750000000 60.189994812012 123 123 123
32.781250000000 21.046875000000 60.219993591309 107 107 107
32.781250000000 21.046875000000 60.271003723145 129 129 129
32.796875000000 21.234375000000 59.956993103027 136 136 136
32.812500000000 21.250000000000 60.008995056152 198 198 198
32.828125000000 21.250000000000 60.062004089355 205 205 205
32.812500000000 21.250000000000 60.111000061035 214 214 214
32.828125000000 21.250000000000 60.165000915527 201 201 201
32.828125000000 21.250000000000 60.215995788574 11 11 11
32.765625000000 21.218750000000 60.247001647949 125 125 125
32.796875000000 21.218750000000 60.303993225098 23 23 23
32.812500000000 21.406250000000 59.931999206543 15 15 15
32.812500000000 21.406250000000 59.982002258301 188 188 188
32.812500000000 21.406250000000 60.034004211426 171 171 171
32.812500000000 21.406250000000 60.086006164551 144 144 144
32.812500000000 21.406250000000 60.135993957520 189 189 189
32.812500000000 21.406250000000 60.187995910645 140 140 140
32.781250000000 21.406250000000 60.226005554199 47 47 47
32.750000000000 21.375000000000 60.267997741699 126 126 126
32.796875000000 21.578125000000 59.954994201660 83 83 83
32.796875000000 21.578125000000 60.004005432129 198 198 198
32.796875000000 21.578125000000 60.056999206543 195 195 195
32.796875000000 21.578125000000 60.105995178223 195 195 195
32.812500000000 21.593750000000 60.161003112793 197 197 197
32.812500000000 21.593750000000 60.209999084473 75 75 75
32.765625000000 21.562500000000 60.245002746582 107 107 107
32.765625000000 21.562500000000 60.291999816895 100 100 100
32.796875000000 21.750000000000 59.974998474121 155 155 155
32.796875000000 21.750000000000 60.023994445801 203 203 203
32.796875000000 21.765625000000 60.077995300293 181 181 181
32.796875000000 21.750000000000 60.133995056152 85 85 85
32.796875000000 21.750000000000 60.181999206543 182 182 182
32.765625000000 21.750000000000 60.265998840332 134 134 134
32.796875000000 21.937500000000 59.952003479004 52 52 52
32.781250000000 21.937500000000 59.997993469238 195 195 195
32.781250000000 21.937500000000 60.049995422363 153 153 153
32.796875000000 21.937500000000 60.105003356934 159 159 159
32.796875000000 21.937500000000 60.155006408691 203 203 203
32.796875000000 21.937500000000 60.204994201660 102 102 102
32.765625000000 21.921875000000 60.245002746582 85 85 85
32.765625000000 21.906250000000 60.288002014160 120 120 120
32.796875000000 22.109375000000 59.976997375488 137 137 137
32.765625000000 22.093750000000 60.027000427246 202 202 202
32.796875000000 22.109375000000 60.079002380371 141 141 141
32.796875000000 22.093750000000 60.131996154785 146 146 146
32.796875000000 22.093750000000 60.183998107910 196 196 196
32.796875000000 22.093750000000 60.232994079590 11 11 11
32.734375000000 22.062500000000 60.262001037598 125 125 125
32.734375000000 22.062500000000 60.310005187988 33 33 33
32.765625000000 22.265625000000 59.997993469238 185 185 185
32.781250000000 22.250000000000 60.049003601074 206 206 206
32.781250000000 22.250000000000 60.099006652832 203 203 203
32.796875000000 22.265625000000 60.150993347168 198 198 198
32.796875000000 22.281250000000 60.206993103027 137 137 137
32.796875000000 22.265625000000 60.252998352051 86 86 86
32.734375000000 22.234375000000 60.284996032715 134 134 134
32.765625000000 22.437500000000 59.967994689941 70 70 70
32.765625000000 22.437500000000 60.017997741699 205 205 205
32.765625000000 22.437500000000 60.071006774902 164 164 164
32.765625000000 22.437500000000 60.118003845215 213 213 213
32.765625000000 22.437500000000 60.172996520996 209 209 209
32.781250000000 22.453125000000 60.224998474121 105 105 105
32.734375000000 22.421875000000 60.258995056152 86 86 86
32.718750000000 22.406250000000 60.301002502441 115 115 115
32.765625000000 22.625000000000 59.986991882324 145 145 145
32.750000000000 22.593750000000 60.034996032715 199 199 199
32.765625000000 22.625000000000 60.088996887207 165 165 165
32.765625000000 22.625000000000 60.142997741699 127 127 127
32.781250000000 22.625000000000 60.193992614746 186 186 186
32.765625000000 22.625000000000 60.241004943848 8 8 8
32.718750000000 22.593750000000 60.275993347168 132 132 132
32.703125000000 22.593750000000 60.321998596191 30 30 30
32.734375000000 22.781250000000 59.959999084473 34 34 34
32.734375000000 22.781250000000 60.010993957520 197 197 197
32.734375000000 22.781250000000 60.060997009277 189 189 189
32.765625000000 22.781250000000 60.114997863770 93 93 93
32.765625000000 22.781250000000 60.165992736816 185 185 185
32.765625000000 22.781250000000 60.213996887207 139 139 139
32.734375000000 22.781250000000 60.258003234863 51 51 51
32.718750000000 22.750000000000 60.301002502441 140 140 140
32.734375000000 22.937500000000 59.984001159668 99 99 99
32.750000000000 22.937500000000 60.034996032715 205 205 205
32.734375000000 22.937500000000 60.083000183105 203 203 203
32.750000000000 22.937500000000 60.137001037598 150 150 150
32.765625000000 22.968750000000 60.191993713379 183 183 183
32.750000000000 22.937500000000 60.237998962402 64 64 64
32.718750000000 22.937500000000 60.277000427246 117 117 117
32.703125000000 22.906250000000 60.318000793457 82 82 82
32.734375000000 23.125000000000 60.006996154785 155 155 155
32.734375000000 23.125000000000 60.055992126465 197 197 197
32.734375000000 23.125000000000 60.107002258301 150 150 150
32.734375000000 23.125000000000 60.159996032715 177 177 177
32.750000000000 23.125000000000 60.211997985840 188 188 188
32.703125000000 23.093750000000 60.299003601074 131 131 131
32.718750000000 23.281250000000 59.971000671387 27 27 27
32.703125000000 23.281250000000 60.017005920410 78 78 78
32.703125000000 23.281250000000 60.265998840332 42 42 42
32.687500000000 23.265625000000 60.310997009277 142 142 142
32.703125000000 23.437500000000 59.993003845215 81 81 81
32.703125000000 23.437500000000 60.286994934082 111 111 111
32.687500000000 23.437500000000 60.333992004395 99 99 99
32.703125000000 23.625000000000 60.015007019043 100 100 100
32.734375000000 23.625000000000 60.275001525879 34 34 34
32.671875000000 23.593750000000 60.308006286621 135 135 135
