25.796875000000 33.218750000000 60.864006042480 155 155 155
25.828125000000 33.187500000000 61.810005187988 158 158 158
25.812500000000 32.890625000000 60.859992980957 144 144 144
25.843750000000 32.875000000000 61.825996398926 149 149 149
25.828125000000 32.562500000000 60.853004455566 145 145 145
25.796875000000 32.562500000000 60.879997253418 170 170 170
25.828125000000 32.546875000000 61.808998107910 144 144 144
25.828125000000 32.250000000000 60.859992980957 60 60 60
25.828125000000 32.250000000000 60.857002258301 153 153 153
25.843750000000 32.218750000000 61.803993225098 151 151 151
25.828125000000 31.906250000000 60.864006042480 154 154 154
25.859375000000 31.890625000000 61.851005554199 149 149 149
25.828125000000 31.906250000000 61.808006286621 55 55 55
25.828125000000 31.593750000000 60.849998474121 164 164 164
25.828125000000 31.593750000000 60.885993957520 176 176 176
25.859375000000 31.578125000000 61.806999206543 150 150 150
25.843750000000 31.250000000000 60.849998474121 81 81 81
25.828125000000 31.265625000000 60.847999572754 152 152 152
25.859375000000 31.250000000000 61.810005187988 152 152 152
25.828125000000 30.937500000000 60.849006652832 133 133 133
25.859375000000 30.906250000000 61.812004089355 154 154 154
25.843750000000 30.937500000000 61.823005676270 81 81 81
25.843750000000 30.609375000000 60.849998474121 157 157 157
25.828125000000 30.625000000000 60.974998474121 148 148 148
25.859375000000 30.593750000000 61.808006286621 155 155 155
25.859375000000 30.281250000000 60.851997375488 141 141 141
25.843750000000 30.281250000000 60.851005554199 131 131 131
25.859375000000 30.250000000000 61.810997009277 149 149 149
25.859375000000 29.953125000000 60.859992980957 83 83 83
25.843750000000 29.968750000000 60.857002258301 141 141 141
25.875000000000 29.937500000000 61.818992614746 159 159 159
25.859375000000 29.640625000000 60.838996887207 128 128 128
25.890625000000 29.625000000000 61.812995910645 136 136 136
25.859375000000 29.609375000000 61.810005187988 128 128 128
25.859375000000 29.312500000000 60.872993469238 151 151 151
25.875000000000 29.281250000000 61.816993713379 157 157 157
25.859375000000 28.968750000000 60.862998962402 126 126 126
25.859375000000 29.000000000000 60.857002258301 107 107 107
25.890625000000 28.968750000000 61.825996398926 155 155 155
25.859375000000 28.656250000000 60.849998474121 111 111 111
25.890625000000 28.625000000000 61.827003479004 144 144 144
25.875000000000 28.656250000000 61.819999694824 117 117 117
25.921875000000 28.281250000000 61.833000183105 36 36 36
25.890625000000 28.312500000000 61.819999694824 150 150 150
25.875000000000 28.328125000000 60.874992370605 111 111 111
25.906250000000 27.968750000000 61.827003479004 148 148 148
25.890625000000 28.000000000000 60.896995544434 127 127 127
25.921875000000 27.640625000000 61.825004577637 143 143 143
25.890625000000 27.656250000000 61.838996887207 110 110 110
25.890625000000 27.656250000000 60.907005310059 133 133 133
25.921875000000 27.312500000000 61.821998596191 28 28 28
25.906250000000 27.312500000000 61.827003479004 147 147 147
25.906250000000 27.000000000000 61.833992004395 152 152 152
25.921875000000 26.671875000000 61.831001281738 135 135 135
25.906250000000 26.671875000000 61.840003967285 118 118 118
25.890625000000 26.703125000000 60.915000915527 125 125 125
25.906250000000 26.343750000000 61.836006164551 141 141 141
25.921875000000 26.343750000000 61.844993591309 47 47 47
25.921875000000 26.031250000000 61.838005065918 143 143 143
25.921875000000 25.718750000000 61.842002868652 80 80 80
25.953125000000 25.687500000000 61.849998474121 142 142 142
25.921875000000 25.375000000000 61.838005065918 127 127 127
25.953125000000 25.359375000000 61.836997985840 57 57 57
25.937500000000 25.046875000000 61.846992492676 137 137 137
25.921875000000 24.718750000000 61.833000183105 40 40 40
25.953125000000 24.703125000000 61.859001159668 140 140 140
25.937500000000 24.390625000000 61.836006164551 95 95 95
25.953125000000 24.375000000000 61.842994689941 64 64 64
25.953125000000 24.062500000000 61.859992980957 129 129 129
25.968750000000 23.734375000000 61.874000549316 136 136 136
25.984375000000 23.406250000000 61.855995178223 76 76 76
25.953125000000 23.406250000000 61.838005065918 57 57 57
25.968750000000 23.093750000000 61.872993469238 112 112 112
25.984375000000 22.750000000000 61.885002136230 138 138 138
25.984375000000 22.093750000000 61.900001525879 88 88 88
25.796875000000 34.156250000000 60.853996276855 254 254 254
25.828125000000 34.156250000000 61.866004943848 97 97 97
25.843750000000 34.156250000000 61.816993713379 139 139 139
27.671875000000 34.125000000000 62.196006774902 80 80 80
28.375000000000 34.093750000000 62.844001770020 145 145 145
29.921875000000 34.062500000000 62.905006408691 142 142 142
29.984375000000 34.062500000000 62.890998840332 22 22 22
29.921875000000 34.062500000000 61.890998840332 149 149 149
29.296875000000 34.078125000000 60.982994079590 171 171 171
29.328125000000 34.062500000000 60.969001770020 46 46 46
25.796875000000 33.843750000000 60.846992492676 146 146 146
25.812500000000 33.843750000000 60.838005065918 193 193 193
25.828125000000 33.843750000000 61.818000793457 111 111 111
27.671875000000 33.781250000000 62.194999694824 77 77 77
28.359375000000 33.781250000000 62.857002258301 147 147 147
28.390625000000 33.781250000000 62.831001281738 104 104 104
29.953125000000 33.734375000000 62.894004821777 146 146 146
29.921875000000 33.734375000000 61.903999328613 102 102 102
29.953125000000 33.750000000000 61.881004333496 125 125 125
29.296875000000 33.750000000000 60.997001647949 27 27 27
29.328125000000 33.750000000000 60.971992492676 169 169 169
25.812500000000 33.531250000000 60.853004455566 191 191 191
25.828125000000 33.531250000000 60.861000061035 205 205 205
25.843750000000 33.515625000000 61.801002502441 131 131 131
27.640625000000 33.468750000000 62.176002502441 81 81 81
28.390625000000 33.453125000000 62.855995178223 145 145 145
29.937500000000 33.421875000000 62.909004211426 147 147 147
29.984375000000 33.406250000000 62.887992858887 55 55 55
29.937500000000 33.421875000000 61.890998840332 154 154 154
29.328125000000 33.437500000000 60.991004943848 162 162 162
29.328125000000 33.437500000000 60.963005065918 90 90 90
25.796875000000 33.218750000000 60.847999572754 43 43 43
25.796875000000 33.203125000000 60.864006042480 221 221 221
25.828125000000 33.187500000000 61.870002746582 124 124 124
25.859375000000 33.203125000000 61.816993713379 127 127 127
27.640625000000 33.140625000000 62.183006286621 70 70 70
28.359375000000 33.125000000000 62.846992492676 142 142 142
28.390625000000 33.125000000000 62.833992004395 111 111 111
29.953125000000 33.093750000000 62.892997741699 149 149 149
29.921875000000 33.093750000000 61.900001525879 100 100 100
29.953125000000 33.093750000000 61.877006530762 118 118 118
29.328125000000 33.093750000000 60.972999572754 172 172 172
25.796875000000 32.875000000000 60.859992980957 218 218 218
25.828125000000 32.875000000000 60.855003356934 248 248 248
25.828125000000 32.875000000000 61.810005187988 137 137 137
27.625000000000 32.828125000000 62.187004089355 75 75 75
28.390625000000 32.812500000000 62.853996276855 142 142 142
29.953125000000 32.765625000000 62.911994934082 143 143 143
29.953125000000 32.765625000000 61.892005920410 149 149 149
29.328125000000 32.781250000000 60.982002258301 162 162 162
29.328125000000 32.781250000000 60.965995788574 80 80 80
25.828125000000 32.562500000000 60.859992980957 205 205 205
25.828125000000 32.546875000000 60.868003845215 108 108 108
25.859375000000 32.546875000000 61.805000305176 136 136 136
27.609375000000 32.500000000000 62.170997619629 78 78 78
28.359375000000 32.468750000000 62.846000671387 156 156 156
28.406250000000 32.484375000000 62.833992004395 94 94 94
29.937500000000 32.437500000000 62.920997619629 28 28 28
29.953125000000 32.437500000000 62.883995056152 143 143 143
29.921875000000 32.453125000000 61.896995544434 126 126 126
29.953125000000 32.437500000000 61.870994567871 103 103 103
29.312500000000 32.453125000000 61.002006530762 36 36 36
29.328125000000 32.437500000000 60.967994689941 174 174 174
25.828125000000 32.546875000000 61.857994079590 117 117 117
25.812500000000 32.218750000000 60.861991882324 174 174 174
25.828125000000 32.218750000000 60.868995666504 227 227 227
25.859375000000 32.218750000000 60.898002624512 99 99 99
27.593750000000 32.187500000000 62.172004699707 85 85 85
28.359375000000 32.156250000000 62.851997375488 28 28 28
28.390625000000 32.156250000000 62.844993591309 136 136 136
29.953125000000 32.125000000000 62.892997741699 149 149 149
29.953125000000 32.125000000000 61.887001037598 146 146 146
29.312500000000 32.125000000000 60.972999572754 176 176 176
25.859375000000 32.218750000000 61.853996276855 121 121 121
25.828125000000 31.906250000000 60.849998474121 238 238 238
25.843750000000 31.906250000000 60.877998352051 254 254 254
25.859375000000 31.890625000000 61.812004089355 133 133 133
27.578125000000 31.843750000000 62.165000915527 82 82 82
28.375000000000 31.843750000000 62.842002868652 167 167 167
28.406250000000 31.828125000000 62.833000183105 62 62 62
29.953125000000 31.781250000000 62.926002502441 74 74 74
29.953125000000 31.796875000000 62.881004333496 124 124 124
29.921875000000 31.796875000000 61.894996643066 146 146 146
29.953125000000 31.812500000000 61.868003845215 85 85 85
29.296875000000 31.812500000000 60.982002258301 79 79 79
29.328125000000 31.812500000000 60.967002868652 156 156 156
25.812500000000 31.593750000000 60.849006652832 72 72 72
25.828125000000 31.562500000000 60.849006652832 254 254 254
25.859375000000 31.578125000000 60.857002258301 94 94 94
25.890625000000 31.562500000000 61.805000305176 103 103 103
27.562500000000 31.531250000000 62.180000305176 92 92 92
28.390625000000 31.500000000000 62.844993591309 142 142 142
29.953125000000 31.468750000000 62.909004211426 145 145 145
29.937500000000 31.468750000000 61.881996154785 146 146 146
29.312500000000 31.484375000000 60.974006652832 169 169 169
29.328125000000 31.500000000000 60.946998596191 41 41 41
25.859375000000 31.578125000000 61.849006652832 132 132 132
25.828125000000 31.250000000000 60.851997375488 159 159 159
25.859375000000 31.250000000000 60.866004943848 218 218 218
25.859375000000 31.250000000000 61.814002990723 127 127 127
27.546875000000 31.203125000000 62.155998229980 78 78 78
28.390625000000 31.187500000000 62.847999572754 162 162 162
28.406250000000 31.171875000000 62.831993103027 72 72 72
29.921875000000 31.156250000000 62.916999816895 75 75 75
29.953125000000 31.156250000000 62.890998840332 113 113 113
29.921875000000 31.156250000000 61.894996643066 135 135 135
29.953125000000 31.156250000000 61.872001647949 104 104 104
29.296875000000 31.171875000000 60.980995178223 68 68 68
29.328125000000 31.156250000000 60.967994689941 160 160 160
25.828125000000 30.921875000000 60.864997863770 230 230 230
25.843750000000 30.937500000000 60.913002014160 254 254 254
25.890625000000 30.921875000000 61.818992614746 139 139 139
27.515625000000 30.875000000000 62.166999816895 86 86 86
28.390625000000 30.859375000000 62.842002868652 136 136 136
29.953125000000 30.828125000000 62.898002624512 137 137 137
29.937500000000 30.812500000000 61.881996154785 147 147 147
29.312500000000 30.843750000000 60.967994689941 173 173 173
25.828125000000 30.593750000000 60.857002258301 61 61 61
25.843750000000 30.609375000000 60.851005554199 254 254 254
25.859375000000 30.593750000000 60.859001159668 92 92 92
27.515625000000 30.562500000000 62.161994934082 82 82 82
28.390625000000 30.531250000000 62.853996276855 159 159 159
28.406250000000 30.531250000000 62.827003479004 57 57 57
29.937500000000 30.500000000000 62.920005798340 93 93 93
29.968750000000 30.500000000000 62.885002136230 109 109 109
29.921875000000 30.500000000000 61.896995544434 147 147 147
29.968750000000 30.500000000000 61.868995666504 87 87 87
29.296875000000 30.515625000000 60.980003356934 90 90 90
29.328125000000 30.500000000000 60.965003967285 158 158 158
25.859375000000 30.593750000000 61.870002746582 113 113 113
25.843750000000 30.281250000000 60.853004455566 128 128 128
25.859375000000 30.281250000000 60.855995178223 215 215 215
25.875000000000 30.281250000000 61.814994812012 124 124 124
27.500000000000 30.218750000000 62.155006408691 76 76 76
28.359375000000 30.218750000000 62.877006530762 23 23 23
28.390625000000 30.218750000000 62.840003967285 141 141 141
29.953125000000 30.187500000000 62.900001525879 135 135 135
29.953125000000 30.187500000000 61.881996154785 148 148 148
29.312500000000 30.187500000000 60.969001770020 173 173 173
25.843750000000 29.968750000000 60.838996887207 241 241 241
25.859375000000 29.953125000000 60.892005920410 254 254 254
25.890625000000 29.953125000000 61.805992126465 134 134 134
27.484375000000 29.906250000000 62.161994934082 84 84 84
28.375000000000 29.875000000000 62.855003356934 149 149 149
28.390625000000 29.875000000000 62.825004577637 69 69 69
29.921875000000 29.843750000000 62.911003112793 82 82 82
29.953125000000 29.843750000000 62.879997253418 106 106 106
29.921875000000 29.843750000000 61.896003723145 140 140 140
29.953125000000 29.843750000000 61.870002746582 100 100 100
29.296875000000 29.859375000000 60.982002258301 90 90 90
29.328125000000 29.875000000000 60.963996887207 157 157 157
25.828125000000 29.640625000000 60.829994201660 53 53 53
25.859375000000 29.640625000000 60.853996276855 231 231 231
25.859375000000 29.625000000000 60.857994079590 130 130 130
25.890625000000 29.625000000000 61.821998596191 43 43 43
27.453125000000 29.593750000000 62.148994445801 89 89 89
28.390625000000 29.562500000000 62.844993591309 144 144 144
29.953125000000 29.531250000000 62.900993347168 133 133 133
29.953125000000 29.531250000000 61.885993957520 150 150 150
29.328125000000 29.531250000000 60.976997375488 167 167 167
29.343750000000 29.546875000000 60.961006164551 41 41 41
25.875000000000 29.625000000000 61.866004943848 119 119 119
25.843750000000 29.312500000000 60.855003356934 103 103 103
25.859375000000 29.312500000000 60.849998474121 254 254 254
25.890625000000 29.312500000000 61.861000061035 123 123 123
27.453125000000 29.250000000000 62.161994934082 83 83 83
28.375000000000 29.234375000000 62.846000671387 152 152 152
28.421875000000 29.234375000000 62.844993591309 88 88 88
29.953125000000 29.203125000000 62.924003601074 77 77 77
29.968750000000 29.218750000000 62.887001037598 120 120 120
29.921875000000 29.203125000000 61.898002624512 127 127 127
29.953125000000 29.187500000000 61.874000549316 102 102 102
29.328125000000 29.218750000000 60.991004943848 86 86 86
29.343750000000 29.218750000000 60.974006652832 157 157 157
25.859375000000 28.968750000000 60.853996276855 254 254 254
25.875000000000 28.968750000000 60.898994445801 254 254 254
25.890625000000 28.968750000000 61.823005676270 136 136 136
27.437500000000 28.937500000000 62.163002014160 81 81 81
28.390625000000 28.906250000000 62.849998474121 132 132 132
29.953125000000 28.875000000000 62.903999328613 124 124 124
29.953125000000 28.875000000000 61.881996154785 143 143 143
29.328125000000 28.890625000000 60.976997375488 177 177 177
25.859375000000 28.656250000000 60.846992492676 204 204 204
25.890625000000 28.656250000000 60.861000061035 135 135 135
27.421875000000 28.609375000000 62.163002014160 76 76 76
28.375000000000 28.578125000000 62.857994079590 155 155 155
28.421875000000 28.593750000000 62.836006164551 60 60 60
29.953125000000 28.562500000000 62.924995422363 108 108 108
29.968750000000 28.562500000000 62.885993957520 98 98 98
29.921875000000 28.546875000000 61.898002624512 146 146 146
29.953125000000 28.546875000000 61.868995666504 79 79 79
29.328125000000 28.562500000000 60.987998962402 126 126 126
29.343750000000 28.562500000000 60.972999572754 131 131 131
25.890625000000 28.656250000000 61.842002868652 121 121 121
25.859375000000 28.343750000000 60.847999572754 85 85 85
25.890625000000 28.343750000000 60.847999572754 254 254 254
25.890625000000 28.328125000000 61.881004333496 120 120 120
27.406250000000 28.281250000000 62.163002014160 68 68 68
28.375000000000 28.250000000000 62.883003234863 31 31 31
28.390625000000 28.250000000000 62.851997375488 141 141 141
29.953125000000 28.218750000000 62.905998229980 137 137 137
29.953125000000 28.218750000000 61.885993957520 148 148 148
29.328125000000 28.250000000000 60.978996276855 178 178 178
25.859375000000 28.015625000000 60.842002868652 142 142 142
25.890625000000 28.000000000000 60.918006896973 254 254 254
25.921875000000 28.000000000000 61.819999694824 129 129 129
27.390625000000 27.968750000000 62.150001525879 64 64 64
28.390625000000 27.937500000000 62.859001159668 158 158 158
28.421875000000 27.937500000000 62.831993103027 52 52 52
29.953125000000 27.906250000000 62.926002502441 124 124 124
29.968750000000 27.906250000000 62.892005920410 84 84 84
29.953125000000 27.906250000000 61.898994445801 148 148 148
29.953125000000 27.906250000000 61.875999450684 61 61 61
29.328125000000 27.906250000000 60.997001647949 151 151 151
29.343750000000 27.921875000000 60.974006652832 108 108 108
25.875000000000 27.687500000000 60.847999572754 238 238 238
25.890625000000 27.687500000000 60.874000549316 254 254 254
27.375000000000 27.640625000000 62.168998718262 66 66 66
28.359375000000 27.609375000000 62.861000061035 46 46 46
28.390625000000 27.609375000000 62.849006652832 149 149 149
29.968750000000 27.593750000000 62.911003112793 134 134 134
29.953125000000 27.578125000000 61.888999938965 145 145 145
29.328125000000 27.593750000000 60.978004455566 171 171 171
25.859375000000 27.359375000000 60.831001281738 36 36 36
25.890625000000 27.375000000000 60.849998474121 208 208 208
25.906250000000 27.375000000000 60.851005554199 111 111 111
27.359375000000 27.312500000000 62.159996032715 70 70 70
28.390625000000 27.281250000000 62.868995666504 161 161 161
28.421875000000 27.281250000000 62.857994079590 29 29 29
29.953125000000 27.250000000000 62.924995422363 127 127 127
29.984375000000 27.265625000000 62.905006408691 50 50 50
29.953125000000 27.265625000000 61.900993347168 158 158 158
29.953125000000 27.250000000000 61.872993469238 39 39 39
29.328125000000 27.265625000000 60.995994567871 165 165 165
29.343750000000 27.281250000000 60.972999572754 86 86 86
25.921875000000 27.359375000000 61.890007019043 129 129 129
25.875000000000 27.031250000000 60.844001770020 94 94 94
25.906250000000 27.046875000000 60.905006408691 254 254 254
25.937500000000 27.031250000000 61.859001159668 114 114 114
27.359375000000 27.000000000000 62.166999816895 81 81 81
28.359375000000 26.968750000000 62.870002746582 52 52 52
28.406250000000 26.968750000000 62.861000061035 129 129 129
29.968750000000 26.937500000000 62.909996032715 142 142 142
29.937500000000 26.937500000000 61.918998718262 64 64 64
29.953125000000 26.937500000000 61.888999938965 133 133 133
29.312500000000 26.937500000000 61.004005432129 75 75 75
29.343750000000 26.937500000000 60.982994079590 164 164 164
25.890625000000 26.718750000000 60.851997375488 249 249 249
25.890625000000 26.718750000000 60.890007019043 254 254 254
27.328125000000 26.656250000000 62.148002624512 84 84 84
28.390625000000 26.640625000000 62.864006042480 150 150 150
29.953125000000 26.593750000000 62.922996520996 144 144 144
29.953125000000 26.593750000000 61.905006408691 163 163 163
29.328125000000 26.625000000000 60.993003845215 176 176 176
25.890625000000 26.406250000000 60.846992492676 200 200 200
25.921875000000 26.390625000000 60.862998962402 117 117 117
27.312500000000 26.343750000000 62.152000427246 92 92 92
28.375000000000 26.312500000000 62.883995056152 64 64 64
28.406250000000 26.312500000000 62.864997863770 155 155 155
29.921875000000 26.281250000000 62.937004089355 17 17 17
29.968750000000 26.281250000000 62.926002502441 137 137 137
29.921875000000 26.281250000000 61.916999816895 82 82 82
29.968750000000 26.281250000000 61.894996643066 139 139 139
29.312500000000 26.296875000000 61.008995056152 111 111 111
29.359375000000 26.296875000000 61.000999450684 141 141 141
25.921875000000 26.375000000000 61.879005432129 129 129 129
25.890625000000 26.062500000000 60.849006652832 74 74 74
25.890625000000 26.062500000000 60.928993225098 254 254 254
25.953125000000 26.062500000000 61.870002746582 111 111 111
27.296875000000 26.031250000000 62.150993347168 92 92 92
28.390625000000 26.000000000000 62.872001647949 164 164 164
29.953125000000 25.968750000000 62.933998107910 148 148 148
29.953125000000 25.968750000000 61.905998229980 152 152 152
29.328125000000 25.968750000000 61.000999450684 171 171 171
25.890625000000 25.750000000000 60.851997375488 228 228 228
25.921875000000 25.750000000000 60.844001770020 202 202 202
27.265625000000 25.703125000000 62.135002136230 85 85 85
28.375000000000 25.671875000000 62.879997253418 80 80 80
28.406250000000 25.671875000000 62.862998962402 138 138 138
29.937500000000 25.640625000000 62.933006286621 49 49 49
29.984375000000 25.656250000000 62.924995422363 136 136 136
29.937500000000 25.640625000000 61.915992736816 100 100 100
29.953125000000 25.625000000000 61.898994445801 122 122 122
29.328125000000 25.656250000000 61.008003234863 154 154 154
29.359375000000 25.656250000000 60.991004943848 100 100 100
25.921875000000 25.437500000000 60.847999572754 201 201 201
25.921875000000 25.421875000000 60.877006530762 172 172 172
27.265625000000 25.375000000000 62.155006408691 76 76 76
28.390625000000 25.343750000000 62.872001647949 150 150 150
29.953125000000 25.312500000000 62.937004089355 139 139 139
29.953125000000 25.312500000000 61.911003112793 145 145 145
29.296875000000 25.328125000000 61.021995544434 33 33 33
29.328125000000 25.328125000000 61.004005432129 164 164 164
25.921875000000 25.093750000000 60.913002014160 254 254 254
25.953125000000 25.093750000000 61.907005310059 98 98 98
27.265625000000 25.062500000000 62.155006408691 82 82 82
28.375000000000 25.031250000000 62.875999450684 118 118 118
28.421875000000 25.031250000000 62.866996765137 122 122 122
29.953125000000 25.000000000000 62.952003479004 95 95 95
29.984375000000 25.000000000000 62.920997619629 116 116 116
29.953125000000 25.000000000000 61.922996520996 145 145 145
29.953125000000 24.984375000000 61.894996643066 112 112 112
29.328125000000 25.000000000000 61.015007019043 166 166 166
29.359375000000 25.000000000000 60.997001647949 50 50 50
25.921875000000 24.781250000000 60.840995788574 109 109 109
25.921875000000 24.765625000000 60.861991882324 232 232 232
27.234375000000 24.718750000000 62.148002624512 69 69 69
28.390625000000 24.687500000000 62.890007019043 144 144 144
29.953125000000 24.656250000000 62.941001892090 134 134 134
29.953125000000 24.656250000000 61.913993835449 139 139 139
29.328125000000 24.687500000000 61.021995544434 126 126 126
29.359375000000 24.687500000000 61.008995056152 145 145 145
25.921875000000 24.453125000000 60.851005554199 212 212 212
25.953125000000 24.437500000000 60.879005432129 232 232 232
27.218750000000 24.406250000000 62.148994445801 68 68 68
28.375000000000 24.375000000000 62.890998840332 147 147 147
28.421875000000 24.375000000000 62.874000549316 104 104 104
29.953125000000 24.343750000000 62.956993103027 140 140 140
29.984375000000 24.343750000000 62.920997619629 68 68 68
29.953125000000 24.343750000000 61.926994323730 162 162 162
29.984375000000 24.328125000000 61.915992736816 50 50 50
29.343750000000 24.375000000000 61.023994445801 168 168 168
25.937500000000 24.125000000000 60.840995788574 180 180 180
25.953125000000 24.125000000000 60.866996765137 77 77 77
27.171875000000 24.093750000000 62.152992248535 53 53 53
27.203125000000 24.093750000000 62.137001037598 72 72 72
28.406250000000 24.046875000000 62.888999938965 141 141 141
29.984375000000 24.015625000000 62.943992614746 143 143 143
29.921875000000 24.015625000000 61.935005187988 82 82 82
29.984375000000 24.031250000000 61.918006896973 139 139 139
29.328125000000 24.031250000000 61.028999328613 157 157 157
29.359375000000 24.031250000000 61.008995056152 88 88 88
25.921875000000 23.812500000000 60.834999084473 76 76 76
25.937500000000 23.812500000000 60.840003967285 191 191 191
27.171875000000 23.750000000000 62.153999328613 71 71 71
27.203125000000 23.765625000000 62.144996643066 77 77 77
28.390625000000 23.718750000000 62.902992248535 172 172 172
28.421875000000 23.718750000000 62.887001037598 77 77 77
29.953125000000 23.687500000000 62.954002380371 145 145 145
29.953125000000 23.687500000000 61.926002502441 151 151 151
29.328125000000 23.703125000000 61.047004699707 83 83 83
29.343750000000 23.718750000000 61.025001525879 158 158 158
25.921875000000 23.468750000000 60.831001281738 191 191 191
25.953125000000 23.484375000000 60.846000671387 214 214 214
27.171875000000 23.437500000000 62.159996032715 62 62 62
27.171875000000 23.437500000000 62.146003723145 79 79 79
28.421875000000 23.406250000000 62.902000427246 136 136 136
29.953125000000 23.375000000000 62.978996276855 37 37 37
29.984375000000 23.375000000000 62.941993713379 165 165 165
29.953125000000 23.375000000000 61.941993713379 103 103 103
29.984375000000 23.375000000000 61.924003601074 115 115 115
29.328125000000 23.375000000000 61.034004211426 172 172 172
25.937500000000 23.156250000000 60.851997375488 234 234 234
25.953125000000 23.156250000000 60.846000671387 176 176 176
27.140625000000 23.109375000000 62.159004211426 91 91 91
27.171875000000 23.109375000000 62.161994934082 77 77 77
28.390625000000 23.078125000000 62.909996032715 159 159 159
28.421875000000 23.078125000000 62.894004821777 37 37 37
29.968750000000 23.046875000000 62.965995788574 132 132 132
29.968750000000 23.046875000000 61.939994812012 137 137 137
29.328125000000 23.062500000000 61.051994323730 148 148 148
29.359375000000 23.062500000000 61.030006408691 124 124 124
25.921875000000 22.828125000000 60.853004455566 73 73 73
25.953125000000 22.812500000000 60.855003356934 218 218 218
25.953125000000 22.812500000000 60.846000671387 88 88 88
27.125000000000 22.796875000000 62.152992248535 102 102 102
27.156250000000 22.781250000000 62.150993347168 85 85 85
28.390625000000 22.750000000000 62.933998107910 70 70 70
28.421875000000 22.750000000000 62.902992248535 141 141 141
29.937500000000 22.718750000000 62.961997985840 87 87 87
29.984375000000 22.718750000000 62.952995300293 114 114 114
29.953125000000 22.718750000000 61.943992614746 147 147 147
29.984375000000 22.718750000000 61.913993835449 77 77 77
29.328125000000 22.718750000000 61.064994812012 36 36 36
29.359375000000 22.734375000000 61.041999816895 163 163 163
25.937500000000 22.500000000000 60.870002746582 156 156 156
25.953125000000 22.500000000000 60.883995056152 237 237 237
27.109375000000 22.468750000000 62.163002014160 101 101 101
27.140625000000 22.468750000000 62.152000427246 79 79 79
28.390625000000 22.421875000000 62.918006896973 150 150 150
29.968750000000 22.406250000000 62.971000671387 126 126 126
29.953125000000 22.390625000000 61.969001770020 16 16 16
29.968750000000 22.406250000000 61.941993713379 136 136 136
29.328125000000 22.406250000000 61.053993225098 171 171 171
29.328125000000 22.406250000000 61.023002624512 43 43 43
25.953125000000 22.187500000000 60.853004455566 254 254 254
25.984375000000 22.187500000000 60.851997375488 254 254 254
27.109375000000 22.156250000000 62.168006896973 101 101 101
27.125000000000 22.140625000000 62.165000915527 79 79 79
28.390625000000 22.109375000000 62.907997131348 117 117 117
28.421875000000 22.109375000000 62.907997131348 142 142 142
29.953125000000 22.062500000000 62.976997375488 113 113 113
29.984375000000 22.062500000000 62.961006164551 73 73 73
29.953125000000 22.062500000000 61.948997497559 157 157 157
29.984375000000 22.078125000000 61.928993225098 22 22 22
29.328125000000 22.078125000000 61.066001892090 126 126 126
29.343750000000 22.093750000000 61.047004699707 138 138 138
25.953125000000 21.859375000000 60.900001525879 254 254 254
25.984375000000 21.859375000000 60.849006652832 163 163 163
27.078125000000 21.812500000000 62.163993835449 122 122 122
27.109375000000 21.812500000000 62.165000915527 74 74 74
28.406250000000 21.781250000000 62.922004699707 148 148 148
29.968750000000 21.734375000000 62.972999572754 139 139 139
29.953125000000 21.750000000000 61.965003967285 73 73 73
29.968750000000 21.734375000000 61.946006774902 135 135 135
29.328125000000 21.750000000000 61.064994812012 165 165 165
25.953125000000 21.531250000000 60.857994079590 93 93 93
25.984375000000 21.531250000000 60.924003601074 255 255 255
25.984375000000 21.531250000000 60.836997985840 47 47 47
27.078125000000 21.500000000000 62.170005798340 116 116 116
27.093750000000 21.500000000000 62.159004211426 49 49 49
28.390625000000 21.468750000000 62.935005187988 133 133 133
28.421875000000 21.453125000000 62.924995422363 120 120 120
29.968750000000 21.421875000000 62.997993469238 140 140 140
29.968750000000 21.437500000000 61.963005065918 148 148 148
29.328125000000 21.437500000000 61.077003479004 177 177 177
29.359375000000 21.437500000000 61.062995910645 62 62 62
25.968750000000 21.515625000000 61.950004577637 122 122 122
25.953125000000 21.203125000000 60.840003967285 155 155 155
25.984375000000 21.203125000000 60.833992004395 254 254 254
27.046875000000 21.156250000000 62.180992126465 110 110 110
28.406250000000 21.125000000000 62.933006286621 144 144 144
29.953125000000 21.093750000000 62.999000549316 50 50 50
29.984375000000 21.093750000000 62.976997375488 141 141 141
29.968750000000 21.093750000000 61.976997375488 124 124 124
29.984375000000 21.093750000000 61.946006774902 102 102 102
29.312500000000 21.109375000000 61.075996398926 113 113 113
29.359375000000 21.125000000000 61.068000793457 144 144 144
25.968750000000 20.890625000000 60.913002014160 254 254 254
25.984375000000 20.875000000000 60.834999084473 117 117 117
27.046875000000 20.843750000000 62.172004699707 97 97 97
28.406250000000 20.812500000000 62.946998596191 150 150 150
28.421875000000 20.812500000000 62.930992126465 79 79 79
29.953125000000 20.781250000000 62.997993469238 131 131 131
29.984375000000 20.781250000000 61.969001770020 147 147 147
29.359375000000 20.796875000000 61.086997985840 168 168 168
25.953125000000 20.562500000000 60.849006652832 90 90 90
25.984375000000 20.562500000000 60.838996887207 190 190 190
27.031250000000 20.531250000000 62.180000305176 62 62 62
28.390625000000 20.484375000000 62.967994689941 19 19 19
28.421875000000 20.500000000000 62.939994812012 136 136 136
29.953125000000 20.468750000000 63.004005432129 104 104 104
29.984375000000 20.468750000000 62.978004455566 104 104 104
29.953125000000 20.453125000000 61.982994079590 161 161 161
29.984375000000 20.453125000000 61.959999084473 54 54 54
29.343750000000 20.468750000000 61.096992492676 168 168 168
29.359375000000 20.468750000000 61.075004577637 71 71 71
26.000000000000 20.562500000000 61.971992492676 130 130 130
25.968750000000 20.250000000000 60.879997253418 253 253 253
25.984375000000 20.250000000000 60.829002380371 239 239 239
27.015625000000 20.218750000000 62.168006896973 51 51 51
28.406250000000 20.156250000000 62.958992004395 152 152 152
28.437500000000 20.156250000000 62.939994812012 17 17 17
29.984375000000 20.125000000000 63.000999450684 135 135 135
29.953125000000 20.125000000000 61.993995666504 62 62 62
29.984375000000 20.125000000000 61.976005554199 142 142 142
29.328125000000 20.140625000000 61.111991882324 118 118 118
29.359375000000 20.156250000000 61.090995788574 159 159 159
25.984375000000 19.906250000000 61.978004455566 105 105 105
25.984375000000 19.921875000000 60.920997619629 255 255 255
26.015625000000 19.921875000000 60.836997985840 107 107 107
26.984375000000 19.875000000000 62.163002014160 49 49 49
28.390625000000 19.843750000000 62.967002868652 86 86 86
28.421875000000 19.843750000000 62.952995300293 139 139 139
29.968750000000 19.796875000000 63.027992248535 141 141 141
29.984375000000 19.812500000000 62.995002746582 43 43 43
29.968750000000 19.796875000000 61.986000061035 148 148 148
29.359375000000 19.812500000000 61.107002258301 163 163 163
25.968750000000 19.593750000000 60.836006164551 84 84 84
25.984375000000 19.593750000000 60.827003479004 185 185 185
26.984375000000 19.562500000000 62.170997619629 38 38 38
28.421875000000 19.531250000000 62.965995788574 147 147 147
29.984375000000 19.484375000000 63.010993957520 150 150 150
29.953125000000 19.484375000000 61.991996765137 112 112 112
29.984375000000 19.484375000000 61.974006652832 124 124 124
29.328125000000 19.500000000000 61.116004943848 167 167 167
29.359375000000 19.500000000000 61.097999572754 86 86 86
26.000000000000 19.578125000000 61.969993591309 122 122 122
25.984375000000 19.265625000000 60.827003479004 198 198 198
26.015625000000 19.281250000000 60.831001281738 249 249 249
26.968750000000 19.250000000000 62.172004699707 43 43 43
28.390625000000 19.187500000000 62.976997375488 117 117 117
28.421875000000 19.187500000000 62.954002380371 122 122 122
29.968750000000 19.156250000000 63.030998229980 138 138 138
29.984375000000 19.156250000000 61.989997863770 147 147 147
29.328125000000 19.187500000000 61.118995666504 109 109 109
29.359375000000 19.171875000000 61.114997863770 165 165 165
26.015625000000 18.937500000000 61.986000061035 130 130 130
26.015625000000 18.937500000000 60.913002014160 254 254 254
26.015625000000 18.937500000000 60.831993103027 106 106 106
26.953125000000 18.906250000000 62.176994323730 70 70 70
28.421875000000 18.875000000000 62.980003356934 144 144 144
29.984375000000 18.843750000000 63.058998107910 64 64 64
29.984375000000 18.843750000000 63.025001525879 123 123 123
29.968750000000 18.843750000000 62.006004333496 152 152 152
29.984375000000 18.843750000000 61.984001159668 72 72 72
29.359375000000 18.843750000000 61.131996154785 162 162 162
25.984375000000 18.625000000000 60.892997741699 158 158 158
26.015625000000 18.625000000000 60.831993103027 177 177 177
26.921875000000 18.593750000000 62.180000305176 52 52 52
26.953125000000 18.593750000000 62.176002502441 108 108 108
28.421875000000 18.562500000000 62.987998962402 149 149 149
28.437500000000 18.546875000000 62.974006652832 73 73 73
29.968750000000 18.515625000000 63.032005310059 132 132 132
29.953125000000 18.515625000000 62.008995056152 80 80 80
29.984375000000 18.500000000000 61.997001647949 134 134 134
29.343750000000 18.531250000000 61.144996643066 173 173 173
29.359375000000 18.531250000000 61.118003845215 50 50 50
26.015625000000 18.296875000000 61.924995422363 80 80 80
26.015625000000 18.296875000000 60.877998352051 254 254 254
26.015625000000 18.281250000000 60.819999694824 227 227 227
26.906250000000 18.265625000000 62.183998107910 105 105 105
26.921875000000 18.250000000000 62.170005798340 108 108 108
28.390625000000 18.218750000000 62.997001647949 46 46 46
28.421875000000 18.218750000000 62.987998962402 132 132 132
29.968750000000 18.187500000000 63.058006286621 146 146 146
30.015625000000 18.187500000000 63.041999816895 24 24 24
29.984375000000 18.187500000000 62.013999938965 154 154 154
29.359375000000 18.203125000000 61.163002014160 140 140 140
29.359375000000 18.218750000000 61.131996154785 129 129 129
26.031250000000 17.968750000000 61.993995666504 130 130 130
26.000000000000 17.968750000000 60.849006652832 213 213 213
26.031250000000 17.968750000000 60.814002990723 62 62 62
26.890625000000 17.937500000000 62.170997619629 112 112 112
26.921875000000 17.937500000000 62.168006896973 93 93 93
28.421875000000 17.906250000000 63.006996154785 149 149 149
29.953125000000 17.875000000000 63.071998596191 19 19 19
29.984375000000 17.875000000000 63.041999816895 133 133 133
29.953125000000 17.875000000000 62.028999328613 147 147 147
29.984375000000 17.875000000000 61.999000549316 103 103 103
29.328125000000 17.875000000000 61.170997619629 34 34 34
29.359375000000 17.875000000000 61.157997131348 161 161 161
26.000000000000 17.656250000000 60.887001037598 153 153 153
26.015625000000 17.656250000000 60.825996398926 173 173 173
26.859375000000 17.625000000000 62.183998107910 109 109 109
26.890625000000 17.625000000000 62.181999206543 61 61 61
28.390625000000 17.593750000000 63.019996643066 95 95 95
28.437500000000 17.578125000000 63.004997253418 135 135 135
29.968750000000 17.531250000000 63.055992126465 142 142 142
29.984375000000 17.546875000000 62.013999938965 136 136 136
29.359375000000 17.562500000000 61.166999816895 170 170 170
26.031250000000 17.328125000000 61.954994201660 135 135 135
26.015625000000 17.312500000000 60.881996154785 254 254 254
26.031250000000 17.328125000000 60.836006164551 227 227 227
26.859375000000 17.296875000000 62.187004089355 80 80 80
28.421875000000 17.250000000000 63.008003234863 135 135 135
29.953125000000 17.218750000000 63.073005676270 109 109 109
29.984375000000 17.218750000000 63.051994323730 86 86 86
29.984375000000 17.218750000000 62.040992736816 152 152 152
29.343750000000 17.250000000000 61.180992126465 164 164 164
29.390625000000 17.234375000000 61.165000915527 93 93 93
26.046875000000 16.984375000000 61.993003845215 113 113 113
26.015625000000 17.000000000000 60.825996398926 191 191 191
26.046875000000 17.000000000000 60.827995300293 80 80 80
26.843750000000 16.968750000000 62.183998107910 74 74 74
28.406250000000 16.937500000000 63.028999328613 144 144 144
28.453125000000 16.906250000000 63.019996643066 104 104 104
29.984375000000 16.906250000000 63.058998107910 123 123 123
29.953125000000 16.906250000000 62.043998718262 115 115 115
29.984375000000 16.906250000000 62.019996643066 118 118 118
29.328125000000 16.906250000000 61.191001892090 91 91 91
29.359375000000 16.906250000000 61.176002502441 151 151 151
26.031250000000 16.671875000000 61.956001281738 65 65 65
26.015625000000 16.687500000000 60.825004577637 102 102 102
26.031250000000 16.671875000000 60.825004577637 160 160 160
26.828125000000 16.656250000000 62.180000305176 61 61 61
28.406250000000 16.593750000000 63.043998718262 75 75 75
28.421875000000 16.593750000000 63.030006408691 130 130 130
29.968750000000 16.562500000000 63.081993103027 131 131 131
29.953125000000 16.562500000000 62.064002990723 25 25 25
29.984375000000 16.562500000000 62.047996520996 145 145 145
29.328125000000 16.593750000000 61.204002380371 53 53 53
29.359375000000 16.593750000000 61.189994812012 171 171 171
26.046875000000 16.656250000000 62.017997741699 129 129 129
26.046875000000 16.343750000000 61.976997375488 149 149 149
26.015625000000 16.343750000000 60.888999938965 254 254 254
26.046875000000 16.359375000000 60.827995300293 234 234 234
26.828125000000 16.312500000000 62.196998596191 62 62 62
28.421875000000 16.281250000000 63.036003112793 148 148 148
29.953125000000 16.250000000000 63.094001770020 76 76 76
29.984375000000 16.250000000000 63.064994812012 113 113 113
29.984375000000 16.250000000000 62.045997619629 151 151 151
29.984375000000 16.234375000000 62.019004821777 26 26 26
29.359375000000 16.250000000000 61.206993103027 167 167 167
26.046875000000 16.015625000000 62.021003723145 82 82 82
26.046875000000 16.031250000000 60.833992004395 176 176 176
26.046875000000 16.031250000000 60.821998596191 50 50 50
26.812500000000 16.000000000000 62.193992614746 83 83 83
28.406250000000 15.953125000000 63.051994323730 144 144 144
28.453125000000 15.968750000000 63.043998718262 135 135 135
29.984375000000 15.921875000000 63.092002868652 136 136 136
29.984375000000 15.937500000000 62.071006774902 123 123 123
29.984375000000 15.921875000000 62.041999816895 133 133 133
29.359375000000 15.937500000000 61.217994689941 171 171 171
29.359375000000 15.937500000000 61.193000793457 88 88 88
26.046875000000 15.687500000000 61.978004455566 101 101 101
26.078125000000 15.687500000000 62.047004699707 132 132 132
26.046875000000 15.687500000000 60.827995300293 153 153 153
26.796875000000 15.671875000000 62.193000793457 95 95 95
28.421875000000 15.625000000000 63.066001892090 130 130 130
29.953125000000 15.593750000000 63.107994079590 138 138 138
30.000000000000 15.593750000000 63.084999084473 19 19 19
29.984375000000 15.593750000000 62.064002990723 142 142 142
29.359375000000 15.625000000000 61.236991882324 129 129 129
29.359375000000 15.625000000000 61.215003967285 142 142 142
26.046875000000 15.375000000000 62.010002136230 117 117 117
26.046875000000 15.375000000000 60.840003967285 254 254 254
26.046875000000 15.375000000000 60.833000183105 208 208 208
26.781250000000 15.343750000000 62.183998107910 94 94 94
28.406250000000 15.312500000000 63.073997497559 154 154 154
28.453125000000 15.312500000000 63.051002502441 40 40 40
29.953125000000 15.281250000000 63.118995666504 68 68 68
29.984375000000 15.281250000000 63.096992492676 136 136 136
29.984375000000 15.281250000000 62.077995300293 146 146 146
29.359375000000 15.281250000000 61.249992370605 57 57 57
29.375000000000 15.296875000000 61.232994079590 161 161 161
26.078125000000 15.046875000000 62.041999816895 87 87 87
26.046875000000 15.062500000000 60.823997497559 168 168 168
26.765625000000 15.031250000000 62.198997497559 104 104 104
28.406250000000 14.968750000000 63.086997985840 83 83 83
28.453125000000 14.984375000000 63.079002380371 131 131 131
29.984375000000 14.937500000000 63.122001647949 137 137 137
29.968750000000 14.953125000000 62.092002868652 128 128 128
29.984375000000 14.968750000000 62.064994812012 106 106 106
29.359375000000 14.968750000000 61.249992370605 162 162 162
26.062500000000 14.734375000000 62.004997253418 145 145 145
26.046875000000 14.734375000000 60.846992492676 110 110 110
26.046875000000 14.734375000000 60.829002380371 153 153 153
26.734375000000 14.703125000000 62.209999084473 64 64 64
26.765625000000 14.703125000000 62.202995300293 111 111 111
28.421875000000 14.656250000000 63.081001281738 126 126 126
29.984375000000 14.625000000000 63.140007019043 143 143 143
30.015625000000 14.625000000000 63.122001647949 22 22 22
29.984375000000 14.625000000000 62.081993103027 129 129 129
29.359375000000 14.640625000000 61.258003234863 167 167 167
29.375000000000 14.625000000000 61.241004943848 59 59 59
26.109375000000 14.718750000000 62.056999206543 114 114 114
26.078125000000 14.406250000000 61.948997497559 100 100 100
26.046875000000 14.406250000000 60.834999084473 254 254 254
26.062500000000 14.406250000000 60.836997985840 230 230 230
26.703125000000 14.375000000000 62.206993103027 68 68 68
26.734375000000 14.375000000000 62.202003479004 100 100 100
28.421875000000 14.343750000000 63.107002258301 129 129 129
28.437500000000 14.343750000000 63.066993713379 108 108 108
29.953125000000 14.296875000000 63.150001525879 16 16 16
29.984375000000 14.312500000000 63.124000549316 131 131 131
29.984375000000 14.296875000000 62.101997375488 154 154 154
30.015625000000 14.312500000000 62.084999084473 23 23 23
29.343750000000 14.312500000000 61.277000427246 141 141 141
29.375000000000 14.312500000000 61.250999450684 135 135 135
26.109375000000 14.062500000000 62.079994201660 105 105 105
26.046875000000 14.093750000000 60.833000183105 202 202 202
26.078125000000 14.078125000000 60.833992004395 68 68 68
26.703125000000 14.062500000000 62.208992004395 74 74 74
26.734375000000 14.062500000000 62.198997497559 98 98 98
28.437500000000 14.015625000000 63.107994079590 117 117 117
29.984375000000 13.968750000000 63.142997741699 126 126 126
29.968750000000 13.984375000000 62.111000061035 89 89 89
29.984375000000 13.984375000000 62.088005065918 125 125 125
29.359375000000 14.000000000000 61.295005798340 51 51 51
29.359375000000 14.000000000000 61.280006408691 168 168 168
26.078125000000 13.750000000000 62.025001525879 149 149 149
26.046875000000 13.750000000000 60.844001770020 82 82 82
26.062500000000 13.750000000000 60.823005676270 167 167 167
26.687500000000 13.718750000000 62.206001281738 89 89 89
26.703125000000 13.718750000000 62.204994201660 80 80 80
28.421875000000 13.687500000000 63.111991882324 153 153 153
28.453125000000 13.687500000000 63.105995178223 62 62 62
29.953125000000 13.656250000000 63.159996032715 102 102 102
30.000000000000 13.656250000000 63.129005432129 102 102 102
29.984375000000 13.656250000000 62.109992980957 130 130 130
29.359375000000 13.687500000000 61.288002014160 163 163 163
26.109375000000 13.750000000000 62.079994201660 92 92 92
26.093750000000 13.421875000000 62.036003112793 82 82 82
26.062500000000 13.437500000000 60.827003479004 254 254 254
26.078125000000 13.437500000000 60.829994201660 254 254 254
26.671875000000 13.406250000000 62.224006652832 80 80 80
28.421875000000 13.375000000000 63.152000427246 62 62 62
28.453125000000 13.359375000000 63.114997863770 128 128 128
29.984375000000 13.343750000000 63.161003112793 138 138 138
29.984375000000 13.328125000000 62.129005432129 158 158 158
30.015625000000 13.343750000000 62.107994079590 70 70 70
29.359375000000 13.343750000000 61.310997009277 172 172 172
29.390625000000 13.343750000000 61.291999816895 79 79 79
26.078125000000 13.109375000000 62.045005798340 128 128 128
26.109375000000 13.093750000000 62.092002868652 125 125 125
26.078125000000 13.125000000000 60.823997497559 193 193 193
26.078125000000 13.109375000000 60.823997497559 73 73 73
26.671875000000 13.093750000000 62.219001770020 68 68 68
28.421875000000 13.046875000000 63.142997741699 138 138 138
29.968750000000 13.000000000000 63.176002502441 134 134 134
30.015625000000 13.000000000000 63.155006408691 17 17 17
29.953125000000 13.000000000000 62.138999938965 35 35 35
30.000000000000 13.000000000000 62.114997863770 137 137 137
29.359375000000 13.031250000000 61.318992614746 105 105 105
29.390625000000 13.031250000000 61.306999206543 141 141 141
26.093750000000 12.781250000000 62.051994323730 84 84 84
26.062500000000 12.781250000000 60.823997497559 104 104 104
26.078125000000 12.781250000000 60.814994812012 165 165 165
26.640625000000 12.765625000000 62.221992492676 108 108 108
28.421875000000 12.718750000000 63.152992248535 142 142 142
28.453125000000 12.718750000000 63.135002136230 93 93 93
29.968750000000 12.687500000000 63.202003479004 81 81 81
29.984375000000 12.687500000000 63.165000915527 110 110 110
29.984375000000 12.687500000000 62.135993957520 137 137 137
29.359375000000 12.703125000000 61.359992980957 55 55 55
29.375000000000 12.703125000000 61.325004577637 160 160 160
26.078125000000 12.453125000000 62.055000305176 34 34 34
26.109375000000 12.453125000000 62.064002990723 125 125 125
26.078125000000 12.468750000000 60.825004577637 254 254 254
26.109375000000 12.468750000000 60.816993713379 230 230 230
26.640625000000 12.437500000000 62.234992980957 111 111 111
28.421875000000 12.390625000000 63.152000427246 107 107 107
29.984375000000 12.375000000000 63.191001892090 135 135 135
29.984375000000 12.375000000000 62.148994445801 127 127 127
30.000000000000 12.375000000000 62.129005432129 99 99 99
29.359375000000 12.375000000000 61.340995788574 163 163 163
26.109375000000 12.125000000000 62.075996398926 150 150 150
26.125000000000 12.140625000000 62.094001770020 85 85 85
26.078125000000 12.140625000000 60.810005187988 182 182 182
26.109375000000 12.125000000000 60.823997497559 73 73 73
26.609375000000 12.125000000000 62.228004455566 108 108 108
28.421875000000 12.078125000000 63.166999816895 155 155 155
28.453125000000 12.062500000000 63.163002014160 78 78 78
29.953125000000 12.031250000000 63.206993103027 120 120 120
30.015625000000 12.046875000000 63.191993713379 87 87 87
30.000000000000 12.046875000000 62.155006408691 135 135 135
29.375000000000 12.062500000000 61.364997863770 142 142 142
29.390625000000 12.062500000000 61.331001281738 139 139 139
26.109375000000 11.812500000000 62.081993103027 79 79 79
26.062500000000 11.812500000000 60.808998107910 82 82 82
26.093750000000 11.812500000000 60.812995910645 178 178 178
26.609375000000 11.812500000000 62.228996276855 73 73 73
28.421875000000 11.750000000000 63.196006774902 31 31 31
28.453125000000 11.750000000000 63.176002502441 134 134 134
29.984375000000 11.718750000000 63.206001281738 137 137 137
29.984375000000 11.718750000000 62.172004699707 149 149 149
