27.437500000000 19.062500000000 5.340999603271 138 138 138
27.437500000000 19.062500000000 5.243000030518 155 155 155
27.437500000000 19.062500000000 5.145000457764 170 170 170
27.437500000000 19.062500000000 5.048999786377 177 177 177
27.437500000000 19.062500000000 4.951999664307 185 185 185
27.437500000000 19.062500000000 4.856000900269 198 198 198
27.437500000000 19.062500000000 4.760000228882 200 200 200
27.375000000000 19.000000000000 4.663999557495 211 211 211
27.375000000000 19.000000000000 4.568000793457 213 213 213
27.375000000000 19.000000000000 4.472999572754 216 216 216
27.375000000000 19.000000000000 4.378000259399 206 206 206
27.375000000000 19.000000000000 4.281999588013 195 195 195
27.375000000000 19.000000000000 4.187000274658 184 184 184
27.375000000000 19.000000000000 4.092000961304 176 176 176
27.375000000000 19.000000000000 3.996999740601 174 174 174
27.375000000000 19.000000000000 3.902000427246 119 119 119
27.375000000000 19.000000000000 3.805000305176 98 98 98
27.375000000000 19.000000000000 3.708999633789 81 81 81
27.375000000000 19.000000000000 3.614000320435 61 61 61
27.375000000000 19.000000000000 3.520000457764 38 38 38
27.375000000000 19.000000000000 3.423999786377 7 7 7
27.562500000000 18.875000000000 5.555000305176 233 233 233
27.562500000000 18.875000000000 5.454999923706 237 237 237
27.562500000000 18.875000000000 5.354999542236 215 215 215
27.562500000000 18.875000000000 5.256000518799 215 215 215
27.687500000000 18.875000000000 4.969999313354 36 36 36
27.687500000000 18.875000000000 4.871999740601 63 63 63
27.562500000000 18.875000000000 4.768999099731 91 91 91
27.687500000000 18.875000000000 4.673000335693 55 55 55
27.625000000000 18.875000000000 4.573999404907 82 82 82
27.687500000000 18.875000000000 4.475999832153 55 55 55
27.687500000000 18.875000000000 4.377000808716 63 63 63
27.500000000000 18.875000000000 3.993999481201 19 19 19
27.500000000000 18.875000000000 3.799999237061 13 13 13
27.500000000000 18.875000000000 3.702999114990 126 126 126
27.500000000000 18.875000000000 3.606000900269 175 175 175
27.500000000000 18.875000000000 3.510000228882 167 167 167
27.437500000000 18.875000000000 3.415000915527 120 120 120
27.625000000000 18.812500000000 5.656000137329 235 235 235
27.625000000000 18.812500000000 5.556999206543 210 210 210
27.562500000000 18.812500000000 5.455999374390 119 119 119
27.562500000000 18.812500000000 5.356000900269 195 195 195
27.562500000000 18.812500000000 5.256999969482 219 219 219
27.562500000000 18.812500000000 5.159000396729 228 228 228
27.687500000000 18.750000000000 4.972000122070 9 9 9
27.687500000000 18.750000000000 4.872999191284 68 68 68
27.687500000000 18.750000000000 4.774000167847 75 75 75
27.687500000000 18.750000000000 4.674999237061 72 72 72
27.687500000000 18.750000000000 4.576999664307 66 66 66
27.562500000000 18.687500000000 5.756000518799 232 232 232
27.562500000000 18.687500000000 5.656000137329 234 234 234
27.562500000000 18.687500000000 5.556999206543 178 178 178
27.562500000000 18.625000000000 5.259000778198 232 232 232
27.562500000000 18.625000000000 5.160999298096 239 239 239
27.500000000000 18.625000000000 5.062999725342 210 210 210
27.562500000000 18.500000000000 5.757999420166 204 204 204
27.562500000000 18.500000000000 5.658000946045 204 204 204
27.500000000000 18.500000000000 5.162000656128 200 200 200
27.500000000000 18.500000000000 5.063999176025 215 215 215
27.625000000000 19.750000000000 5.153999328613 10 10 10
27.687500000000 19.687500000000 5.613000869751 81 81 81
27.625000000000 19.562500000000 5.041000366211 149 149 149
27.625000000000 19.562500000000 5.156000137329 162 162 162
27.625000000000 19.625000000000 5.614000320435 200 200 200
27.625000000000 19.625000000000 5.729999542236 147 147 147
27.562500000000 19.375000000000 5.158000946045 152 152 152
27.562500000000 19.375000000000 5.270999908447 158 158 158
27.562500000000 19.375000000000 5.500000000000 186 186 186
27.562500000000 19.375000000000 5.614999771118 142 142 142
27.687500000000 19.312500000000 4.704999923706 44 44 44
27.687500000000 19.312500000000 4.819999694824 50 50 50
27.562500000000 19.250000000000 5.159000396729 55 55 55
27.562500000000 19.250000000000 5.273000717163 158 158 158
27.562500000000 19.250000000000 5.385999679565 144 144 144
27.562500000000 19.250000000000 5.500000000000 144 144 144
27.562500000000 19.250000000000 5.614999771118 117 117 117
27.687500000000 19.312500000000 6.204999923706 84 84 84
27.250000000000 18.875000000000 2.607999801636 134 134 134
27.312500000000 18.937500000000 2.718999862671 142 142 142
27.312500000000 18.937500000000 2.830999374390 162 162 162
27.312500000000 18.937500000000 2.940000534058 173 173 173
27.312500000000 18.937500000000 3.388000488281 207 207 207
27.375000000000 18.937500000000 3.496999740601 212 212 212
27.375000000000 18.937500000000 3.607999801636 216 216 216
27.375000000000 18.937500000000 3.719999313354 219 219 219
27.375000000000 18.937500000000 3.829000473022 225 225 225
27.375000000000 18.937500000000 3.936000823975 255 255 255
27.375000000000 19.000000000000 4.045999526978 255 255 255
27.375000000000 18.937500000000 4.159000396729 221 221 221
27.375000000000 18.937500000000 4.268999099731 219 219 219
27.375000000000 19.000000000000 4.378999710083 213 213 213
27.375000000000 19.000000000000 4.489000320435 210 210 210
27.375000000000 19.000000000000 4.599000930786 205 205 205
27.437500000000 19.000000000000 4.708999633789 201 201 201
27.437500000000 19.000000000000 4.819999694824 195 195 195
27.437500000000 19.000000000000 4.930999755859 185 185 185
27.437500000000 19.062500000000 5.042999267578 171 171 171
27.437500000000 19.062500000000 5.155000686646 173 173 173
27.437500000000 19.062500000000 5.266000747681 153 153 153
27.437500000000 19.062500000000 5.378000259399 142 142 142
27.437500000000 19.062500000000 5.489999771118 128 128 128
27.437500000000 19.062500000000 5.604000091553 127 127 127
27.437500000000 19.062500000000 5.717000961304 122 122 122
27.500000000000 19.125000000000 5.833000183105 122 122 122
27.500000000000 19.125000000000 5.947999954224 127 127 127
27.562500000000 19.125000000000 6.069999694824 105 105 105
27.562500000000 19.125000000000 6.187999725342 111 111 111
27.562500000000 19.125000000000 6.305000305176 58 58 58
27.437500000000 18.875000000000 2.682999610901 156 156 156
27.437500000000 18.875000000000 2.798999786377 137 137 137
27.437500000000 18.875000000000 2.915000915527 114 114 114
27.437500000000 18.875000000000 3.370000839233 95 95 95
27.500000000000 18.875000000000 3.479000091553 89 89 89
27.500000000000 18.875000000000 3.590999603271 68 68 68
27.500000000000 18.875000000000 3.702999114990 32 32 32
27.500000000000 18.875000000000 3.816999435425 9 9 9
27.625000000000 19.000000000000 4.368000030518 73 73 73
27.625000000000 19.000000000000 4.482999801636 16 16 16
27.562500000000 19.000000000000 4.597999572754 111 111 111
27.500000000000 18.937500000000 4.711000442505 105 105 105
27.687500000000 19.062500000000 4.823999404907 51 51 51
27.687500000000 19.062500000000 4.938999176025 44 44 44
27.562500000000 19.000000000000 5.274999618530 160 160 160
27.562500000000 19.000000000000 5.388000488281 164 164 164
27.562500000000 19.000000000000 5.503999710083 163 163 163
27.562500000000 19.000000000000 5.617000579834 72 72 72
27.625000000000 19.000000000000 6.083000183105 86 86 86
27.625000000000 18.875000000000 4.370000839233 31 31 31
27.687500000000 18.875000000000 4.483999252319 47 47 47
27.687500000000 18.875000000000 4.597999572754 40 40 40
27.625000000000 18.875000000000 4.711999893188 78 78 78
27.625000000000 18.875000000000 4.826000213623 51 51 51
27.687500000000 18.875000000000 4.940999984741 40 40 40
27.562500000000 18.812500000000 5.163000106812 109 109 109
27.562500000000 18.812500000000 5.275999069214 174 174 174
27.562500000000 18.812500000000 5.389999389648 125 125 125
27.562500000000 18.812500000000 5.504999160767 182 182 182
27.562500000000 18.812500000000 5.618000030518 150 150 150
27.687500000000 18.750000000000 4.599000930786 33 33 33
27.687500000000 18.750000000000 4.712999343872 58 58 58
27.687500000000 18.750000000000 4.827999114990 58 58 58
27.687500000000 18.750000000000 4.941999435425 43 43 43
27.562500000000 18.750000000000 5.163999557495 161 161 161
27.562500000000 18.750000000000 5.277000427246 185 185 185
27.562500000000 18.687500000000 5.620000839233 193 193 193
27.562500000000 18.687500000000 5.733999252319 149 149 149
27.500000000000 18.500000000000 5.052999496460 113 113 113
27.500000000000 18.562500000000 5.166000366211 186 186 186
27.500000000000 18.562500000000 5.733999252319 158 158 158
27.500000000000 18.562500000000 5.850000381470 121 121 121
27.687500000000 19.687500000000 5.760999679565 167 167 167
27.687500000000 19.687500000000 5.645000457764 190 190 190
27.687500000000 19.687500000000 5.069999694824 181 181 181
27.687500000000 19.500000000000 5.643999099731 187 187 187
27.625000000000 19.562500000000 5.527999877930 186 186 186
27.625000000000 19.562500000000 5.184999465942 181 181 181
27.625000000000 19.562500000000 5.070999145508 180 180 180
27.625000000000 19.375000000000 5.645999908447 176 176 176
27.625000000000 19.375000000000 5.530000686646 201 201 201
27.625000000000 19.375000000000 5.419000625610 21 21 21
27.625000000000 19.375000000000 5.302999496460 169 169 169
27.625000000000 19.375000000000 5.187000274658 172 172 172
27.562500000000 19.375000000000 5.072999954224 100 100 100
27.687500000000 19.312500000000 4.620000839233 33 33 33
27.562500000000 19.250000000000 6.215000152588 55 55 55
27.625000000000 19.187500000000 6.108999252319 82 82 82
27.687500000000 19.187500000000 6.003999710083 75 75 75
27.687500000000 19.187500000000 5.886999130249 68 68 68
27.625000000000 19.250000000000 5.531999588013 182 182 182
27.562500000000 19.250000000000 5.416000366211 185 185 185
27.562500000000 19.250000000000 5.302000045776 171 171 171
27.562500000000 19.250000000000 5.188999176025 167 167 167
27.687500000000 19.125000000000 4.965999603271 7 7 7
27.687500000000 19.125000000000 4.851999282837 48 48 48
27.625000000000 19.187500000000 4.736000061035 53 53 53
27.687500000000 19.187500000000 4.621999740601 88 88 88
27.625000000000 19.187500000000 4.507999420166 7 7 7
27.687500000000 19.125000000000 4.392999649048 13 13 13
27.500000000000 19.187500000000 6.204000473022 71 71 71
27.500000000000 19.187500000000 6.097999572754 105 105 105
27.500000000000 19.187500000000 5.975000381470 124 124 124
27.500000000000 19.187500000000 5.864999771118 131 131 131
27.562500000000 19.125000000000 5.754999160767 142 142 142
27.562500000000 19.125000000000 5.645000457764 134 134 134
27.562500000000 19.125000000000 5.530000686646 156 156 156
27.562500000000 19.125000000000 5.417999267578 183 183 183
27.562500000000 19.125000000000 5.304000854492 188 188 188
27.562500000000 19.125000000000 5.190000534058 121 121 121
27.562500000000 19.125000000000 5.076000213623 84 84 84
27.687500000000 19.062500000000 4.968000411987 32 32 32
27.687500000000 19.062500000000 4.854000091553 42 42 42
27.562500000000 19.125000000000 4.738000869751 105 105 105
27.562500000000 19.125000000000 4.625000000000 100 100 100
27.500000000000 19.187500000000 4.513000488281 95 95 95
27.625000000000 19.125000000000 4.398000717163 26 26 26
27.687500000000 19.062500000000 4.281999588013 9 9 9
27.500000000000 19.000000000000 6.207000732422 33 33 33
27.500000000000 19.000000000000 6.100000381470 5 5 5
27.437500000000 19.062500000000 5.746000289917 17 17 17
27.437500000000 19.062500000000 5.632999420166 43 43 43
27.500000000000 19.000000000000 5.527000427246 144 144 144
27.500000000000 19.000000000000 5.410999298096 148 148 148
27.437500000000 19.062500000000 5.295000076294 152 152 152
27.437500000000 19.062500000000 5.183000564575 188 188 188
27.437500000000 19.062500000000 5.072000503540 203 203 203
27.437500000000 19.062500000000 4.961000442505 203 203 203
27.437500000000 19.062500000000 4.850000381470 212 212 212
27.437500000000 19.062500000000 4.739000320435 234 234 234
27.437500000000 19.062500000000 4.628000259399 255 255 255
27.437500000000 19.062500000000 4.517999649048 255 255 255
27.437500000000 19.062500000000 4.406000137329 200 200 200
27.437500000000 19.062500000000 4.294000625610 198 198 198
27.500000000000 19.000000000000 4.181999206543 179 179 179
27.500000000000 19.000000000000 4.069000244141 170 170 170
27.500000000000 19.000000000000 3.955999374390 123 123 123
27.500000000000 19.000000000000 3.843000411987 150 150 150
27.500000000000 19.000000000000 3.731000900269 127 127 127
27.500000000000 19.000000000000 3.618999481201 101 101 101
27.500000000000 19.000000000000 3.507999420166 48 48 48
27.625000000000 18.875000000000 5.650999069214 161 161 161
27.625000000000 18.875000000000 5.537000656128 187 187 187
27.625000000000 18.875000000000 5.420999526978 129 129 129
27.562500000000 18.812500000000 5.306999206543 193 193 193
27.562500000000 18.812500000000 5.194999694824 164 164 164
27.687500000000 18.812500000000 4.974000930786 20 20 20
27.687500000000 18.812500000000 4.858999252319 49 49 49
27.625000000000 18.750000000000 4.743999481201 44 44 44
27.625000000000 18.750000000000 4.631000518799 43 43 43
27.687500000000 18.750000000000 4.516000747681 38 38 38
27.375000000000 18.937500000000 4.301000595093 10 10 10
27.375000000000 18.937500000000 4.190000534058 38 38 38
27.375000000000 18.937500000000 4.079000473022 142 142 142
27.375000000000 18.937500000000 3.971000671387 87 87 87
27.375000000000 18.937500000000 3.860000610352 109 109 109
27.375000000000 18.937500000000 3.750000000000 161 161 161
27.375000000000 18.937500000000 3.639999389648 187 187 187
27.312500000000 18.937500000000 3.528999328613 187 187 187
27.312500000000 18.937500000000 3.417999267578 167 167 167
27.375000000000 18.937500000000 2.967000961304 148 148 148
27.375000000000 18.937500000000 2.850999832153 135 135 135
27.375000000000 18.937500000000 2.732999801636 134 134 134
27.312500000000 18.937500000000 2.626999855042 112 112 112
27.625000000000 18.750000000000 5.763999938965 108 108 108
27.625000000000 18.750000000000 5.649999618530 182 182 182
27.625000000000 18.750000000000 5.535999298096 171 171 171
27.562500000000 18.812500000000 5.305999755859 196 196 196
27.562500000000 18.812500000000 5.194000244141 200 200 200
27.687500000000 18.687500000000 4.858999252319 12 12 12
27.687500000000 18.687500000000 4.746000289917 20 20 20
27.312500000000 18.875000000000 2.753999710083 9 9 9
27.312500000000 18.875000000000 2.637000083923 34 34 34
27.625000000000 18.625000000000 5.881999969482 6 6 6
27.562500000000 18.625000000000 5.766000747681 172 172 172
27.562500000000 18.625000000000 5.650999069214 170 170 170
27.500000000000 18.625000000000 5.305999755859 10 10 10
27.562500000000 18.625000000000 5.195999145508 201 201 201
27.562500000000 18.625000000000 5.083000183105 179 179 179
27.500000000000 18.500000000000 5.194999694824 171 171 171
27.500000000000 18.500000000000 5.082000732422 118 118 118
27.625000000000 19.625000000000 5.757999420166 169 169 169
27.625000000000 19.625000000000 5.642000198364 186 186 186
27.625000000000 19.625000000000 5.527999877930 23 23 23
27.625000000000 19.625000000000 5.181999206543 81 81 81
27.625000000000 19.625000000000 5.068000793457 186 186 186
27.625000000000 19.625000000000 4.954000473022 66 66 66
27.625000000000 19.437500000000 5.641000747681 183 183 183
27.625000000000 19.437500000000 5.525999069214 200 200 200
27.625000000000 19.437500000000 5.297000885010 10 10 10
27.625000000000 19.437500000000 5.183000564575 180 180 180
27.625000000000 19.437500000000 5.069000244141 171 171 171
27.687500000000 19.375000000000 4.844999313354 9 9 9
27.625000000000 19.312500000000 6.219999313354 28 28 28
27.625000000000 19.312500000000 5.641000747681 98 98 98
27.625000000000 19.312500000000 5.527999877930 185 185 185
27.625000000000 19.312500000000 5.413000106812 149 149 149
27.625000000000 19.312500000000 5.298999786377 170 170 170
27.625000000000 19.312500000000 5.184999465942 175 175 175
27.687500000000 19.250000000000 4.961999893188 7 7 7
27.687500000000 19.250000000000 4.847000122070 43 43 43
27.687500000000 19.250000000000 4.732000350952 48 48 48
27.687500000000 19.250000000000 4.618000030518 17 17 17
27.500000000000 19.250000000000 6.200000762939 70 70 70
27.562500000000 19.250000000000 6.094999313354 107 107 107
27.562500000000 19.187500000000 5.983999252319 125 125 125
27.625000000000 19.187500000000 5.871000289917 107 107 107
27.625000000000 19.187500000000 5.756000518799 103 103 103
27.625000000000 19.187500000000 5.642000198364 78 78 78
27.562500000000 19.187500000000 5.525999069214 180 180 180
27.562500000000 19.187500000000 5.412000656128 188 188 188
27.625000000000 19.187500000000 5.298999786377 182 182 182
27.562500000000 19.187500000000 5.184999465942 11 11 11
27.687500000000 19.125000000000 4.849000930786 36 36 36
27.687500000000 19.125000000000 4.732999801636 45 45 45
27.687500000000 19.125000000000 4.618999481201 67 67 67
27.625000000000 19.125000000000 4.504999160767 71 71 71
27.625000000000 19.125000000000 4.392000198364 70 70 70
27.500000000000 19.125000000000 6.198999404907 56 56 56
27.562500000000 19.062500000000 6.097000122070 38 38 38
27.500000000000 19.125000000000 5.968999862671 48 48 48
27.437500000000 19.062500000000 5.851999282837 75 75 75
27.437500000000 19.062500000000 5.739000320435 108 108 108
27.437500000000 19.062500000000 5.627000808716 137 137 137
27.437500000000 19.062500000000 5.514999389648 173 173 173
27.437500000000 19.062500000000 5.402000427246 181 181 181
27.437500000000 19.062500000000 5.290000915527 182 182 182
27.437500000000 19.062500000000 5.179000854492 192 192 192
27.437500000000 19.062500000000 5.066999435425 200 200 200
27.437500000000 19.062500000000 4.955999374390 200 200 200
27.437500000000 19.062500000000 4.844999313354 183 183 183
27.437500000000 19.062500000000 4.733999252319 185 185 185
27.437500000000 19.062500000000 4.622999191284 197 197 197
27.500000000000 19.000000000000 4.510999679565 243 243 243
27.500000000000 19.000000000000 4.399000167847 170 170 170
27.500000000000 19.000000000000 4.285999298096 155 155 155
27.500000000000 19.000000000000 4.173999786377 155 155 155
27.500000000000 19.000000000000 4.062000274658 143 143 143
27.500000000000 19.000000000000 3.950000762939 105 105 105
27.500000000000 19.000000000000 3.836999893188 27 27 27
27.562500000000 18.812500000000 5.643999099731 143 143 143
27.562500000000 18.812500000000 5.530000686646 176 176 176
27.562500000000 18.812500000000 5.415000915527 149 149 149
27.500000000000 18.812500000000 5.301000595093 189 189 189
27.562500000000 18.812500000000 5.188999176025 128 128 128
27.687500000000 18.750000000000 4.968000411987 22 22 22
27.625000000000 18.750000000000 4.853000640869 51 51 51
27.625000000000 18.750000000000 4.738000869751 51 51 51
27.625000000000 18.812500000000 4.625000000000 49 49 49
27.562500000000 18.812500000000 4.511999130249 49 49 49
27.375000000000 18.937500000000 4.403999328613 36 36 36
27.375000000000 18.937500000000 4.295000076294 70 70 70
27.375000000000 18.937500000000 4.184000015259 88 88 88
27.375000000000 18.937500000000 4.072999954224 145 145 145
27.375000000000 18.937500000000 3.964000701904 167 167 167
27.312500000000 18.937500000000 3.854999542236 191 191 191
27.375000000000 18.937500000000 3.743999481201 189 189 189
27.375000000000 18.937500000000 3.631999969482 181 181 181
27.375000000000 18.937500000000 3.521999359131 177 177 177
27.312500000000 18.937500000000 3.409999847412 180 180 180
27.375000000000 18.937500000000 2.954999923706 140 140 140
27.375000000000 18.937500000000 2.839000701904 132 132 132
27.375000000000 18.937500000000 2.718000411987 135 135 135
27.437500000000 18.875000000000 2.595000267029 137 137 137
27.562500000000 18.750000000000 5.760000228882 111 111 111
27.562500000000 18.687500000000 5.645999908447 177 177 177
27.562500000000 18.750000000000 5.531999588013 161 161 161
27.562500000000 18.750000000000 5.302999496460 193 193 193
27.562500000000 18.750000000000 5.190000534058 194 194 194
27.625000000000 18.625000000000 4.856000900269 13 13 13
27.625000000000 18.625000000000 4.742000579834 20 20 20
27.312500000000 18.875000000000 2.743999481201 18 18 18
27.312500000000 18.875000000000 2.638000488281 40 40 40
27.500000000000 18.562500000000 5.761999130249 169 169 169
27.500000000000 18.562500000000 5.646999359131 161 161 161
27.500000000000 18.562500000000 5.191999435425 197 197 197
27.500000000000 18.562500000000 5.079000473022 182 182 182
27.500000000000 18.437500000000 5.191999435425 106 106 106
27.625000000000 19.625000000000 5.030000686646 131 131 131
27.625000000000 19.625000000000 5.143999099731 113 113 113
27.687500000000 19.687500000000 5.604000091553 134 134 134
27.687500000000 19.687500000000 5.718999862671 108 108 108
27.625000000000 19.500000000000 5.031999588013 130 130 130
27.625000000000 19.500000000000 5.145000457764 150 150 150
27.562500000000 19.500000000000 5.259000778198 86 86 86
27.625000000000 19.500000000000 5.488000869751 91 91 91
27.625000000000 19.500000000000 5.604000091553 156 156 156
27.625000000000 19.437500000000 5.718999862671 107 107 107
27.687500000000 19.375000000000 4.690999984741 22 22 22
27.687500000000 19.312500000000 4.805999755859 28 28 28
27.625000000000 19.312500000000 5.145999908447 131 131 131
27.625000000000 19.312500000000 5.259000778198 148 148 148
27.625000000000 19.312500000000 5.372999191284 86 86 86
27.625000000000 19.312500000000 5.488000869751 153 153 153
27.625000000000 19.312500000000 5.601999282837 143 143 143
27.625000000000 19.312500000000 6.183000564575 68 68 68
27.312500000000 18.937500000000 2.590000152588 68 68 68
27.250000000000 19.000000000000 2.708000183105 39 39 39
27.312500000000 18.937500000000 2.819000244141 52 52 52
27.250000000000 19.000000000000 2.934000015259 61 61 61
27.312500000000 18.937500000000 3.375000000000 103 103 103
27.312500000000 18.937500000000 3.486000061035 101 101 101
27.312500000000 18.937500000000 3.597000122070 109 109 109
27.312500000000 18.937500000000 3.707000732422 134 134 134
27.312500000000 18.937500000000 3.815999984741 155 155 155
27.312500000000 18.937500000000 3.926000595093 212 212 212
27.312500000000 18.937500000000 4.037000656128 217 217 217
27.375000000000 18.937500000000 4.145999908447 188 188 188
27.375000000000 19.000000000000 4.254999160767 200 200 200
27.375000000000 19.000000000000 4.364999771118 200 200 200
27.375000000000 19.000000000000 4.475000381470 199 199 199
27.375000000000 19.000000000000 4.586000442505 196 196 196
27.375000000000 19.000000000000 4.695999145508 176 176 176
27.375000000000 19.000000000000 4.806999206543 178 178 178
27.437500000000 19.062500000000 4.917999267578 176 176 176
27.437500000000 19.062500000000 5.028999328613 168 168 168
27.437500000000 19.062500000000 5.139999389648 166 166 166
27.437500000000 19.062500000000 5.250999450684 158 158 158
27.437500000000 19.062500000000 5.363000869751 148 148 148
27.437500000000 19.062500000000 5.475000381470 156 156 156
27.437500000000 19.062500000000 5.589000701904 150 150 150
27.437500000000 19.062500000000 5.701999664307 149 149 149
27.500000000000 19.125000000000 5.815999984741 145 145 145
27.500000000000 19.125000000000 5.930000305176 143 143 143
27.562500000000 19.125000000000 6.055000305176 80 80 80
27.562500000000 19.125000000000 6.174999237061 93 93 93
27.562500000000 19.125000000000 6.288999557495 48 48 48
27.375000000000 18.875000000000 2.678000450134 133 133 133
27.375000000000 18.875000000000 2.791999816895 148 148 148
27.375000000000 18.875000000000 2.905000686646 131 131 131
27.500000000000 18.875000000000 3.353000640869 132 132 132
27.500000000000 18.875000000000 3.465999603271 129 129 129
27.500000000000 18.875000000000 3.576999664307 129 129 129
27.500000000000 18.875000000000 3.690999984741 134 134 134
27.500000000000 18.875000000000 3.799999237061 146 146 146
27.500000000000 18.937500000000 3.912000656128 168 168 168
27.500000000000 18.937500000000 4.024000167847 161 161 161
27.500000000000 18.937500000000 4.135999679565 118 118 118
27.500000000000 18.937500000000 4.247999191284 110 110 110
27.562500000000 19.000000000000 4.358999252319 128 128 128
27.500000000000 18.937500000000 4.472000122070 77 77 77
27.500000000000 18.937500000000 4.584999084473 101 101 101
27.562500000000 19.000000000000 4.697000503540 84 84 84
27.625000000000 19.000000000000 4.809999465942 54 54 54
27.687500000000 19.062500000000 4.923999786377 49 49 49
27.562500000000 19.000000000000 5.260999679565 153 153 153
27.562500000000 19.000000000000 5.375000000000 156 156 156
27.562500000000 19.000000000000 5.489999771118 161 161 161
27.562500000000 19.000000000000 5.601999282837 39 39 39
27.625000000000 19.000000000000 6.065999984741 82 82 82
27.625000000000 19.062500000000 6.190000534058 100 100 100
27.625000000000 19.000000000000 6.304000854492 16 16 16
27.625000000000 18.875000000000 4.356000900269 27 27 27
27.625000000000 18.875000000000 4.469999313354 42 42 42
27.625000000000 18.812500000000 4.583999633789 40 40 40
27.625000000000 18.875000000000 4.697999954224 78 78 78
27.625000000000 18.875000000000 4.812000274658 57 57 57
27.687500000000 18.875000000000 4.926000595093 48 48 48
27.500000000000 18.812500000000 5.148000717163 100 100 100
27.500000000000 18.812500000000 5.261999130249 168 168 168
27.562500000000 18.812500000000 5.375000000000 122 122 122
27.562500000000 18.812500000000 5.492000579834 177 177 177
27.562500000000 18.812500000000 5.604000091553 144 144 144
27.625000000000 18.750000000000 4.586999893188 16 16 16
27.625000000000 18.750000000000 4.701000213623 54 54 54
27.625000000000 18.750000000000 4.815000534058 50 50 50
27.625000000000 18.750000000000 4.929000854492 26 26 26
27.500000000000 18.625000000000 5.150999069214 152 152 152
27.500000000000 18.625000000000 5.263999938965 163 163 163
27.562500000000 18.687500000000 5.607000350952 165 165 165
27.562500000000 18.687500000000 5.719999313354 149 149 149
27.500000000000 18.500000000000 5.041000366211 5 5 5
27.500000000000 18.500000000000 5.153999328613 177 177 177
27.500000000000 18.500000000000 5.719999313354 137 137 137
27.687500000000 19.687500000000 5.749000549316 198 198 198
27.625000000000 19.625000000000 5.646999359131 221 221 221
27.625000000000 19.625000000000 5.545999526978 170 170 170
27.625000000000 19.625000000000 5.148000717163 185 185 185
27.625000000000 19.625000000000 5.048000335693 237 237 237
27.625000000000 19.625000000000 4.948999404907 35 35 35
27.625000000000 19.437500000000 5.646999359131 221 221 221
27.625000000000 19.437500000000 5.547000885010 217 217 217
27.625000000000 19.500000000000 5.247999191284 181 181 181
27.625000000000 19.437500000000 5.149000167847 240 240 240
27.625000000000 19.500000000000 5.049999237061 245 245 245
27.687500000000 19.312500000000 6.170000076294 41 41 41
27.625000000000 19.312500000000 5.649999618530 39 39 39
27.625000000000 19.312500000000 5.548000335693 222 222 222
27.625000000000 19.312500000000 5.447999954224 226 226 226
27.625000000000 19.312500000000 5.350000381470 180 180 180
27.625000000000 19.312500000000 5.250000000000 237 237 237
27.562500000000 19.312500000000 5.149999618530 241 241 241
27.687500000000 19.312500000000 4.761999130249 63 63 63
27.625000000000 19.250000000000 4.562999725342 50 50 50
27.562500000000 19.250000000000 6.246000289917 79 79 79
27.562500000000 19.187500000000 6.149999618530 101 101 101
27.562500000000 19.250000000000 6.045000076294 94 94 94
27.562500000000 19.250000000000 5.944999694824 155 155 155
27.562500000000 19.125000000000 5.842000961304 100 100 100
27.500000000000 19.187500000000 5.729999542236 21 21 21
27.625000000000 19.187500000000 5.548000335693 187 187 187
27.562500000000 19.187500000000 5.447999954224 227 227 227
27.562500000000 19.187500000000 5.347999572754 230 230 230
27.562500000000 19.187500000000 5.250000000000 237 237 237
27.687500000000 19.125000000000 4.863000869751 54 54 54
27.562500000000 19.125000000000 4.759000778198 119 119 119
27.687500000000 19.125000000000 4.663999557495 53 53 53
27.625000000000 19.187500000000 4.563999176025 124 124 124
27.625000000000 19.187500000000 4.465999603271 130 130 130
27.687500000000 19.125000000000 4.368000030518 47 47 47
27.562500000000 19.062500000000 6.247999191284 15 15 15
27.625000000000 19.000000000000 6.054000854492 74 74 74
27.562500000000 19.062500000000 5.646999359131 29 29 29
27.625000000000 19.000000000000 5.548999786377 199 199 199
27.562500000000 19.000000000000 5.447999954224 212 212 212
27.562500000000 19.000000000000 5.347999572754 208 208 208
27.562500000000 19.000000000000 5.249000549316 200 200 200
27.500000000000 19.000000000000 5.145999908447 96 96 96
27.500000000000 19.000000000000 5.049999237061 145 145 145
27.500000000000 19.000000000000 4.951999664307 170 170 170
27.437500000000 19.000000000000 4.853000640869 153 153 153
27.437500000000 19.000000000000 4.754999160767 137 137 137
27.437500000000 19.000000000000 4.659000396729 154 154 154
27.375000000000 19.000000000000 4.563999176025 170 170 170
27.375000000000 19.000000000000 4.468000411987 192 192 192
27.375000000000 18.937500000000 4.372999191284 210 210 210
27.375000000000 18.937500000000 4.277999877930 230 230 230
27.375000000000 18.937500000000 4.181999206543 242 242 242
27.375000000000 18.937500000000 4.086999893188 255 255 255
27.375000000000 18.937500000000 3.992000579834 255 255 255
27.375000000000 18.937500000000 3.896999359131 255 255 255
27.375000000000 18.937500000000 3.802000045776 249 249 249
27.312500000000 18.937500000000 3.708000183105 224 224 224
27.375000000000 18.937500000000 3.611000061035 193 193 193
27.312500000000 18.937500000000 3.517000198364 176 176 176
27.375000000000 18.937500000000 3.419000625610 161 161 161
27.625000000000 18.875000000000 5.649999618530 204 204 204
27.562500000000 18.812500000000 5.548999786377 233 233 233
27.562500000000 18.812500000000 5.448999404907 226 226 226
27.562500000000 18.812500000000 5.350000381470 224 224 224
27.562500000000 18.812500000000 5.250000000000 208 208 208
27.562500000000 18.812500000000 5.152999877930 156 156 156
27.687500000000 18.812500000000 4.964000701904 41 41 41
27.687500000000 18.812500000000 4.864999771118 88 88 88
27.625000000000 18.875000000000 4.764999389648 73 73 73
27.625000000000 18.812500000000 4.666999816895 94 94 94
27.625000000000 18.812500000000 4.569000244141 60 60 60
27.687500000000 18.812500000000 4.469999313354 69 69 69
27.625000000000 18.812500000000 4.371999740601 48 48 48
27.562500000000 18.687500000000 5.750999450684 204 204 204
27.562500000000 18.687500000000 5.649000167847 226 226 226
27.562500000000 18.687500000000 5.548999786377 223 223 223
27.562500000000 18.750000000000 5.252000808716 201 201 201
27.562500000000 18.750000000000 5.153999328613 226 226 226
27.625000000000 18.750000000000 4.867000579834 62 62 62
27.687500000000 18.750000000000 4.768999099731 70 70 70
27.625000000000 18.750000000000 4.670000076294 54 54 54
27.500000000000 18.562500000000 5.850000381470 121 121 121
27.500000000000 18.562500000000 5.750000000000 232 232 232
27.500000000000 18.562500000000 5.649000167847 232 232 232
27.500000000000 18.562500000000 5.253999710083 85 85 85
27.500000000000 18.562500000000 5.153999328613 196 196 196
27.500000000000 18.562500000000 5.056999206543 237 237 237
27.500000000000 18.500000000000 5.767999649048 118 118 118
27.500000000000 18.500000000000 5.653999328613 104 104 104
27.500000000000 18.500000000000 5.201000213623 181 181 181
27.500000000000 18.500000000000 5.089000701904 186 186 186
27.562500000000 18.625000000000 5.770000457764 149 149 149
27.562500000000 18.625000000000 5.655000686646 178 178 178
27.562500000000 18.625000000000 5.541999816895 112 112 112
27.500000000000 18.625000000000 5.312000274658 156 156 156
27.500000000000 18.625000000000 5.200000762939 193 193 193
27.500000000000 18.625000000000 5.086999893188 89 89 89
27.562500000000 18.812500000000 5.656000137329 158 158 158
27.562500000000 18.812500000000 5.540000915527 184 184 184
27.500000000000 18.812500000000 5.423999786377 123 123 123
27.500000000000 18.812500000000 5.311000823975 183 183 183
27.500000000000 18.812500000000 5.197999954224 172 172 172
27.687500000000 18.750000000000 4.978000640869 13 13 13
27.625000000000 18.750000000000 4.863000869751 45 45 45
27.625000000000 18.750000000000 4.749000549316 51 51 51
27.625000000000 18.750000000000 4.635000228882 42 42 42
27.625000000000 18.750000000000 4.520999908447 40 40 40
27.562500000000 18.750000000000 4.409000396729 9 9 9
27.375000000000 18.937500000000 4.305000305176 19 19 19
27.375000000000 18.937500000000 4.194000244141 47 47 47
27.375000000000 18.937500000000 4.084999084473 120 120 120
27.312500000000 18.937500000000 3.975999832153 102 102 102
27.312500000000 18.937500000000 3.864999771118 144 144 144
27.312500000000 18.937500000000 3.754999160767 182 182 182
27.312500000000 18.937500000000 3.645000457764 189 189 189
27.312500000000 18.937500000000 3.534000396729 175 175 175
27.312500000000 18.937500000000 3.420999526978 178 178 178
27.312500000000 18.937500000000 2.971000671387 143 143 143
27.375000000000 18.937500000000 2.854000091553 136 136 136
27.375000000000 18.937500000000 2.736000061035 126 126 126
27.375000000000 18.875000000000 2.612000465393 134 134 134
27.437500000000 19.062500000000 6.205999374390 49 49 49
27.500000000000 19.000000000000 6.103000640869 33 33 33
27.437500000000 19.062500000000 5.974000930786 45 45 45
27.437500000000 19.062500000000 5.861000061035 72 72 72
27.437500000000 19.062500000000 5.747999191284 99 99 99
27.437500000000 19.062500000000 5.634000778198 136 136 136
27.437500000000 19.062500000000 5.523000717163 175 175 175
27.437500000000 19.062500000000 5.409999847412 181 181 181
27.437500000000 19.062500000000 5.298000335693 177 177 177
27.437500000000 19.062500000000 5.187999725342 187 187 187
27.437500000000 19.062500000000 5.076000213623 200 200 200
27.437500000000 19.062500000000 4.965000152588 192 192 192
27.437500000000 19.062500000000 4.854000091553 175 175 175
27.437500000000 19.062500000000 4.743000030518 180 180 180
27.500000000000 19.000000000000 4.631999969482 187 187 187
27.500000000000 19.000000000000 4.520000457764 229 229 229
27.500000000000 19.000000000000 4.408000946045 164 164 164
27.500000000000 19.000000000000 4.295999526978 179 179 179
27.500000000000 19.000000000000 4.184000015259 150 150 150
27.500000000000 19.000000000000 4.072000503540 118 118 118
27.500000000000 19.000000000000 3.958999633789 18 18 18
27.500000000000 19.187500000000 6.208000183105 64 64 64
27.500000000000 19.187500000000 6.103000640869 103 103 103
27.562500000000 19.125000000000 5.995000839233 107 107 107
27.625000000000 19.125000000000 5.884000778198 124 124 124
27.562500000000 19.125000000000 5.766000747681 6 6 6
27.562500000000 19.125000000000 5.535999298096 183 183 183
27.562500000000 19.125000000000 5.420999526978 185 185 185
27.562500000000 19.125000000000 5.308000564575 170 170 170
27.562500000000 19.125000000000 5.193000793457 92 92 92
27.687500000000 19.062500000000 4.972000122070 9 9 9
27.687500000000 19.062500000000 4.857999801636 34 34 34
27.625000000000 19.062500000000 4.743000030518 43 43 43
27.687500000000 19.062500000000 4.628999710083 40 40 40
27.625000000000 19.062500000000 4.513999938965 88 88 88
27.625000000000 19.062500000000 4.399999618530 113 113 113
27.625000000000 19.312500000000 5.648000717163 147 147 147
27.625000000000 19.312500000000 5.534000396729 199 199 199
27.625000000000 19.312500000000 5.420000076294 97 97 97
27.625000000000 19.312500000000 5.305999755859 170 170 170
27.625000000000 19.312500000000 5.190999984741 175 175 175
27.562500000000 19.312500000000 5.076999664307 75 75 75
27.687500000000 19.250000000000 4.854000091553 42 42 42
27.687500000000 19.250000000000 4.739000320435 44 44 44
27.687500000000 19.250000000000 4.625000000000 36 36 36
27.625000000000 19.500000000000 5.760000228882 9 9 9
27.625000000000 19.437500000000 5.648000717163 189 189 189
27.625000000000 19.437500000000 5.531999588013 179 179 179
27.562500000000 19.500000000000 5.187999725342 174 174 174
27.562500000000 19.500000000000 5.073999404907 177 177 177
27.562500000000 19.500000000000 4.959999084473 67 67 67
27.625000000000 19.625000000000 5.645999908447 172 172 172
27.625000000000 19.625000000000 5.072000503540 45 45 45
27.500000000000 18.375000000000 5.666999816895 116 116 116
27.500000000000 18.375000000000 5.172000885010 216 216 216
27.562500000000 18.625000000000 5.767999649048 231 231 231
27.562500000000 18.625000000000 5.667999267578 231 231 231
27.562500000000 18.625000000000 5.569000244141 200 200 200
27.500000000000 18.562500000000 5.270000457764 213 213 213
27.500000000000 18.562500000000 5.170999526978 231 231 231
27.500000000000 18.562500000000 5.073999404907 234 234 234
27.562500000000 18.750000000000 5.667999267578 222 222 222
27.562500000000 18.812500000000 5.568000793457 234 234 234
27.562500000000 18.812500000000 5.468000411987 227 227 227
27.562500000000 18.812500000000 5.368000030518 191 191 191
27.562500000000 18.812500000000 5.270000457764 224 224 224
27.562500000000 18.812500000000 5.170999526978 230 230 230
27.687500000000 18.750000000000 4.885000228882 68 68 68
27.625000000000 18.750000000000 4.784000396729 73 73 73
27.687500000000 18.750000000000 4.687000274658 59 59 59
27.687500000000 18.750000000000 4.587999343872 67 67 67
27.687500000000 18.750000000000 4.489999771118 62 62 62
27.625000000000 18.937500000000 6.075000762939 59 59 59
27.625000000000 18.937500000000 5.566999435425 198 198 198
27.625000000000 18.937500000000 5.467000961304 234 234 234
27.562500000000 18.875000000000 5.367000579834 230 230 230
27.562500000000 18.875000000000 5.267999649048 226 226 226
27.562500000000 18.875000000000 5.167999267578 80 80 80
27.562500000000 18.875000000000 5.069999694824 103 103 103
27.500000000000 18.937500000000 4.972000122070 97 97 97
27.500000000000 18.937500000000 4.875000000000 115 115 115
27.500000000000 18.937500000000 4.777000427246 158 158 158
27.500000000000 18.937500000000 4.680000305176 159 159 159
27.500000000000 18.937500000000 4.583000183105 178 178 178
27.437500000000 18.875000000000 4.486000061035 176 176 176
27.437500000000 18.875000000000 4.391000747681 145 145 145
27.375000000000 18.937500000000 4.295000076294 181 181 181
27.375000000000 18.937500000000 4.201000213623 208 208 208
27.375000000000 18.937500000000 4.104999542236 255 255 255
27.375000000000 18.937500000000 4.010000228882 255 255 255
27.375000000000 18.937500000000 3.915000915527 255 255 255
27.375000000000 18.937500000000 3.820999145508 232 232 232
27.375000000000 18.937500000000 3.725000381470 229 229 229
27.375000000000 18.937500000000 3.629999160767 222 222 222
27.375000000000 18.937500000000 3.534000396729 220 220 220
27.312500000000 18.937500000000 3.438999176025 197 197 197
27.562500000000 19.125000000000 6.267000198364 79 79 79
27.562500000000 19.125000000000 6.169000625610 112 112 112
27.562500000000 19.125000000000 6.059000015259 105 105 105
27.562500000000 19.125000000000 5.959999084473 144 144 144
27.500000000000 19.125000000000 5.851999282837 94 94 94
27.500000000000 19.125000000000 5.750000000000 49 49 49
27.500000000000 19.125000000000 5.649000167847 22 22 22
27.562500000000 19.125000000000 5.565999984741 121 121 121
27.562500000000 19.125000000000 5.467000961304 225 225 225
27.625000000000 19.125000000000 5.368000030518 229 229 229
27.562500000000 19.125000000000 5.268999099731 236 236 236
27.687500000000 19.125000000000 4.881999969482 54 54 54
27.625000000000 19.125000000000 4.777999877930 95 95 95
27.687500000000 19.125000000000 4.683000564575 60 60 60
27.625000000000 19.125000000000 4.583000183105 102 102 102
27.625000000000 19.125000000000 4.485000610352 136 136 136
27.687500000000 19.125000000000 4.385999679565 48 48 48
27.625000000000 19.250000000000 6.180000305176 14 14 14
27.625000000000 19.250000000000 5.669000625610 13 13 13
27.625000000000 19.312500000000 5.565999984741 228 228 228
27.625000000000 19.312500000000 5.465000152588 224 224 224
27.625000000000 19.312500000000 5.367000579834 13 13 13
27.625000000000 19.312500000000 5.267999649048 237 237 237
27.625000000000 19.312500000000 5.170000076294 246 246 246
27.562500000000 19.250000000000 5.068000793457 52 52 52
27.687500000000 19.250000000000 4.780000686646 67 67 67
27.687500000000 19.250000000000 4.680000305176 59 59 59
27.687500000000 19.250000000000 4.580999374390 12 12 12
27.625000000000 19.437500000000 5.666999816895 223 223 223
27.625000000000 19.437500000000 5.565999984741 210 210 210
27.625000000000 19.437500000000 5.166999816895 238 238 238
27.625000000000 19.437500000000 5.068000793457 247 247 247
27.625000000000 19.437500000000 4.969999313354 171 171 171
27.687500000000 19.687500000000 5.667999267578 175 175 175
27.687500000000 19.687500000000 5.562999725342 7 7 7
27.625000000000 19.625000000000 5.065000534058 84 84 84
27.500000000000 18.437500000000 5.052999496460 107 107 107
27.500000000000 18.437500000000 5.166000366211 193 193 193
27.562500000000 18.500000000000 5.733999252319 154 154 154
27.562500000000 18.500000000000 5.849000930786 114 114 114
27.687500000000 18.750000000000 4.597000122070 49 49 49
27.687500000000 18.750000000000 4.711000442505 47 47 47
27.687500000000 18.750000000000 4.826000213623 60 60 60
27.687500000000 18.750000000000 4.940000534058 48 48 48
27.562500000000 18.687500000000 5.162000656128 183 183 183
27.562500000000 18.687500000000 5.274999618530 202 202 202
27.625000000000 18.687500000000 5.503999710083 18 18 18
27.562500000000 18.687500000000 5.617000579834 187 187 187
27.562500000000 18.687500000000 5.731000900269 153 153 153
27.687500000000 18.875000000000 4.367000579834 29 29 29
27.687500000000 18.875000000000 4.481000900269 24 24 24
27.687500000000 18.875000000000 4.594999313354 91 91 91
27.687500000000 18.875000000000 4.708999633789 31 31 31
27.687500000000 18.875000000000 4.822999954224 45 45 45
27.687500000000 18.875000000000 4.937999725342 40 40 40
27.562500000000 18.812500000000 5.274000167847 194 194 194
27.625000000000 18.875000000000 5.388000488281 186 186 186
27.625000000000 18.875000000000 5.502000808716 182 182 182
27.625000000000 18.875000000000 5.614999771118 148 148 148
27.312500000000 18.875000000000 2.602999687195 179 179 179
27.312500000000 18.875000000000 2.714000701904 180 180 180
27.312500000000 18.875000000000 2.827999114990 180 180 180
27.312500000000 18.875000000000 2.938999176025 187 187 187
27.375000000000 18.937500000000 3.386999130249 206 206 206
27.375000000000 18.875000000000 3.496999740601 213 213 213
27.375000000000 18.937500000000 3.608999252319 218 218 218
27.375000000000 18.875000000000 3.718000411987 225 225 225
27.375000000000 18.875000000000 3.829000473022 240 240 240
27.375000000000 18.875000000000 3.937999725342 255 255 255
27.437500000000 18.875000000000 4.045999526978 255 255 255
27.437500000000 18.875000000000 4.158000946045 216 216 216
27.437500000000 18.875000000000 4.267999649048 205 205 205
27.437500000000 18.875000000000 4.377000808716 187 187 187
27.437500000000 18.875000000000 4.488000869751 164 164 164
27.437500000000 18.875000000000 4.599000930786 155 155 155
27.437500000000 18.875000000000 4.709999084473 146 146 146
27.500000000000 18.937500000000 4.820999145508 146 146 146
27.500000000000 18.937500000000 4.931999206543 136 136 136
27.500000000000 18.937500000000 5.044000625610 137 137 137
27.500000000000 18.937500000000 5.156000137329 142 142 142
27.500000000000 19.000000000000 5.267999649048 131 131 131
27.500000000000 19.000000000000 5.381000518799 127 127 127
27.500000000000 19.000000000000 5.495000839233 118 118 118
27.500000000000 19.000000000000 5.607999801636 132 132 132
27.500000000000 19.000000000000 5.722000122070 124 124 124
27.562500000000 19.062500000000 5.837999343872 131 131 131
27.562500000000 19.062500000000 5.954000473022 125 125 125
27.562500000000 19.062500000000 6.070999145508 95 95 95
27.562500000000 19.062500000000 6.187999725342 110 110 110
27.625000000000 19.125000000000 6.305999755859 56 56 56
27.625000000000 19.187500000000 5.159999847412 114 114 114
27.625000000000 19.187500000000 5.274000167847 150 150 150
27.625000000000 19.187500000000 5.386999130249 122 122 122
27.625000000000 19.187500000000 5.500999450684 141 141 141
27.625000000000 19.187500000000 5.615999221802 124 124 124
27.625000000000 19.187500000000 6.194000244141 77 77 77
27.625000000000 19.375000000000 5.045999526978 132 132 132
27.625000000000 19.375000000000 5.160999298096 153 153 153
27.625000000000 19.375000000000 5.274000167847 87 87 87
27.625000000000 19.437500000000 5.502000808716 114 114 114
27.625000000000 19.437500000000 5.620000839233 158 158 158
27.625000000000 19.437500000000 5.735000610352 91 91 91
27.625000000000 19.625000000000 5.047000885010 115 115 115
27.625000000000 19.625000000000 5.159999847412 60 60 60
27.687500000000 19.687500000000 5.620000839233 139 139 139
27.687500000000 19.687500000000 5.736000061035 87 87 87
27.500000000000 18.375000000000 5.197999954224 164 164 164
27.500000000000 18.437500000000 5.084999084473 134 134 134
27.500000000000 18.562500000000 5.764999389648 174 174 174
27.500000000000 18.562500000000 5.652000427246 167 167 167
27.500000000000 18.562500000000 5.308000564575 28 28 28
27.500000000000 18.562500000000 5.195999145508 193 193 193
27.500000000000 18.562500000000 5.083999633789 172 172 172
27.625000000000 18.750000000000 5.766000747681 16 16 16
27.562500000000 18.750000000000 5.649999618530 166 166 166
27.562500000000 18.750000000000 5.535999298096 183 183 183
27.562500000000 18.750000000000 5.308000564575 194 194 194
27.500000000000 18.750000000000 5.194000244141 195 195 195
27.687500000000 18.687500000000 4.860000610352 33 33 33
27.687500000000 18.750000000000 4.745000839233 47 47 47
27.625000000000 18.625000000000 4.631000518799 13 13 13
27.312500000000 18.875000000000 2.976999282837 85 85 85
27.312500000000 18.875000000000 2.867000579834 103 103 103
27.312500000000 18.875000000000 2.753000259399 126 126 126
27.312500000000 18.875000000000 2.638000488281 152 152 152
27.625000000000 18.875000000000 5.646999359131 97 97 97
27.625000000000 18.875000000000 5.533000946045 174 174 174
27.562500000000 18.875000000000 5.416000366211 172 172 172
27.562500000000 18.875000000000 5.304000854492 188 188 188
27.500000000000 18.812500000000 5.190999984741 60 60 60
27.687500000000 18.812500000000 4.968999862671 29 29 29
27.500000000000 18.875000000000 4.850999832153 44 44 44
27.437500000000 18.875000000000 4.738000869751 72 72 72
27.375000000000 18.937500000000 4.627000808716 97 97 97
27.375000000000 18.937500000000 4.517000198364 188 188 188
27.375000000000 18.937500000000 4.406999588013 195 195 195
27.375000000000 18.937500000000 4.297000885010 218 218 218
27.375000000000 18.937500000000 4.186000823975 235 235 235
27.375000000000 18.937500000000 4.076000213623 208 208 208
27.375000000000 18.937500000000 3.965000152588 200 200 200
27.375000000000 18.937500000000 3.854000091553 195 195 195
27.375000000000 18.937500000000 3.743999481201 190 190 190
27.375000000000 18.937500000000 3.632999420166 172 172 172
27.375000000000 18.937500000000 3.517999649048 155 155 155
27.375000000000 18.937500000000 3.402999877930 152 152 152
27.437500000000 18.875000000000 3.054000854492 65 65 65
27.437500000000 18.875000000000 2.940999984741 107 107 107
27.437500000000 18.875000000000 2.827999114990 90 90 90
27.437500000000 18.875000000000 2.712999343872 68 68 68
27.375000000000 18.937500000000 2.614999771118 26 26 26
27.500000000000 19.125000000000 6.201999664307 34 34 34
27.500000000000 19.062500000000 6.093999862671 75 75 75
27.437500000000 19.125000000000 5.965000152588 123 123 123
27.500000000000 19.125000000000 5.854000091553 151 151 151
27.500000000000 19.125000000000 5.740999221802 166 166 166
27.437500000000 19.062500000000 5.627000808716 168 168 168
27.437500000000 19.062500000000 5.513999938965 173 173 173
