19.250000000000 17.062500000000 8.084999084473 253 253 253
22.250000000000 18.750000000000 8.540000915527 129 129 129
22.562500000000 18.937500000000 9.145999908447 83 83 83
21.375000000000 18.187500000000 9.246000289917 94 94 94
19.250000000000 16.937500000000 8.090999603271 243 243 243
22.250000000000 18.562500000000 8.547000885010 134 134 134
22.562500000000 18.750000000000 9.155000686646 77 77 77
21.375000000000 18.125000000000 9.239999771118 88 88 88
19.250000000000 16.750000000000 8.107000350952 228 228 228
22.250000000000 18.437500000000 8.545999526978 134 134 134
22.562500000000 18.625000000000 9.148000717163 78 78 78
21.312500000000 17.937500000000 9.236999511719 81 81 81
19.250000000000 16.625000000000 8.104999542236 243 243 243
22.250000000000 18.312500000000 8.542999267578 132 132 132
22.562500000000 18.562500000000 9.159999847412 90 90 90
21.312500000000 17.750000000000 9.246000289917 89 89 89
19.187500000000 16.500000000000 8.097000122070 235 235 235
22.250000000000 18.125000000000 8.548000335693 129 129 129
22.562500000000 18.375000000000 9.149000167847 91 91 91
21.312500000000 17.687500000000 9.228000640869 82 82 82
19.187500000000 16.312500000000 8.104999542236 248 248 248
22.250000000000 18.000000000000 8.549999237061 124 124 124
22.625000000000 18.187500000000 9.158000946045 97 97 97
21.312500000000 17.500000000000 9.226999282837 76 76 76
19.250000000000 16.187500000000 8.110000610352 215 215 215
22.250000000000 17.937500000000 8.565000534058 121 121 121
22.562500000000 18.125000000000 9.149000167847 90 90 90
21.312500000000 17.312500000000 9.233999252319 73 73 73
19.250000000000 16.125000000000 8.097000122070 193 193 193
22.250000000000 17.750000000000 8.551000595093 99 99 99
22.562500000000 17.937500000000 9.159000396729 108 108 108
21.375000000000 17.250000000000 9.243000030518 89 89 89
19.250000000000 15.937500000000 8.107000350952 211 211 211
22.250000000000 17.625000000000 8.558000564575 110 110 110
22.562500000000 17.750000000000 9.166999816895 106 106 106
21.375000000000 17.125000000000 9.239000320435 67 67 67
19.250000000000 15.750000000000 8.117000579834 156 156 156
22.250000000000 17.500000000000 8.555999755859 96 96 96
22.562500000000 17.750000000000 9.160999298096 117 117 117
21.312500000000 17.000000000000 9.236999511719 68 68 68
19.187500000000 15.687500000000 8.114999771118 101 101 101
22.250000000000 17.375000000000 8.563999176025 90 90 90
22.562500000000 17.562500000000 9.159999847412 112 112 112
21.312500000000 16.812500000000 9.240999221802 61 61 61
19.250000000000 15.562500000000 8.122999191284 46 46 46
19.187500000000 15.500000000000 8.114000320435 69 69 69
22.250000000000 17.187500000000 8.562999725342 88 88 88
22.562500000000 17.437500000000 9.166000366211 111 111 111
21.312500000000 16.687500000000 9.229000091553 54 54 54
19.250000000000 15.375000000000 8.128000259399 119 119 119
19.250000000000 15.437500000000 8.121999740601 46 46 46
22.250000000000 17.062500000000 8.566999435425 71 71 71
22.562500000000 17.312500000000 9.173999786377 124 124 124
21.312500000000 16.562500000000 9.242000579834 55 55 55
19.250000000000 15.250000000000 8.121000289917 139 139 139
19.250000000000 15.250000000000 8.125000000000 45 45 45
22.250000000000 17.000000000000 8.575000762939 74 74 74
22.562500000000 17.125000000000 9.165000915527 118 118 118
21.375000000000 16.437500000000 9.243000030518 39 39 39
19.250000000000 15.187500000000 8.111000061035 190 190 190
22.250000000000 16.812500000000 8.573999404907 74 74 74
22.562500000000 17.000000000000 9.174999237061 117 117 117
21.375000000000 16.250000000000 9.228000640869 29 29 29
19.250000000000 15.000000000000 8.117000579834 201 201 201
22.250000000000 16.625000000000 8.580999374390 61 61 61
22.562500000000 16.875000000000 9.170999526978 117 117 117
19.250000000000 14.875000000000 8.118000030518 203 203 203
22.250000000000 16.562500000000 8.577999114990 46 46 46
22.562500000000 16.750000000000 9.177000045776 118 118 118
19.250000000000 14.750000000000 8.118999481201 190 190 190
22.562500000000 16.625000000000 9.184000015259 115 115 115
21.312500000000 15.812500000000 9.256000518799 31 31 31
19.250000000000 14.625000000000 8.125999450684 214 214 214
22.562500000000 16.437500000000 9.181999206543 120 120 120
19.250000000000 14.437500000000 8.138999938965 216 216 216
22.562500000000 16.375000000000 9.193000793457 111 111 111
19.250000000000 14.312500000000 8.139999389648 223 223 223
22.562500000000 16.187500000000 9.194000244141 115 115 115
19.250000000000 14.250000000000 8.135999679565 240 240 240
23.562500000000 16.687500000000 9.201999664307 23 23 23
22.562500000000 16.062500000000 9.191999435425 106 106 106
19.250000000000 14.062500000000 8.148000717163 253 253 253
23.625000000000 16.562500000000 9.214000701904 24 24 24
22.562500000000 15.937500000000 9.187000274658 102 102 102
19.250000000000 13.875000000000 8.152999877930 253 253 253
23.562500000000 16.375000000000 9.204999923706 36 36 36
22.562500000000 15.812500000000 9.194000244141 94 94 94
19.250000000000 13.812500000000 8.146999359131 239 239 239
23.562500000000 16.250000000000 9.205999374390 63 63 63
22.562500000000 15.625000000000 9.204000473022 77 77 77
19.250000000000 13.625000000000 8.152000427246 222 222 222
23.562500000000 16.125000000000 9.209999084473 61 61 61
22.562500000000 15.500000000000 9.205999374390 82 82 82
19.250000000000 13.437500000000 8.131000518799 178 178 178
23.562500000000 16.000000000000 9.214000701904 64 64 64
22.562500000000 15.375000000000 9.205999374390 77 77 77
19.250000000000 13.375000000000 8.143999099731 168 168 168
23.625000000000 15.875000000000 9.228000640869 86 86 86
22.250000000000 15.062500000000 8.656999588013 55 55 55
22.562500000000 15.250000000000 9.205999374390 63 63 63
19.250000000000 13.250000000000 8.173000335693 146 146 146
23.625000000000 15.687500000000 9.219999313354 89 89 89
22.250000000000 14.875000000000 8.646999359131 61 61 61
22.562500000000 15.125000000000 9.209999084473 56 56 56
19.250000000000 13.125000000000 8.181999206543 135 135 135
23.562500000000 15.625000000000 9.228000640869 98 98 98
22.250000000000 14.750000000000 8.662000656128 79 79 79
22.625000000000 14.937500000000 9.215999603271 31 31 31
19.250000000000 12.937500000000 8.184000015259 126 126 126
23.625000000000 15.437500000000 9.229000091553 102 102 102
22.250000000000 14.625000000000 8.663000106812 100 100 100
19.312500000000 12.875000000000 8.163000106812 50 50 50
19.250000000000 12.812500000000 8.190999984741 117 117 117
23.562500000000 15.250000000000 9.231000900269 108 108 108
22.250000000000 14.437500000000 8.663999557495 116 116 116
19.250000000000 12.750000000000 8.148000717163 91 91 91
19.250000000000 12.687500000000 8.195999145508 99 99 99
23.562500000000 15.187500000000 9.232000350952 111 111 111
22.187500000000 14.312500000000 8.662000656128 116 116 116
19.250000000000 12.562500000000 8.152999877930 139 139 139
19.250000000000 12.562500000000 8.184000015259 59 59 59
23.562500000000 15.000000000000 9.232000350952 111 111 111
22.250000000000 14.250000000000 8.674999237061 126 126 126
19.250000000000 12.375000000000 8.152999877930 168 168 168
23.625000000000 14.875000000000 9.232999801636 109 109 109
22.250000000000 14.062500000000 8.673999786377 132 132 132
19.312500000000 12.375000000000 8.136999130249 180 180 180
23.625000000000 14.812500000000 9.236000061035 101 101 101
22.250000000000 13.937500000000 8.680000305176 134 134 134
19.312500000000 12.187500000000 8.141000747681 183 183 183
23.562500000000 14.625000000000 9.239000320435 107 107 107
22.250000000000 13.750000000000 8.687999725342 138 138 138
19.312500000000 12.000000000000 8.150999069214 195 195 195
23.562500000000 14.437500000000 9.247999191284 99 99 99
22.187500000000 13.625000000000 8.680000305176 135 135 135
19.250000000000 11.875000000000 8.150999069214 198 198 198
23.625000000000 14.312500000000 9.249000549316 94 94 94
22.250000000000 13.562500000000 8.684000015259 136 136 136
19.250000000000 11.750000000000 8.163000106812 214 214 214
23.562500000000 14.187500000000 9.243000030518 73 73 73
22.250000000000 13.375000000000 8.690000534058 127 127 127
19.250000000000 11.562500000000 8.166000366211 215 215 215
23.625000000000 14.125000000000 9.254999160767 61 61 61
22.250000000000 13.250000000000 8.690999984741 122 122 122
22.562500000000 13.437500000000 9.302000045776 26 26 26
19.312500000000 11.500000000000 8.167999267578 210 210 210
23.625000000000 13.937500000000 9.267999649048 31 31 31
22.250000000000 13.125000000000 8.687000274658 110 110 110
22.500000000000 13.250000000000 9.298999786377 45 45 45
19.312500000000 11.375000000000 8.173999786377 215 215 215
22.250000000000 12.937500000000 8.693000793457 96 96 96
22.562500000000 13.187500000000 9.308000564575 64 64 64
19.312500000000 11.250000000000 8.172000885010 214 214 214
22.250000000000 12.875000000000 8.690999984741 76 76 76
22.562500000000 13.062500000000 9.309999465942 79 79 79
19.312500000000 11.062500000000 8.177000045776 217 217 217
22.250000000000 12.750000000000 8.697999954224 55 55 55
22.562500000000 12.875000000000 9.311000823975 94 94 94
19.250000000000 10.937500000000 8.181999206543 210 210 210
22.562500000000 12.750000000000 9.312000274658 106 106 106
19.250000000000 10.750000000000 8.184000015259 214 214 214
22.625000000000 12.625000000000 9.325000762939 113 113 113
19.312500000000 10.687500000000 8.179000854492 217 217 217
22.562500000000 12.562500000000 9.309000015259 114 114 114
19.312500000000 10.500000000000 8.179000854492 201 201 201
22.562500000000 12.375000000000 9.322000503540 121 121 121
19.312500000000 10.375000000000 8.191999435425 232 232 232
22.562500000000 12.187500000000 9.326000213623 123 123 123
19.312500000000 10.250000000000 8.198999404907 253 253 253
22.187500000000 11.875000000000 8.761999130249 29 29 29
22.562500000000 12.125000000000 9.325000762939 120 120 120
19.312500000000 10.062500000000 8.197999954224 238 238 238
22.187500000000 11.750000000000 8.770999908447 52 52 52
22.562500000000 11.937500000000 9.336000442505 112 112 112
19.250000000000 10.000000000000 8.198999404907 225 225 225
22.250000000000 11.625000000000 8.770000457764 79 79 79
22.625000000000 11.812500000000 9.332000732422 103 103 103
19.312500000000 9.875000000000 8.190999984741 213 213 213
23.562500000000 12.250000000000 9.339000701904 23 23 23
22.250000000000 11.437500000000 8.773000717163 102 102 102
22.625000000000 11.687500000000 9.333000183105 87 87 87
19.312500000000 9.687500000000 8.179000854492 205 205 205
23.562500000000 12.125000000000 9.329000473022 52 52 52
22.250000000000 11.375000000000 8.773000717163 117 117 117
22.562500000000 11.562500000000 9.346000671387 68 68 68
19.312500000000 9.562500000000 8.183000564575 174 174 174
23.625000000000 12.000000000000 9.340999603271 64 64 64
22.250000000000 11.187500000000 8.773000717163 128 128 128
22.562500000000 11.375000000000 9.347000122070 50 50 50
19.312500000000 9.437500000000 8.208999633789 141 141 141
23.562500000000 11.875000000000 9.353000640869 83 83 83
22.250000000000 11.000000000000 8.781999588013 136 136 136
19.312500000000 9.250000000000 8.222999572754 129 129 129
23.562500000000 11.750000000000 9.354000091553 97 97 97
22.250000000000 11.000000000000 8.781000137329 139 139 139
19.375000000000 9.187500000000 8.197999954224 52 52 52
19.375000000000 9.187500000000 8.250000000000 122 122 122
23.562500000000 11.562500000000 9.351999282837 111 111 111
22.250000000000 10.812500000000 8.788000106812 134 134 134
21.375000000000 10.250000000000 9.253999710083 34 34 34
19.312500000000 9.062500000000 8.198999404907 88 88 88
23.562500000000 11.500000000000 9.357000350952 114 114 114
22.250000000000 10.625000000000 8.781999588013 132 132 132
21.312500000000 10.187500000000 9.245000839233 36 36 36
19.312500000000 8.875000000000 8.208999633789 142 142 142
23.625000000000 11.375000000000 9.364000320435 113 113 113
22.250000000000 10.500000000000 8.787000656128 121 121 121
21.312500000000 10.000000000000 9.249000549316 42 42 42
19.375000000000 8.812500000000 8.191999435425 182 182 182
19.312500000000 8.750000000000 9.054000854492 72 72 72
23.625000000000 11.187500000000 9.358999252319 109 109 109
22.250000000000 10.375000000000 8.795000076294 108 108 108
21.312500000000 9.812500000000 9.250000000000 44 44 44
19.375000000000 8.625000000000 8.191999435425 203 203 203
19.375000000000 8.625000000000 9.045999526978 71 71 71
23.625000000000 11.000000000000 9.365999221802 95 95 95
22.250000000000 10.250000000000 8.780000686646 63 63 63
22.562500000000 10.437500000000 9.416999816895 26 26 26
21.312500000000 9.687500000000 9.254999160767 64 64 64
19.375000000000 8.500000000000 8.194999694824 195 195 195
19.375000000000 8.500000000000 9.058000564575 73 73 73
23.562500000000 10.937500000000 9.365999221802 92 92 92
22.250000000000 10.125000000000 8.798000335693 59 59 59
22.562500000000 10.250000000000 9.415000915527 24 24 24
21.312500000000 9.562500000000 9.254999160767 47 47 47
19.375000000000 8.375000000000 8.194999694824 184 184 184
19.375000000000 8.375000000000 9.066999435425 79 79 79
23.562500000000 10.750000000000 9.368000030518 78 78 78
22.562500000000 10.187500000000 9.422000885010 59 59 59
21.312500000000 9.375000000000 9.246999740601 58 58 58
19.312500000000 8.187500000000 8.204000473022 179 179 179
19.312500000000 8.187500000000 9.083000183105 75 75 75
23.625000000000 10.625000000000 9.375000000000 53 53 53
22.562500000000 10.000000000000 9.426000595093 83 83 83
21.312500000000 9.312500000000 9.259000778198 67 67 67
19.312500000000 8.125000000000 8.209999084473 179 179 179
19.312500000000 8.125000000000 9.072999954224 62 62 62
22.625000000000 9.875000000000 9.430999755859 107 107 107
21.312500000000 9.187500000000 9.250000000000 78 78 78
19.375000000000 8.000000000000 8.204999923706 176 176 176
19.375000000000 8.000000000000 9.083999633789 57 57 57
22.562500000000 9.812500000000 9.427000045776 115 115 115
21.312500000000 9.000000000000 9.249000549316 81 81 81
19.375000000000 7.812500000000 8.200000762939 177 177 177
19.375000000000 7.812500000000 9.093000411987 34 34 34
22.250000000000 9.437500000000 8.854000091553 43 43 43
22.562500000000 9.625000000000 9.429000854492 120 120 120
21.312500000000 8.875000000000 9.249000549316 85 85 85
19.375000000000 7.687500000000 8.207000732422 178 178 178
22.250000000000 9.250000000000 8.864000320435 72 72 72
22.562500000000 9.500000000000 9.438999176025 128 128 128
21.312500000000 8.750000000000 9.252000808716 83 83 83
19.375000000000 7.562500000000 8.198999404907 185 185 185
22.187500000000 9.125000000000 8.854000091553 96 96 96
22.562500000000 9.375000000000 9.431999206543 113 113 113
21.312500000000 8.625000000000 9.253000259399 90 90 90
19.375000000000 7.375000000000 8.211000442505 184 184 184
22.250000000000 9.062500000000 8.864000320435 100 100 100
22.625000000000 9.250000000000 9.444000244141 116 116 116
21.312500000000 8.500000000000 9.260999679565 90 90 90
19.312500000000 7.250000000000 8.207000732422 181 181 181
22.250000000000 8.875000000000 8.875000000000 120 120 120
22.625000000000 9.125000000000 9.437000274658 100 100 100
21.312500000000 8.312500000000 9.250999450684 88 88 88
19.375000000000 7.187500000000 8.212999343872 191 191 191
22.250000000000 8.750000000000 8.871999740601 131 131 131
22.625000000000 8.937500000000 9.451999664307 92 92 92
21.312500000000 8.250000000000 9.260999679565 88 88 88
19.375000000000 7.000000000000 8.215000152588 178 178 178
22.250000000000 8.625000000000 8.885000228882 140 140 140
22.562500000000 8.812500000000 9.454000473022 72 72 72
21.312500000000 8.062500000000 9.263999938965 92 92 92
19.375000000000 6.875000000000 8.219999313354 179 179 179
23.562500000000 9.250000000000 9.459999084473 47 47 47
22.250000000000 8.437500000000 8.886999130249 144 144 144
22.625000000000 8.750000000000 9.471000671387 37 37 37
21.312500000000 7.875000000000 9.257999420166 93 93 93
19.375000000000 6.750000000000 8.232000350952 170 170 170
23.562500000000 9.187500000000 9.465999603271 70 70 70
22.250000000000 8.375000000000 8.885999679565 142 142 142
21.312500000000 7.812500000000 9.256999969482 86 86 86
19.375000000000 6.562500000000 8.228000640869 146 146 146
23.562500000000 9.000000000000 9.461999893188 86 86 86
22.250000000000 8.187500000000 8.892999649048 130 130 130
21.312500000000 7.687500000000 9.256999969482 102 102 102
19.375000000000 6.500000000000 8.250000000000 122 122 122
23.562500000000 8.812500000000 9.465000152588 101 101 101
22.250000000000 8.062500000000 8.882999420166 111 111 111
21.312500000000 7.500000000000 9.268999099731 93 93 93
19.375000000000 6.312500000000 8.273000717163 118 118 118
23.625000000000 8.750000000000 9.471000671387 108 108 108
22.250000000000 7.937500000000 8.881999969482 90 90 90
21.312500000000 7.375000000000 9.260999679565 98 98 98
19.375000000000 6.250000000000 8.336000442505 102 102 102
23.562500000000 8.625000000000 9.468000411987 105 105 105
22.250000000000 7.750000000000 8.896999359131 66 66 66
21.312500000000 7.250000000000 9.267999649048 102 102 102
23.625000000000 8.437500000000 9.489999771118 115 115 115
22.250000000000 7.625000000000 8.898000717163 27 27 27
21.312500000000 7.125000000000 9.260999679565 101 101 101
19.375000000000 5.937500000000 8.240999221802 71 71 71
19.375000000000 5.937500000000 9.173999786377 61 61 61
23.625000000000 8.312500000000 9.479000091553 104 104 104
22.562500000000 7.687500000000 9.542999267578 25 25 25
21.312500000000 6.937500000000 9.260000228882 94 94 94
19.375000000000 5.750000000000 8.219999313354 106 106 106
19.375000000000 5.750000000000 9.159999847412 55 55 55
23.562500000000 8.187500000000 9.486000061035 98 98 98
22.562500000000 7.562500000000 9.538000106812 47 47 47
21.312500000000 6.812500000000 9.264999389648 97 97 97
19.375000000000 5.687500000000 8.249000549316 151 151 151
19.375000000000 5.687500000000 9.174999237061 58 58 58
23.562500000000 8.000000000000 9.488000869751 86 86 86
22.625000000000 7.437500000000 9.554000854492 63 63 63
21.312500000000 6.750000000000 9.263999938965 97 97 97
19.375000000000 5.500000000000 8.236999511719 172 172 172
19.375000000000 5.500000000000 9.187000274658 51 51 51
23.625000000000 7.937500000000 9.507999420166 81 81 81
22.562500000000 7.375000000000 9.548000335693 78 78 78
21.312500000000 6.562500000000 9.270999908447 94 94 94
19.375000000000 5.375000000000 8.224000930786 178 178 178
19.375000000000 5.375000000000 9.193000793457 55 55 55
23.625000000000 7.750000000000 9.500000000000 53 53 53
22.562500000000 7.187500000000 9.547000885010 89 89 89
21.312500000000 6.375000000000 9.274999618530 100 100 100
19.375000000000 5.312500000000 8.232999801636 177 177 177
19.375000000000 5.312500000000 9.208000183105 63 63 63
23.625000000000 7.625000000000 9.506000518799 36 36 36
22.562500000000 7.000000000000 9.559000015259 106 106 106
21.312500000000 6.312500000000 9.273000717163 96 96 96
19.375000000000 5.125000000000 8.235000610352 179 179 179
19.375000000000 5.125000000000 9.218000411987 74 74 74
22.187500000000 6.687500000000 8.972000122070 51 51 51
22.562500000000 6.875000000000 9.562999725342 118 118 118
21.312500000000 6.125000000000 9.270000457764 100 100 100
19.375000000000 5.000000000000 8.233999252319 176 176 176
19.375000000000 5.000000000000 9.208999633789 70 70 70
22.250000000000 6.500000000000 8.974000930786 84 84 84
22.562500000000 6.750000000000 9.558000564575 127 127 127
21.375000000000 6.000000000000 9.274000167847 90 90 90
19.375000000000 4.812500000000 8.233999252319 173 173 173
19.375000000000 4.812500000000 9.221000671387 75 75 75
22.250000000000 6.437500000000 8.983999252319 113 113 113
22.562500000000 6.625000000000 9.568000793457 121 121 121
21.312500000000 5.937500000000 9.274000167847 99 99 99
19.375000000000 4.687500000000 8.236999511719 177 177 177
19.375000000000 4.687500000000 9.211999893188 78 78 78
22.250000000000 6.250000000000 8.993999481201 133 133 133
22.562500000000 6.500000000000 9.576999664307 113 113 113
21.312500000000 5.750000000000 9.274000167847 97 97 97
19.375000000000 4.562500000000 8.240999221802 181 181 181
19.437500000000 4.625000000000 9.225000381470 75 75 75
22.250000000000 6.125000000000 9.003999710083 142 142 142
22.625000000000 6.375000000000 9.569000244141 111 111 111
21.312500000000 5.625000000000 9.281000137329 97 97 97
19.375000000000 4.437500000000 8.236000061035 189 189 189
19.375000000000 4.437500000000 9.239999771118 71 71 71
22.250000000000 6.000000000000 9.003999710083 140 140 140
22.562500000000 6.187500000000 9.572999954224 96 96 96
21.312500000000 5.500000000000 9.281000137329 98 98 98
19.375000000000 4.312500000000 8.240999221802 190 190 190
19.375000000000 4.375000000000 9.236999511719 57 57 57
22.250000000000 5.875000000000 9.016000747681 149 149 149
22.562500000000 6.062500000000 9.580999374390 87 87 87
21.312500000000 5.312500000000 9.278999328613 97 97 97
19.375000000000 4.187500000000 8.239999771118 176 176 176
22.250000000000 5.750000000000 9.010000228882 150 150 150
22.562500000000 6.000000000000 9.590000152588 73 73 73
21.375000000000 5.250000000000 9.285999298096 100 100 100
19.375000000000 4.000000000000 8.250000000000 89 89 89
22.250000000000 5.625000000000 9.016000747681 143 143 143
22.562500000000 5.812500000000 9.587999343872 55 55 55
21.312500000000 5.062500000000 9.288000106812 94 94 94
23.562500000000 6.250000000000 9.604999542236 36 36 36
22.250000000000 5.437500000000 9.011999130249 128 128 128
22.625000000000 5.687500000000 9.611999511719 28 28 28
21.312500000000 4.937500000000 9.274999618530 98 98 98
19.437500000000 3.812500000000 8.249000549316 57 57 57
23.562500000000 6.187500000000 9.610000610352 59 59 59
22.250000000000 5.375000000000 9.009000778198 116 116 116
21.312500000000 4.812500000000 9.294000625610 101 101 101
19.437500000000 3.625000000000 8.246000289917 148 148 148
23.562500000000 6.000000000000 9.607999801636 84 84 84
22.250000000000 5.187500000000 9.021999359131 95 95 95
21.312500000000 4.625000000000 9.291000366211 99 99 99
19.375000000000 3.500000000000 8.250999450684 153 153 153
23.562500000000 5.875000000000 9.614999771118 98 98 98
22.250000000000 5.062500000000 9.031000137329 61 61 61
21.312500000000 4.500000000000 9.304000854492 97 97 97
19.375000000000 3.375000000000 8.240999221802 176 176 176
23.562500000000 5.750000000000 9.617000579834 102 102 102
21.375000000000 4.437500000000 9.291000366211 91 91 91
19.437500000000 3.250000000000 8.245000839233 176 176 176
23.562500000000 5.562500000000 9.625999450684 106 106 106
21.375000000000 4.250000000000 9.292999267578 96 96 96
19.437500000000 3.125000000000 8.247999191284 173 173 173
23.562500000000 5.437500000000 9.625000000000 100 100 100
22.562500000000 4.812500000000 9.663000106812 22 22 22
21.312500000000 4.125000000000 9.290000915527 98 98 98
19.437500000000 2.937500000000 8.250000000000 180 180 180
23.562500000000 5.375000000000 9.631000518799 96 96 96
22.562500000000 4.687500000000 9.674999237061 34 34 34
21.312500000000 4.000000000000 9.305999755859 101 101 101
19.437500000000 2.812500000000 8.260000228882 186 186 186
19.437500000000 2.812500000000 9.295999526978 36 36 36
23.562500000000 5.187500000000 9.631999969482 71 71 71
22.562500000000 4.625000000000 9.677999496460 69 69 69
21.312500000000 3.812500000000 9.298000335693 103 103 103
19.437500000000 2.687500000000 8.259000778198 184 184 184
19.437500000000 2.750000000000 9.291999816895 49 49 49
23.625000000000 5.000000000000 9.646999359131 57 57 57
22.187500000000 4.250000000000 9.100000381470 34 34 34
22.562500000000 4.437500000000 9.684000015259 82 82 82
21.312500000000 3.687500000000 9.295999526978 101 101 101
19.375000000000 2.500000000000 8.253000259399 181 181 181
19.437500000000 2.562500000000 9.298000335693 50 50 50
23.562500000000 4.937500000000 9.646999359131 39 39 39
22.250000000000 4.125000000000 9.106000900269 70 70 70
22.562500000000 4.250000000000 9.697000503540 97 97 97
21.375000000000 3.562500000000 9.298999786377 99 99 99
19.437500000000 2.437500000000 8.253000259399 186 186 186
19.437500000000 2.500000000000 9.302000045776 52 52 52
22.250000000000 3.937500000000 9.108999252319 98 98 98
22.500000000000 4.187500000000 9.690000534058 109 109 109
21.375000000000 3.437500000000 9.306999206543 94 94 94
19.437500000000 2.312500000000 8.260999679565 178 178 178
19.437500000000 2.312500000000 9.309000015259 54 54 54
22.250000000000 3.875000000000 9.111000061035 123 123 123
22.562500000000 4.062500000000 9.700000762939 122 122 122
21.312500000000 3.312500000000 9.304000854492 87 87 87
19.437500000000 2.125000000000 8.266000747681 176 176 176
19.437500000000 2.125000000000 9.340000152588 59 59 59
22.250000000000 3.687500000000 9.121000289917 137 137 137
22.562500000000 3.875000000000 9.704999923706 125 125 125
21.312500000000 3.125000000000 9.301000595093 90 90 90
19.437500000000 1.937500000000 8.267999649048 175 175 175
19.437500000000 1.937500000000 9.330999374390 60 60 60
22.187500000000 3.500000000000 9.129999160767 148 148 148
22.562500000000 3.750000000000 9.708000183105 117 117 117
21.312500000000 3.000000000000 9.312000274658 86 86 86
19.437500000000 1.875000000000 8.277999877930 170 170 170
19.437500000000 1.937500000000 9.339000701904 66 66 66
22.187500000000 3.437500000000 9.122999191284 149 149 149
22.562500000000 3.625000000000 9.711000442505 110 110 110
21.312500000000 2.875000000000 9.305999755859 85 85 85
19.437500000000 1.750000000000 8.288000106812 138 138 138
19.437500000000 1.750000000000 9.357999801636 74 74 74
22.250000000000 3.312500000000 9.135999679565 137 137 137
22.562500000000 3.500000000000 9.715000152588 89 89 89
21.312500000000 2.750000000000 9.301000595093 80 80 80
19.437500000000 1.625000000000 8.288000106812 117 117 117
19.437500000000 1.625000000000 9.344999313354 75 75 75
22.250000000000 3.125000000000 9.138000488281 115 115 115
22.625000000000 3.375000000000 9.725999832153 71 71 71
21.375000000000 2.625000000000 9.318000793457 75 75 75
19.437500000000 1.500000000000 8.281000137329 76 76 76
19.437500000000 1.500000000000 9.363000869751 74 74 74
23.562500000000 3.812500000000 9.739999771118 69 69 69
22.250000000000 3.000000000000 9.142000198364 56 56 56
21.375000000000 2.500000000000 9.323999404907 59 59 59
19.437500000000 1.312500000000 8.278999328613 113 113 113
19.437500000000 1.312500000000 9.364999771118 77 77 77
23.625000000000 3.687500000000 9.735000610352 66 66 66
22.250000000000 2.875000000000 9.135000228882 55 55 55
21.312500000000 2.312500000000 9.312999725342 69 69 69
19.437500000000 1.250000000000 9.350000381470 49 49 49
23.562500000000 3.500000000000 9.746000289917 93 93 93
21.312500000000 2.187500000000 9.309000015259 59 59 59
19.500000000000 1.062500000000 8.305999755859 56 56 56
19.437500000000 1.062500000000 9.367000579834 48 48 48
23.562500000000 3.437500000000 9.750999450684 105 105 105
21.312500000000 2.062500000000 9.318000793457 55 55 55
19.500000000000 0.937500000000 8.283000946045 101 101 101
23.562500000000 3.250000000000 9.753000259399 111 111 111
21.375000000000 1.937500000000 9.326999664307 65 65 65
19.500000000000 0.812500000000 8.305999755859 147 147 147
23.562500000000 3.125000000000 9.756000518799 104 104 104
21.312500000000 1.812500000000 9.319999694824 58 58 58
19.437500000000 0.625000000000 8.291999816895 177 177 177
23.625000000000 3.062500000000 9.757999420166 101 101 101
22.250000000000 2.187500000000 9.208999633789 39 39 39
22.500000000000 2.375000000000 9.804000854492 20 20 20
21.312500000000 1.687500000000 9.339000701904 60 60 60
19.500000000000 0.562500000000 8.302000045776 168 168 168
23.625000000000 2.875000000000 9.763000488281 88 88 88
22.250000000000 2.062500000000 9.222999572754 81 81 81
22.500000000000 2.250000000000 9.799999237061 51 51 51
21.375000000000 1.500000000000 9.313999176025 54 54 54
19.437500000000 0.437500000000 8.294000625610 176 176 176
23.625000000000 2.750000000000 9.760999679565 59 59 59
22.250000000000 1.937500000000 9.218999862671 112 112 112
22.562500000000 2.125000000000 9.816999435425 93 93 93
21.312500000000 1.375000000000 9.320999145508 44 44 44
19.500000000000 0.250000000000 8.298000335693 174 174 174
23.562500000000 2.625000000000 9.783000946045 39 39 39
22.187500000000 1.750000000000 9.217000961304 127 127 127
22.562500000000 2.000000000000 9.813999176025 100 100 100
21.312500000000 1.250000000000 9.329000473022 46 46 46
19.500000000000 0.062500000000 8.298999786377 174 174 174
22.250000000000 1.625000000000 9.236999511719 149 149 149
22.562500000000 1.875000000000 9.819000244141 120 120 120
21.312500000000 1.125000000000 9.329999923706 30 30 30
19.500000000000 0.000000000000 8.299999237061 179 179 179
22.250000000000 1.562500000000 9.232000350952 149 149 149
22.562500000000 1.687500000000 9.823999404907 130 130 130
22.250000000000 1.375000000000 9.235000610352 148 148 148
22.625000000000 1.625000000000 9.826000213623 119 119 119
22.250000000000 1.250000000000 9.236000061035 113 113 113
22.562500000000 1.437500000000 9.834999084473 105 105 105
22.250000000000 1.125000000000 9.240999221802 109 109 109
22.562500000000 1.312500000000 9.847999572754 100 100 100
22.250000000000 1.000000000000 9.250000000000 80 80 80
22.562500000000 1.187500000000 9.840000152588 74 74 74
23.562500000000 1.687500000000 9.867000579834 44 44 44
22.250000000000 0.875000000000 9.267999649048 34 34 34
22.562500000000 1.062500000000 9.858999252319 49 49 49
23.562500000000 1.500000000000 9.868999481201 71 71 71
23.625000000000 1.375000000000 9.868999481201 86 86 86
23.625000000000 1.250000000000 9.882999420166 94 94 94
23.562500000000 1.125000000000 9.871999740601 102 102 102
23.562500000000 0.937500000000 9.878000259399 99 99 99
22.250000000000 0.125000000000 9.326000213623 74 74 74
23.562500000000 0.812500000000 9.885000228882 90 90 90
22.250000000000 0.062500000000 9.325000762939 96 96 96
22.562500000000 0.250000000000 9.934000015259 24 24 24
23.625000000000 0.687500000000 9.888000488281 68 68 68
22.562500000000 0.062500000000 9.931999206543 64 64 64
22.562500000000 25.687500000000 9.023000717163 76 76 76
22.562500000000 25.500000000000 9.013000488281 67 67 67
22.250000000000 25.750000000000 8.422000885010 131 131 131
22.562500000000 25.375000000000 9.027999877930 58 58 58
22.250000000000 25.562500000000 8.422000885010 143 143 143
22.562500000000 25.250000000000 9.018999099731 68 68 68
22.250000000000 25.437500000000 8.423999786377 134 134 134
22.562500000000 25.125000000000 9.023000717163 64 64 64
22.250000000000 25.312500000000 8.431999206543 138 138 138
21.375000000000 25.687500000000 9.301000595093 68 68 68
22.625000000000 25.000000000000 9.031999588013 64 64 64
22.250000000000 25.125000000000 8.430000305176 136 136 136
21.375000000000 25.562500000000 9.298000335693 84 84 84
22.625000000000 24.812500000000 9.041000366211 48 48 48
22.250000000000 25.000000000000 8.426000595093 135 135 135
21.375000000000 25.437500000000 9.291000366211 75 75 75
22.562500000000 24.750000000000 9.020999908447 60 60 60
22.250000000000 24.937500000000 8.430999755859 136 136 136
21.375000000000 25.250000000000 9.298000335693 83 83 83
22.562500000000 24.562500000000 9.030000686646 39 39 39
22.312500000000 24.750000000000 8.436000823975 143 143 143
21.375000000000 25.125000000000 9.302999496460 89 89 89
22.562500000000 24.375000000000 9.028999328613 50 50 50
22.250000000000 24.562500000000 8.438999176025 141 141 141
21.375000000000 25.062500000000 9.295000076294 84 84 84
22.625000000000 24.312500000000 9.041999816895 68 68 68
22.250000000000 24.500000000000 8.430999755859 129 129 129
21.375000000000 24.875000000000 9.284000396729 89 89 89
22.625000000000 24.187500000000 9.041999816895 75 75 75
22.250000000000 24.312500000000 8.440999984741 133 133 133
21.375000000000 24.750000000000 9.304000854492 81 81 81
22.562500000000 24.000000000000 9.037000656128 66 66 66
22.312500000000 24.250000000000 8.444000244141 134 134 134
21.375000000000 24.625000000000 9.281999588013 92 92 92
22.625000000000 23.875000000000 9.038000106812 68 68 68
22.312500000000 24.062500000000 8.444000244141 135 135 135
21.375000000000 24.437500000000 9.291000366211 94 94 94
22.562500000000 23.750000000000 9.027999877930 70 70 70
22.250000000000 23.937500000000 8.438999176025 129 129 129
19.062500000000 25.687500000000 7.978000640869 187 187 187
19.062500000000 25.625000000000 8.691999435425 68 68 68
21.312500000000 24.312500000000 9.285999298096 95 95 95
22.562500000000 23.562500000000 9.049999237061 54 54 54
22.250000000000 23.812500000000 8.447000503540 131 131 131
19.062500000000 25.562500000000 7.986000061035 187 187 187
19.062500000000 25.562500000000 8.701000213623 71 71 71
21.375000000000 24.187500000000 9.284999847412 96 96 96
22.562500000000 23.437500000000 9.049999237061 72 72 72
22.250000000000 23.625000000000 8.445999145508 129 129 129
19.062500000000 25.375000000000 7.986000061035 149 149 149
19.125000000000 25.375000000000 8.688999176025 72 72 72
21.375000000000 24.062500000000 9.285999298096 92 92 92
22.625000000000 23.375000000000 9.044000625610 76 76 76
22.250000000000 23.500000000000 8.444999694824 127 127 127
19.062500000000 25.250000000000 7.979000091553 141 141 141
19.125000000000 25.250000000000 8.707000732422 73 73 73
21.375000000000 23.937500000000 9.284000396729 98 98 98
22.562500000000 23.250000000000 9.042999267578 80 80 80
22.250000000000 23.375000000000 8.451999664307 126 126 126
19.062500000000 25.125000000000 7.986000061035 106 106 106
21.375000000000 23.750000000000 9.284999847412 93 93 93
22.562500000000 23.062500000000 9.041000366211 76 76 76
22.250000000000 23.250000000000 8.440000534058 119 119 119
19.062500000000 24.937500000000 7.985000610352 64 64 64
19.062500000000 24.937500000000 8.073999404907 105 105 105
21.375000000000 23.625000000000 9.287000656128 88 88 88
22.562500000000 22.937500000000 9.048000335693 76 76 76
22.250000000000 23.125000000000 8.450000762939 130 130 130
19.062500000000 24.875000000000 7.989999771118 73 73 73
19.125000000000 24.812500000000 8.077999114990 106 106 106
21.312500000000 23.500000000000 9.277000427246 91 91 91
22.625000000000 22.812500000000 9.052000045776 92 92 92
22.312500000000 23.000000000000 8.458999633789 110 110 110
19.062500000000 24.687500000000 7.989999771118 73 73 73
19.125000000000 24.687500000000 8.033000946045 128 128 128
21.375000000000 23.375000000000 9.284999847412 96 96 96
22.562500000000 22.625000000000 9.052999496460 87 87 87
22.250000000000 22.812500000000 8.447999954224 95 95 95
19.062500000000 24.562500000000 7.989999771118 52 52 52
19.125000000000 24.562500000000 8.003999710083 146 146 146
21.375000000000 23.250000000000 9.281000137329 95 95 95
22.562500000000 22.437500000000 9.056999206543 97 97 97
22.250000000000 22.625000000000 8.451000213623 99 99 99
19.062500000000 24.437500000000 8.003000259399 44 44 44
19.125000000000 24.375000000000 7.999000549316 191 191 191
21.375000000000 23.125000000000 9.284999847412 96 96 96
22.562500000000 22.437500000000 9.056999206543 95 95 95
22.250000000000 22.562500000000 8.455999374390 101 101 101
19.125000000000 24.250000000000 8.010000228882 215 215 215
21.375000000000 23.000000000000 9.270000457764 83 83 83
22.625000000000 22.250000000000 9.054000854492 85 85 85
22.312500000000 22.437500000000 8.461999893188 113 113 113
19.125000000000 24.125000000000 8.003999710083 214 214 214
21.375000000000 22.812500000000 9.283000946045 87 87 87
22.625000000000 22.062500000000 9.059000015259 100 100 100
22.250000000000 22.312500000000 8.451000213623 89 89 89
19.125000000000 24.000000000000 8.017000198364 227 227 227
21.375000000000 22.687500000000 9.277999877930 81 81 81
22.625000000000 22.000000000000 9.065999984741 96 96 96
22.250000000000 22.187500000000 8.461000442505 95 95 95
19.125000000000 23.875000000000 8.010000228882 232 232 232
21.312500000000 22.500000000000 9.274000167847 73 73 73
22.562500000000 21.812500000000 9.056999206543 100 100 100
22.250000000000 22.000000000000 8.454999923706 87 87 87
23.625000000000 21.250000000000 9.093000411987 17 17 17
19.125000000000 23.750000000000 8.007999420166 225 225 225
21.375000000000 22.437500000000 9.271999359131 68 68 68
22.562500000000 21.625000000000 9.065999984741 111 111 111
22.250000000000 21.875000000000 8.464000701904 77 77 77
23.562500000000 21.125000000000 9.086999893188 24 24 24
19.125000000000 23.625000000000 8.004999160767 235 235 235
21.375000000000 22.312500000000 9.275999069214 71 71 71
22.625000000000 21.562500000000 9.072000503540 115 115 115
22.250000000000 21.750000000000 8.465000152588 76 76 76
23.562500000000 20.937500000000 9.090000152588 33 33 33
19.125000000000 23.437500000000 8.017999649048 240 240 240
21.375000000000 22.187500000000 9.264999389648 67 67 67
22.625000000000 21.437500000000 9.072000503540 116 116 116
22.250000000000 21.562500000000 8.465000152588 69 69 69
23.625000000000 20.875000000000 9.090000152588 42 42 42
19.125000000000 23.250000000000 8.017000198364 253 253 253
21.375000000000 22.000000000000 9.270999908447 63 63 63
22.625000000000 21.250000000000 9.077999114990 119 119 119
22.250000000000 21.500000000000 8.469999313354 53 53 53
23.625000000000 20.687500000000 9.089000701904 51 51 51
19.125000000000 23.187500000000 8.018999099731 253 253 253
21.375000000000 21.812500000000 9.278999328613 66 66 66
22.625000000000 21.125000000000 9.084999084473 119 119 119
22.312500000000 21.312500000000 8.472000122070 35 35 35
23.625000000000 20.562500000000 9.096000671387 63 63 63
19.125000000000 23.062500000000 8.013999938965 229 229 229
21.312500000000 21.750000000000 9.256000518799 61 61 61
22.625000000000 21.000000000000 9.080999374390 119 119 119
22.312500000000 21.187500000000 8.479000091553 36 36 36
23.625000000000 20.375000000000 9.093000411987 68 68 68
19.125000000000 22.875000000000 8.013000488281 209 209 209
19.125000000000 22.875000000000 8.722000122070 51 51 51
21.375000000000 21.625000000000 9.277999877930 61 61 61
22.562500000000 20.875000000000 9.086000442505 112 112 112
22.250000000000 21.062500000000 8.475999832153 35 35 35
23.562500000000 20.312500000000 9.086999893188 67 67 67
19.125000000000 22.812500000000 8.009000778198 187 187 187
21.375000000000 21.437500000000 9.264999389648 53 53 53
22.625000000000 20.750000000000 9.089000701904 111 111 111
22.250000000000 20.875000000000 8.489000320435 27 27 27
23.562500000000 20.125000000000 9.087999343872 78 78 78
19.125000000000 22.625000000000 8.013000488281 175 175 175
21.312500000000 21.375000000000 9.246999740601 45 45 45
22.625000000000 20.562500000000 9.083000183105 109 109 109
22.250000000000 20.750000000000 8.495000839233 31 31 31
23.562500000000 19.937500000000 9.093000411987 77 77 77
19.125000000000 22.500000000000 8.024999618530 138 138 138
19.125000000000 22.437500000000 8.099000930786 126 126 126
21.312500000000 21.187500000000 9.267999649048 44 44 44
22.625000000000 20.500000000000 9.096000671387 111 111 111
23.562500000000 19.937500000000 9.089000701904 82 82 82
19.125000000000 22.375000000000 8.025999069214 115 115 115
19.125000000000 22.312500000000 8.058000564575 138 138 138
21.375000000000 21.000000000000 9.263000488281 36 36 36
22.625000000000 20.312500000000 9.089000701904 109 109 109
23.562500000000 19.750000000000 9.097000122070 93 93 93
19.125000000000 22.250000000000 8.020999908447 103 103 103
19.187500000000 22.250000000000 8.040000915527 159 159 159
21.312500000000 20.937500000000 9.259000778198 49 49 49
22.625000000000 20.125000000000 9.100000381470 101 101 101
23.625000000000 19.562500000000 9.096000671387 94 94 94
19.125000000000 22.125000000000 8.016000747681 80 80 80
19.125000000000 22.062500000000 8.052000045776 233 233 233
21.312500000000 20.750000000000 9.256000518799 40 40 40
22.625000000000 20.062500000000 9.100999832153 104 104 104
23.625000000000 19.500000000000 9.110000610352 102 102 102
19.125000000000 21.937500000000 8.028999328613 70 70 70
19.125000000000 21.875000000000 8.041000366211 241 241 241
21.312500000000 20.687500000000 9.261999130249 39 39 39
22.625000000000 19.937500000000 9.096000671387 94 94 94
23.625000000000 19.312500000000 9.111000061035 97 97 97
19.125000000000 21.812500000000 8.041000366211 253 253 253
21.375000000000 20.500000000000 9.266000747681 45 45 45
22.625000000000 19.750000000000 9.096000671387 89 89 89
23.562500000000 19.125000000000 9.117000579834 104 104 104
19.125000000000 21.625000000000 8.042999267578 253 253 253
22.625000000000 19.625000000000 9.100000381470 94 94 94
23.625000000000 19.062500000000 9.111000061035 101 101 101
19.125000000000 21.500000000000 8.042999267578 253 253 253
21.312500000000 20.250000000000 9.257999420166 30 30 30
22.625000000000 19.500000000000 9.104000091553 75 75 75
23.625000000000 18.937500000000 9.122999191284 102 102 102
19.187500000000 21.375000000000 8.045000076294 253 253 253
21.312500000000 20.062500000000 9.256999969482 26 26 26
22.625000000000 19.375000000000 9.099000930786 72 72 72
23.625000000000 18.750000000000 9.120000839233 110 110 110
19.187500000000 21.250000000000 8.038000106812 253 253 253
21.312500000000 20.000000000000 9.254999160767 25 25 25
22.625000000000 19.187500000000 9.099000930786 59 59 59
23.625000000000 18.625000000000 9.125999450684 102 102 102
19.125000000000 21.125000000000 8.055999755859 253 253 253
22.625000000000 19.125000000000 9.110000610352 59 59 59
23.625000000000 18.500000000000 9.125000000000 103 103 103
19.125000000000 20.937500000000 8.045000076294 253 253 253
22.562500000000 19.000000000000 9.110000610352 49 49 49
23.562500000000 18.375000000000 9.127000808716 94 94 94
19.125000000000 20.812500000000 8.041000366211 253 253 253
22.625000000000 18.812500000000 9.128000259399 42 42 42
23.625000000000 18.250000000000 9.127000808716 93 93 93
19.125000000000 20.687500000000 8.047000885010 253 253 253
22.625000000000 18.687500000000 9.121999740601 28 28 28
23.625000000000 18.062500000000 9.136999130249 89 89 89
19.187500000000 20.562500000000 8.055000305176 253 253 253
22.250000000000 18.750000000000 8.554000854492 27 27 27
23.625000000000 18.000000000000 9.132999420166 82 82 82
19.187500000000 20.375000000000 8.052000045776 253 253 253
22.250000000000 18.562500000000 8.563999176025 47 47 47
23.625000000000 17.812500000000 9.142999649048 81 81 81
19.125000000000 20.312500000000 8.049999237061 253 253 253
22.250000000000 18.437500000000 8.554000854492 53 53 53
23.625000000000 17.625000000000 9.138999938965 68 68 68
19.125000000000 20.125000000000 8.047000885010 248 248 248
22.250000000000 18.312500000000 8.572999954224 25 25 25
23.625000000000 17.562500000000 9.138999938965 85 85 85
19.125000000000 20.000000000000 8.054000854492 253 253 253
22.187500000000 18.187500000000 8.559000015259 51 51 51
23.562500000000 17.375000000000 9.142999649048 58 58 58
19.125000000000 19.875000000000 8.052999496460 249 249 249
22.250000000000 18.062500000000 8.545999526978 56 56 56
23.625000000000 17.250000000000 9.146999359131 53 53 53
19.187500000000 19.750000000000 8.069000244141 235 235 235
22.250000000000 18.000000000000 8.552999496460 70 70 70
23.625000000000 17.125000000000 9.136999130249 49 49 49
19.187500000000 19.625000000000 8.059999465942 224 224 224
19.250000000000 19.562500000000 8.094999313354 113 113 113
22.250000000000 17.812500000000 8.561000823975 79 79 79
23.625000000000 17.000000000000 9.153999328613 46 46 46
19.187500000000 19.500000000000 8.054000854492 194 194 194
19.187500000000 19.500000000000 8.110000610352 130 130 130
22.250000000000 17.625000000000 8.565999984741 90 90 90
23.625000000000 16.812500000000 9.162000656128 43 43 43
19.125000000000 19.312500000000 8.061000823975 143 143 143
19.187500000000 19.312500000000 8.103000640869 142 142 142
22.250000000000 17.500000000000 8.575000762939 101 101 101
23.625000000000 16.687500000000 9.166999816895 23 23 23
19.125000000000 19.187500000000 8.065000534058 126 126 126
19.187500000000 19.125000000000 8.083999633789 180 180 180
22.250000000000 17.375000000000 8.575000762939 108 108 108
23.625000000000 16.562500000000 9.160999298096 16 16 16
19.125000000000 19.062500000000 8.059000015259 86 86 86
19.187500000000 19.062500000000 8.063999176025 253 253 253
21.375000000000 17.750000000000 9.229000091553 35 35 35
22.250000000000 17.250000000000 8.579999923706 92 92 92
23.625000000000 16.437500000000 9.163999557495 22 22 22
19.125000000000 18.875000000000 8.059999465942 87 87 87
19.187500000000 18.875000000000 8.062999725342 253 253 253
21.375000000000 17.625000000000 9.221000671387 23 23 23
22.250000000000 17.125000000000 8.577999114990 115 115 115
19.187500000000 18.812500000000 8.051000595093 44 44 44
19.187500000000 18.750000000000 8.059999465942 253 253 253
21.375000000000 17.500000000000 9.225000381470 46 46 46
22.250000000000 17.000000000000 8.589000701904 116 116 116
19.250000000000 18.625000000000 8.075000762939 253 253 253
21.375000000000 17.312500000000 9.221000671387 41 41 41
22.250000000000 16.812500000000 8.593000411987 123 123 123
19.250000000000 18.500000000000 8.066999435425 253 253 253
21.375000000000 17.187500000000 9.219999313354 41 41 41
22.562500000000 16.437500000000 9.222999572754 17 17 17
22.250000000000 16.625000000000 8.596000671387 133 133 133
19.187500000000 18.375000000000 8.065999984741 253 253 253
21.375000000000 17.125000000000 9.208999633789 56 56 56
22.250000000000 16.562500000000 8.592000961304 135 135 135
19.187500000000 18.187500000000 8.086000442505 253 253 253
21.375000000000 16.937500000000 9.208999633789 57 57 57
22.562500000000 16.250000000000 9.212999343872 18 18 18
22.250000000000 16.375000000000 8.593000411987 139 139 139
19.187500000000 18.062500000000 8.073999404907 253 253 253
21.375000000000 16.750000000000 9.211000442505 73 73 73
22.562500000000 16.125000000000 9.201999664307 36 36 36
22.250000000000 16.312500000000 8.593999862671 139 139 139
19.187500000000 18.000000000000 8.077999114990 253 253 253
21.375000000000 16.687500000000 9.211999893188 78 78 78
22.562500000000 15.937500000000 9.218999862671 46 46 46
22.250000000000 16.125000000000 8.607999801636 135 135 135
19.187500000000 17.812500000000 8.076000213623 253 253 253
21.375000000000 16.500000000000 9.214000701904 86 86 86
22.562500000000 15.812500000000 9.212999343872 38 38 38
22.250000000000 16.000000000000 8.608999252319 141 141 141
19.187500000000 17.625000000000 8.076999664307 253 253 253
21.375000000000 16.437500000000 9.209999084473 80 80 80
22.562500000000 15.687500000000 9.208999633789 63 63 63
22.250000000000 15.875000000000 8.608999252319 135 135 135
19.250000000000 17.562500000000 8.079000473022 200 200 200
19.250000000000 17.500000000000 8.093000411987 49 49 49
21.375000000000 16.250000000000 9.221000671387 92 92 92
22.562500000000 15.562500000000 9.212999343872 58 58 58
22.250000000000 15.687500000000 8.611999511719 135 135 135
19.187500000000 17.375000000000 8.090999603271 173 173 173
19.187500000000 17.375000000000 8.093000411987 71 71 71
21.375000000000 16.125000000000 9.215000152588 88 88 88
22.562500000000 15.437500000000 9.218999862671 74 74 74
22.250000000000 15.562500000000 8.618000030518 134 134 134
19.187500000000 17.187500000000 8.092000961304 128 128 128
19.250000000000 17.187500000000 8.108999252319 143 143 143
21.375000000000 16.000000000000 9.211999893188 85 85 85
22.562500000000 15.312500000000 9.222000122070 83 83 83
22.250000000000 15.500000000000 8.620000839233 116 116 116
19.187500000000 17.125000000000 8.077999114990 106 106 106
19.250000000000 17.062500000000 8.090000152588 198 198 198
21.312500000000 15.812500000000 9.214000701904 91 91 91
22.562500000000 15.125000000000 9.232999801636 88 88 88
22.250000000000 15.312500000000 8.620000839233 113 113 113
19.250000000000 17.000000000000 8.083999633789 98 98 98
19.250000000000 17.000000000000 8.093000411987 253 253 253
21.312500000000 15.750000000000 9.211999893188 95 95 95
22.562500000000 14.937500000000 9.231000900269 96 96 96
22.250000000000 15.125000000000 8.621000289917 115 115 115
19.187500000000 16.875000000000 8.084999084473 45 45 45
19.250000000000 16.812500000000 8.107999801636 253 253 253
