30.752368927002 22.081615447998 56.306999206543 165 165 165
30.752368927002 22.081615447998 56.280998229980 166 166 166
30.752368927002 22.081615447998 56.256996154785 160 160 160
30.752368927002 22.081615447998 56.234001159668 163 163 163
30.783321380615 22.077320098877 56.213996887207 158 158 158
30.769996643066 22.094945907593 56.187004089355 162 162 162
30.769996643066 22.094945907593 56.163002014160 167 167 167
30.752368927002 22.081615447998 56.137001037598 172 172 172
30.752368927002 22.081615447998 56.109992980957 174 174 174
30.752368927002 22.081615447998 56.088005065918 156 156 156
29.793655395508 22.561742782593 56.299995422363 143 143 143
29.809131622314 22.559595108032 56.273994445801 141 141 141
29.809131622314 22.559595108032 56.243995666504 140 140 140
29.809131622314 22.559595108032 56.215003967285 138 138 138
29.809131622314 22.559595108032 56.183998107910 135 135 135
29.809131622314 22.559595108032 56.155006408691 143 143 143
29.809131622314 22.559595108032 56.124000549316 34 34 34
30.675819396973 22.439289093018 56.303001403809 104 104 104
30.644866943359 22.443584442139 56.271003723145 171 171 171
30.644866943359 22.443584442139 56.245994567871 162 162 162
30.644866943359 22.443584442139 56.221000671387 163 163 163
30.644866943359 22.443584442139 56.196006774902 167 167 167
30.644866943359 22.443584442139 56.170005798340 165 165 165
30.644866943359 22.443584442139 56.148002624512 176 176 176
30.644866943359 22.443584442139 56.124000549316 162 162 162
30.056755065918 22.525222778320 55.814002990723 30 30 30
30.025802612305 22.529518127441 55.777000427246 40 40 40
30.101871490479 22.850231170654 56.370994567871 105 105 105
30.208057403564 22.819715499878 56.370994567871 116 116 116
30.334018707275 22.818004608154 56.368003845215 108 108 108
30.380451202393 22.811559677124 56.357994079590 165 165 165
30.409255981445 22.791788101196 56.334999084473 167 167 167
30.393779754639 22.793935775757 56.308006286621 164 164 164
30.473308563232 22.798669815063 56.297996520996 160 160 160
30.535217285156 22.790077209473 56.291999816895 164 164 164
30.533069610596 22.774600982666 56.265007019043 164 164 164
30.550693511963 22.787929534912 56.241996765137 161 161 161
30.533069610596 22.774600982666 56.213005065918 163 163 163
30.533069610596 22.774600982666 56.187004089355 165 165 165
30.550693511963 22.787929534912 56.165000915527 162 162 162
30.533069610596 22.774600982666 56.133003234863 166 166 166
30.393779754639 22.793935775757 56.068992614746 177 177 177
30.393779754639 22.793935775757 56.040992736816 180 180 180
30.393779754639 22.793935775757 56.013999938965 190 190 190
30.393779754639 22.793935775757 55.986000061035 186 186 186
30.393779754639 22.793935775757 55.959999084473 183 183 183
30.409255981445 22.791788101196 55.933006286621 204 204 204
30.393779754639 22.793935775757 55.903999328613 192 192 192
30.393779754639 22.793935775757 55.877006530762 188 188 188
30.409255981445 22.791788101196 55.851005554199 185 185 185
30.393779754639 22.793935775757 55.821998596191 185 185 185
30.409255981445 22.791788101196 55.793998718262 188 188 188
30.393779754639 22.793935775757 55.765007019043 178 178 178
30.409255981445 22.791788101196 55.737998962402 155 155 155
30.393779754639 22.793935775757 55.708000183105 168 168 168
30.393779754639 22.793935775757 55.680000305176 181 181 181
30.378303527832 22.796083450317 55.642005920410 171 171 171
30.303066253662 22.822301864624 55.579994201660 150 150 150
30.287590026855 22.824451446533 55.547004699707 144 144 144
30.287590026855 22.824451446533 55.517997741699 147 147 147
30.287590026855 22.824451446533 55.486991882324 148 148 148
30.287590026855 22.824451446533 55.456993103027 145 145 145
30.303066253662 22.822301864624 55.428001403809 144 144 144
30.287590026855 22.824451446533 55.396995544434 145 145 145
30.287590026855 22.824451446533 55.362998962402 149 149 149
30.287590026855 22.824451446533 55.331993103027 142 142 142
30.287590026855 22.824451446533 55.301002502441 151 151 151
30.300918579102 22.806825637817 55.280006408691 146 146 146
29.868404388428 23.213909149170 56.327003479004 52 52 52
29.899360656738 23.209611892700 56.301994323730 169 169 169
29.883884429932 23.211759567261 56.271995544434 164 164 164
29.883884429932 23.211759567261 56.243003845215 140 140 140
29.883884429932 23.211759567261 56.213996887207 167 167 167
29.883884429932 23.211759567261 56.183006286621 165 165 165
30.487468719482 23.127975463867 56.308006286621 150 150 150
30.518424987793 23.123678207397 56.290000915527 167 167 167
30.518424987793 23.123678207397 56.263999938965 165 165 165
30.518424987793 23.123678207397 56.239006042480 166 166 166
30.518424987793 23.123678207397 56.213005065918 167 167 167
30.518424987793 23.123678207397 56.185005187988 166 166 166
30.518424987793 23.123678207397 56.159996032715 165 165 165
30.549377441406 23.119380950928 56.135993957520 99 99 99
29.880420684814 23.527736663818 56.305000305176 209 209 209
29.880420684814 23.527736663818 56.275993347168 200 200 200
29.880420684814 23.527736663818 56.247993469238 214 214 214
29.880420684814 23.527736663818 56.215995788574 220 220 220
29.880420684814 23.527736663818 56.187995910645 217 217 217
30.406623840332 23.454694747925 56.286994934082 6 6 6
30.484008789063 23.443952560425 56.280998229980 219 219 219
30.499485015869 23.441804885864 56.256004333496 218 218 218
30.499485015869 23.441804885864 56.228996276855 218 218 218
30.499485015869 23.441804885864 56.202995300293 218 218 218
30.484008789063 23.443952560425 56.174995422363 220 220 220
30.499485015869 23.441804885864 56.152000427246 179 179 179
29.896732330322 23.872518539429 56.310997009277 193 193 193
29.910057067871 23.854894638062 56.284004211426 197 197 197
29.896732330322 23.872518539429 56.252998352051 223 223 223
29.894580841064 23.857042312622 56.219993591309 222 222 222
29.910057067871 23.854894638062 56.193992614746 220 220 220
30.449592590332 23.764226913452 56.297996520996 223 223 223
30.467216491699 23.777553558350 56.277000427246 216 216 216
30.482692718506 23.775405883789 56.250999450684 215 215 215
30.467216491699 23.777553558350 56.222999572754 218 218 218
30.467216491699 23.777553558350 56.194999694824 221 221 221
30.467216491699 23.777553558350 56.170005798340 214 214 214
29.924221038818 24.184198379517 56.321006774902 163 163 163
29.924221038818 24.184198379517 56.293006896973 197 197 197
29.908740997314 24.186347961426 56.258995056152 219 219 219
29.908740997314 24.186347961426 56.228004455566 224 224 224
29.908740997314 24.186347961426 56.200004577637 223 223 223
30.434947967529 24.113304138184 56.297004699707 221 221 221
30.434947967529 24.113304138184 56.269996643066 219 219 219
30.434947967529 24.113304138184 56.243995666504 216 216 216
30.434947967529 24.113304138184 56.215003967285 222 222 222
30.450424194336 24.111156463623 56.191993713379 214 214 214
30.434947967529 24.113304138184 56.163002014160 186 186 186
29.920757293701 24.500175476074 56.329002380371 77 77 77
29.953857421875 24.511358261108 56.301002502441 210 210 210
29.951709747314 24.495880126953 56.271995544434 187 187 187
29.951709747314 24.495880126953 56.241996765137 183 183 183
30.369579315186 24.437873840332 56.310997009277 201 201 201
30.385055541992 24.435726165771 56.290992736816 219 219 219
30.418155670166 24.446907043457 56.265998840332 209 209 209
30.418155670166 24.446907043457 56.237998962402 217 217 217
30.418155670166 24.446907043457 56.208992004395 213 213 213
30.385055541992 24.435726165771 56.180000305176 218 218 218
30.385055541992 24.435726165771 56.152000427246 64 64 64
29.968021392822 24.840662002563 56.308006286621 214 214 214
29.952545166016 24.842811584473 56.275993347168 218 218 218
29.937068939209 24.844959259033 56.241996765137 230 230 230
30.339458465576 24.789102554321 56.303993225098 222 222 222
30.370410919189 24.784805297852 56.282997131348 221 221 221
30.368263244629 24.769329071045 56.256996154785 218 218 218
30.368263244629 24.769329071045 56.228004455566 217 217 217
30.385887145996 24.782657623291 56.202003479004 218 218 218
30.385887145996 24.782657623291 56.174003601074 192 192 192
29.982181549072 25.169967651367 56.316001892090 206 206 206
29.982181549072 25.169967651367 56.284996032715 214 214 214
29.982181549072 25.169967651367 56.256004333496 220 220 220
30.320518493652 25.107227325439 56.303993225098 220 220 220
30.320518493652 25.107227325439 56.275001525879 221 221 221
30.320518493652 25.107227325439 56.247993469238 219 219 219
30.320518493652 25.107227325439 56.219001770020 218 218 218
30.320518493652 25.107227325439 56.191993713379 216 216 216
30.335994720459 25.105079650879 56.163993835449 79 79 79
29.996341705322 25.499273300171 56.325004577637 184 184 184
29.996341705322 25.499273300171 56.295005798340 202 202 202
30.087055206299 25.470907211304 56.282997131348 220 220 220
30.286102294922 25.427501678467 56.299003601074 220 220 220
30.270626068115 25.429649353027 56.267005920410 218 218 218
30.286102294922 25.427501678467 56.239997863770 216 216 216
30.270626068115 25.429649353027 56.208992004395 218 218 218
30.303726196289 25.440830230713 56.183006286621 200 200 200
30.008358001709 25.813102722168 56.329994201660 121 121 121
30.039310455322 25.808805465698 56.305000305176 200 200 200
30.163124084473 25.791618347168 56.305992126465 218 218 218
30.255981445313 25.778728485107 56.293998718262 218 218 218
30.255981445313 25.778728485107 56.263999938965 216 216 216
30.255981445313 25.778728485107 56.234992980957 217 217 217
30.225028991699 25.783025741577 56.202003479004 220 220 220
30.255981445313 25.778728485107 56.176994323730 122 122 122
30.053470611572 26.138111114502 56.314002990723 212 212 212
30.175136566162 26.105447769165 56.314002990723 211 211 211
30.206089019775 26.101150512695 56.290000915527 217 217 217
30.206089019775 26.101150512695 56.258995056152 219 219 219
30.206089019775 26.101150512695 56.228004455566 222 222 222
30.206089019775 26.101150512695 56.198997497559 216 216 216
30.067630767822 26.467414855957 56.325996398926 174 174 174
30.173820495605 26.436901092529 56.316001892090 211 211 211
30.173820495605 26.436901092529 56.284996032715 221 221 221
30.191444396973 26.450227737427 56.256996154785 217 217 217
30.173820495605 26.436901092529 56.224006652832 222 222 222
30.189296722412 26.434751510620 56.196006774902 205 205 205
30.095123291016 26.779094696045 56.333992004395 140 140 140
30.172504425049 26.768354415894 56.318000793457 212 212 212
30.172504425049 26.768354415894 56.286003112793 219 219 219
30.141551971436 26.772651672363 56.254005432129 219 219 219
30.141551971436 26.772651672363 56.221992492676 222 222 222
30.172504425049 26.768354415894 56.193992614746 195 195 195
30.031902313232 27.119144439697 56.482994079590 91 91 91
30.031902313232 27.119144439697 56.452003479004 162 162 162
30.047378540039 27.116996765137 56.422996520996 172 172 172
30.047378540039 27.116996765137 56.390998840332 166 166 166
30.047378540039 27.116996765137 56.359001159668 167 167 167
30.091659545898 27.095073699951 56.338996887207 72 72 72
30.091659545898 27.095073699951 56.308998107910 213 213 213
30.091659545898 27.095073699951 56.277992248535 218 218 218
30.093807220459 27.110549926758 56.245002746582 221 221 221
30.091659545898 27.095073699951 56.215003967285 215 215 215
30.061542510986 27.446300506592 56.338996887207 81 81 81
30.092494964600 27.442005157471 56.312995910645 221 221 221
30.107971191406 27.439855575562 56.284004211426 218 218 218
30.092494964600 27.442005157471 56.249992370605 218 218 218
30.092494964600 27.442005157471 56.219993591309 217 217 217
30.763111114502 22.158998489380 56.090003967285 171 171 171
30.763111114502 22.158998489380 56.118003845215 172 172 172
30.760963439941 22.143522262573 56.150001525879 176 176 176
30.763111114502 22.158998489380 56.174995422363 171 171 171
30.760963439941 22.143522262573 56.204994201660 169 169 169
30.778587341309 22.156850814819 56.234992980957 170 170 170
30.763111114502 22.158998489380 56.260993957520 168 168 168
30.760963439941 22.143522262573 56.290000915527 174 174 174
30.745487213135 22.145671844482 56.310997009277 149 149 149
30.689147949219 22.421665191650 56.114997863770 102 102 102
30.656047821045 22.410482406616 56.133003234863 171 171 171
30.656047821045 22.410482406616 56.161994934082 169 169 169
30.656047821045 22.410482406616 56.189994812012 158 158 158
30.638423919678 22.397155761719 56.217994689941 161 161 161
30.656047821045 22.410482406616 56.250999450684 159 159 159
30.671524047852 22.408334732056 56.280998229980 161 161 161
29.702983856201 22.022211074829 56.083000183105 218 218 218
29.804439544678 22.071228027344 56.146003723145 146 146 146
29.773483276367 22.075523376465 56.174995422363 151 151 151
29.771335601807 22.060045242310 56.211006164551 155 155 155
29.804439544678 22.071228027344 56.247993469238 157 157 157
29.804439544678 22.071228027344 56.280998229980 158 158 158
29.755859375000 22.062194824219 56.303001403809 160 160 160
29.738235473633 22.048866271973 56.331993103027 83 83 83
30.398952484131 22.603918075562 55.625999450684 109 109 109
30.414428710938 22.601770401001 55.665992736816 165 165 165
30.414428710938 22.601770401001 55.698005676270 162 162 162
30.414428710938 22.601770401001 55.732994079590 164 164 164
30.414428710938 22.601770401001 55.760993957520 166 166 166
30.418724060059 22.632724761963 55.797004699707 169 169 169
30.414428710938 22.601770401001 55.827995300293 167 167 167
30.414428710938 22.601770401001 55.859992980957 168 168 168
30.414428710938 22.601770401001 55.890998840332 169 169 169
30.414428710938 22.601770401001 55.922996520996 171 171 171
30.414428710938 22.601770401001 55.954002380371 167 167 167
30.418724060059 22.632724761963 55.986991882324 169 169 169
30.418724060059 22.632724761963 56.019996643066 165 165 165
30.418724060059 22.632724761963 56.049995422363 167 167 167
30.586380004883 22.704101562500 56.138999938965 170 170 170
30.599708557129 22.686475753784 56.170005798340 174 174 174
30.586380004883 22.704101562500 56.198005676270 168 168 168
30.617332458496 22.699804306030 56.230003356934 171 171 171
30.586380004883 22.704101562500 56.258003234863 176 176 176
30.617332458496 22.699804306030 56.288002014160 171 171 171
30.449676513672 22.628427505493 56.273994445801 165 165 165
30.418724060059 22.632724761963 56.293006896973 168 168 168
30.418724060059 22.632724761963 56.323997497559 166 166 166
30.401100158691 22.619396209717 56.349998474121 161 161 161
30.251068115234 22.561347961426 56.338996887207 154 154 154
29.783351898193 22.373874664307 56.247001647949 144 144 144
29.783351898193 22.373874664307 56.280006408691 147 147 147
29.752395629883 22.378171920776 56.306999206543 56 56 56
30.294033050537 22.870880126953 55.299003601074 155 155 155
30.294033050537 22.870880126953 55.331993103027 158 158 158
30.294033050537 22.870880126953 55.368003845215 150 150 150
30.294033050537 22.870880126953 55.403999328613 152 152 152
30.294033050537 22.870880126953 55.435997009277 153 153 153
30.258785247803 22.844223022461 55.467002868652 153 153 153
30.294033050537 22.870880126953 55.504997253418 152 152 152
30.258785247803 22.844223022461 55.536003112793 156 156 156
30.324989318848 22.866584777832 55.594001770020 156 156 156
30.395488739014 22.919895172119 55.657005310059 161 161 161
30.410964965820 22.917747497559 55.691001892090 162 162 162
30.395488739014 22.919895172119 55.721992492676 160 160 160
30.410964965820 22.917747497559 55.756996154785 168 168 168
30.410964965820 22.917747497559 55.790000915527 168 168 168
30.410964965820 22.917747497559 55.821006774902 169 169 169
30.410964965820 22.917747497559 55.855003356934 165 165 165
30.410964965820 22.917747497559 55.887001037598 168 168 168
30.428588867188 22.931077957153 55.920997619629 169 169 169
30.395488739014 22.919895172119 55.948005676270 169 169 169
30.410964965820 22.917747497559 55.980995178223 169 169 169
30.410964965820 22.917747497559 56.012992858887 170 170 170
30.395488739014 22.919895172119 56.043006896973 168 168 168
30.461688995361 22.942256927490 56.090995788574 166 166 166
30.530040740967 22.980091094971 56.152000427246 171 171 171
30.530040740967 22.980091094971 56.180992126465 166 166 166
30.530040740967 22.980091094971 56.209999084473 174 174 174
30.530040740967 22.980091094971 56.239997863770 173 173 173
30.530040740967 22.980091094971 56.273002624512 174 174 174
30.527893066406 22.964614868164 56.295997619629 156 156 156
30.413112640381 22.933225631714 56.293998718262 169 169 169
30.395488739014 22.919895172119 56.321998596191 169 169 169
30.395488739014 22.919895172119 56.349006652832 165 165 165
30.329284667969 22.897537231445 56.366004943848 111 111 111
30.212352752686 22.850667953491 56.364006042480 119 119 119
30.095424652100 22.803798675537 56.364997863770 110 110 110
30.524433135986 23.280593872070 56.146003723145 162 162 162
30.524433135986 23.280593872070 56.176002502441 164 164 164
30.506805419922 23.267265319824 56.204002380371 170 170 170
30.524433135986 23.280593872070 56.236000061035 174 174 174
30.506805419922 23.267265319824 56.265007019043 168 168 168
30.524433135986 23.280593872070 56.295997619629 166 166 166
29.920009613037 23.017448425293 56.153999328613 140 140 140
29.889057159424 23.021743774414 56.183006286621 147 147 147
29.889057159424 23.021743774414 56.217002868652 147 147 147
29.904533386230 23.019596099854 56.252006530762 137 137 137
29.904533386230 23.019596099854 56.286003112793 149 149 149
29.873580932617 23.023893356323 56.310997009277 60 60 60
30.499046325684 23.552288055420 56.140007019043 111 111 111
30.485717773438 23.569913864136 56.168006896973 221 221 221
30.485717773438 23.569913864136 56.200996398926 221 221 221
30.485717773438 23.569913864136 56.230995178223 222 222 222
30.485717773438 23.569913864136 56.262001037598 222 222 222
30.485717773438 23.569913864136 56.291999816895 220 220 220
29.901069641113 23.335573196411 56.157997131348 157 157 157
29.901069641113 23.335573196411 56.191001892090 161 161 161
29.883445739746 23.322246551514 56.221992492676 142 142 142
29.901069641113 23.335573196411 56.258995056152 160 160 160
29.901069641113 23.335573196411 56.291999816895 172 172 172
29.883445739746 23.322246551514 56.323005676270 51 51 51
30.477958679199 23.854936599731 56.165000915527 218 218 218
30.462482452393 23.857086181641 56.193000793457 223 223 223
30.462482452393 23.857086181641 56.224998474121 221 221 221
30.462482452393 23.857086181641 56.254997253418 221 221 221
30.462482452393 23.857086181641 56.286994934082 222 222 222
29.862358093262 23.624893188477 56.150993347168 210 210 210
29.913082122803 23.649402618408 56.196998596191 220 220 220
29.895458221436 23.636072158813 56.230003356934 222 222 222
29.895458221436 23.636072158813 56.262992858887 204 204 204
29.895458221436 23.636072158813 56.295997619629 209 209 209
30.439243316650 24.144258499146 56.155006408691 173 173 173
30.439243316650 24.144258499146 56.183998107910 222 222 222
30.439243316650 24.144258499146 56.217002868652 220 220 220
30.439243316650 24.144258499146 56.247993469238 222 222 222
30.439243316650 24.144258499146 56.278999328613 223 223 223
30.373043060303 24.121898651123 56.290000915527 244 244 244
29.905323028564 23.934425354004 56.200004577637 223 223 223
29.905323028564 23.934425354004 56.236000061035 220 220 220
29.905323028564 23.934425354004 56.269996643066 210 210 210
29.905323028564 23.934425354004 56.303993225098 200 200 200
30.385055541992 24.435726165771 56.140007019043 31 31 31
30.418155670166 24.446907043457 56.180000305176 224 224 224
30.418155670166 24.446907043457 56.211997985840 221 221 221
30.420303344727 24.462383270264 56.245002746582 222 222 222
30.418155670166 24.446907043457 56.273994445801 223 223 223
30.385055541992 24.435726165771 56.299003601074 228 228 228
29.932815551758 24.246105194092 56.211997985840 223 223 223
29.917335510254 24.248254776001 56.245002746582 223 223 223
29.917335510254 24.248254776001 56.278999328613 198 198 198
29.934963226318 24.261581420898 56.316001892090 169 169 169
30.397068023682 24.749555587769 56.174995422363 216 216 216
30.379444122314 24.736227035522 56.206001281738 223 223 223
30.379444122314 24.736227035522 56.239006042480 223 223 223
30.379444122314 24.736227035522 56.269996643066 224 224 224
30.363967895508 24.738376617432 56.299995422363 224 224 224
29.960304260254 24.557786941528 56.222999572754 223 223 223
29.960304260254 24.557786941528 56.258003234863 221 221 221
29.960304260254 24.557786941528 56.293006896973 201 201 201
29.929351806641 24.562082290649 56.321006774902 24 24 24
30.340728759766 25.025548934937 56.166999816895 192 192 192
30.340728759766 25.025548934937 56.200004577637 224 224 224
30.338581085205 25.010072708130 56.234001159668 224 224 224
30.373832702637 25.036727905273 56.267005920410 222 222 222
30.340728759766 25.025548934937 56.299003601074 223 223 223
29.972316741943 24.871614456177 56.234992980957 222 222 222
29.972316741943 24.871614456177 56.267005920410 219 219 219
29.972316741943 24.871614456177 56.303993225098 208 208 208
30.317493438721 25.312719345093 56.193992614746 225 225 225
30.317493438721 25.312719345093 56.226005554199 224 224 224
30.317493438721 25.312719345093 56.260002136230 223 223 223
30.317493438721 25.312719345093 56.293006896973 223 223 223
30.116737365723 25.230163574219 56.273002624512 225 225 225
29.984329223633 25.185443878174 56.280006408691 214 214 214
29.984329223633 25.185443878174 56.312995910645 200 200 200
30.294258117676 25.599891662598 56.189002990723 222 222 222
30.294258117676 25.599891662598 56.221000671387 224 224 224
30.280929565430 25.617517471313 56.254005432129 224 224 224
30.280929565430 25.617517471313 56.286003112793 224 224 224
30.128749847412 25.543992996216 56.282997131348 224 224 224
30.011817932129 25.497123718262 56.290992736816 195 195 195
29.996341705322 25.499273300171 56.321006774902 122 122 122
30.242214202881 25.906839370728 56.181999206543 206 206 206
30.242214202881 25.906839370728 56.217994689941 223 223 223
30.242214202881 25.906839370728 56.252006530762 223 223 223
30.242214202881 25.906839370728 56.286003112793 224 224 224
30.171714782715 25.853525161743 56.299003601074 224 224 224
30.039310455322 25.808805465698 56.301994323730 204 204 204
30.201354980469 26.180681228638 56.178993225098 194 194 194
30.218978881836 26.194009780884 56.215995788574 225 225 225
30.218978881836 26.194009780884 56.252998352051 223 223 223
30.218978881836 26.194009780884 56.286003112793 224 224 224
30.168251037598 26.169502258301 56.306999206543 211 211 211
30.051322937012 26.122634887695 56.314002990723 203 203 203
30.195743560791 26.481182098389 56.180000305176 175 175 175
30.195743560791 26.481182098389 56.215995788574 211 211 211
30.195743560791 26.481182098389 56.250999450684 224 224 224
30.195743560791 26.481182098389 56.286003112793 212 212 212
30.162643432617 26.470003128052 56.314994812012 207 207 207
30.063335418701 26.436462402344 56.325004577637 120 120 120
30.172504425049 26.768354415894 56.180992126465 178 178 178
30.172504425049 26.768354415894 56.215995788574 225 225 225
30.172504425049 26.768354415894 56.252998352051 224 224 224
30.172504425049 26.768354415894 56.288002014160 224 224 224
30.157028198242 26.770502090454 56.319999694824 189 189 189
30.075351715088 26.750291824341 56.333992004395 66 66 66
30.118316650391 27.059823989868 56.208992004395 218 218 218
30.116168975830 27.044347763062 56.245002746582 220 220 220
30.116168975830 27.044347763062 56.280006408691 223 223 223
30.118316650391 27.059823989868 56.316993713379 203 203 203
30.095081329346 27.346996307373 56.213996887207 217 217 217
30.095081329346 27.346996307373 56.250999450684 222 222 222
30.095081329346 27.346996307373 56.286003112793 223 223 223
30.095081329346 27.346996307373 56.323005676270 200 200 200
29.694393157959 21.960304260254 56.293998718262 55 55 55
29.694393157959 21.960304260254 56.258995056152 66 66 66
29.694393157959 21.960304260254 56.224006652832 65 65 65
29.692241668701 21.944828033447 56.189002990723 68 68 68
29.692241668701 21.944828033447 56.153999328613 71 71 71
29.676765441895 21.946975708008 56.118003845215 56 56 56
29.708553314209 22.289608001709 56.342002868652 49 49 49
29.721881866455 22.271984100342 56.310005187988 145 145 145
29.766162872314 22.250062942505 56.288993835449 136 136 136
29.766162872314 22.250062942505 56.254005432129 140 140 140
29.764015197754 22.234586715698 56.221992492676 136 136 136
29.764015197754 22.234586715698 56.187995910645 133 133 133
29.766162872314 22.250062942505 56.152000427246 139 139 139
29.737358093262 22.269836425781 56.103996276855 127 127 127
29.797950744629 22.592695236206 56.299003601074 147 147 147
29.811279296875 22.575071334839 56.265998840332 155 155 155
29.797950744629 22.592695236206 56.230003356934 154 154 154
29.811279296875 22.575071334839 56.198005676270 150 150 150
29.797950744629 22.592695236206 56.161003112793 155 155 155
29.797950744629 22.592695236206 56.125999450684 54 54 54
29.982791900635 22.787885665894 56.357994079590 185 185 185
30.140144348145 22.671394348145 56.370002746582 115 115 115
30.224411010742 22.596597671509 56.364997863770 136 136 136
30.255363464355 22.592300415039 56.340003967285 150 150 150
30.253215789795 22.576824188232 56.310997009277 150 150 150
30.251068115234 22.561347961426 56.282005310059 151 151 151
30.251068115234 22.561347961426 56.249992370605 147 147 147
30.251068115234 22.561347961426 56.221000671387 150 150 150
30.251068115234 22.561347961426 56.189994812012 150 150 150
30.694324493408 22.231647491455 56.318000793457 141 141 141
30.765262603760 22.174476623535 56.314002990723 142 142 142
30.765262603760 22.174476623535 56.284996032715 152 152 152
30.765262603760 22.174476623535 56.258995056152 150 150 150
30.765262603760 22.174476623535 56.230995178223 157 157 157
30.765262603760 22.174476623535 56.202003479004 159 159 159
30.765262603760 22.174476623535 56.172996520996 154 154 154
30.765262603760 22.174476623535 56.144004821777 157 157 157
30.765262603760 22.174476623535 56.116996765137 158 158 158
30.751930236816 22.192100524902 56.081001281738 160 160 160
30.279872894287 22.541574478149 55.846000671387 149 149 149
30.279872894287 22.541574478149 55.816001892090 148 148 148
30.297496795654 22.554903030396 55.784996032715 147 147 147
30.297496795654 22.554903030396 55.750999450684 149 149 149
30.279872894287 22.541574478149 55.717994689941 152 152 152
30.310825347900 22.537277221680 55.689994812012 147 147 147
30.279872894287 22.541574478149 55.648994445801 170 170 170
30.166801452637 22.636142730713 55.280998229980 140 140 140
29.857227325439 23.247011184692 56.321998596191 56 56 56
29.870555877686 23.229385375977 56.293006896973 139 139 139
30.211917877197 22.961154937744 56.364006042480 119 119 119
30.324989318848 22.866584777832 56.370002746582 113 113 113
30.380451202393 22.811559677124 56.359992980957 154 154 154
30.380451202393 22.811559677124 56.329994201660 151 151 151
30.380451202393 22.811559677124 56.297004699707 150 150 150
30.380451202393 22.811559677124 56.267997741699 148 148 148
30.582084655762 22.673149108887 56.299995422363 118 118 118
30.524475097656 22.712694168091 56.254997253418 141 141 141
30.524475097656 22.712694168091 56.226005554199 138 138 138
30.524475097656 22.712694168091 56.194999694824 135 135 135
30.524475097656 22.712694168091 56.161994934082 150 150 150
30.524475097656 22.712694168091 56.137992858887 151 151 151
30.582084655762 22.673149108887 56.122993469238 129 129 129
30.393779754639 22.793935775757 56.023002624512 171 171 171
30.380451202393 22.811559677124 55.986991882324 172 172 172
30.380451202393 22.811559677124 55.956993103027 168 168 168
30.380451202393 22.811559677124 55.926994323730 191 191 191
30.380451202393 22.811559677124 55.890998840332 168 168 168
30.380451202393 22.811559677124 55.861991882324 169 169 169
30.380451202393 22.811559677124 55.827003479004 172 172 172
30.380451202393 22.811559677124 55.795005798340 166 166 166
30.380451202393 22.811559677124 55.763999938965 163 163 163
30.380451202393 22.811559677124 55.732002258301 143 143 143
30.380451202393 22.811559677124 55.698997497559 159 159 159
30.380451202393 22.811559677124 55.663002014160 164 164 164
29.889011383057 23.589643478394 56.297996520996 202 202 202
29.889011383057 23.589643478394 56.262992858887 190 190 190
29.884716033936 23.558691024780 56.230995178223 210 210 210
29.889011383057 23.589643478394 56.193992614746 212 212 212
29.889011383057 23.589643478394 56.159996032715 188 188 188
30.511978149414 23.077249526978 56.308006286621 124 124 124
30.511978149414 23.077249526978 56.277992248535 148 148 148
30.511978149414 23.077249526978 56.249000549316 148 148 148
30.511978149414 23.077249526978 56.215995788574 146 146 146
30.511978149414 23.077249526978 56.189002990723 147 147 147
30.511978149414 23.077249526978 56.157997131348 149 149 149
30.509830474854 23.061771392822 56.131004333496 89 89 89
29.887699127197 23.921096801758 56.301994323730 193 193 193
29.901027679443 23.903472900391 56.271995544434 205 205 205
29.901027679443 23.903472900391 56.236000061035 211 211 211
29.901027679443 23.903472900391 56.200996398926 209 209 209
29.901027679443 23.903472900391 56.165000915527 184 184 184
30.486156463623 23.459428787231 56.297004699707 203 203 203
30.486156463623 23.459428787231 56.265998840332 205 205 205
30.484008789063 23.443952560425 56.237998962402 206 206 206
30.484008789063 23.443952560425 56.206001281738 207 207 207
30.484008789063 23.443952560425 56.174995422363 208 208 208
30.470680236816 23.461576461792 56.140998840332 92 92 92
29.921634674072 24.279209136963 56.310997009277 183 183 183
29.921634674072 24.279209136963 56.277000427246 194 194 194
29.919483184814 24.263731002808 56.243003845215 210 210 210
29.919483184814 24.263731002808 56.208992004395 213 213 213
29.919483184814 24.263731002808 56.172996520996 192 192 192
30.447006225586 23.859233856201 56.310997009277 148 148 148
30.458183288574 23.826133728027 56.286003112793 206 206 206
30.458183288574 23.826133728027 56.254005432129 206 206 206
30.458183288574 23.826133728027 56.226005554199 203 203 203
30.458183288574 23.826133728027 56.193000793457 207 207 207
30.458183288574 23.826133728027 56.161003112793 181 181 181
29.937942504883 24.623989105225 56.321006774902 135 135 135
29.937942504883 24.623989105225 56.288993835449 185 185 185
29.935794830322 24.608512878418 56.254005432129 213 213 213
29.951271057129 24.606365203857 56.221000671387 209 209 209
30.106475830078 24.474395751953 56.232994079590 135 135 135
30.421180725098 24.241415023804 56.303001403809 198 198 198
30.419033050537 24.225938796997 56.275001525879 206 206 206
30.419033050537 24.225938796997 56.241996765137 204 204 204
30.419033050537 24.225938796997 56.209999084473 202 202 202
30.419033050537 24.225938796997 56.180000305176 203 203 203
29.923297882080 24.973068237305 56.325996398926 56 56 56
29.949958801270 24.937818527222 56.299003601074 189 189 189
29.949958801270 24.937818527222 56.263999938965 211 211 211
29.949958801270 24.937818527222 56.228004455566 209 209 209
29.980911254883 24.933521270752 56.200996398926 195 195 195
30.377731323242 24.610267639160 56.295997619629 206 206 206
30.377731323242 24.610267639160 56.263999938965 202 202 202
30.377731323242 24.610267639160 56.230995178223 202 202 202
30.377731323242 24.610267639160 56.196998596191 205 205 205
30.379878997803 24.625743865967 56.159996032715 148 148 148
29.981742858887 25.280452728271 56.308998107910 196 196 196
29.981742858887 25.280452728271 56.273002624512 211 211 211
29.997219085693 25.278303146362 56.239006042480 211 211 211
30.338581085205 25.010072708130 56.310005187988 205 205 205
30.338581085205 25.010072708130 56.280998229980 201 201 201
30.338581085205 25.010072708130 56.245002746582 202 202 202
30.338581085205 25.010072708130 56.215003967285 205 205 205
30.338581085205 25.010072708130 56.183998107910 189 189 189
30.013530731201 25.623086929321 56.319999694824 186 186 186
30.013530731201 25.623086929321 56.284996032715 202 202 202
30.040187835693 25.587835311890 56.263999938965 213 213 213
30.297283172607 25.394399642944 56.299995422363 203 203 203
30.297283172607 25.394399642944 56.267997741699 202 202 202
30.297283172607 25.394399642944 56.234992980957 201 201 201
30.297283172607 25.394399642944 56.202003479004 200 200 200
30.297283172607 25.394399642944 56.166999816895 35 35 35
29.998886108398 25.972164154053 56.327003479004 147 147 147
30.029842376709 25.967868804932 56.295005798340 188 188 188
30.171714782715 25.853525161743 56.299003601074 211 211 211
30.240505218506 25.780876159668 56.290000915527 203 203 203
30.240505218506 25.780876159668 56.256004333496 199 199 199
30.240505218506 25.780876159668 56.221992492676 201 201 201
30.240505218506 25.780876159668 56.185997009277 178 178 178
30.015197753906 26.316946029663 56.331993103027 43 43 43
30.044002532959 26.297172546387 56.306999206543 193 193 193
30.188026428223 26.198307037354 56.312004089355 199 199 199
30.201354980469 26.180681228638 56.280998229980 200 200 200
30.201354980469 26.180681228638 56.245994567871 199 199 199
30.201354980469 26.180681228638 56.211997985840 200 200 200
30.188026428223 26.198307037354 56.174995422363 79 79 79
30.089115142822 26.622180938721 56.325004577637 151 151 151
30.175533294678 26.562862396240 56.310997009277 198 198 198
30.175533294678 26.562862396240 56.275001525879 200 200 200
30.175533294678 26.562862396240 56.241004943848 200 200 200
30.177680969238 26.578338623047 56.204002380371 200 200 200
29.932598114014 27.085603713989 56.435997009277 44 44 44
29.932598114014 27.085603713989 56.400001525879 41 41 41
29.932598114014 27.085603713989 56.362998962402 36 36 36
30.074474334717 26.971260070801 56.329002380371 149 149 149
30.089950561523 26.969112396240 56.295005798340 203 203 203
30.089950561523 26.969112396240 56.258995056152 203 203 203
30.074474334717 26.971260070801 56.221000671387 203 203 203
30.076622009277 26.986736297607 56.180000305176 17 17 17
30.095081329346 27.346996307373 56.329994201660 173 173 173
30.095081329346 27.346996307373 56.297004699707 203 203 203
30.095081329346 27.346996307373 56.260002136230 205 205 205
30.095081329346 27.346996307373 56.222999572754 200 200 200
30.090782165527 27.316041946411 56.388999938965 215 215 215
30.090782165527 27.316041946411 56.359992980957 216 216 216
30.090782165527 27.316041946411 56.327003479004 218 218 218
30.090782165527 27.316041946411 56.295997619629 217 217 217
30.059829711914 27.320339202881 56.258995056152 67 67 67
30.080917358398 27.017688751221 56.409996032715 60 60 60
30.094245910645 27.000064849854 56.385002136230 201 201 201
30.094245910645 27.000064849854 56.351997375488 218 218 218
30.078769683838 27.002212524414 56.319999694824 218 218 218
30.078769683838 27.002212524414 56.288993835449 218 218 218
30.078769683838 27.002212524414 56.256004333496 42 42 42
30.097709655762 26.684087753296 56.403999328613 155 155 155
30.159614562988 26.675495147705 56.387992858887 214 214 214
30.159614562988 26.675495147705 56.355003356934 219 219 219
30.159614562988 26.675495147705 56.325004577637 218 218 218
30.159614562988 26.675495147705 56.295005798340 217 217 217
30.159614562988 26.675495147705 56.263999938965 188 188 188
29.994987487793 26.398624420166 56.407997131348 40 40 40
30.056892395020 26.390031814575 56.385002136230 191 191 191
30.180706024170 26.372844696045 56.381004333496 218 218 218
30.198329925537 26.386175155640 56.353004455566 217 217 217
30.178554534912 26.357368469238 56.321998596191 217 217 217
30.180706024170 26.372844696045 56.288993835449 219 219 219
30.178554534912 26.357368469238 56.262001037598 188 188 188
30.031551361084 26.093830108643 56.402992248535 157 157 157
30.044879913330 26.076206207275 56.374000549316 194 194 194
30.199645996094 26.054721832275 56.381996154785 218 218 218
30.215122222900 26.052574157715 56.353004455566 214 214 214
30.199645996094 26.054721832275 56.321006774902 217 217 217
30.228450775146 26.034946441650 56.295005798340 215 215 215
30.228450775146 26.034946441650 56.265007019043 203 203 203
30.015239715576 25.749046325684 56.394996643066 198 198 198
30.001911163330 25.766674041748 56.362998962402 202 202 202
30.249538421631 25.732299804688 56.383995056152 212 212 212
30.249538421631 25.732299804688 56.355003356934 216 216 216
30.249538421631 25.732299804688 56.327003479004 217 217 217
30.231914520264 25.718969345093 56.295005798340 218 218 218
30.231914520264 25.718969345093 56.265998840332 218 218 218
29.987751007080 25.437366485596 56.383995056152 212 212 212
29.989898681641 25.452844619751 56.353004455566 220 220 220
30.266330718994 25.398696899414 56.383995056152 215 215 215
30.286102294922 25.427501678467 56.357994079590 218 218 218
30.283954620361 25.412025451660 56.331993103027 217 217 217
30.266330718994 25.398696899414 56.299995422363 220 220 220
30.283954620361 25.412025451660 56.273002624512 215 215 215
30.314907073975 25.407730102539 56.247993469238 116 116 116
29.962406158447 25.141162872314 56.396995544434 171 171 171
29.975738525391 25.123537063599 56.368995666504 197 197 197
29.962406158447 25.141162872314 56.336997985840 223 223 223
30.285266876221 25.080570220947 56.381004333496 219 219 219
30.318370819092 25.091751098633 56.359992980957 220 220 220
30.318370819092 25.091751098633 56.331001281738 219 219 219
30.331699371338 25.074125289917 56.305000305176 216 216 216
30.331699371338 25.074125289917 56.275001525879 218 218 218
30.331699371338 25.074125289917 56.249992370605 173 173 173
29.950397491455 24.827335357666 56.385993957520 210 210 210
29.952545166016 24.842811584473 56.355003356934 214 214 214
29.952545166016 24.842811584473 56.323997497559 221 221 221
30.306354522705 24.777923583984 56.374992370605 224 224 224
30.368263244629 24.769329071045 56.361991882324 219 219 219
30.368263244629 24.769329071045 56.336006164551 216 216 216
30.368263244629 24.769329071045 56.305992126465 219 219 219
30.368263244629 24.769329071045 56.277992248535 218 218 218
30.366115570068 24.753852844238 56.252006530762 206 206 206
29.925052642822 24.531129837036 56.402992248535 40 40 40
29.925052642822 24.531129837036 56.375999450684 213 213 213
29.938381195068 24.513505935669 56.346992492676 186 186 186
29.925052642822 24.531129837036 56.316001892090 183 183 183
30.325298309326 24.459796905518 56.379005432129 205 205 205
30.387203216553 24.451204299927 56.366004943848 222 222 222
30.389350891113 24.466680526733 56.340995788574 218 218 218
30.389350891113 24.466680526733 56.310997009277 219 219 219
30.387203216553 24.451204299927 56.282005310059 218 218 218
30.389350891113 24.466680526733 56.256996154785 216 216 216
30.389350891113 24.466680526733 56.228996276855 95 95 95
29.913040161133 24.217302322388 56.394004821777 158 158 158
29.913040161133 24.217302322388 56.366996765137 195 195 195
29.913040161133 24.217302322388 56.334999084473 222 222 222
29.913040161133 24.217302322388 56.303993225098 222 222 222
29.913040161133 24.217302322388 56.277992248535 216 216 216
30.421619415283 24.130931854248 56.370002746582 221 221 221
30.437095642090 24.128782272339 56.344001770020 217 217 217
30.437095642090 24.128782272339 56.316993713379 218 218 218
30.439243316650 24.144258499146 56.290992736816 215 215 215
30.439243316650 24.144258499146 56.263999938965 217 217 217
30.437095642090 24.128782272339 56.237998962402 180 180 180
29.901027679443 23.903472900391 56.387001037598 193 193 193
29.901027679443 23.903472900391 56.357994079590 200 200 200
29.901027679443 23.903472900391 56.327995300293 220 220 220
29.901027679443 23.903472900391 56.297996520996 217 217 217
29.901027679443 23.903472900391 56.269004821777 219 219 219
30.456035614014 23.810657501221 56.374000549316 215 215 215
30.456035614014 23.810657501221 56.346992492676 219 219 219
30.456035614014 23.810657501221 56.321998596191 217 217 217
30.456035614014 23.810657501221 56.293998718262 218 218 218
30.456035614014 23.810657501221 56.267997741699 215 215 215
30.453887939453 23.795179367065 56.243995666504 209 209 209
29.889011383057 23.589643478394 56.377998352051 205 205 205
29.889011383057 23.589643478394 56.349998474121 208 208 208
29.873538970947 23.591793060303 56.316001892090 221 221 221
29.889011383057 23.589643478394 56.290000915527 217 217 217
29.889011383057 23.589643478394 56.258003234863 220 220 220
30.415218353271 23.516601562500 56.361991882324 253 253 253
30.474975585938 23.492530822754 56.351997375488 217 217 217
30.492603302002 23.505859375000 56.329002380371 216 216 216
30.492603302002 23.505859375000 56.299995422363 214 214 214
30.492603302002 23.505859375000 56.273994445801 218 218 218
30.492603302002 23.505859375000 56.249000549316 216 216 216
30.492603302002 23.505859375000 56.224006652832 170 170 170
29.846046447754 23.280111312866 56.394996643066 71 71 71
29.876998901367 23.275815963745 56.374000549316 172 172 172
29.892478942871 23.273666381836 56.344993591309 171 171 171
29.876998901367 23.275815963745 56.314994812012 146 146 146
29.892478942871 23.273666381836 56.286994934082 168 168 168
29.892478942871 23.273666381836 56.256004333496 165 165 165
30.496063232422 23.189882278442 56.383995056152 150 150 150
30.509391784668 23.172256469727 56.361000061035 166 166 166
30.496063232422 23.189882278442 56.333000183105 168 168 168
30.496063232422 23.189882278442 56.306999206543 164 164 164
30.509391784668 23.172256469727 56.282005310059 165 165 165
30.524868011475 23.170108795166 56.258003234863 165 165 165
30.509391784668 23.172256469727 56.228004455566 162 162 162
30.524868011475 23.170108795166 56.204994201660 72 72 72
30.081661224365 22.931909561157 56.443000793457 101 101 101
30.205471038818 22.914722442627 56.441993713379 111 111 111
30.298332214355 22.901832580566 56.439994812012 105 105 105
30.391193389893 22.888942718506 56.433006286621 157 157 157
30.391193389893 22.888942718506 56.411994934082 165 165 165
30.391193389893 22.888942718506 56.383995056152 168 168 168
30.484050750732 22.876052856445 56.379005432129 174 174 174
30.545959472656 22.867460250854 56.366996765137 166 166 166
30.545959472656 22.867460250854 56.342994689941 162 162 162
30.545959472656 22.867460250854 56.314994812012 162 162 162
30.528331756592 22.854131698608 56.288993835449 166 166 166
30.545959472656 22.867460250854 56.265007019043 163 163 163
30.545959472656 22.867460250854 56.239997863770 167 167 167
30.528331756592 22.854131698608 56.209999084473 155 155 155
30.391193389893 22.888942718506 56.142997741699 159 159 159
30.391193389893 22.888942718506 56.114006042480 160 160 160
30.391193389893 22.888942718506 56.088005065918 167 167 167
30.391193389893 22.888942718506 56.064002990723 171 171 171
30.391193389893 22.888942718506 56.036003112793 171 171 171
30.391193389893 22.888942718506 56.008003234863 180 180 180
30.404521942139 22.871318817139 55.982002258301 174 174 174
30.391193389893 22.888942718506 55.950004577637 164 164 164
30.389041900635 22.873466491699 55.922004699707 154 154 154
30.391193389893 22.888942718506 55.896995544434 169 169 169
30.391193389893 22.888942718506 55.866996765137 175 175 175
30.391193389893 22.888942718506 55.838996887207 171 171 171
30.391193389893 22.888942718506 55.810997009277 154 154 154
30.404521942139 22.871318817139 55.784996032715 163 163 163
30.391193389893 22.888942718506 55.754997253418 172 172 172
30.389041900635 22.873466491699 55.721000671387 164 164 164
30.139266967773 22.892364501953 55.379005432129 116 116 116
30.170223236084 22.888067245483 55.357994079590 127 127 127
30.234279632568 22.894950866699 55.351997375488 137 137 137
30.294033050537 22.870880126953 55.349998474121 134 134 134
30.358089447021 22.877763748169 55.349998474121 147 147 147
30.358089447021 22.877763748169 55.321998596191 179 179 179
30.386894226074 22.857990264893 55.306999206543 179 179 179
30.100597381592 22.613784790039 56.448005676270 108 108 108
30.193458557129 22.600894927979 56.439994812012 113 113 113
30.286319732666 22.588005065918 56.431999206543 112 112 112
30.317272186279 22.583707809448 56.415000915527 101 101 101
30.348224639893 22.579410552979 56.394004821777 96 96 96
30.346076965332 22.563934326172 56.368995666504 97 97 97
30.348224639893 22.579410552979 56.346000671387 95 95 95
30.363700866699 22.577262878418 56.321998596191 104 104 104
30.642280578613 22.538593292236 56.372993469238 150 150 150
30.624656677246 22.525264739990 56.346000671387 172 172 172
30.626804351807 22.540740966797 56.319999694824 163 163 163
30.624656677246 22.525264739990 56.295997619629 163 163 163
30.642280578613 22.538593292236 56.271995544434 164 164 164
30.642280578613 22.538593292236 56.247001647949 168 168 168
30.624656677246 22.525264739990 56.221000671387 168 168 168
30.655609130859 22.520969390869 56.198005676270 146 146 146
30.379177093506 22.575115203857 56.088005065918 139 139 139
30.379177093506 22.575115203857 56.060005187988 140 140 140
30.379177093506 22.575115203857 56.032997131348 151 151 151
30.392505645752 22.557489395142 56.008995056152 148 148 148
30.379177093506 22.575115203857 55.978996276855 152 152 152
30.379177093506 22.575115203857 55.952995300293 153 153 153
30.379177093506 22.575115203857 55.924995422363 160 160 160
30.392505645752 22.557489395142 55.898002624512 159 159 159
30.392505645752 22.557489395142 55.872993469238 159 159 159
30.392505645752 22.557489395142 55.842994689941 160 160 160
30.392505645752 22.557489395142 55.818000793457 157 157 157
30.379177093506 22.575115203857 55.784996032715 162 162 162
30.392505645752 22.557489395142 55.758995056152 160 160 160
30.379177093506 22.575115203857 55.726997375488 159 159 159
30.160358428955 22.589714050293 55.321998596191 156 156 156
30.204639434814 22.567794799805 55.318000793457 170 170 170
30.251068115234 22.561347961426 55.306999206543 167 167 167
30.282020568848 22.557052612305 55.295005798340 167 167 167
29.779052734375 22.342922210693 56.368995666504 159 159 159
29.779052734375 22.342922210693 56.340995788574 162 162 162
29.779052734375 22.342922210693 56.310997009277 161 161 161
29.763576507568 22.345069885254 56.280998229980 162 162 162
29.763576507568 22.345069885254 56.250999450684 164 164 164
29.779052734375 22.342922210693 56.224006652832 153 153 153
30.723125457764 22.211874008179 56.396003723145 138 138 138
30.769557952881 22.205429077148 56.379997253418 167 167 167
30.738601684570 22.209726333618 56.353996276855 165 165 165
30.769557952881 22.205429077148 56.333992004395 166 166 166
30.769557952881 22.205429077148 56.308006286621 171 171 171
30.769557952881 22.205429077148 56.284996032715 175 175 175
30.769557952881 22.205429077148 56.260002136230 167 167 167
30.738601684570 22.209726333618 56.232994079590 173 173 173
30.751930236816 22.192100524902 56.209999084473 173 173 173
30.769557952881 22.205429077148 56.187004089355 170 170 170
30.738601684570 22.209726333618 56.159004211426 137 137 137
29.720611572266 22.035537719727 56.413993835449 77 77 77
29.736087799072 22.033390045166 56.387001037598 168 168 168
29.782516479492 22.026945114136 56.370002746582 152 152 152
29.782516479492 22.026945114136 56.340003967285 159 159 159
29.767040252686 22.029092788696 56.308998107910 152 152 152
29.767040252686 22.029092788696 56.280006408691 155 155 155
29.767040252686 22.029092788696 56.249992370605 157 157 157
29.767040252686 22.029092788696 56.219993591309 156 156 156
29.736087799072 22.033390045166 56.180992126465 159 159 159
30.074867248535 27.428676605225 56.388999938965 203 203 203
30.074867248535 27.428676605225 56.351005554199 205 205 205
30.074867248535 27.428676605225 56.312995910645 205 205 205
30.074867248535 27.428676605225 56.278999328613 164 164 164
29.976440429688 27.174165725708 56.577003479004 69 69 69
30.003097534180 27.138916015625 56.547996520996 153 153 153
30.003097534180 27.138916015625 56.510993957520 159 159 159
30.003097534180 27.138916015625 56.476997375488 154 154 154
30.003097534180 27.138916015625 56.439994812012 151 151 151
