11.389872550964 9.160217285156 1.899002075195 154 154 154
11.967314720154 9.192360877991 1.916000366211 152 152 152
11.998457908630 9.194939613342 1.872001647949 145 145 145
11.998457908630 9.194939613342 1.825996398926 142 142 142
11.999747276306 9.179368019104 1.779998779297 145 145 145
11.937460899353 9.174209594727 1.347000122070 231 231 231
11.794736862183 9.193746566772 1.271995544434 204 204 204
11.380941390991 9.457369804382 1.925994873047 131 131 131
11.380941390991 9.457369804382 1.875999450684 213 213 213
11.958384513855 9.489511489868 1.894996643066 215 215 215
11.973956108093 9.490801811218 1.849998474121 220 220 220
11.973956108093 9.490801811218 1.803001403809 224 224 224
11.973956108093 9.490801811218 1.756996154785 153 153 153
11.401865005493 9.772671699524 1.902999877930 203 203 203
11.885877609253 9.797077178955 1.909996032715 239 239 239
11.948163986206 9.802235603333 1.869995117188 225 225 225
11.948163986206 9.802235603333 1.822998046875 225 225 225
11.932592391968 9.800945281982 1.777000427246 211 211 211
11.377362251282 10.068533897400 1.927001953125 131 131 131
11.424077987671 10.072402954102 1.881996154785 208 208 208
11.891228675842 10.111090660095 1.888999938965 223 223 223
11.891228675842 10.111090660095 1.842994689941 227 227 227
11.891228675842 10.111090660095 1.796997070313 219 219 219
11.891228675842 10.111090660095 1.749000549316 27 27 27
11.398285865784 10.383836746216 1.903999328613 181 181 181
11.866726875305 10.406951904297 1.908996582031 215 215 215
11.881008148193 10.423813819885 1.863998413086 225 225 225
11.865436553955 10.422524452209 1.817001342773 223 223 223
11.866726875305 10.406951904297 1.769996643066 175 175 175
11.419209480286 10.699139595032 1.934997558594 92 92 92
11.591787338257 10.697751998901 1.905998229980 224 224 224
11.839645385742 10.733958244324 1.886001586914 220 220 220
11.839645385742 10.733958244324 1.838996887207 222 222 222
11.839645385742 10.733958244324 1.791999816895 218 218 218
11.427139282227 10.982007980347 1.915000915527 191 191 191
11.769716262817 11.010378837585 1.905998229980 224 224 224
11.785288810730 11.011669158936 1.861000061035 223 223 223
11.785288810730 11.011669158936 1.813995361328 224 224 224
11.799571037292 11.028531074524 1.768997192383 122 122 122
11.446773529053 11.312883377075 1.939994812012 69 69 69
11.681638717651 11.316654205322 1.919998168945 214 214 214
11.743925094604 11.321812629700 1.878997802734 219 219 219
11.743925094604 11.321812629700 1.832000732422 224 224 224
11.759497642517 11.323102951050 1.785995483398 194 194 194
11.515701293945 11.616481781006 1.919998168945 193 193 193
11.718132972717 11.633246421814 1.893997192383 222 222 222
11.718132972717 11.633246421814 1.847000122070 222 222 222
11.718132972717 11.633246421814 1.799995422363 214 214 214
11.505480766296 11.929205894470 1.942001342773 45 45 45
11.645626068115 11.940812110901 1.911994934082 217 217 217
11.661197662354 11.942101478577 1.865997314453 221 221 221
11.661197662354 11.942101478577 1.819000244141 222 222 222
11.676769256592 11.943390846252 1.775001525879 97 97 97
11.558837890625 12.231515884399 1.928001403809 185 185 185
11.652267456055 12.239253044128 1.890998840332 223 223 223
11.652267456055 12.239253044128 1.844001770020 223 223 223
11.650978088379 12.254825592041 1.795997619629 200 200 200
11.612193107605 12.533825874329 1.915000915527 208 208 208
11.612193107605 12.533825874329 1.868995666504 220 220 220
11.612193107605 12.533825874329 1.822998046875 218 218 218
11.626475334167 12.550686836243 1.777000427246 69 69 69
11.539687156677 12.841390609741 1.931999206543 98 98 98
11.570830345154 12.843970298767 1.887001037598 214 214 214
11.555258750916 12.842679977417 1.838996887207 212 212 212
11.555258750916 12.842679977417 1.791000366211 170 170 170
11.559320449829 13.172266006470 1.904998779297 205 205 205
11.559320449829 13.172266006470 1.858001708984 216 216 216
11.545038223267 13.155404090881 1.810997009277 208 208 208
11.534817695618 13.468127250671 1.922996520996 178 178 178
11.550389289856 13.469416618347 1.877998352051 216 216 216
11.550389289856 13.469416618347 1.830001831055 216 216 216
11.519246101379 13.466837882996 1.779998779297 51 51 51
11.555742263794 13.783430099487 2.084999084473 150 150 150
11.555742263794 13.783430099487 2.038002014160 172 172 172
11.555742263794 13.783430099487 1.991996765137 154 154 154
11.555742263794 13.783430099487 1.946998596191 147 147 147
11.555742263794 13.783430099487 1.900001525879 188 188 188
11.555742263794 13.783430099487 1.850997924805 196 196 196
11.555742263794 13.783430099487 1.804000854492 181 181 181
11.531239509583 14.079292297363 1.925994873047 158 158 158
11.531239509583 14.079292297363 1.879997253418 216 216 216
11.529950141907 14.094864845276 1.831001281738 216 216 216
11.561093330383 14.097443580627 1.789001464844 52 52 52
11.185571670532 8.030124664307 1.944999694824 77 77 77
11.250437736511 8.004139900208 1.891998291016 114 114 114
11.250437736511 8.004139900208 1.833999633789 131 131 131
11.282870292664 7.991147518158 1.778999328613 130 130 130
11.257078170776 8.302580833435 1.875999450684 111 111 111
11.273940086365 8.288298606873 1.817001342773 112 112 112
11.402381896973 8.251900672913 1.777000427246 129 129 129
11.469826698303 8.194771766663 1.728996276855 118 118 118
11.607489585876 8.425672531128 1.956001281738 115 115 115
11.527052879333 8.450367927551 1.888999938965 154 154 154
12.196441650391 8.129520416260 1.924995422363 137 137 137
12.230164527893 8.100955963135 1.875999450684 144 144 144
12.228874206543 8.116527557373 1.822998046875 149 149 149
12.228874206543 8.116527557373 1.769996643066 154 154 154
12.228874206543 8.116527557373 1.717994689941 147 147 147
11.639922142029 8.412679672241 1.562995910645 101 101 101
11.527052879333 8.450367927551 1.486999511719 98 98 98
11.525762557983 8.465939521790 1.428001403809 114 114 114
11.859313011169 8.603312492371 1.962997436523 117 117 117
11.876173973083 8.589030265808 1.910995483398 150 150 150
12.090211868286 8.465649604797 1.887001037598 109 109 109
12.104494094849 8.482510566711 1.833999633789 99 99 99
11.859313011169 8.603312492371 1.462997436523 128 128 128
11.344447135925 9.140777587891 1.932998657227 22 22 22
11.817949295044 8.913455963135 1.937995910645 133 133 133
11.965831756592 8.831632614136 1.902999877930 123 123 123
11.998265266418 8.818639755249 1.852996826172 124 124 124
11.998265266418 8.818639755249 1.798995971680 117 117 117
11.351088523865 9.439217567444 1.917999267578 129 129 129
11.352377891541 9.423645973206 1.862998962402 182 182 182
11.973762512207 9.114501953125 1.889999389648 102 102 102
11.973762512207 9.114501953125 1.835998535156 104 104 104
11.343446731567 9.720797538757 1.902000427246 186 186 186
11.343446731567 9.720797538757 1.842994689941 188 188 188
11.947971343994 9.425935745239 1.870994567871 211 211 211
11.947971343994 9.425935745239 1.816001892090 210 210 210
11.947971343994 9.425935745239 1.761001586914 179 179 179
11.366949081421 10.004957199097 1.935997009277 58 58 58
11.366949081421 10.004957199097 1.878997802734 192 192 192
11.922179222107 9.737369537354 1.897994995117 208 208 208
11.922179222107 9.737369537354 1.845001220703 209 209 209
11.922179222107 9.737369537354 1.790000915527 210 210 210
11.356728553772 10.317680358887 1.910995483398 170 170 170
11.797798156738 10.103353500366 1.911994934082 213 213 213
11.896387100220 10.048803329468 1.870994567871 210 210 210
11.896387100220 10.048803329468 1.816001892090 209 209 209
11.896387100220 10.048803329468 1.762001037598 160 160 160
11.397092819214 10.587557792664 1.893997192383 194 194 194
11.823879241943 10.356368064880 1.900001525879 208 208 208
11.855023384094 10.358947753906 1.846000671387 207 207 207
11.855023384094 10.358947753906 1.792999267578 204 204 204
11.388162612915 10.884709358215 1.935997009277 66 66 66
11.519184112549 10.817167282104 1.897994995117 205 205 205
11.827941894531 10.685953140259 1.881996154785 208 208 208
11.812370300293 10.684663772583 1.826995849609 211 211 211
11.812370300293 10.684663772583 1.772994995117 172 172 172
11.411664962769 11.168869018555 1.922996520996 150 150 150
11.754144668579 11.009089469910 1.910995483398 216 216 216
11.786579132080 10.996097564697 1.860000610352 212 212 212
11.786579132080 10.996097564697 1.805999755859 209 209 209
11.468890190125 11.424463272095 1.908996582031 180 180 180
11.730932235718 11.289380073547 1.888000488281 209 209 209
11.730932235718 11.289380073547 1.833999633789 210 210 210
11.730932235718 11.289380073547 1.778999328613 171 171 171
11.443098068237 11.735897064209 1.936996459961 28 28 28
11.671418190002 11.629378318787 1.909996032715 189 189 189
11.705141067505 11.600813865662 1.860000610352 212 212 212
11.705141067505 11.600813865662 1.805000305176 208 208 208
11.484750747681 11.990202903748 1.921997070313 170 170 170
11.646916389465 11.925240516663 1.888999938965 209 209 209
11.648205757141 11.909668922424 1.835998535156 208 208 208
11.646916389465 11.925240516663 1.779998779297 150 150 150
11.605552673340 12.235383987427 1.920997619629 187 187 187
11.622413635254 12.221102714539 1.867996215820 209 209 209
11.622413635254 12.221102714539 1.812995910645 209 209 209
11.531756401062 12.558522224426 1.944999694824 50 50 50
11.612193107605 12.533825874329 1.900001525879 206 206 206
11.596621513367 12.532536506653 1.845001220703 205 205 205
11.596621513367 12.532536506653 1.790000915527 158 158 158
11.524115562439 12.840101242065 1.919998168945 153 153 153
11.539687156677 12.841390609741 1.865997314453 192 192 192
11.539687156677 12.841390609741 1.811996459961 188 188 188
11.513895034790 13.152824401855 1.945999145508 14 14 14
11.545038223267 13.155404090881 1.894996643066 198 198 198
11.545038223267 13.155404090881 1.839996337891 209 209 209
11.529466629028 13.154113769531 1.784996032715 87 87 87
11.506254196167 13.434404373169 1.923995971680 143 143 143
11.506254196167 13.434404373169 1.869995117188 209 209 209
11.506254196167 13.434404373169 1.816001892090 200 200 200
11.511605262756 13.748417854309 2.066001892090 128 128 128
11.511605262756 13.748417854309 2.011001586914 141 141 141
11.527176856995 13.749707221985 1.958000183105 143 143 143
11.527176856995 13.749707221985 1.903999328613 179 179 179
11.511605262756 13.748417854309 1.848999023438 196 196 196
11.511605262756 13.748417854309 1.792999267578 143 143 143
11.503964424133 14.029997825623 1.930000305176 148 148 148
11.503964424133 14.029997825623 1.876998901367 206 206 206
11.503964424133 14.029997825623 1.822998046875 200 200 200
12.284712791443 8.199544906616 1.865997314453 147 147 147
12.284712791443 8.199544906616 1.916999816895 127 127 127
12.125224113464 8.421512603760 1.711997985840 236 236 236
12.155078887939 8.439664840698 1.821998596191 129 129 129
11.981307029724 8.644772529602 1.279998779297 157 157 157
11.952742576599 8.611049652100 1.379997253418 152 152 152
11.877463340759 8.573458671570 1.638000488281 131 131 131
12.025443077087 8.679783821106 1.720001220703 144 144 144
12.085149765015 8.716085433960 1.837997436523 125 125 125
12.054006576538 8.713506698608 1.887001037598 117 117 117
11.937170982361 8.609760284424 1.919998168945 147 147 147
11.877463340759 8.573458671570 1.965995788574 131 131 131
11.536079406738 8.341364860535 1.973999023438 156 156 156
12.060647964478 9.011947631836 1.590995788574 165 165 165
12.015222549438 8.992506980896 1.638000488281 170 170 170
12.046365737915 8.995086669922 1.854995727539 109 109 109
11.985368728638 8.974356651306 1.900001525879 151 151 151
11.897096633911 8.904333114624 1.938995361328 147 147 147
11.717974662781 8.795427322388 1.969001770020 27 27 27
11.664908409119 9.057566642761 1.209999084473 187 187 187
11.738897323608 9.110730171204 1.280998229980 190 190 190
11.753179550171 9.127591133118 1.339996337891 185 185 185
11.677900314331 9.090000152588 1.379997253418 208 208 208
11.664908409119 9.057566642761 1.431999206543 220 220 220
11.619482040405 9.038126945496 1.480995178223 1 1 1
11.693471908569 9.091289520264 1.549995422363 6 6 6
11.693471908569 9.091289520264 1.606994628906 52 52 52
11.605199813843 9.021265029907 1.646995544434 53 53 53
12.005002021790 9.305231094360 1.771995544434 213 213 213
12.020573616028 9.306520462036 1.825996398926 216 216 216
12.020573616028 9.306520462036 1.878997802734 216 216 216
11.396224021912 8.894208908081 1.899002075195 115 115 115
11.802667617798 9.476615905762 1.714996337891 50 50 50
11.963639259338 9.615374565125 1.798995971680 222 222 222
11.994782447815 9.617954254150 1.852996826172 224 224 224
11.963639259338 9.615374565125 1.905998229980 195 195 195
11.415857315063 9.225083351135 1.875000000000 110 110 110
11.327586174011 9.155058860779 1.921997070313 121 121 121
11.968990325928 9.929388046265 1.772994995117 205 205 205
11.954708099365 9.912527084351 1.824996948242 224 224 224
11.954708099365 9.912527084351 1.878997802734 222 222 222
11.375782966614 9.519656181335 1.847999572754 194 194 194
11.405636787415 9.537806510925 1.907997131348 175 175 175
11.928916931152 10.223960876465 1.793998718262 226 226 226
11.914634704590 10.207098960876 1.846000671387 223 223 223
11.928916931152 10.223960876465 1.900001525879 221 221 221
11.408410072327 9.882962226868 1.878997802734 199 199 199
11.408410072327 9.882962226868 1.936996459961 46 46 46
11.873270988464 10.517243385315 1.758995056152 128 128 128
11.873270988464 10.517243385315 1.811996459961 224 224 224
11.857699394226 10.515954017639 1.863998413086 230 230 230
11.829134941101 10.482232093811 1.911994934082 249 249 249
11.411182403564 10.228119850159 1.907997131348 174 174 174
11.831907272339 10.827387809753 1.783996582031 210 210 210
11.831907272339 10.827387809753 1.835998535156 224 224 224
11.831907272339 10.827387809753 1.889999389648 223 223 223
11.432105064392 10.543422698975 1.886001586914 197 197 197
11.432105064392 10.543422698975 1.939994812012 11 11 11
11.808694839478 11.107678413391 1.758995056152 125 125 125
11.808694839478 11.107678413391 1.813995361328 224 224 224
11.808694839478 11.107678413391 1.867996215820 224 224 224
11.733415603638 11.070087432861 1.913002014160 219 219 219
11.453027725220 10.858724594116 1.923995971680 134 134 134
11.753049850464 11.400961875916 1.791999816895 216 216 216
11.754339218140 11.385390281677 1.845001220703 222 222 222
11.753049850464 11.400961875916 1.899002075195 227 227 227
11.471372604370 11.205170631409 1.909996032715 167 167 167
11.712974548340 11.695533752441 1.758995056152 11 11 11
11.728547096252 11.696824073792 1.814994812012 226 226 226
11.728547096252 11.696824073792 1.868995666504 222 222 222
11.698692321777 11.678672790527 1.916999816895 207 207 207
11.489716529846 11.551616668701 1.942001342773 41 41 41
11.687182426453 12.006967544556 1.775001525879 127 127 127
11.687182426453 12.006967544556 1.828994750977 221 221 221
11.687182426453 12.006967544556 1.883995056152 222 222 222
11.614482879639 11.938232421875 1.925994873047 199 199 199
11.645819664001 12.317111968994 1.796997070313 208 208 208
11.661391258240 12.318401336670 1.851997375488 221 221 221
11.645819664001 12.317111968994 1.904998779297 217 217 217
11.527694702148 12.228936195374 1.938995361328 57 57 57
11.621316909790 12.612974166870 1.775001525879 148 148 148
11.651171684265 12.631125450134 1.830001831055 219 219 219
11.651171684265 12.631125450134 1.885002136230 216 216 216
11.607034683228 12.596113204956 1.934997558594 107 107 107
11.582532882690 12.891975402832 1.806999206543 209 209 209
11.581243515015 12.907546997070 1.861000061035 219 219 219
11.581243515015 12.907546997070 1.916000366211 166 166 166
11.555451393127 13.218980789185 1.780998229980 82 82 82
11.555451393127 13.218980789185 1.836997985840 213 213 213
11.555451393127 13.218980789185 1.889999389648 203 203 203
11.555451393127 13.218980789185 1.944000244141 55 55 55
11.576375007629 13.534283638000 1.802001953125 181 181 181
11.576375007629 13.534283638000 1.856994628906 216 216 216
11.576375007629 13.534283638000 1.909996032715 192 192 192
11.566155433655 13.847006797791 1.826995849609 215 215 215
11.566155433655 13.847006797791 1.879997253418 219 219 219
11.550583839417 13.845717430115 1.931999206543 136 136 136
11.549293518066 13.861289024353 1.986000061035 126 126 126
11.549293518066 13.861289024353 2.040000915527 123 123 123
11.490875244141 13.809415817261 2.085998535156 23 23 23
11.537783622742 14.189583778381 1.804000854492 149 149 149
11.537783622742 14.189583778381 1.859001159668 161 161 161
11.537783622742 14.189583778381 1.911994934082 119 119 119
11.537687301636 14.001434326172 1.791000366211 215 215 215
11.537687301636 14.001434326172 1.818000793457 223 223 223
11.537687301636 14.001434326172 1.847000122070 223 223 223
11.537687301636 14.001434326172 1.875000000000 221 221 221
11.537687301636 14.001434326172 1.902999877930 200 200 200
11.544037818909 13.735424995422 1.778999328613 144 144 144
11.544037818909 13.735424995422 1.806999206543 220 220 220
11.544037818909 13.735424995422 1.835998535156 220 220 220
11.544037818909 13.735424995422 1.862998962402 223 223 223
11.544037818909 13.735424995422 1.891998291016 199 199 199
11.544037818909 13.735424995422 1.920997619629 109 109 109
11.558320999146 13.752286911011 1.952995300293 116 116 116
11.558320999146 13.752286911011 1.978996276855 111 111 111
11.544037818909 13.735424995422 2.003997802734 115 115 115
11.534817695618 13.468127250671 1.791000366211 217 217 217
11.534817695618 13.468127250671 1.817001342773 220 220 220
11.534817695618 13.468127250671 1.845001220703 224 224 224
11.534817695618 13.468127250671 1.875999450684 214 214 214
11.534817695618 13.468127250671 1.903999328613 197 197 197
11.539879798889 13.217691421509 1.777999877930 172 172 172
11.539879798889 13.217691421509 1.805999755859 221 221 221
11.541169166565 13.202119827271 1.832000732422 222 222 222
11.541169166565 13.202119827271 1.860000610352 225 225 225
11.539879798889 13.217691421509 1.889999389648 202 202 202
11.539879798889 13.217691421509 1.918998718262 111 111 111
11.563092231750 12.937400817871 1.768997192383 94 94 94
11.547520637512 12.936110496521 1.794998168945 219 219 219
11.547520637512 12.936110496521 1.821998596191 221 221 221
11.547520637512 12.936110496521 1.849998474121 222 222 222
11.547520637512 12.936110496521 1.877998352051 222 222 222
11.531949043274 12.934821128845 1.904998779297 165 165 165
11.614869117737 12.690832138062 1.774002075195 195 195 195
11.614869117737 12.690832138062 1.804000854492 217 217 217
11.599297523499 12.689542770386 1.830001831055 225 225 225
11.614869117737 12.690832138062 1.860000610352 213 213 213
11.614869117737 12.690832138062 1.888000488281 225 225 225
11.599297523499 12.689542770386 1.909996032715 197 197 197
11.511026382446 12.619518280029 1.914001464844 162 162 162
11.621220588684 12.424824714661 1.770996093750 170 170 170
11.621220588684 12.424824714661 1.797996520996 216 216 216
11.621220588684 12.424824714661 1.825996398926 228 228 228
11.621220588684 12.424824714661 1.853996276855 228 228 228
11.621220588684 12.424824714661 1.880996704102 216 216 216
11.606938362122 12.407963752747 1.905998229980 207 207 207
11.531660079956 12.370370864868 1.907997131348 174 174 174
11.627572059631 12.158816337585 1.758995056152 95 95 95
11.627572059631 12.158816337585 1.789001464844 228 228 228
11.627572059631 12.158816337585 1.816001892090 231 231 231
11.627572059631 12.158816337585 1.842994689941 226 226 226
11.627572059631 12.158816337585 1.873001098633 228 228 228
11.627572059631 12.158816337585 1.900001525879 218 218 218
11.492585182190 12.084923744202 1.881996154785 203 203 203
11.492585182190 12.084923744202 1.909996032715 193 193 193
11.663777351379 11.910958290100 1.780998229980 225 225 225
11.663777351379 11.910958290100 1.806999206543 231 231 231
11.663777351379 11.910958290100 1.833999633789 232 232 232
11.663777351379 11.910958290100 1.862998962402 228 228 228
11.663777351379 11.910958290100 1.890998840332 228 228 228
11.484654426575 11.802053451538 1.862998962402 221 221 221
11.469082832336 11.800764083862 1.888000488281 195 195 195
11.469082832336 11.800764083862 1.915000915527 121 121 121
11.699982643127 11.663101196289 1.774002075195 223 223 223
11.699982643127 11.663101196289 1.802001953125 230 230 230
11.699982643127 11.663101196289 1.832000732422 227 227 227
11.699982643127 11.663101196289 1.854995727539 229 229 229
11.699982643127 11.663101196289 1.882995605469 226 226 226
11.550713539124 11.572346687317 1.863998413086 221 221 221
11.461152076721 11.517893791199 1.865997314453 209 209 209
11.461152076721 11.517893791199 1.895996093750 211 211 211
11.751759529114 11.416533470154 1.775001525879 228 228 228
11.751759529114 11.416533470154 1.804000854492 226 226 226
11.751759529114 11.416533470154 1.828994750977 230 230 230
11.720615386963 11.413953781128 1.853996276855 232 232 232
11.736186981201 11.415243148804 1.882995605469 230 230 230
11.557065010071 11.306338310242 1.855995178223 221 221 221
11.453222274780 11.235024452209 1.848999023438 219 219 219
11.453222274780 11.235024452209 1.878997802734 192 192 192
11.422078132629 11.232444763184 1.905998229980 175 175 175
11.759400367737 11.134952545166 1.748001098633 115 115 115
11.773682594299 11.151814460754 1.777000427246 229 229 229
11.759400367737 11.134952545166 1.802001953125 235 235 235
11.773682594299 11.151814460754 1.831001281738 231 231 231
11.773682594299 11.151814460754 1.858001708984 228 228 228
11.773682594299 11.151814460754 1.885002136230 230 230 230
11.459572792053 10.969016075134 1.817001342773 219 219 219
11.415436744690 10.934003829956 1.832000732422 223 223 223
11.415436744690 10.934003829956 1.861000061035 201 201 201
11.414147377014 10.949575424194 1.891998291016 214 214 214
11.794316291809 10.902667999268 1.751998901367 144 144 144
11.794316291809 10.902667999268 1.775001525879 231 231 231
11.794316291809 10.902667999268 1.803001403809 232 232 232
11.794316291809 10.902667999268 1.831001281738 231 231 231
11.794316291809 10.902667999268 1.856994628906 229 229 229
11.794316291809 10.902667999268 1.883995056152 226 226 226
11.437359809875 10.669284820557 1.796997070313 218 218 218
11.390645027161 10.665415763855 1.816001892090 225 225 225
11.407505989075 10.651133537292 1.846000671387 208 208 208
11.406216621399 10.666705131531 1.875999450684 217 217 217
11.390645027161 10.665415763855 1.902000427246 186 186 186
11.830521583557 10.654809951782 1.741996765137 116 116 116
11.830521583557 10.654809951782 1.771995544434 228 228 228
11.830521583557 10.654809951782 1.797996520996 229 229 229
11.830521583557 10.654809951782 1.826995849609 229 229 229
11.830521583557 10.654809951782 1.851997375488 235 235 235
11.844803810120 10.671670913696 1.881996154785 224 224 224
11.787674903870 10.604226112366 1.888999938965 229 229 229
11.442421913147 10.418848991394 1.809997558594 179 179 179
11.442421913147 10.418848991394 1.839996337891 160 160 160
11.398285865784 10.383836746216 1.854995727539 167 167 167
11.398285865784 10.383836746216 1.886001586914 193 193 193
11.398285865784 10.383836746216 1.916000366211 112 112 112
11.868016242981 10.391380310059 1.766998291016 223 223 223
11.868016242981 10.391380310059 1.793998718262 229 229 229
11.868016242981 10.391380310059 1.820999145508 228 228 228
11.868016242981 10.391380310059 1.847999572754 229 229 229
11.866726875305 10.406951904297 1.872001647949 234 234 234
11.866726875305 10.406951904297 1.897994995117 219 219 219
11.389065742493 10.116538047791 1.777000427246 213 213 213
11.390356063843 10.100966453552 1.804000854492 223 223 223
11.389065742493 10.116538047791 1.835998535156 223 223 223
11.390356063843 10.100966453552 1.863998413086 208 208 208
11.389065742493 10.116538047791 1.895996093750 210 210 210
11.888649940491 10.142233848572 1.761001586914 225 225 225
11.888649940491 10.142233848572 1.784996032715 231 231 231
11.888649940491 10.142233848572 1.811996459961 231 231 231
11.888649940491 10.142233848572 1.837997436523 234 234 234
11.888649940491 10.142233848572 1.865997314453 233 233 233
11.888649940491 10.142233848572 1.891998291016 219 219 219
11.379844665527 9.849240303040 1.755996704102 188 188 188
11.379844665527 9.849240303040 1.783996582031 220 220 220
11.379844665527 9.849240303040 1.813995361328 224 224 224
11.379844665527 9.849240303040 1.844001770020 208 208 208
11.379844665527 9.849240303040 1.874000549316 213 213 213
11.381134986877 9.833668708801 1.901000976563 186 186 186
11.924854278564 9.894375801086 1.758995056152 221 221 221
11.924854278564 9.894375801086 1.784996032715 226 226 226
11.924854278564 9.894375801086 1.810997009277 229 229 229
11.909282684326 9.893086433411 1.835998535156 232 232 232
11.909282684326 9.893086433411 1.860000610352 233 233 233
11.924854278564 9.894375801086 1.888999938965 217 217 217
11.371914863586 9.566370964050 1.767997741699 210 210 210
11.371914863586 9.566370964050 1.796997070313 222 222 222
11.371914863586 9.566370964050 1.825996398926 226 226 226
11.371914863586 9.566370964050 1.855995178223 208 208 208
11.371914863586 9.566370964050 1.886001586914 211 211 211
11.931205749512 9.628367424011 1.754997253418 226 226 226
11.945487976074 9.645228385925 1.782997131348 230 230 230
11.945487976074 9.645228385925 1.808998107910 230 230 230
11.945487976074 9.645228385925 1.833999633789 230 230 230
11.945487976074 9.645228385925 1.863998413086 226 226 226
11.945487976074 9.645228385925 1.888000488281 218 218 218
11.363984107971 9.283500671387 1.754997253418 149 149 149
11.363984107971 9.283500671387 1.785995483398 149 149 149
11.363984107971 9.283500671387 1.816001892090 152 152 152
11.395127296448 9.286080360413 1.848999023438 151 151 151
11.363984107971 9.283500671387 1.876998901367 145 145 145
11.363984107971 9.283500671387 1.904998779297 150 150 150
11.596172332764 9.130266189575 1.250000000000 230 230 230
11.519604682922 9.108246803284 1.285995483398 224 224 224
11.729869842529 9.219731330872 1.431999206543 172 172 172
11.700016975403 9.201581001282 1.443000793457 196 196 196
11.700016975403 9.201581001282 1.472999572754 185 185 185
11.624737739563 9.163990020752 1.480995178223 194 194 194
11.519604682922 9.108246803284 1.466995239258 238 238 238
11.594882965088 9.145837783813 1.525001525879 169 169 169
11.550747871399 9.110826492310 1.541000366211 194 194 194
11.565029144287 9.127687454224 1.572998046875 251 251 251
11.968700408936 9.364938735962 1.753997802734 225 225 225
11.968700408936 9.364938735962 1.777999877930 229 229 229
11.967411041260 9.380510330200 1.806999206543 223 223 223
11.968700408936 9.364938735962 1.828994750977 234 234 234
11.968700408936 9.364938735962 1.854995727539 227 227 227
11.967411041260 9.380510330200 1.885002136230 222 222 222
11.774006843567 9.254743576050 1.839996337891 6 6 6
11.341771125793 8.983769416809 1.731994628906 205 205 205
11.387196540833 9.003211021423 1.772994995117 149 149 149
11.371624946594 9.001921653748 1.800994873047 156 156 156
11.387196540833 9.003211021423 1.832000732422 155 155 155
11.387196540833 9.003211021423 1.861999511719 150 150 150
11.371624946594 9.001921653748 1.888999938965 159 159 159
11.780357360840 8.988735198975 1.202995300293 195 195 195
11.825783729553 9.008175849915 1.252998352051 200 200 200
11.825783729553 9.008175849915 1.286994934082 184 184 184
11.885490417480 9.044478416443 1.334999084473 183 183 183
11.824493408203 9.023747444153 1.348999023438 181 181 181
11.810212135315 9.006885528564 1.364997863770 152 152 152
11.794640541077 9.005596160889 1.388999938965 149 149 149
11.794640541077 9.005596160889 1.413002014160 151 151 151
11.766075134277 8.971874237061 1.434997558594 146 146 146
11.766075134277 8.971874237061 1.461997985840 144 144 144
11.750503540039 8.970583915710 1.486999511719 143 143 143
11.766075134277 8.971874237061 1.516998291016 143 143 143
11.766075134277 8.971874237061 1.545997619629 142 142 142
11.764785766602 8.987445831299 1.572998046875 146 146 146
11.766075134277 8.971874237061 1.603996276855 159 159 159
11.854347229004 9.041898727417 1.667999267578 177 177 177
12.004905700684 9.117081642151 1.742996215820 148 148 148
12.004905700684 9.117081642151 1.771995544434 144 144 144
12.004905700684 9.117081642151 1.797996520996 152 152 152
12.004905700684 9.117081642151 1.821998596191 145 145 145
12.020477294922 9.118371009827 1.849998474121 139 139 139
12.004905700684 9.117081642151 1.874000549316 145 145 145
12.004905700684 9.117081642151 1.901000976563 145 145 145
11.734931945801 8.969294548035 1.841995239258 138 138 138
11.734931945801 8.969294548035 1.869995117188 144 144 144
11.734931945801 8.969294548035 1.899002075195 148 148 148
11.734931945801 8.969294548035 1.920997619629 157 157 157
11.706368446350 8.935572624207 1.936996459961 156 156 156
11.646660804749 8.899271011353 1.949996948242 142 142 142
11.586952209473 8.862969398499 1.959999084473 117 117 117
12.055393218994 8.886084556580 1.297996520996 206 206 206
11.981403350830 8.832921981812 1.282997131348 189 189 189
11.995685577393 8.849782943726 1.316001892090 185 185 185
12.009967803955 8.866643905640 1.351997375488 181 181 181
12.041110992432 8.869223594666 1.389999389648 186 186 186
11.981403350830 8.832921981812 1.395996093750 201 201 201
12.009967803955 8.866643905640 1.436996459961 205 205 205
12.009967803955 8.866643905640 1.462997436523 208 208 208
11.965831756592 8.831632614136 1.472999572754 204 204 204
11.965831756592 8.831632614136 1.488998413086 200 200 200
11.890552520752 8.794040679932 1.490997314453 191 191 191
11.890552520752 8.794040679932 1.517997741699 201 201 201
11.890552520752 8.794040679932 1.546997070313 186 186 186
11.890552520752 8.794040679932 1.571998596191 183 183 183
11.890552520752 8.794040679932 1.598999023438 184 184 184
11.906124114990 8.795331001282 1.630996704102 171 171 171
11.921695709229 8.796620368958 1.666000366211 164 164 164
12.009967803955 8.866643905640 1.729995727539 155 155 155
12.009967803955 8.866643905640 1.755996704102 161 161 161
12.025539398193 8.867934226990 1.783996582031 161 161 161
12.025539398193 8.867934226990 1.810997009277 162 162 162
12.025539398193 8.867934226990 1.834999084473 163 163 163
12.009967803955 8.866643905640 1.859001159668 160 160 160
12.025539398193 8.867934226990 1.885002136230 159 159 159
11.950259208679 8.830342292786 1.885002136230 168 168 168
11.906124114990 8.795331001282 1.897994995117 182 182 182
11.874980926514 8.792751312256 1.920997619629 185 185 185
11.874980926514 8.792751312256 1.942001342773 181 181 181
11.846416473389 8.759029388428 1.958000183105 135 135 135
11.727001190186 8.686425209045 1.953994750977 140 140 140
11.667294502258 8.650123596191 1.959999084473 126 126 126
11.547879219055 8.577520370483 1.953994750977 128 128 128
11.778778076172 8.439857482910 1.180999755859 210 210 210
12.105879783630 8.655088424683 1.511001586914 166 166 166
12.077316284180 8.621366500854 1.522994995117 165 165 165
11.986465454102 8.582486152649 1.513999938965 204 204 204
11.911186218262 8.544893264771 1.511001586914 225 225 225
11.956610679626 8.564333915710 1.555000305176 188 188 188
11.121994972229 8.040538787842 1.233001708984 178 178 178
11.599655151367 8.330951690674 1.460998535156 223 223 223
11.568511962891 8.328372955322 1.479995727539 191 191 191
11.970892906189 8.581195831299 1.666999816895 221 221 221
12.061744689941 8.620077133179 1.731994628906 173 173 173
12.061744689941 8.620077133179 1.756996154785 176 176 176
12.061744689941 8.620077133179 1.782997131348 178 178 178
12.061744689941 8.620077133179 1.807998657227 177 177 177
12.061744689941 8.620077133179 1.833000183105 178 178 178
12.061744689941 8.620077133179 1.859001159668 178 178 178
12.076026916504 8.636938095093 1.887001037598 166 166 166
11.241410255432 8.113142013550 1.693000793457 169 169 169
11.285546302795 8.148154258728 1.741996765137 148 148 148
11.359535217285 8.201316833496 1.795997619629 152 152 152
11.628219604492 8.364674568176 1.904998779297 183 183 183
11.613937377930 8.347813606262 1.925994873047 164 164 164
11.389389991760 8.219468116760 1.894996643066 160 160 160
11.269974708557 8.146863937378 1.890998840332 148 148 148
11.255692481995 8.130002975464 1.913002014160 171 171 171
12.097949981689 8.372219085693 1.388000488281 5 5 5
11.934398651123 8.264603614807 1.335998535156 0 0 0
12.038242340088 8.335917472839 1.433998107910 190 190 190
12.008388519287 8.317767143250 1.456001281738 183 183 183
11.978533744812 8.299615859985 1.471000671387 209 209 209
11.651432037354 8.084384918213 1.344001770020 208 208 208
11.651432037354 8.084384918213 1.407997131348 171 171 171
11.651432037354 8.084384918213 1.442001342773 151 151 151
12.113521575928 8.373508453369 1.657997131348 173 173 173
11.576153755188 8.046792984009 1.467994689941 216 216 216
12.143374443054 8.391659736633 1.720001220703 156 156 156
12.143374443054 8.391659736633 1.743995666504 161 161 161
12.143374443054 8.391659736633 1.766998291016 161 161 161
12.143374443054 8.391659736633 1.792999267578 159 159 159
12.143374443054 8.391659736633 1.818000793457 158 158 158
12.143374443054 8.391659736633 1.842994689941 165 165 165
12.142085075378 8.407231330872 1.873001098633 157 157 157
11.352894783020 7.902876377106 1.653999328613 11 11 11
12.135444641113 8.108789443970 1.446998596191 130 130 130
11.912185668945 7.964872837067 1.446998596191 237 237 237
12.090019226074 8.089348793030 1.555000305176 195 195 195
12.075736999512 8.072487831116 1.578994750977 204 204 204
12.239288330078 8.180104255676 1.675994873047 171 171 171
12.239288330078 8.180104255676 1.703994750977 180 180 180
12.269141197205 8.198254585266 1.729995727539 179 179 179
12.269141197205 8.198254585266 1.754997253418 181 181 181
12.269141197205 8.198254585266 1.781997680664 174 174 174
12.269141197205 8.198254585266 1.805000305176 181 181 181
12.269141197205 8.198254585266 1.828994750977 178 178 178
12.269141197205 8.198254585266 1.852996826172 180 180 180
12.239288330078 8.180104255676 1.875000000000 182 182 182
12.239288330078 8.180104255676 1.899002075195 170 170 170
12.209434509277 8.161952972412 1.913002014160 139 139 139
11.524694442749 13.969000816345 1.917999267578 79 79 79
11.524694442749 13.969000816345 1.891998291016 231 231 231
11.524694442749 13.969000816345 1.870994567871 225 225 225
11.524694442749 13.969000816345 1.847000122070 226 226 226
11.524694442749 13.969000816345 1.820999145508 227 227 227
11.524694442749 13.969000816345 1.795997619629 220 220 220
11.532335281372 13.687420845032 1.911994934082 128 128 128
11.547906875610 13.688710212708 1.892997741699 200 200 200
11.532335281372 13.687420845032 1.864997863770 231 231 231
11.532335281372 13.687420845032 1.841995239258 226 226 226
11.532335281372 13.687420845032 1.819000244141 226 226 226
11.532335281372 13.687420845032 1.792999267578 222 222 222
11.554258346558 13.422701835632 1.910995483398 186 186 186
11.554258346558 13.422701835632 1.886001586914 203 203 203
11.523115158081 13.420123100281 1.861000061035 228 228 228
11.523115158081 13.420123100281 1.835998535156 226 226 226
11.523115158081 13.420123100281 1.811996459961 223 223 223
11.524404525757 13.404551506042 1.789001464844 212 212 212
11.545038223267 13.155404090881 1.921997070313 78 78 78
11.560609817505 13.156693458557 1.901000976563 198 198 198
11.545038223267 13.155404090881 1.874000549316 224 224 224
11.529466629028 13.154113769531 1.847999572754 230 230 230
11.545038223267 13.155404090881 1.824996948242 222 222 222
11.545038223267 13.155404090881 1.800994873047 225 225 225
11.576181411743 13.157982826233 1.783996582031 159 159 159
11.552679061890 12.873824119568 1.908996582031 189 189 189
11.552679061890 12.873824119568 1.882995605469 223 223 223
11.537107467651 12.872534751892 1.856994628906 230 230 230
11.552679061890 12.873824119568 1.834999084473 223 223 223
11.552679061890 12.873824119568 1.808998107910 224 224 224
11.552679061890 12.873824119568 1.785995483398 201 201 201
11.495454788208 12.618228912354 1.921997070313 90 90 90
11.557741165161 12.623387336731 1.915000915527 174 174 174
11.605745315552 12.611684799194 1.903999328613 223 223 223
11.605745315552 12.611684799194 1.879997253418 229 229 229
11.605745315552 12.611684799194 1.854995727539 232 232 232
11.605745315552 12.611684799194 1.831001281738 232 232 232
11.605745315552 12.611684799194 1.807998657227 226 226 226
11.605745315552 12.611684799194 1.784996032715 212 212 212
11.487523078918 12.335359573364 1.913002014160 168 168 168
11.518667221069 12.337938308716 1.895996093750 207 207 207
11.612096786499 12.345676422119 1.896995544434 231 231 231
11.612096786499 12.345676422119 1.873001098633 230 230 230
11.612096786499 12.345676422119 1.847999572754 231 231 231
11.627668380737 12.346965789795 1.826995849609 224 224 224
11.612096786499 12.345676422119 1.802001953125 226 226 226
11.643239974976 12.348255157471 1.781997680664 203 203 203
11.478302955627 12.068060874939 1.903999328613 212 212 212
11.526307106018 12.056358337402 1.887001037598 206 206 206
11.650880813599 12.066675186157 1.897994995117 228 228 228
11.650880813599 12.066675186157 1.870994567871 232 232 232
11.650880813599 12.066675186157 1.847999572754 233 233 233
11.650880813599 12.066675186157 1.825996398926 229 229 229
11.650880813599 12.066675186157 1.802001953125 226 226 226
11.650880813599 12.066675186157 1.777000427246 218 218 218
11.469082832336 11.800764083862 1.915000915527 163 163 163
11.469082832336 11.800764083862 1.892997741699 195 195 195
11.517086982727 11.789061546326 1.877998352051 225 225 225
11.674094200134 11.786384582520 1.892997741699 228 228 228
11.674094200134 11.786384582520 1.870994567871 228 228 228
11.689665794373 11.787673950195 1.848999023438 226 226 226
11.674094200134 11.786384582520 1.823997497559 225 225 225
11.689665794373 11.787673950195 1.803001403809 227 227 227
11.674094200134 11.786384582520 1.776000976563 223 223 223
11.445580482483 11.516604423523 1.920997619629 94 94 94
11.445580482483 11.516604423523 1.897994995117 212 212 212
11.444291114807 11.532176017761 1.870994567871 214 214 214
11.648012161255 11.533369064331 1.893997192383 231 231 231
11.710298538208 11.538527488708 1.885002136230 239 239 239
11.711588859558 11.522955894470 1.864997863770 227 227 227
11.710298538208 11.538527488708 1.838996887207 228 228 228
11.711588859558 11.522955894470 1.816001892090 226 226 226
11.711588859558 11.522955894470 1.792999267578 230 230 230
11.725870132446 11.539816856384 1.772994995117 200 200 200
11.403926849365 11.262298583984 1.915000915527 78 78 78
11.450642585754 11.266167640686 1.899002075195 213 213 213
11.435070037842 11.264878273010 1.873001098633 212 212 212
11.450642585754 11.266167640686 1.848999023438 232 232 232
11.733511924744 11.258236885071 1.897994995117 231 231 231
11.749083518982 11.259526252747 1.878997802734 225 225 225
11.749083518982 11.259526252747 1.853996276855 232 232 232
11.749083518982 11.259526252747 1.830001831055 229 229 229
11.749083518982 11.259526252747 1.806999206543 232 232 232
11.749083518982 11.259526252747 1.783996582031 231 231 231
11.764656066895 11.260816574097 1.764999389648 161 161 161
11.427139282227 10.982007980347 1.902000427246 213 213 213
11.410278320313 10.996291160583 1.875999450684 222 222 222
11.410278320313 10.996291160583 1.849998474121 219 219 219
11.504998207092 10.988455772400 1.850997924805 246 246 246
11.785288810730 11.011669158936 1.891998291016 230 230 230
11.800860404968 11.012958526611 1.872001647949 226 226 226
11.785288810730 11.011669158936 1.844001770020 227 227 227
11.786579132080 10.996097564697 1.823997497559 225 225 225
11.785288810730 11.011669158936 1.799995422363 225 225 225
11.785288810730 11.011669158936 1.777000427246 222 222 222
11.802150726318 10.997386932373 1.761001586914 97 97 97
11.401058197021 10.728992462158 1.907997131348 184 184 184
11.401058197021 10.728992462158 1.881996154785 219 219 219
11.416629791260 10.730282783508 1.861000061035 204 204 204
11.416629791260 10.730282783508 1.833999633789 229 229 229
11.543783187866 10.709456443787 1.842994689941 3 3 3
11.824073791504 10.732668876648 1.888999938965 224 224 224
11.824073791504 10.732668876648 1.865997314453 227 227 227
11.824073791504 10.732668876648 1.844001770020 228 228 228
11.824073791504 10.732668876648 1.820999145508 229 229 229
11.824073791504 10.732668876648 1.797996520996 225 225 225
11.808502197266 10.731379508972 1.772994995117 232 232 232
11.839645385742 10.733958244324 1.756996154785 135 135 135
11.361984252930 10.443543434143 1.916999816895 34 34 34
11.393127441406 10.446123123169 1.895996093750 217 217 217
11.408699035645 10.447412490845 1.875000000000 176 176 176
11.408699035645 10.447412490845 1.848999023438 172 172 172
11.408699035645 10.447412490845 1.823997497559 181 181 181
11.738284111023 10.443350791931 1.880996704102 205 205 205
11.847286224365 10.452378273010 1.888000488281 231 231 231
11.862857818604 10.453667640686 1.869995117188 221 221 221
11.862857818604 10.453667640686 1.845001220703 226 226 226
11.862857818604 10.453667640686 1.821998596191 230 230 230
11.847286224365 10.452378273010 1.796997070313 232 232 232
11.847286224365 10.452378273010 1.775001525879 224 224 224
11.878429412842 10.454957008362 1.758995056152 172 172 172
11.400769233704 10.164543151855 1.908996582031 196 196 196
11.400769233704 10.164543151855 1.885002136230 186 186 186
11.385197639465 10.163252830505 1.856994628906 229 229 229
11.385197639465 10.163252830505 1.831001281738 231 231 231
11.385197639465 10.163252830505 1.806999206543 225 225 225
11.713492393494 10.174762725830 1.865997314453 1 1 1
11.886070251465 10.173377037048 1.886001586914 225 225 225
11.886070251465 10.173377037048 1.864997863770 227 227 227
11.886070251465 10.173377037048 1.839996337891 233 233 233
11.886070251465 10.173377037048 1.820999145508 227 227 227
11.886070251465 10.173377037048 1.795997619629 228 228 228
11.886070251465 10.173377037048 1.772994995117 233 233 233
11.917213439941 10.175955772400 1.755996704102 175 175 175
11.374687194824 9.911526679993 1.913002014160 157 157 157
11.374687194824 9.911526679993 1.889999389648 214 214 214
11.374687194824 9.911526679993 1.863998413086 220 220 220
11.374687194824 9.911526679993 1.836997985840 228 228 228
11.374687194824 9.911526679993 1.811996459961 229 229 229
11.374687194824 9.911526679993 1.785995483398 229 229 229
11.875560760498 9.921650886536 1.889999389648 234 234 234
11.922275543213 9.925518989563 1.878997802734 232 232 232
11.922275543213 9.925518989563 1.855995178223 231 231 231
11.922275543213 9.925518989563 1.834999084473 221 221 221
11.907993316650 9.908658027649 1.809997558594 228 228 228
11.923564910889 9.909947395325 1.791000366211 224 224 224
11.907993316650 9.908658027649 1.765998840332 229 229 229
11.923564910889 9.909947395325 1.748001098633 119 119 119
11.381038665771 9.645519256592 1.915000915527 136 136 136
11.381038665771 9.645519256592 1.890998840332 215 215 215
11.381038665771 9.645519256592 1.864997863770 207 207 207
11.381038665771 9.645519256592 1.838996887207 229 229 229
11.381038665771 9.645519256592 1.812995910645 226 226 226
11.381038665771 9.645519256592 1.788002014160 224 224 224
11.366756439209 9.628658294678 1.757995605469 204 204 204
11.929916381836 9.643939018250 1.888000488281 224 224 224
11.959770202637 9.662091255188 1.867996215820 227 227 227
11.929916381836 9.643939018250 1.841995239258 235 235 235
11.945487976074 9.645228385925 1.821998596191 230 230 230
11.929916381836 9.643939018250 1.798995971680 229 229 229
11.929916381836 9.643939018250 1.776000976563 228 228 228
11.959770202637 9.662091255188 1.755996704102 202 202 202
11.356246948242 9.376931190491 1.916000366211 40 40 40
11.371818542480 9.378220558167 1.893997192383 219 219 219
11.371818542480 9.378220558167 1.870994567871 206 206 206
11.387390136719 9.379510879517 1.847999572754 180 180 180
11.387390136719 9.379510879517 1.825996398926 167 167 167
11.371818542480 9.378220558167 1.793998718262 209 209 209
11.371818542480 9.378220558167 1.769996643066 204 204 204
11.966121673584 9.396081924438 1.894996643066 213 213 213
11.967411041260 9.380510330200 1.878997802734 221 221 221
11.966121673584 9.396081924438 1.855995178223 226 226 226
11.967411041260 9.380510330200 1.832000732422 228 228 228
11.967411041260 9.380510330200 1.811996459961 225 225 225
11.967411041260 9.380510330200 1.786994934082 237 237 237
11.966121673584 9.396081924438 1.766998291016 222 222 222
11.967411041260 9.380510330200 1.748001098633 180 180 180
11.379459381104 9.096640586853 1.908996582031 171 171 171
11.379459381104 9.096640586853 1.883995056152 173 173 173
11.379459381104 9.096640586853 1.860000610352 167 167 167
11.379459381104 9.096640586853 1.833000183105 173 173 173
11.363887786865 9.095351219177 1.806999206543 167 167 167
11.379459381104 9.096640586853 1.782997131348 180 180 180
11.363887786865 9.095351219177 1.749000549316 151 151 151
12.020477294922 9.118371009827 1.897994995117 161 161 161
12.004905700684 9.117081642151 1.875000000000 162 162 162
12.004905700684 9.117081642151 1.852996826172 155 155 155
12.004905700684 9.117081642151 1.831001281738 156 156 156
12.020477294922 9.118371009827 1.810997009277 161 161 161
12.004905700684 9.117081642151 1.785995483398 159 159 159
12.004905700684 9.117081642151 1.762001037598 159 159 159
12.004905700684 9.117081642151 1.742996215820 153 153 153
11.818045616150 9.101606369019 1.658996582031 175 175 175
11.629896163940 9.101702690125 1.575996398926 125 125 125
11.566319465637 9.112115859985 1.528999328613 166 166 166
11.629896163940 9.101702690125 1.529998779297 151 151 151
11.833617210388 9.102895736694 1.568000793457 170 170 170
11.849188804626 9.104185104370 1.555000305176 173 173 173
11.833617210388 9.102895736694 1.526000976563 183 183 183
11.786902427673 9.099026679993 1.484001159668 174 174 174
11.661039352417 9.104281425476 1.414001464844 143 143 143
11.771329879761 9.097737312317 1.433998107910 134 134 134
11.740186691284 9.095158576965 1.391998291016 131 131 131
11.754468917847 9.112019538879 1.370994567871 154 154 154
11.895903587341 9.108054161072 1.399002075195 189 189 189
11.849188804626 9.104185104370 1.359001159668 202 202 202
11.724615097046 9.093868255615 1.284996032715 198 198 198
11.709043502808 9.092578887939 1.249000549316 214 214 214
11.693471908569 9.091289520264 1.216995239258 219 219 219
11.558388710022 8.829245567322 1.963996887207 81 81 81
11.651819229126 8.836983680725 1.958000183105 114 114 114
11.729677200317 8.843431472778 1.955001831055 116 116 116
11.824397087097 8.835597038269 1.957000732422 120 120 120
11.871111869812 8.839466094971 1.942001342773 176 176 176
11.871111869812 8.839466094971 1.922996520996 190 190 190
11.902255058289 8.842045783997 1.906997680664 234 234 234
11.919116020203 8.827763557434 1.888000488281 176 176 176
12.028118133545 8.836791038513 1.895996093750 157 157 157
12.028118133545 8.836791038513 1.873001098633 167 167 167
12.028118133545 8.836791038513 1.849998474121 168 168 168
12.028118133545 8.836791038513 1.827995300293 165 165 165
12.028118133545 8.836791038513 1.805000305176 165 165 165
12.028118133545 8.836791038513 1.783996582031 162 162 162
12.028118133545 8.836791038513 1.761001586914 158 158 158
12.028118133545 8.836791038513 1.739997863770 168 168 168
12.028118133545 8.836791038513 1.717994689941 183 183 183
11.919116020203 8.827763557434 1.661994934082 167 167 167
11.872401237488 8.823894500732 1.626998901367 170 170 170
11.886683464050 8.840755462646 1.604995727539 175 175 175
11.903544425964 8.826474189758 1.584999084473 181 181 181
11.903544425964 8.826474189758 1.559997558594 178 178 178
11.903544425964 8.826474189758 1.535995483398 178 178 178
11.996974945068 8.834211349487 1.550994873047 188 188 188
11.981403350830 8.832921981812 1.524002075195 187 187 187
11.981403350830 8.832921981812 1.501998901367 173 173 173
11.981403350830 8.832921981812 1.479995727539 189 189 189
11.965831756592 8.831632614136 1.436996459961 186 186 186
11.996974945068 8.834211349487 1.435997009277 192 192 192
