8.859375000000 11.859375000000 2.162002563477 217 217 217
8.859375000000 11.859375000000 2.201004028320 209 209 209
8.859375000000 12.171875000000 2.100006103516 178 178 178
8.859375000000 12.171875000000 2.139999389648 219 219 219
8.859375000000 12.187500000000 2.181991577148 222 222 222
8.828125000000 12.171875000000 2.216995239258 52 52 52
8.843750000000 12.500000000000 2.117996215820 203 203 203
8.843750000000 12.500000000000 2.160003662109 215 215 215
8.828125000000 12.500000000000 2.199005126953 184 184 184
8.828125000000 12.812500000000 2.093002319336 172 172 172
8.828125000000 12.812500000000 2.134002685547 211 211 211
8.828125000000 12.812500000000 2.177001953125 216 216 216
8.828125000000 13.125000000000 2.108001708984 213 213 213
8.828125000000 13.140625000000 2.151992797852 215 215 215
8.812500000000 13.125000000000 2.188995361328 171 171 171
8.812500000000 13.437500000000 2.085998535156 184 184 184
8.828125000000 13.453125000000 2.128997802734 217 217 217
8.828125000000 13.453125000000 2.171005249023 202 202 202
8.859375000000 13.421875000000 2.085998535156 140 140 140
8.859375000000 13.421875000000 2.126998901367 215 215 215
8.859375000000 13.421875000000 2.169998168945 213 213 213
8.859375000000 13.109375000000 2.106002807617 203 203 203
8.859375000000 13.109375000000 2.149002075195 219 219 219
8.859375000000 13.109375000000 2.190002441406 185 185 185
8.859375000000 12.796875000000 2.087997436523 83 83 83
8.859375000000 12.796875000000 2.128997802734 212 212 212
8.875000000000 12.796875000000 2.171005249023 215 215 215
8.859375000000 12.781250000000 2.207000732422 106 106 106
8.875000000000 12.468750000000 2.110992431641 194 194 194
8.890625000000 12.468750000000 2.152999877930 216 216 216
8.890625000000 12.468750000000 2.194992065430 207 207 207
8.890625000000 12.156250000000 2.097991943359 91 91 91
8.890625000000 12.140625000000 2.136001586914 217 217 217
8.890625000000 12.156250000000 2.177001953125 217 217 217
8.875000000000 12.140625000000 2.214996337891 146 146 146
8.890625000000 11.812500000000 2.121002197266 210 210 210
8.890625000000 11.828125000000 2.162002563477 218 218 218
8.890625000000 11.828125000000 2.203002929688 211 211 211
8.921875000000 11.515625000000 2.111999511719 181 181 181
8.921875000000 11.515625000000 2.152999877930 213 213 213
8.921875000000 11.515625000000 2.192993164063 209 209 209
8.906250000000 11.500000000000 2.227996826172 173 173 173
8.921875000000 11.203125000000 2.134994506836 217 217 217
8.921875000000 11.203125000000 2.175003051758 220 220 220
8.937500000000 11.203125000000 2.216995239258 215 215 215
8.875000000000 11.171875000000 2.240997314453 118 118 118
8.937500000000 10.875000000000 2.110992431641 19 19 19
8.953125000000 10.890625000000 2.153991699219 206 206 206
8.953125000000 10.890625000000 2.196990966797 192 192 192
8.953125000000 10.890625000000 2.233001708984 211 211 211
8.859375000000 10.843750000000 2.255996704102 93 93 93
8.968750000000 10.578125000000 2.136993408203 203 203 203
8.968750000000 10.578125000000 2.175994873047 185 185 185
8.968750000000 10.578125000000 2.216003417969 217 217 217
8.890625000000 10.531250000000 2.238998413086 207 207 207
8.984375000000 10.250000000000 2.123992919922 147 147 147
8.984375000000 10.250000000000 2.164001464844 217 217 217
8.984375000000 10.250000000000 2.203002929688 219 219 219
8.968750000000 10.250000000000 2.238998413086 200 200 200
8.859375000000 10.187500000000 2.255004882813 151 151 151
8.968750000000 9.906250000000 2.108001708984 25 25 25
9.015625000000 9.937500000000 2.158996582031 215 215 215
9.015625000000 9.937500000000 2.196990966797 182 182 182
9.015625000000 9.937500000000 2.236999511719 216 216 216
8.859375000000 9.843750000000 2.238998413086 213 213 213
9.031250000000 9.609375000000 2.143997192383 199 199 199
9.046875000000 9.625000000000 2.184997558594 197 197 197
9.031250000000 9.625000000000 2.223999023438 214 214 214
8.984375000000 9.593750000000 2.251998901367 209 209 209
8.828125000000 9.515625000000 2.259002685547 193 193 193
9.046875000000 9.296875000000 2.158004760742 214 214 214
9.046875000000 9.312500000000 2.199005126953 221 221 221
9.046875000000 9.312500000000 2.237991333008 220 220 220
8.921875000000 9.234375000000 2.248001098633 215 215 215
8.828125000000 9.203125000000 2.270004272461 181 181 181
9.078125000000 9.000000000000 2.138000488281 168 168 168
9.078125000000 9.000000000000 2.177993774414 223 223 223
9.078125000000 9.000000000000 2.218002319336 223 223 223
9.078125000000 9.000000000000 2.255996704102 215 215 215
9.015625000000 8.984375000000 2.283996582031 181 181 181
9.078125000000 9.000000000000 2.334991455078 138 138 138
9.078125000000 9.015625000000 2.375000000000 133 133 133
9.078125000000 9.000000000000 2.410003662109 63 63 63
9.078125000000 8.687500000000 2.125000000000 84 84 84
9.093750000000 8.687500000000 2.166000366211 221 221 221
9.109375000000 8.687500000000 2.205993652344 220 220 220
9.109375000000 8.687500000000 2.244995117188 219 219 219
8.890625000000 8.593750000000 2.237991333008 221 221 221
8.828125000000 8.546875000000 2.263000488281 203 203 203
8.921875000000 8.609375000000 2.324005126953 42 42 42
9.109375000000 8.359375000000 2.164993286133 219 219 219
9.109375000000 8.359375000000 2.203002929688 221 221 221
9.109375000000 8.359375000000 2.240997314453 219 219 219
9.078125000000 8.343750000000 2.268997192383 228 228 228
8.828125000000 8.218750000000 2.251998901367 206 206 206
8.812500000000 8.203125000000 2.289993286133 176 176 176
8.953125000000 8.281250000000 2.358993530273 48 48 48
9.171875000000 8.062500000000 2.164993286133 210 210 210
9.171875000000 8.062500000000 2.203994750977 216 216 216
9.156250000000 8.062500000000 2.240005493164 214 214 214
9.156250000000 8.062500000000 2.277999877930 215 215 215
8.828125000000 7.875000000000 2.237991333008 217 217 217
8.812500000000 7.875000000000 2.276992797852 211 211 211
8.953125000000 7.953125000000 2.386001586914 45 45 45
9.187500000000 7.750000000000 2.149993896484 177 177 177
9.171875000000 7.750000000000 2.186996459961 218 218 218
9.203125000000 7.750000000000 2.227005004883 220 220 220
9.171875000000 7.750000000000 2.261993408203 219 219 219
8.843750000000 7.578125000000 2.220993041992 221 221 221
8.796875000000 7.546875000000 2.248992919922 213 213 213
8.781250000000 7.546875000000 2.287002563477 185 185 185
8.953125000000 7.640625000000 2.404998779297 60 60 60
9.203125000000 7.453125000000 2.167999267578 222 222 222
9.203125000000 7.453125000000 2.205993652344 219 219 219
9.203125000000 7.437500000000 2.242996215820 219 219 219
9.187500000000 7.437500000000 2.276992797852 227 227 227
8.796875000000 7.234375000000 2.222000122070 210 210 210
8.796875000000 7.234375000000 2.263000488281 206 206 206
8.781250000000 7.234375000000 2.302001953125 131 131 131
9.234375000000 7.140625000000 2.156005859375 213 213 213
9.234375000000 7.140625000000 2.194992065430 220 220 220
9.234375000000 7.140625000000 2.231994628906 218 218 218
9.234375000000 7.140625000000 2.268005371094 219 219 219
8.828125000000 6.937500000000 2.212997436523 94 94 94
8.781250000000 6.906250000000 2.240997314453 131 131 131
8.781250000000 6.906250000000 2.281005859375 193 193 193
9.265625000000 6.828125000000 2.151000976563 209 209 209
9.265625000000 6.828125000000 2.188995361328 220 220 220
9.250000000000 6.828125000000 2.225006103516 222 222 222
9.250000000000 6.828125000000 2.261993408203 221 221 221
8.781250000000 6.578125000000 2.190002441406 213 213 213
8.765625000000 6.578125000000 2.225997924805 216 216 216
8.765625000000 6.578125000000 2.265991210938 206 206 206
9.265625000000 6.500000000000 2.145996093750 209 209 209
9.265625000000 6.500000000000 2.184997558594 221 221 221
9.265625000000 6.500000000000 2.222000122070 223 223 223
9.281250000000 6.500000000000 2.261001586914 222 222 222
8.765625000000 6.234375000000 2.173995971680 212 212 212
8.765625000000 6.234375000000 2.216003417969 215 215 215
8.750000000000 6.234375000000 2.253997802734 208 208 208
8.765625000000 6.234375000000 2.294998168945 110 110 110
9.296875000000 6.203125000000 2.138992309570 196 196 196
9.296875000000 6.203125000000 2.175994873047 219 219 219
9.296875000000 6.203125000000 2.214996337891 222 222 222
9.296875000000 6.203125000000 2.251998901367 222 222 222
9.218750000000 6.156250000000 2.270004272461 246 246 246
8.765625000000 5.906250000000 2.197998046875 192 192 192
8.750000000000 5.906250000000 2.237991333008 200 200 200
8.750000000000 5.906250000000 2.276992797852 189 189 189
9.078125000000 6.078125000000 2.537994384766 24 24 24
8.921875000000 6.000000000000 2.550003051758 46 46 46
9.328125000000 5.890625000000 2.128005981445 156 156 156
9.328125000000 5.890625000000 2.164993286133 219 219 219
9.312500000000 5.890625000000 2.199996948242 218 218 218
9.328125000000 5.890625000000 2.238998413086 213 213 213
9.296875000000 5.890625000000 2.272994995117 220 220 220
8.765625000000 5.593750000000 2.177993774414 216 216 216
8.765625000000 5.593750000000 2.218994140625 212 212 212
8.765625000000 5.593750000000 2.257003784180 187 187 187
8.734375000000 5.578125000000 2.294998168945 61 61 61
9.140625000000 5.781250000000 2.565002441406 31 31 31
8.875000000000 5.640625000000 2.595993041992 24 24 24
9.328125000000 5.593750000000 2.111999511719 68 68 68
9.328125000000 5.593750000000 2.151000976563 219 219 219
9.343750000000 5.593750000000 2.188003540039 219 219 219
9.359375000000 5.593750000000 2.225997924805 221 221 221
9.343750000000 5.593750000000 2.261993408203 219 219 219
8.765625000000 5.281250000000 2.158004760742 220 220 220
8.765625000000 5.281250000000 2.197998046875 213 213 213
8.765625000000 5.281250000000 2.236999511719 191 191 191
8.750000000000 5.265625000000 2.274002075195 177 177 177
9.187500000000 5.500000000000 2.593002319336 34 34 34
8.859375000000 5.312500000000 2.608993530273 38 38 38
9.359375000000 5.281250000000 2.140991210938 219 219 219
9.359375000000 5.281250000000 2.177001953125 222 222 222
9.359375000000 5.281250000000 2.212005615234 218 218 218
9.359375000000 5.281250000000 2.250000000000 218 218 218
8.734375000000 4.937500000000 2.130996704102 179 179 179
8.765625000000 4.968750000000 2.180999755859 211 211 211
8.765625000000 4.953125000000 2.218994140625 213 213 213
8.765625000000 4.953125000000 2.259002685547 203 203 203
9.234375000000 5.203125000000 2.619995117188 45 45 45
8.796875000000 4.968750000000 2.660003662109 33 33 33
9.390625000000 4.968750000000 2.132995605469 215 215 215
9.390625000000 4.968750000000 2.168991088867 223 223 223
9.390625000000 4.968750000000 2.203002929688 218 218 218
9.390625000000 4.968750000000 2.240997314453 219 219 219
9.359375000000 4.953125000000 2.272994995117 170 170 170
8.765625000000 4.640625000000 2.164993286133 133 133 133
8.765625000000 4.640625000000 2.205001831055 131 131 131
8.781250000000 4.640625000000 2.246002197266 139 139 139
8.984375000000 4.406250000000 1.604995727539 116 116 116
8.968750000000 4.406250000000 1.643005371094 141 141 141
8.953125000000 4.406250000000 1.680999755859 141 141 141
8.953125000000 4.406250000000 1.720993041992 144 144 144
8.953125000000 4.390625000000 1.755996704102 147 147 147
8.953125000000 4.390625000000 1.796005249023 156 156 156
8.937500000000 4.390625000000 1.833999633789 149 149 149
8.921875000000 4.375000000000 1.869995117188 158 158 158
8.921875000000 4.375000000000 1.906005859375 186 186 186
9.203125000000 4.531250000000 2.029998779297 253 253 253
9.390625000000 4.640625000000 2.123001098633 162 162 162
9.390625000000 4.640625000000 2.160003662109 161 161 161
9.390625000000 4.640625000000 2.195999145508 161 161 161
9.390625000000 4.640625000000 2.231002807617 161 161 161
9.390625000000 4.640625000000 2.268005371094 146 146 146
9.328125000000 4.609375000000 2.287994384766 154 154 154
9.328125000000 4.593750000000 2.320999145508 158 158 158
9.296875000000 4.578125000000 2.354003906250 161 161 161
9.281250000000 4.562500000000 2.384002685547 128 128 128
9.359375000000 4.625000000000 2.688003540039 100 100 100
9.328125000000 4.265625000000 1.162994384766 203 203 203
9.296875000000 4.250000000000 1.190994262695 195 195 195
9.265625000000 4.234375000000 1.218002319336 161 161 161
9.203125000000 4.203125000000 1.235992431641 139 139 139
9.187500000000 4.187500000000 1.268005371094 151 151 151
9.171875000000 4.187500000000 1.305999755859 160 160 160
9.203125000000 4.187500000000 1.348999023438 162 162 162
9.171875000000 4.187500000000 1.386001586914 161 161 161
9.203125000000 4.203125000000 1.430999755859 164 164 164
9.187500000000 4.187500000000 1.468002319336 168 168 168
9.187500000000 4.187500000000 1.509002685547 173 173 173
9.203125000000 4.203125000000 1.550003051758 170 170 170
9.281250000000 4.234375000000 1.621002197266 161 161 161
9.296875000000 4.250000000000 1.664001464844 149 149 149
9.281250000000 4.234375000000 1.697998046875 159 159 159
9.281250000000 4.234375000000 1.735000610352 160 160 160
9.281250000000 4.250000000000 1.776000976563 158 158 158
9.296875000000 4.250000000000 1.815994262695 145 145 145
9.296875000000 4.250000000000 1.852005004883 169 169 169
9.296875000000 4.250000000000 1.891998291016 174 174 174
9.281250000000 4.250000000000 1.927001953125 171 171 171
9.281250000000 4.234375000000 1.964996337891 168 168 168
9.281250000000 4.234375000000 2.001998901367 170 170 170
9.328125000000 4.281250000000 2.054000854492 165 165 165
9.437500000000 4.328125000000 2.119003295898 164 164 164
9.421875000000 4.328125000000 2.151000976563 164 164 164
9.421875000000 4.328125000000 2.186996459961 165 165 165
9.421875000000 4.328125000000 2.225006103516 154 154 154
9.421875000000 4.328125000000 2.259002685547 151 151 151
9.296875000000 4.250000000000 2.261993408203 184 184 184
9.281250000000 4.234375000000 2.296997070313 182 182 182
9.171875000000 4.187500000000 2.311004638672 114 114 114
9.015625000000 4.093750000000 2.307998657227 130 130 130
9.265625000000 3.906250000000 1.595001220703 219 219 219
9.250000000000 3.906250000000 1.630996704102 221 221 221
9.218750000000 3.890625000000 1.656997680664 251 251 251
9.296875000000 3.921875000000 1.725006103516 142 142 142
9.171875000000 3.859375000000 1.722000122070 12 12 12
9.171875000000 3.859375000000 1.759994506836 11 11 11
9.140625000000 3.843750000000 1.789993286133 22 22 22
9.140625000000 3.843750000000 1.828002929688 23 23 23
9.296875000000 3.921875000000 1.912002563477 131 131 131
9.296875000000 3.921875000000 1.949005126953 129 129 129
9.296875000000 3.921875000000 1.987991333008 112 112 112
9.421875000000 4.015625000000 2.063003540039 146 146 146
9.453125000000 4.015625000000 2.108001708984 168 168 168
9.453125000000 4.015625000000 2.141998291016 172 172 172
9.453125000000 4.015625000000 2.177993774414 172 172 172
9.453125000000 4.015625000000 2.214996337891 171 171 171
9.453125000000 4.031250000000 2.251998901367 156 156 156
8.609375000000 3.546875000000 2.072998046875 128 128 128
8.671875000000 3.609375000000 2.130004882813 139 139 139
8.671875000000 3.593750000000 2.168991088867 146 146 146
8.671875000000 3.593750000000 2.208999633789 138 138 138
8.640625000000 3.562500000000 2.242004394531 138 138 138
8.578125000000 3.546875000000 2.272003173828 119 119 119
9.546875000000 3.750000000000 2.082000732422 141 141 141
9.546875000000 3.750000000000 2.115005493164 152 152 152
9.531250000000 3.750000000000 2.147994995117 156 156 156
9.546875000000 3.750000000000 2.186004638672 152 152 152
9.546875000000 3.750000000000 2.220993041992 149 149 149
9.562500000000 3.765625000000 2.261001586914 78 78 78
9.859375000000 3.593750000000 2.059005737305 165 165 165
9.859375000000 3.593750000000 2.091003417969 172 172 172
9.859375000000 3.593750000000 2.125000000000 171 171 171
9.859375000000 3.593750000000 2.158996582031 164 164 164
9.859375000000 3.593750000000 2.190994262695 164 164 164
9.859375000000 3.593750000000 2.223999023438 169 169 169
9.859375000000 3.593750000000 2.257995605469 165 165 165
9.812500000000 3.562500000000 2.274993896484 145 145 145
9.703125000000 3.500000000000 2.276992797852 126 126 126
9.609375000000 3.453125000000 2.287994384766 33 33 33
8.812500000000 13.468750000000 2.201995849609 92 92 92
8.843750000000 13.453125000000 2.171997070313 215 215 215
8.828125000000 13.453125000000 2.134994506836 216 216 216
8.828125000000 13.453125000000 2.097991943359 174 174 174
8.859375000000 13.125000000000 2.188003540039 210 210 210
8.859375000000 13.125000000000 2.151992797852 214 214 214
8.843750000000 13.125000000000 2.115005493164 199 199 199
8.859375000000 12.812500000000 2.199996948242 206 206 206
8.859375000000 12.812500000000 2.164001464844 218 218 218
8.859375000000 12.812500000000 2.128005981445 210 210 210
8.859375000000 12.484375000000 2.216003417969 169 169 169
8.859375000000 12.484375000000 2.181991577148 213 213 213
8.859375000000 12.484375000000 2.147003173828 211 211 211
8.859375000000 12.484375000000 2.108993530273 153 153 153
8.875000000000 12.156250000000 2.205001831055 209 209 209
8.875000000000 12.156250000000 2.168991088867 214 214 214
8.875000000000 12.156250000000 2.134002685547 220 220 220
8.859375000000 12.156250000000 2.093994140625 67 67 67
8.875000000000 11.812500000000 2.229995727539 148 148 148
8.875000000000 11.812500000000 2.195999145508 215 215 215
8.890625000000 11.812500000000 2.162002563477 216 216 216
8.890625000000 11.812500000000 2.126998901367 208 208 208
8.843750000000 11.484375000000 2.248001098633 19 19 19
8.890625000000 11.484375000000 2.223999023438 208 208 208
8.906250000000 11.484375000000 2.190002441406 218 218 218
8.906250000000 11.484375000000 2.154998779297 221 221 221
8.921875000000 11.484375000000 2.119995117188 187 187 187
8.890625000000 11.156250000000 2.236999511719 198 198 198
8.921875000000 11.156250000000 2.208999633789 220 220 220
8.921875000000 11.156250000000 2.173004150391 220 220 220
8.921875000000 11.156250000000 2.138992309570 216 216 216
8.859375000000 10.843750000000 2.248992919922 183 183 183
8.937500000000 10.828125000000 2.229995727539 211 211 211
8.937500000000 10.828125000000 2.194000244141 187 187 187
8.937500000000 10.828125000000 2.158004760742 203 203 203
8.937500000000 10.828125000000 2.123992919922 100 100 100
8.828125000000 10.515625000000 2.259994506836 107 107 107
8.921875000000 10.515625000000 2.244003295898 208 208 208
8.953125000000 10.500000000000 2.216003417969 209 209 209
8.953125000000 10.500000000000 2.180999755859 196 196 196
8.953125000000 10.500000000000 2.145004272461 203 203 203
8.843750000000 10.187500000000 2.250000000000 197 197 197
8.968750000000 10.171875000000 2.238998413086 215 215 215
8.984375000000 10.171875000000 2.205993652344 196 196 196
8.984375000000 10.171875000000 2.171005249023 202 202 202
8.984375000000 10.171875000000 2.136993408203 181 181 181
8.828125000000 9.843750000000 2.274993896484 43 43 43
8.859375000000 9.843750000000 2.246994018555 216 216 216
9.000000000000 9.828125000000 2.238998413086 213 213 213
9.000000000000 9.828125000000 2.205993652344 185 185 185
9.015625000000 9.828125000000 2.171997070313 208 208 208
8.984375000000 9.828125000000 2.136001586914 169 169 169
8.828125000000 9.515625000000 2.266998291016 195 195 195
8.968750000000 9.500000000000 2.259994506836 204 204 204
9.015625000000 9.500000000000 2.235000610352 206 206 206
9.015625000000 9.500000000000 2.201004028320 176 176 176
9.015625000000 9.500000000000 2.166992187500 216 216 216
9.000000000000 9.500000000000 2.128997802734 87 87 87
8.828125000000 9.187500000000 2.283996582031 148 148 148
8.828125000000 9.187500000000 2.251998901367 204 204 204
9.046875000000 9.171875000000 2.257003784180 211 211 211
9.046875000000 9.171875000000 2.222000122070 213 213 213
9.046875000000 9.171875000000 2.188995361328 208 208 208
9.046875000000 9.171875000000 2.154998779297 201 201 201
9.062500000000 8.859375000000 2.406997680664 137 137 137
9.078125000000 8.859375000000 2.375000000000 153 153 153
9.046875000000 8.859375000000 2.339004516602 166 166 166
8.984375000000 8.859375000000 2.292999267578 202 202 202
9.046875000000 8.859375000000 2.270996093750 206 206 206
9.062500000000 8.859375000000 2.240005493164 219 219 219
9.046875000000 8.859375000000 2.205001831055 217 217 217
9.046875000000 8.859375000000 2.169998168945 219 219 219
9.046875000000 8.859375000000 2.134002685547 70 70 70
8.921875000000 8.531250000000 2.326995849609 62 62 62
8.828125000000 8.546875000000 2.274993896484 203 203 203
8.890625000000 8.531250000000 2.253997802734 216 216 216
9.078125000000 8.531250000000 2.257995605469 215 215 215
9.078125000000 8.531250000000 2.223999023438 218 218 218
9.078125000000 8.531250000000 2.190994262695 218 218 218
9.078125000000 8.515625000000 2.158004760742 200 200 200
8.921875000000 8.203125000000 2.352005004883 48 48 48
8.796875000000 8.203125000000 2.296005249023 175 175 175
8.812500000000 8.203125000000 2.261993408203 211 211 211
9.046875000000 8.187500000000 2.274002075195 217 217 217
9.140625000000 8.187500000000 2.257995605469 212 212 212
9.140625000000 8.187500000000 2.223999023438 212 212 212
9.140625000000 8.187500000000 2.190994262695 213 213 213
9.140625000000 8.187500000000 2.158004760742 194 194 194
8.937500000000 7.859375000000 2.380996704102 35 35 35
8.796875000000 7.875000000000 2.289001464844 202 202 202
8.796875000000 7.875000000000 2.253005981445 219 219 219
9.140625000000 7.859375000000 2.283004760742 214 214 214
9.171875000000 7.843750000000 2.257995605469 206 206 206
9.156250000000 7.843750000000 2.222000122070 218 218 218
9.171875000000 7.843750000000 2.190994262695 212 212 212
9.171875000000 7.843750000000 2.156997680664 195 195 195
8.968750000000 7.531250000000 2.440994262695 21 21 21
8.765625000000 7.546875000000 2.304992675781 156 156 156
8.765625000000 7.546875000000 2.270004272461 210 210 210
8.765625000000 7.546875000000 2.235992431641 215 215 215
9.171875000000 7.515625000000 2.279998779297 217 217 217
9.187500000000 7.515625000000 2.248992919922 214 214 214
9.171875000000 7.515625000000 2.214996337891 219 219 219
9.187500000000 7.515625000000 2.182998657227 218 218 218
9.203125000000 7.515625000000 2.151000976563 162 162 162
8.953125000000 7.203125000000 2.449996948242 75 75 75
8.734375000000 7.218750000000 2.311996459961 19 19 19
8.765625000000 7.218750000000 2.281997680664 210 210 210
8.765625000000 7.218750000000 2.246002197266 211 211 211
9.062500000000 7.203125000000 2.268997192383 222 222 222
9.203125000000 7.187500000000 2.264999389648 217 217 217
9.203125000000 7.187500000000 2.233001708984 216 216 216
9.203125000000 7.187500000000 2.199996948242 216 216 216
9.203125000000 7.187500000000 2.166000366211 217 217 217
8.765625000000 6.890625000000 2.291000366211 200 200 200
8.765625000000 6.890625000000 2.257995605469 190 190 190
8.765625000000 6.890625000000 2.223999023438 172 172 172
9.234375000000 6.875000000000 2.279998779297 215 215 215
9.234375000000 6.859375000000 2.248992919922 208 208 208
9.234375000000 6.859375000000 2.216003417969 216 216 216
9.234375000000 6.859375000000 2.182998657227 210 210 210
9.234375000000 6.859375000000 2.151992797852 188 188 188
8.984375000000 6.562500000000 2.513992309570 71 71 71
8.765625000000 6.562500000000 2.307998657227 110 110 110
8.765625000000 6.562500000000 2.272994995117 213 213 213
8.765625000000 6.562500000000 2.236999511719 218 218 218
8.765625000000 6.562500000000 2.205993652344 213 213 213
9.265625000000 6.531250000000 2.268997192383 218 218 218
9.265625000000 6.531250000000 2.235992431641 217 217 217
9.265625000000 6.531250000000 2.205001831055 218 218 218
9.265625000000 6.531250000000 2.171997070313 216 216 216
9.265625000000 6.531250000000 2.138992309570 154 154 154
9.000000000000 6.218750000000 2.539993286133 101 101 101
8.734375000000 6.234375000000 2.294998168945 173 173 173
8.734375000000 6.234375000000 2.259994506836 211 211 211
8.734375000000 6.234375000000 2.225006103516 213 213 213
8.734375000000 6.234375000000 2.188003540039 203 203 203
9.281250000000 6.203125000000 2.263992309570 218 218 218
9.281250000000 6.203125000000 2.231994628906 219 219 219
9.296875000000 6.218750000000 2.201004028320 217 217 217
9.281250000000 6.203125000000 2.166992187500 218 218 218
9.281250000000 6.203125000000 2.136001586914 162 162 162
9.078125000000 5.890625000000 2.574005126953 77 77 77
8.734375000000 5.906250000000 2.283996582031 194 194 194
8.750000000000 5.906250000000 2.250000000000 200 200 200
8.734375000000 5.906250000000 2.214004516602 191 191 191
9.218750000000 5.875000000000 2.274993896484 226 226 226
9.296875000000 5.890625000000 2.259002685547 219 219 219
9.312500000000 5.875000000000 2.229003906250 218 218 218
9.312500000000 5.875000000000 2.197998046875 218 218 218
9.296875000000 5.875000000000 2.164001464844 217 217 217
9.312500000000 5.875000000000 2.134002685547 163 163 163
8.859375000000 5.562500000000 2.593994140625 68 68 68
9.140625000000 5.546875000000 2.600997924805 71 71 71
8.734375000000 5.578125000000 2.300003051758 83 83 83
8.734375000000 5.578125000000 2.265991210938 191 191 191
8.734375000000 5.578125000000 2.233001708984 212 212 212
8.734375000000 5.562500000000 2.197998046875 216 216 216
9.281250000000 5.546875000000 2.272003173828 232 232 232
9.312500000000 5.546875000000 2.246994018555 221 221 221
9.328125000000 5.546875000000 2.218994140625 216 216 216
9.328125000000 5.546875000000 2.186004638672 216 216 216
9.328125000000 5.546875000000 2.153991699219 218 218 218
9.328125000000 5.546875000000 2.123992919922 93 93 93
8.828125000000 5.250000000000 2.638000488281 71 71 71
8.734375000000 5.250000000000 2.281997680664 197 197 197
8.750000000000 5.250000000000 2.248001098633 189 189 189
8.750000000000 5.250000000000 2.214004516602 217 217 217
8.734375000000 5.250000000000 2.177993774414 219 219 219
9.343750000000 5.218750000000 2.266998291016 217 217 217
9.328125000000 5.218750000000 2.235000610352 219 219 219
9.343750000000 5.218750000000 2.203002929688 217 217 217
9.343750000000 5.218750000000 2.171997070313 218 218 218
9.359375000000 5.218750000000 2.141998291016 212 212 212
9.281250000000 4.890625000000 2.675003051758 74 74 74
8.718750000000 4.921875000000 2.291992187500 35 35 35
8.765625000000 4.921875000000 2.263000488281 210 210 210
8.750000000000 4.921875000000 2.227996826172 219 219 219
8.765625000000 4.921875000000 2.194000244141 205 205 205
8.734375000000 4.921875000000 2.156005859375 198 198 198
9.359375000000 4.906250000000 2.253997802734 217 217 217
9.359375000000 4.906250000000 2.220993041992 220 220 220
9.359375000000 4.906250000000 2.190002441406 216 216 216
9.359375000000 4.906250000000 2.158004760742 217 217 217
9.359375000000 4.906250000000 2.126998901367 199 199 199
8.734375000000 4.593750000000 2.692001342773 103 103 103
9.328125000000 4.578125000000 2.699005126953 105 105 105
9.328125000000 4.578125000000 2.636001586914 78 78 78
9.328125000000 4.578125000000 2.606002807617 127 127 127
9.328125000000 4.562500000000 2.572998046875 139 139 139
9.328125000000 4.578125000000 2.544998168945 149 149 149
9.328125000000 4.578125000000 2.513992309570 167 167 167
9.343750000000 4.578125000000 2.483993530273 163 163 163
9.359375000000 4.578125000000 2.453994750977 161 161 161
9.328125000000 4.578125000000 2.419998168945 158 158 158
9.328125000000 4.578125000000 2.388000488281 160 160 160
9.312500000000 4.562500000000 2.354003906250 165 165 165
8.796875000000 4.593750000000 2.220001220703 155 155 155
8.765625000000 4.593750000000 2.180999755859 165 165 165
9.390625000000 4.578125000000 2.276000976563 166 166 166
9.390625000000 4.578125000000 2.244995117188 179 179 179
9.390625000000 4.578125000000 2.212997436523 182 182 182
9.390625000000 4.562500000000 2.181991577148 182 182 182
9.406250000000 4.562500000000 2.152999877930 174 174 174
9.390625000000 4.562500000000 2.121002197266 174 174 174
8.890625000000 4.250000000000 2.330993652344 23 23 23
9.015625000000 4.250000000000 2.317001342773 116 116 116
9.203125000000 4.234375000000 2.322998046875 125 125 125
9.265625000000 4.234375000000 2.304000854492 191 191 191
9.281250000000 4.234375000000 2.272994995117 184 184 184
9.390625000000 4.234375000000 2.264999389648 166 166 166
9.421875000000 4.234375000000 2.238998413086 178 178 178
9.421875000000 4.234375000000 2.207992553711 175 175 175
9.421875000000 4.234375000000 2.177993774414 179 179 179
9.421875000000 4.234375000000 2.145004272461 176 176 176
9.421875000000 4.234375000000 2.117004394531 174 174 174
9.328125000000 4.218750000000 2.057998657227 160 160 160
9.265625000000 4.218750000000 2.014999389648 148 148 148
9.265625000000 4.218750000000 1.979995727539 181 181 181
9.265625000000 4.218750000000 1.949005126953 186 186 186
9.265625000000 4.218750000000 1.916992187500 176 176 176
9.265625000000 4.218750000000 1.884002685547 177 177 177
9.265625000000 4.218750000000 1.850997924805 174 174 174
9.265625000000 4.218750000000 1.815994262695 156 156 156
9.281250000000 4.218750000000 1.787994384766 166 166 166
9.265625000000 4.218750000000 1.751998901367 180 180 180
9.265625000000 4.218750000000 1.716003417969 173 173 173
9.265625000000 4.218750000000 1.686004638672 155 155 155
9.265625000000 4.218750000000 1.647994995117 160 160 160
9.265625000000 4.218750000000 1.617996215820 148 148 148
9.156250000000 4.234375000000 1.543991088867 139 139 139
9.156250000000 4.234375000000 1.509002685547 138 138 138
9.156250000000 4.234375000000 1.473999023438 131 131 131
9.156250000000 4.234375000000 1.440002441406 122 122 122
9.156250000000 4.234375000000 1.404998779297 128 128 128
9.171875000000 4.218750000000 1.371994018555 119 119 119
9.171875000000 4.218750000000 1.335998535156 116 116 116
9.140625000000 4.218750000000 1.296997070313 127 127 127
9.156250000000 4.218750000000 1.263992309570 138 138 138
9.187500000000 4.218750000000 1.240005493164 134 134 134
9.250000000000 4.218750000000 1.229995727539 152 152 152
9.265625000000 4.218750000000 1.203994750977 185 185 185
9.296875000000 4.218750000000 1.173995971680 192 192 192
8.703125000000 3.921875000000 2.246002197266 122 122 122
8.734375000000 3.921875000000 2.218002319336 106 106 106
8.718750000000 3.921875000000 2.180999755859 113 113 113
8.703125000000 3.921875000000 2.143997192383 115 115 115
8.703125000000 3.921875000000 2.108001708984 117 117 117
9.515625000000 3.890625000000 2.250991821289 155 155 155
9.515625000000 3.890625000000 2.218002319336 164 164 164
9.515625000000 3.890625000000 2.186004638672 157 157 157
9.515625000000 3.890625000000 2.156997680664 154 154 154
9.515625000000 3.890625000000 2.128005981445 153 153 153
9.515625000000 3.890625000000 2.095001220703 151 151 151
9.531250000000 3.890625000000 2.069992065430 73 73 73
8.359375000000 3.609375000000 2.272994995117 181 181 181
8.578125000000 3.593750000000 2.277999877930 146 146 146
8.625000000000 3.593750000000 2.248992919922 145 145 145
8.640625000000 3.609375000000 2.218002319336 166 166 166
8.640625000000 3.593750000000 2.184005737305 170 170 170
8.640625000000 3.593750000000 2.147994995117 162 162 162
8.640625000000 3.593750000000 2.113998413086 167 167 167
9.593750000000 3.562500000000 2.281005859375 160 160 160
9.734375000000 3.546875000000 2.283996582031 135 135 135
9.828125000000 3.546875000000 2.276992797852 163 163 163
9.843750000000 3.546875000000 2.250000000000 185 185 185
9.859375000000 3.546875000000 2.223999023438 184 184 184
9.859375000000 3.546875000000 2.194992065430 184 184 184
9.859375000000 3.546875000000 2.164993286133 184 184 184
9.859375000000 3.546875000000 2.136001586914 177 177 177
9.859375000000 3.546875000000 2.108993530273 180 180 180
9.859375000000 3.546875000000 2.080001831055 176 176 176
9.859375000000 3.546875000000 2.050003051758 168 168 168
8.921875000000 13.265625000000 2.304992675781 114 114 114
8.890625000000 13.265625000000 2.259994506836 144 144 144
8.890625000000 13.281250000000 2.216003417969 167 167 167
8.859375000000 13.296875000000 2.166992187500 183 183 183
8.828125000000 13.312500000000 2.121994018555 188 188 188
8.828125000000 13.312500000000 2.080993652344 144 144 144
8.828125000000 13.312500000000 2.037994384766 20 20 20
8.828125000000 12.968750000000 2.192001342773 180 180 180
8.828125000000 12.968750000000 2.152999877930 203 203 203
8.828125000000 12.968750000000 2.110000610352 190 190 190
8.843750000000 12.609375000000 2.192001342773 199 199 199
8.843750000000 12.609375000000 2.149993896484 203 203 203
8.828125000000 12.609375000000 2.106994628906 180 180 180
8.812500000000 12.296875000000 2.216995239258 125 125 125
8.843750000000 12.281250000000 2.184005737305 203 203 203
8.843750000000 12.281250000000 2.140991210938 205 205 205
8.828125000000 12.281250000000 2.097991943359 87 87 87
8.812500000000 11.968750000000 2.233993530273 25 25 25
8.843750000000 11.953125000000 2.201995849609 205 205 205
8.859375000000 11.937500000000 2.162994384766 205 205 205
8.859375000000 11.937500000000 2.121994018555 175 175 175
8.796875000000 11.656250000000 2.242996215820 17 17 17
8.875000000000 11.609375000000 2.220001220703 194 194 194
8.890625000000 11.609375000000 2.180999755859 205 205 205
8.890625000000 11.609375000000 2.138992309570 205 205 205
8.859375000000 11.296875000000 2.233993530273 148 148 148
8.890625000000 11.265625000000 2.203002929688 206 206 206
8.890625000000 11.265625000000 2.160995483398 203 203 203
8.890625000000 11.265625000000 2.121002197266 182 182 182
8.890625000000 10.937500000000 2.231994628906 194 194 194
8.921875000000 10.906250000000 2.199005126953 183 183 183
8.921875000000 10.906250000000 2.160003662109 183 183 183
8.921875000000 10.906250000000 2.119003295898 126 126 126
8.828125000000 10.625000000000 2.251998901367 127 127 127
8.921875000000 10.562500000000 2.233993530273 198 198 198
8.937500000000 10.546875000000 2.199005126953 188 188 188
8.953125000000 10.546875000000 2.160003662109 196 196 196
8.921875000000 10.562500000000 2.115005493164 24 24 24
8.812500000000 10.296875000000 2.270996093750 14 14 14
8.890625000000 10.250000000000 2.248001098633 196 196 196
8.953125000000 10.218750000000 2.222000122070 199 199 199
8.953125000000 10.218750000000 2.181991577148 195 195 195
8.953125000000 10.203125000000 2.143997192383 179 179 179
8.828125000000 9.968750000000 2.244995117188 203 203 203
8.984375000000 9.875000000000 2.240005493164 199 199 199
8.984375000000 9.859375000000 2.201995849609 184 184 184
8.984375000000 9.859375000000 2.162994384766 197 197 197
8.812500000000 9.656250000000 2.255004882813 193 193 193
8.984375000000 9.546875000000 2.253997802734 194 194 194
8.984375000000 9.531250000000 2.218002319336 176 176 176
8.984375000000 9.531250000000 2.179000854492 179 179 179
8.984375000000 9.531250000000 2.138000488281 165 165 165
8.796875000000 9.328125000000 2.276992797852 138 138 138
8.828125000000 9.312500000000 2.240997314453 203 203 203
9.015625000000 9.187500000000 2.250991821289 201 201 201
9.015625000000 9.187500000000 2.209991455078 201 201 201
9.015625000000 9.187500000000 2.171005249023 199 199 199
9.015625000000 9.187500000000 2.128997802734 97 97 97
8.984375000000 8.859375000000 2.389999389648 74 74 74
8.984375000000 8.859375000000 2.350997924805 22 22 22
9.000000000000 8.859375000000 2.313995361328 124 124 124
8.921875000000 8.906250000000 2.255996704102 186 186 186
9.046875000000 8.812500000000 2.248992919922 202 202 202
9.046875000000 8.812500000000 2.209991455078 204 204 204
9.046875000000 8.828125000000 2.168991088867 208 208 208
9.046875000000 8.828125000000 2.128997802734 56 56 56
8.796875000000 8.656250000000 2.287994384766 146 146 146
8.796875000000 8.640625000000 2.250000000000 207 207 207
9.046875000000 8.484375000000 2.270004272461 212 212 212
9.078125000000 8.468750000000 2.238998413086 206 206 206
9.078125000000 8.453125000000 2.199996948242 206 206 206
9.078125000000 8.468750000000 2.160995483398 194 194 194
8.750000000000 8.343750000000 2.298004150391 22 22 22
8.796875000000 8.312500000000 2.265991210938 205 205 205
8.859375000000 8.281250000000 2.237991333008 211 211 211
9.125000000000 8.093750000000 2.264999389648 203 203 203
9.125000000000 8.093750000000 2.225997924805 195 195 195
9.109375000000 8.109375000000 2.186996459961 185 185 185
9.140625000000 8.093750000000 2.151992797852 166 166 166
8.921875000000 7.906250000000 2.391998291016 33 33 33
8.781250000000 8.000000000000 2.279998779297 199 199 199
8.781250000000 8.000000000000 2.240005493164 131 131 131
9.140625000000 7.765625000000 2.283996582031 186 186 186
9.140625000000 7.765625000000 2.248992919922 204 204 204
9.140625000000 7.765625000000 2.208999633789 202 202 202
9.140625000000 7.750000000000 2.171997070313 200 200 200
8.921875000000 7.578125000000 2.412002563477 41 41 41
8.750000000000 7.687500000000 2.294998168945 158 158 158
8.765625000000 7.687500000000 2.255004882813 198 198 198
8.765625000000 7.687500000000 2.214004516602 208 208 208
9.171875000000 7.421875000000 2.274993896484 203 203 203
9.171875000000 7.421875000000 2.237991333008 205 205 205
9.171875000000 7.421875000000 2.199005126953 204 204 204
9.171875000000 7.421875000000 2.160995483398 197 197 197
8.921875000000 7.234375000000 2.436996459961 29 29 29
8.750000000000 7.359375000000 2.278991699219 196 196 196
8.750000000000 7.359375000000 2.237991333008 201 201 201
8.781250000000 7.328125000000 2.205001831055 207 207 207
9.203125000000 7.062500000000 2.268005371094 204 204 204
9.203125000000 7.062500000000 2.229995727539 204 204 204
9.203125000000 7.062500000000 2.190994262695 203 203 203
9.203125000000 7.062500000000 2.154998779297 191 191 191
8.734375000000 7.015625000000 2.300003051758 149 149 149
8.734375000000 7.015625000000 2.263000488281 190 190 190
8.734375000000 7.015625000000 2.222000122070 172 172 172
9.171875000000 6.734375000000 2.285995483398 156 156 156
9.234375000000 6.703125000000 2.263000488281 206 206 206
9.234375000000 6.703125000000 2.223999023438 208 208 208
9.234375000000 6.703125000000 2.188003540039 206 206 206
9.234375000000 6.687500000000 2.151000976563 173 173 173
8.968750000000 6.531250000000 2.526000976563 42 42 42
8.734375000000 6.671875000000 2.281005859375 197 197 197
8.734375000000 6.671875000000 2.240005493164 206 206 206
8.734375000000 6.671875000000 2.199005126953 207 207 207
9.234375000000 6.359375000000 2.281005859375 201 201 201
9.265625000000 6.343750000000 2.250000000000 205 205 205
9.250000000000 6.343750000000 2.212005615234 204 204 204
9.265625000000 6.343750000000 2.175994873047 206 206 206
9.265625000000 6.343750000000 2.138000488281 132 132 132
8.984375000000 6.203125000000 2.544998168945 74 74 74
8.703125000000 6.375000000000 2.292999267578 150 150 150
8.734375000000 6.343750000000 2.257995605469 198 198 198
8.734375000000 6.359375000000 2.216995239258 204 204 204
8.734375000000 6.343750000000 2.177001953125 197 197 197
9.281250000000 6.000000000000 2.274002075195 198 198 198
9.281250000000 6.000000000000 2.235992431641 206 206 206
9.265625000000 6.000000000000 2.199005126953 205 205 205
9.281250000000 6.000000000000 2.162002563477 203 203 203
9.265625000000 6.000000000000 2.123001098633 74 74 74
9.078125000000 5.796875000000 2.583999633789 44 44 44
8.718750000000 6.031250000000 2.274993896484 188 188 188
8.718750000000 6.031250000000 2.235000610352 198 198 198
8.718750000000 6.031250000000 2.192993164063 208 208 208
8.703125000000 6.046875000000 2.147994995117 164 164 164
9.296875000000 5.671875000000 2.261001586914 206 206 206
9.296875000000 5.671875000000 2.223999023438 204 204 204
9.296875000000 5.671875000000 2.186996459961 205 205 205
9.296875000000 5.671875000000 2.149993896484 201 201 201
8.828125000000 5.640625000000 2.593994140625 56 56 56
9.171875000000 5.421875000000 2.615997314453 37 37 37
8.718750000000 5.703125000000 2.291992187500 145 145 145
8.718750000000 5.703125000000 2.250991821289 184 184 184
8.734375000000 5.703125000000 2.212005615234 199 199 199
8.734375000000 5.703125000000 2.171005249023 202 202 202
9.296875000000 5.343750000000 2.274002075195 226 226 226
9.328125000000 5.328125000000 2.246002197266 209 209 209
9.328125000000 5.328125000000 2.207992553711 208 208 208
9.328125000000 5.328125000000 2.171997070313 206 206 206
9.328125000000 5.328125000000 2.134002685547 191 191 191
8.734375000000 5.359375000000 2.270996093750 181 181 181
8.734375000000 5.359375000000 2.231002807617 194 194 194
8.734375000000 5.375000000000 2.188995361328 206 206 206
8.734375000000 5.359375000000 2.151000976563 198 198 198
9.359375000000 4.984375000000 2.266998291016 191 191 191
9.359375000000 4.984375000000 2.231002807617 209 209 209
9.359375000000 4.984375000000 2.194992065430 209 209 209
9.359375000000 4.984375000000 2.158004760742 207 207 207
9.359375000000 4.984375000000 2.121002197266 166 166 166
8.765625000000 5.000000000000 2.660995483398 45 45 45
8.718750000000 5.031250000000 2.291992187500 34 34 34
8.734375000000 5.015625000000 2.255996704102 176 176 176
8.734375000000 5.015625000000 2.214996337891 180 180 180
8.734375000000 5.015625000000 2.175994873047 194 194 194
9.328125000000 4.656250000000 2.283004760742 98 98 98
9.375000000000 4.625000000000 2.257995605469 148 148 148
9.359375000000 4.625000000000 2.220993041992 147 147 147
9.375000000000 4.625000000000 2.186004638672 143 143 143
9.375000000000 4.609375000000 2.151000976563 150 150 150
9.375000000000 4.609375000000 2.115005493164 137 137 137
8.703125000000 5.046875000000 2.123992919922 169 169 169
8.734375000000 4.687500000000 2.679000854492 43 43 43
8.734375000000 4.687500000000 2.278991699219 93 93 93
8.734375000000 4.671875000000 2.242996215820 137 137 137
8.734375000000 4.671875000000 2.201995849609 136 136 136
9.218750000000 4.375000000000 2.277999877930 165 165 165
9.250000000000 4.343750000000 2.250000000000 163 163 163
9.390625000000 4.265625000000 2.250000000000 153 153 153
9.390625000000 4.265625000000 2.216995239258 148 148 148
9.390625000000 4.265625000000 2.179992675781 150 150 150
9.390625000000 4.265625000000 2.141998291016 148 148 148
9.390625000000 4.265625000000 2.104995727539 143 143 143
9.265625000000 4.328125000000 2.031005859375 163 163 163
9.265625000000 4.343750000000 1.990005493164 168 168 168
9.265625000000 4.343750000000 1.953994750977 169 169 169
9.250000000000 4.343750000000 1.914001464844 170 170 170
9.265625000000 4.343750000000 1.876998901367 170 170 170
9.265625000000 4.343750000000 1.839996337891 172 172 172
9.265625000000 4.328125000000 1.802001953125 170 170 170
9.265625000000 4.343750000000 1.763000488281 173 173 173
9.265625000000 4.328125000000 1.725006103516 170 170 170
9.265625000000 4.328125000000 1.686996459961 171 171 171
9.265625000000 4.328125000000 1.647994995117 170 170 170
9.234375000000 4.343750000000 1.602005004883 185 185 185
9.234375000000 4.343750000000 1.199005126953 180 180 180
9.265625000000 4.312500000000 1.179000854492 182 182 182
8.968750000000 4.203125000000 2.315002441406 128 128 128
9.109375000000 4.109375000000 2.311004638672 123 123 123
9.250000000000 4.015625000000 2.305999755859 168 168 168
9.265625000000 4.015625000000 2.272994995117 172 172 172
9.265625000000 4.000000000000 2.236999511719 172 172 172
9.359375000000 3.953125000000 2.225997924805 162 162 162
9.515625000000 3.859375000000 2.227996826172 147 147 147
9.796875000000 3.687500000000 2.270996093750 149 149 149
9.828125000000 3.656250000000 2.248992919922 152 152 152
9.828125000000 3.656250000000 2.218002319336 157 157 157
9.843750000000 3.656250000000 2.186996459961 151 151 151
9.828125000000 3.656250000000 2.151000976563 158 158 158
9.828125000000 3.656250000000 2.117004394531 155 155 155
9.828125000000 3.656250000000 2.083999633789 157 157 157
9.828125000000 3.656250000000 2.044998168945 162 162 162
9.265625000000 4.000000000000 1.826004028320 172 172 172
9.265625000000 4.000000000000 1.787002563477 172 172 172
9.265625000000 4.000000000000 1.750000000000 170 170 170
9.265625000000 4.000000000000 1.707992553711 172 172 172
9.265625000000 4.000000000000 1.671997070313 169 169 169
9.265625000000 4.000000000000 1.634994506836 169 169 169
9.234375000000 4.031250000000 1.578002929688 159 159 159
9.140625000000 4.078125000000 1.503005981445 158 158 158
9.140625000000 4.078125000000 1.462997436523 153 153 153
9.140625000000 4.078125000000 1.421997070313 153 153 153
9.140625000000 4.078125000000 1.382003784180 145 145 145
9.140625000000 4.078125000000 1.339996337891 148 148 148
9.140625000000 4.078125000000 1.298995971680 143 143 143
9.125000000000 4.078125000000 1.257003784180 145 145 145
9.156250000000 4.062500000000 1.229003906250 125 125 125
9.203125000000 4.031250000000 1.210998535156 161 161 161
8.828125000000 3.968750000000 2.298004150391 100 100 100
8.859375000000 3.937500000000 2.265991210938 149 149 149
8.875000000000 3.937500000000 2.227996826172 148 148 148
8.890625000000 3.921875000000 2.190994262695 145 145 145
8.875000000000 3.937500000000 2.151000976563 145 145 145
8.890625000000 3.937500000000 2.110992431641 126 126 126
9.640625000000 3.453125000000 2.281005859375 117 117 117
9.765625000000 3.375000000000 2.277999877930 137 137 137
9.796875000000 3.343750000000 2.253997802734 147 147 147
9.796875000000 3.343750000000 2.220993041992 149 149 149
9.812500000000 3.343750000000 2.188995361328 143 143 143
9.812500000000 3.343750000000 2.156005859375 144 144 144
9.796875000000 3.343750000000 2.121002197266 144 144 144
9.812500000000 3.343750000000 2.087997436523 148 148 148
9.765625000000 3.375000000000 2.041000366211 167 167 167
8.875000000000 3.921875000000 1.707000732422 195 195 195
8.875000000000 3.921875000000 1.666992187500 201 201 201
8.875000000000 3.921875000000 1.626998901367 188 188 188
8.609375000000 3.765625000000 2.259002685547 59 59 59
8.625000000000 3.750000000000 2.223999023438 116 116 116
8.609375000000 3.750000000000 2.179992675781 112 112 112
8.625000000000 3.750000000000 2.141998291016 117 117 117
8.625000000000 3.750000000000 2.100006103516 123 123 123
8.546875000000 3.453125000000 2.270996093750 126 126 126
8.609375000000 3.421875000000 2.242004394531 136 136 136
8.625000000000 3.406250000000 2.205001831055 142 142 142
8.640625000000 3.406250000000 2.164993286133 138 138 138
8.625000000000 3.406250000000 2.121994018555 141 141 141
8.625000000000 3.406250000000 2.082000732422 147 147 147
8.609375000000 3.421875000000 2.035003662109 104 104 104
9.703125000000 3.578125000000 2.013992309570 16 16 16
9.859375000000 3.656250000000 2.093994140625 164 164 164
9.859375000000 3.656250000000 2.128005981445 167 167 167
9.859375000000 3.640625000000 2.160003662109 163 163 163
9.859375000000 3.656250000000 2.194992065430 158 158 158
9.859375000000 3.656250000000 2.225997924805 165 165 165
9.859375000000 3.656250000000 2.259002685547 160 160 160
9.859375000000 3.640625000000 2.289993286133 159 159 159
9.765625000000 3.609375000000 2.300003051758 139 139 139
9.640625000000 3.531250000000 2.298995971680 126 126 126
9.515625000000 3.843750000000 2.113998413086 121 121 121
9.515625000000 3.843750000000 2.149002075195 152 152 152
9.515625000000 3.843750000000 2.180999755859 146 146 146
9.515625000000 3.843750000000 2.218002319336 146 146 146
9.515625000000 3.843750000000 2.250000000000 152 152 152
8.546875000000 3.312500000000 2.033996582031 105 105 105
8.609375000000 3.343750000000 2.093994140625 156 156 156
8.625000000000 3.359375000000 2.138000488281 161 161 161
8.625000000000 3.359375000000 2.179000854492 156 156 156
8.625000000000 3.359375000000 2.218994140625 151 151 151
8.625000000000 3.359375000000 2.257995605469 157 157 157
8.609375000000 3.343750000000 2.298004150391 83 83 83
9.328125000000 4.093750000000 1.160995483398 204 204 204
9.296875000000 4.078125000000 1.188003540039 193 193 193
9.296875000000 4.078125000000 1.222000122070 179 179 179
9.234375000000 4.046875000000 1.233001708984 153 153 153
9.203125000000 4.031250000000 1.582992553711 252 252 252
9.296875000000 4.078125000000 1.651000976563 178 178 178
9.296875000000 4.078125000000 1.690994262695 176 176 176
9.296875000000 4.078125000000 1.727996826172 180 180 180
9.296875000000 4.078125000000 1.765991210938 177 177 177
