21.073059082031 20.258975982666 3.263000488281 225 225 225
20.723651885986 20.466815948486 3.246994018555 216 216 216
20.723651885986 20.466815948486 3.280990600586 151 151 151
21.129629135132 20.576087951660 3.130996704102 211 211 211
21.129629135132 20.576087951660 3.164001464844 219 219 219
21.129629135132 20.576087951660 3.196990966797 218 218 218
21.125381469727 20.569530487061 3.228988647461 217 217 217
21.103404998779 20.593082427979 3.259994506836 218 218 218
20.736272811890 20.831031799316 3.242996215820 223 223 223
20.736272811890 20.831031799316 3.277999877930 161 161 161
21.068191528320 20.969680786133 3.114990234375 93 93 93
21.068191528320 20.969680786133 3.149993896484 218 218 218
21.068191528320 20.969680786133 3.183990478516 217 217 217
21.068191528320 20.969680786133 3.218002319336 217 217 217
21.068191528320 20.969680786133 3.252990722656 218 218 218
20.784345626831 21.135032653809 3.250000000000 220 220 220
20.740394592285 21.182136535645 3.280990600586 151 151 151
21.037229537964 21.352836608887 3.138000488281 208 208 208
21.037229537964 21.352836608887 3.173995971680 204 204 204
21.032615661621 21.374446868896 3.208999633789 211 211 211
21.032615661621 21.374446868896 3.244995117188 218 218 218
20.853664398193 21.471811294556 3.261001586914 215 215 215
20.766128540039 21.537855148315 3.284988403320 102 102 102
20.993154525757 21.744489669800 3.125991821289 131 131 131
20.980041503906 21.752986907959 3.162002563477 219 219 219
20.993154525757 21.744489669800 3.199996948242 211 211 211
20.980041503906 21.752986907959 3.235992431641 211 211 211
20.940706253052 21.778482437134 3.267990112305 207 207 207
20.783363342285 21.880460739136 3.287002563477 58 58 58
20.944828033447 22.129585266113 3.149002075195 203 203 203
20.944828033447 22.129585266113 3.187988281250 212 212 212
20.971054077148 22.112590789795 3.226989746094 210 210 210
20.957942962646 22.121088027954 3.264999389648 204 204 204
20.957942962646 22.121088027954 3.302993774414 160 160 160
20.957942962646 22.121088027954 3.340988159180 159 159 159
20.957942962646 22.121088027954 3.378997802734 150 150 150
20.971054077148 22.112590789795 3.417999267578 120 120 120
20.914230346680 22.484573364258 3.138000488281 142 142 142
20.914230346680 22.484573364258 3.177001953125 213 213 213
20.914230346680 22.484573364258 3.216995239258 211 211 211
20.927341461182 22.476076126099 3.256988525391 214 214 214
20.861782073975 22.518566131592 3.289993286133 102 102 102
20.870155334473 22.876228332520 3.168991088867 163 163 163
20.874404907227 22.882781982422 3.208999633789 170 170 170
20.874404907227 22.882781982422 3.250000000000 162 162 162
21.207822799683 19.892333984375 3.113998413086 207 207 207
21.194711685181 19.900831222534 3.149002075195 232 232 232
21.194711685181 19.900831222534 3.182998657227 230 230 230
21.207822799683 19.892333984375 3.218994140625 231 231 231
21.181598663330 19.909328460693 3.251998901367 229 229 229
21.160957336426 20.164764404297 3.101989746094 101 101 101
21.178318023682 20.162824630737 3.138992309570 231 231 231
21.160957336426 20.164764404297 3.172988891602 229 229 229
21.160957336426 20.164764404297 3.208999633789 230 230 230
21.160957336426 20.164764404297 3.246002197266 232 232 232
21.148811340332 20.433315277100 3.126998901367 224 224 224
21.148811340332 20.433315277100 3.164001464844 232 232 232
21.148811340332 20.433315277100 3.200988769531 232 232 232
21.148811340332 20.433315277100 3.237991333008 234 234 234
20.724016189575 20.438650131226 3.255996704102 220 220 220
21.106559753418 20.684137344360 3.113998413086 182 182 182
21.089200973511 20.686080932617 3.149993896484 237 237 237
21.093448638916 20.692634582520 3.188995361328 232 232 232
21.106559753418 20.684137344360 3.228988647461 232 232 232
21.019756317139 20.693847656250 3.254989624023 234 234 234
20.729232788086 20.705257415771 3.254989624023 219 219 219
21.072807312012 20.948070526123 3.139999389648 230 230 230
21.072807312012 20.948070526123 3.179000854492 228 228 228
21.072807312012 20.948070526123 3.218002319336 233 233 233
21.072807312012 20.948070526123 3.254989624023 230 230 230
20.751810073853 20.969921112061 3.253997802734 224 224 224
21.056415557861 21.210063934326 3.127990722656 214 214 214
21.060663223267 21.216621398926 3.168991088867 225 225 225
21.060663223267 21.216621398926 3.209991455078 230 230 230
21.056415557861 21.210063934326 3.248992919922 231 231 231
20.761642456055 21.214916229248 3.253997802734 225 225 225
21.013797760010 21.489051818848 3.121002197266 175 175 175
21.013797760010 21.489051818848 3.162002563477 227 227 227
21.018409729004 21.467441558838 3.203994750977 226 226 226
21.018409729004 21.467441558838 3.246002197266 231 231 231
20.779970169067 21.473024368286 3.259002685547 221 221 221
20.993154525757 21.744489669800 3.118988037109 158 158 158
20.993154525757 21.744489669800 3.162002563477 232 232 232
20.993154525757 21.744489669800 3.203994750977 231 231 231
20.984657287598 21.731376647949 3.246994018555 229 229 229
20.797933578491 21.759298324585 3.266998291016 192 192 192
20.963649749756 22.014980316162 3.118988037109 126 126 126
20.950538635254 22.023479461670 3.162002563477 229 229 229
20.968263626099 21.993370056152 3.205993652344 210 210 210
20.955150604248 22.001869201660 3.248992919922 205 205 205
20.955150604248 22.001869201660 3.291992187500 167 167 167
20.972511291504 21.999925613403 3.336990356445 195 195 195
20.955150604248 22.001869201660 3.378997802734 179 179 179
20.955150604248 22.001869201660 3.421997070313 163 163 163
20.934143066406 22.285469055176 3.114990234375 53 53 53
20.947254180908 22.276971817017 3.159988403320 226 226 226
20.934143066406 22.285469055176 3.205001831055 229 229 229
20.947254180908 22.276971817017 3.250000000000 228 228 228
20.851951599121 22.273571014404 3.283996582031 78 78 78
20.913501739502 22.540906906128 3.153991699219 215 215 215
20.926612854004 22.532409667969 3.199996948242 228 228 228
20.913501739502 22.540906906128 3.244995117188 231 231 231
20.874530792236 22.538234710693 3.285995483398 108 108 108
20.849639892578 22.787117004395 3.144989013672 213 213 213
20.867000579834 22.785173416138 3.192993164063 236 236 236
20.884361267090 22.783229827881 3.240997314453 230 230 230
20.849639892578 22.787117004395 3.283996582031 75 75 75
20.880477905273 22.748508453369 3.114990234375 188 188 188
20.893589019775 22.740011215210 3.162994384766 232 232 232
20.880477905273 22.748508453369 3.208999633789 236 236 236
20.863117218018 22.750450134277 3.253997802734 155 155 155
20.936569213867 22.432857513428 3.114990234375 211 211 211
20.953929901123 22.430913925171 3.162002563477 230 230 230
20.936569213867 22.432857513428 3.207000732422 233 233 233
20.936569213867 22.432857513428 3.251998901367 190 190 190
20.966440200806 22.134201049805 3.118988037109 226 226 226
20.971054077148 22.112590789795 3.162994384766 214 214 214
20.975303649902 22.119144439697 3.207992553711 207 207 207
20.944828033447 22.129585266113 3.248992919922 183 183 183
20.975303649902 22.119144439697 3.296997070313 180 180 180
20.971054077148 22.112590789795 3.339996337891 163 163 163
20.975303649902 22.119144439697 3.384002685547 173 173 173
20.957942962646 22.121088027954 3.427001953125 65 65 65
20.992424011230 21.800821304321 3.089996337891 100 100 100
20.992424011230 21.800821304321 3.132995605469 233 233 233
20.992424011230 21.800821304321 3.175994873047 232 232 232
20.992424011230 21.800821304321 3.218994140625 233 233 233
20.810317993164 21.807132720947 3.240997314453 202 202 202
21.040019989014 21.472055435181 3.110000610352 223 223 223
21.040019989014 21.472055435181 3.151992797852 228 228 228
21.040019989014 21.472055435181 3.192993164063 232 232 232
21.009548187256 21.482496261597 3.231994628906 230 230 230
20.779970169067 21.473024368286 3.246002197266 184 184 184
21.061389923096 21.160285949707 3.085998535156 87 87 87
21.061389923096 21.160285949707 3.125000000000 232 232 232
21.065639495850 21.166843414307 3.166992187500 231 231 231
21.061389923096 21.160285949707 3.207000732422 234 234 234
20.948726654053 21.158828735352 3.231994628906 235 235 235
20.745010375977 21.160526275635 3.248992919922 177 177 177
21.104373931885 20.853132247925 3.091995239258 111 111 111
21.095874786377 20.840021133423 3.131988525391 232 232 232
21.095874786377 20.840021133423 3.169998168945 232 232 232
21.113235473633 20.838077545166 3.209991455078 232 232 232
21.026432037354 20.847789764404 3.238998413086 234 234 234
20.753269195557 20.857257843018 3.242996215820 217 217 217
21.138856887817 20.532867431641 3.099990844727 218 218 218
21.138856887817 20.532867431641 3.138000488281 233 233 233
21.138856887817 20.532867431641 3.175003051758 233 233 233
21.138856887817 20.532867431641 3.213989257813 233 233 233
20.887304306030 20.546947479248 3.216995239258 232 232 232
20.735670089722 20.542816162109 3.235000610352 224 224 224
21.173339843750 20.212600708008 3.080993652344 159 159 159
21.173339843750 20.212600708008 3.116989135742 232 232 232
21.173339843750 20.212600708008 3.153991699219 232 232 232
21.160228729248 20.221099853516 3.190002441406 232 232 232
21.173339843750 20.212600708008 3.226989746094 227 227 227
20.730815887451 20.248043060303 3.199996948242 208 208 208
20.700344085693 20.258483886719 3.236999511719 208 208 208
21.216320037842 19.905445098877 3.074996948242 117 117 117
21.203208923340 19.913944244385 3.108993530273 233 233 233
21.216320037842 19.905445098877 3.144989013672 231 231 231
21.203208923340 19.913944244385 3.179000854492 233 233 233
21.207822799683 19.892333984375 3.215988159180 229 229 229
20.931957244873 22.454467773438 3.246002197266 157 157 157
20.958179473877 22.437469482422 3.203994750977 164 164 164
20.953929901123 22.430913925171 3.157989501953 160 160 160
20.949680328369 22.424358367920 3.115997314453 120 120 120
20.812013626099 22.010848999023 3.242996215820 170 170 170
20.998134613037 21.694713592529 3.242996215820 164 164 164
21.011608123779 21.658048629761 3.205001831055 169 169 169
21.003108978271 21.644935607910 3.164001464844 166 166 166
21.016223907471 21.636438369751 3.121994018555 155 155 155
20.776084899902 21.438301086426 3.246002197266 169 169 169
20.776084899902 21.438301086426 3.203002929688 182 182 182
21.065036773682 20.878627777100 3.242996215820 192 192 192
21.113599777222 20.809913635254 3.213989257813 170 170 170
21.113599777222 20.809913635254 3.175003051758 170 170 170
21.096240997314 20.811855316162 3.136001586914 172 172 172
21.118213653564 20.788303375244 3.100997924805 108 108 108
20.740158081055 20.865755081177 3.254989624023 121 121 121
20.744770050049 20.844142913818 3.215988159180 184 184 184
20.744770050049 20.844142913818 3.175003051758 176 176 176
20.744770050049 20.844142913818 3.134994506836 183 183 183
21.197868347168 19.991886138916 3.236999511719 165 165 165
21.197868347168 19.991886138916 3.200988769531 176 176 176
21.197868347168 19.991886138916 3.166000366211 175 175 175
21.197868347168 19.991886138916 3.129989624023 178 178 178
21.207092285156 19.948665618896 3.097991943359 156 156 156
20.726568222046 20.241489410400 3.248992919922 145 145 145
20.713457107544 20.249986648560 3.207992553711 163 163 163
20.700344085693 20.258483886719 3.129989624023 141 141 141
20.709571838379 20.215263366699 3.095001220703 135 135 135
20.882904052734 22.895895004272 3.269989013672 31 31 31
20.878654479980 22.889339447021 3.227996826172 182 182 182
20.878654479980 22.889339447021 3.186996459961 182 182 182
20.878654479980 22.889339447021 3.145996093750 171 171 171
20.923458099365 22.441354751587 3.263000488281 162 162 162
20.953929901123 22.430913925171 3.225997924805 210 210 210
20.953929901123 22.430913925171 3.185989379883 209 209 209
20.958179473877 22.437469482422 3.146987915039 205 205 205
20.923458099365 22.441354751587 3.104995727539 43 43 43
20.893840789795 22.050914764404 3.409988403320 42 42 42
20.937789916992 22.003810882568 3.376998901367 87 87 87
20.972511291504 21.999925613403 3.340988159180 94 94 94
20.968263626099 21.993370056152 3.302001953125 86 86 86
20.893840789795 22.050914764404 3.256988525391 179 179 179
20.972511291504 21.999925613403 3.227996826172 214 214 214
20.972511291504 21.999925613403 3.190002441406 211 211 211
20.985622406006 21.991428375244 3.152999877930 207 207 207
20.972511291504 21.999925613403 3.113998413086 175 175 175
20.794780731201 21.668243408203 3.252990722656 162 162 162
21.004570007324 21.532272338867 3.240997314453 215 215 215
21.048152923584 21.513332366943 3.208999633789 213 213 213
21.030792236328 21.515275955200 3.171997070313 201 201 201
21.030792236328 21.515275955200 3.136001586914 209 209 209
21.030792236328 21.515275955200 3.097991943359 123 123 123
20.761276245117 21.243082046509 3.261001586914 77 77 77
20.782886505127 21.247695922852 3.226989746094 209 209 209
21.089073181152 21.030628204346 3.229995727539 216 216 216
21.089073181152 21.030628204346 3.195999145508 216 216 216
21.089073181152 21.030628204346 3.162002563477 211 211 211
21.089073181152 21.030628204346 3.126998901367 216 216 216
21.089073181152 21.030628204346 3.093002319336 126 126 126
20.744770050049 20.844142913818 3.264999389648 73 73 73
20.736272811890 20.831031799316 3.229995727539 212 212 212
21.098793029785 20.614692687988 3.240997314453 225 225 225
21.129629135132 20.576087951660 3.214996337891 218 218 218
21.129629135132 20.576087951660 3.181991577148 218 218 218
21.142740249634 20.567588806152 3.149993896484 215 215 215
21.129629135132 20.576087951660 3.115997314453 219 219 219
20.720132827759 20.403926849365 3.263000488281 131 131 131
20.720132827759 20.403926849365 3.228988647461 210 210 210
20.724380493164 20.410484313965 3.194000244141 206 206 206
21.196407318115 20.104549407959 3.228988647461 215 215 215
21.196407318115 20.104549407959 3.196990966797 217 217 217
21.196407318115 20.104549407959 3.166000366211 217 217 217
21.196407318115 20.104549407959 3.134994506836 215 215 215
21.196407318115 20.104549407959 3.104995727539 203 203 203
21.205635070801 20.061328887939 3.110992431641 135 135 135
21.201385498047 20.054775238037 3.145996093750 233 233 233
21.201385498047 20.054775238037 3.181991577148 232 232 232
21.201385498047 20.054775238037 3.218002319336 234 234 234
21.205635070801 20.061328887939 3.253997802734 231 231 231
21.158405303955 20.361928939819 3.132995605469 227 227 227
21.145294189453 20.370426177979 3.168991088867 231 231 231
21.158405303955 20.361928939819 3.207000732422 232 232 232
21.158405303955 20.361928939819 3.242996215820 232 232 232
20.937326431274 20.365568161011 3.250000000000 233 233 233
20.728994369507 20.388874053955 3.259994506836 223 223 223
21.123920440674 20.682193756104 3.114990234375 89 89 89
21.119670867920 20.675640106201 3.152999877930 233 233 233
21.123920440674 20.682193756104 3.192001342773 233 233 233
21.119670867920 20.675640106201 3.229995727539 234 234 234
21.111173629761 20.662525177002 3.265991210938 230 230 230
20.751207351685 20.681705474854 3.256988525391 226 226 226
20.703372955322 20.694086074829 3.292999267578 32 32 32
21.072078704834 21.004402160645 3.130996704102 196 196 196
21.072078704834 21.004402160645 3.169998168945 233 233 233
21.089439392090 21.002460479736 3.210998535156 234 234 234
21.072078704834 21.004402160645 3.248992919922 234 234 234
20.838251113892 20.988376617432 3.256988525391 234 234 234
20.768806457520 20.996143341064 3.289001464844 145 145 145
21.037593841553 21.324668884277 3.110992431641 17 17 17
21.050704956055 21.316171646118 3.153991699219 233 233 233
21.050704956055 21.316171646118 3.195999145508 227 227 227
21.050704956055 21.316171646118 3.235992431641 234 234 234
20.955402374268 21.312770843506 3.264999389648 234 234 234
20.773296356201 21.319082260132 3.284988403320 159 159 159
21.007724761963 21.623325347900 3.147994995117 230 230 230
20.994611740112 21.631824493408 3.188995361328 232 232 232
21.025085449219 21.621383666992 3.233001708984 234 234 234
20.955642700195 21.629154205322 3.266998291016 231 231 231
20.769285202026 21.628910064697 3.287994384766 64 64 64
20.977491378784 21.950149536133 3.141998291016 210 210 210
20.977491378784 21.950149536133 3.186996459961 233 233 233
20.973241806030 21.943593978882 3.228988647461 235 235 235
20.955879211426 21.945535659790 3.269989013672 231 231 231
20.791133880615 21.949905395508 3.294998168945 17 17 17
20.960369110107 22.268474578857 3.134002685547 139 139 139
20.956119537354 22.261917114258 3.179000854492 232 232 232
20.956119537354 22.261917114258 3.222991943359 231 231 231
20.960369110107 22.268474578857 3.268997192383 223 223 223
20.938995361328 22.580242156982 3.168991088867 213 213 213
20.938995361328 22.580242156982 3.214996337891 229 229 229
20.938995361328 22.580242156982 3.261001586914 215 215 215
20.869552612305 22.588012695313 3.298995971680 31 31 31
20.874404907227 22.882781982422 3.205993652344 10 10 10
20.878654479980 22.889339447021 3.253997802734 16 16 16
20.712360382080 20.334484100342 3.277999877930 194 194 194
20.716609954834 20.341041564941 3.243988037109 218 218 218
21.166664123535 20.058658599854 3.274993896484 221 221 221
21.188640594482 20.035106658936 3.246994018555 216 216 216
21.197137832642 20.048217773438 3.215988159180 220 220 220
21.188640594482 20.035106658936 3.184997558594 219 219 219
21.197137832642 20.048217773438 3.153991699219 218 218 218
21.197137832642 20.048217773438 3.125000000000 135 135 135
20.728504180908 20.761589050293 3.302993774414 18 18 18
20.741615295410 20.753089904785 3.267990112305 208 208 208
21.047437667847 20.564186096191 3.274002075195 224 224 224
21.156581878662 20.502758026123 3.254989624023 217 217 217
21.152334213257 20.496200561523 3.222000122070 220 220 220
21.152334213257 20.496200561523 3.188995361328 216 216 216
21.134971618652 20.498144149780 3.155990600586 218 218 218
21.104499816895 20.508584976196 3.117996215820 72 72 72
20.762371063232 21.158584594727 3.266998291016 205 205 205
21.068191528320 20.969680786133 3.270996093750 215 215 215
21.081306457520 20.961181640625 3.237991333008 219 219 219
21.077056884766 20.954627990723 3.203994750977 210 210 210
21.077056884766 20.954627990723 3.169998168945 215 215 215
21.077056884766 20.954627990723 3.136001586914 176 176 176
20.804735183716 21.568691253662 3.272994995117 202 202 202
21.036499023438 21.409168243408 3.265991210938 212 212 212
21.036499023438 21.409168243408 3.229995727539 208 208 208
21.036499023438 21.409168243408 3.192993164063 213 213 213
21.036499023438 21.409168243408 3.156997680664 212 212 212
20.886800765991 21.925140380859 3.284988403320 205 205 205
20.969720840454 21.880706787109 3.255996704102 212 212 212
20.969720840454 21.880706787109 3.218994140625 211 211 211
20.969720840454 21.880706787109 3.180999755859 215 215 215
20.965471267700 21.874149322510 3.141998291016 159 159 159
20.933414459229 22.341802597046 3.281997680664 195 195 195
20.938030242920 22.320192337036 3.244995117188 192 192 192
20.938030242920 22.320192337036 3.205001831055 197 197 197
20.938030242920 22.320192337036 3.166000366211 203 203 203
20.879749298096 22.804840087891 3.267990112305 207 207 207
20.879749298096 22.804840087891 3.226989746094 215 215 215
20.879749298096 22.804840087891 3.185989379883 215 215 215
20.858139038086 22.800228118896 3.143997192383 69 69 69
20.714424133301 20.510036468506 3.264999389648 175 175 175
20.714424133301 20.510036468506 3.223999023438 178 178 178
20.727901458740 20.473373413086 3.186996459961 183 183 183
20.865455627441 20.225952148438 3.190002441406 113 113 113
20.741125106812 21.125804901123 3.283996582031 142 142 142
20.763099670410 21.102252960205 3.243988037109 187 187 187
20.745738983154 21.104194641113 3.200988769531 178 178 178
21.132183074951 20.378925323486 3.272994995117 175 175 175
21.141044616699 20.363868713379 3.240997314453 175 175 175
21.141044616699 20.363868713379 3.203994750977 173 173 173
21.154155731201 20.355371475220 3.166992187500 171 171 171
21.154155731201 20.355371475220 3.129989624023 146 146 146
20.776325225830 21.754684448242 3.302001953125 13 13 13
20.785552978516 21.711463928223 3.261993408203 178 178 178
20.989759445190 21.337051391602 3.274993896484 177 177 177
21.042938232422 21.246726989746 3.246002197266 170 170 170
21.051799774170 21.231674194336 3.207000732422 167 167 167
21.051799774170 21.231674194336 3.166000366211 167 167 167
21.060663223267 21.216621398926 3.127990722656 45 45 45
20.958305358887 22.092922210693 3.446990966797 111 111 111
20.954055786133 22.086364746094 3.401992797852 129 129 129
20.954055786133 22.086364746094 3.358993530273 134 134 134
20.962921142578 22.071311950684 3.315994262695 138 138 138
20.967533111572 22.049701690674 3.272994995117 153 153 153
20.962921142578 22.071311950684 3.227996826172 153 153 153
20.945558547974 22.073253631592 3.181991577148 163 163 163
20.967533111572 22.049701690674 3.139999389648 77 77 77
20.874404907227 22.882781982422 3.274993896484 100 100 100
20.878654479980 22.889339447021 3.227996826172 126 126 126
20.878654479980 22.889339447021 3.179992675781 124 124 124
20.732639312744 20.107213973999 3.208999633789 229 229 229
20.719528198242 20.115711212158 3.246002197266 225 225 225
21.239025115967 19.825561523438 3.116989135742 231 231 231
21.226278305054 19.805892944336 3.149002075195 233 233 233
21.226278305054 19.805892944336 3.182998657227 235 235 235
21.226278305054 19.805892944336 3.218994140625 235 235 235
21.161083221436 19.820217132568 3.243988037109 0 0 0
20.701564788818 19.829439163208 3.210998535156 226 226 226
20.714675903320 19.820941925049 3.248992919922 218 218 218
21.263916015625 19.576679229736 3.099990844727 184 184 184
21.251169204712 19.557014465332 3.131988525391 234 234 234
21.251169204712 19.557014465332 3.166000366211 234 234 234
21.251169204712 19.557014465332 3.197998046875 237 237 237
21.255418777466 19.563568115234 3.233993530273 226 226 226
20.674373626709 19.586383819580 3.175994873047 226 226 226
20.704845428467 19.575942993164 3.216995239258 227 227 227
20.704845428467 19.575942993164 3.253997802734 204 204 204
21.276062011719 19.308132171631 3.116989135742 232 232 232
21.276062011719 19.308132171631 3.149993896484 233 233 233
21.276062011719 19.308132171631 3.181991577148 235 235 235
21.276062011719 19.308132171631 3.213989257813 240 240 240
21.276062011719 19.308132171631 3.244995117188 238 238 238
20.699264526367 19.337505340576 3.187988281250 218 218 218
20.699264526367 19.337505340576 3.223999023438 225 225 225
20.699264526367 19.337505340576 3.259994506836 190 190 190
21.309814453125 19.044197082520 3.104995727539 155 155 155
21.292453765869 19.046138763428 3.134002685547 168 168 168
21.296703338623 19.052696228027 3.166992187500 168 168 168
21.292453765869 19.046138763428 3.196990966797 168 168 168
21.296703338623 19.052696228027 3.229995727539 169 169 169
21.309814453125 19.044197082520 3.261993408203 157 157 157
20.680934906006 19.079395294189 3.194000244141 186 186 186
20.694047927856 19.070898056030 3.228988647461 182 182 182
20.694047927856 19.070898056030 3.263992309570 152 152 152
21.317344665527 18.797260284424 3.091995239258 155 155 155
21.317344665527 18.797260284424 3.123001098633 183 183 183
21.317344665527 18.797260284424 3.152999877930 179 179 179
21.330455780029 18.788761138916 3.184997558594 175 175 175
21.317344665527 18.797260284424 3.213989257813 176 176 176
21.317344665527 18.797260284424 3.244995117188 174 174 174
20.623636245728 18.818618774414 3.158996582031 166 166 166
20.688829421997 18.804294586182 3.200988769531 184 184 184
20.693078994751 18.810848236084 3.235992431641 184 184 184
20.675718307495 18.812791824341 3.267990112305 96 96 96
21.103431701660 18.582126617432 2.280990600586 148 148 148
21.103431701660 18.582126617432 2.315002441406 149 149 149
21.103431701660 18.582126617432 2.343994140625 148 148 148
21.111930847168 18.595237731934 2.384994506836 149 149 149
21.107681274414 18.588684082031 2.416000366211 149 149 149
21.103431701660 18.582126617432 2.448989868164 148 148 148
21.094932556152 18.569015502930 2.481002807617 149 149 149
21.094932556152 18.569015502930 2.513992309570 153 153 153
21.129655838013 18.565132141113 2.557998657227 152 152 152
21.211847305298 18.577030181885 2.613998413086 159 159 159
21.211847305298 18.577030181885 2.645996093750 170 170 170
21.233821868896 18.553478240967 2.681991577148 161 161 161
21.199100494385 18.557361602783 2.707992553711 184 184 184
21.199100494385 18.557361602783 2.740997314453 181 181 181
21.199100494385 18.557361602783 2.769989013672 185 185 185
21.216461181641 18.555419921875 2.804992675781 187 187 187
21.216461181641 18.555419921875 2.836990356445 212 212 212
21.199100494385 18.557361602783 2.864990234375 224 224 224
21.199100494385 18.557361602783 2.897994995117 191 191 191
21.199100494385 18.557361602783 2.927993774414 192 192 192
21.216461181641 18.555419921875 2.960998535156 192 192 192
21.216461181641 18.555419921875 2.991989135742 190 190 190
21.221073150635 18.533809661865 3.022994995117 184 184 184
21.268543243408 18.549591064453 3.067993164063 184 184 184
21.342235565186 18.548377990723 3.112991333008 175 175 175
21.342235565186 18.548377990723 3.141998291016 182 182 182
21.342235565186 18.548377990723 3.170989990234 184 184 184
21.355346679688 18.539880752563 3.203002929688 185 185 185
21.346849441528 18.526769638062 3.231002807617 179 179 179
21.307878494263 18.524097442627 3.253997802734 180 180 180
21.221073150635 18.533809661865 3.266998291016 210 210 210
21.190601348877 18.544250488281 3.292999267578 192 192 192
21.091049194336 18.534292221069 3.307998657227 137 137 137
20.887331008911 18.535991668701 3.307998657227 107 107 107
21.211244583130 18.288814544678 2.582992553711 163 163 163
21.198131561279 18.297311782837 2.611999511719 196 196 196
21.211244583130 18.288814544678 2.645996093750 194 194 194
21.211244583130 18.288814544678 2.677001953125 190 190 190
21.198131561279 18.297311782837 2.705993652344 187 187 187
21.198131561279 18.297311782837 2.735992431641 187 187 187
21.198131561279 18.297311782837 2.766998291016 178 178 178
21.185020446777 18.305809020996 2.794998168945 169 169 169
21.185020446777 18.305809020996 2.826995849609 163 163 163
21.172271728516 18.286140441895 2.854995727539 163 163 163
21.168024063110 18.279586791992 2.882995605469 157 157 157
21.154911041260 18.288084030151 2.910995483398 146 146 146
21.133300781250 18.283470153809 2.934997558594 137 137 137
21.102828979492 18.293910980225 2.959991455078 122 122 122
21.354381561279 18.279830932617 3.046997070313 138 138 138
21.441184997559 18.270120620728 3.095001220703 154 154 154
21.428073883057 18.278617858887 3.121994018555 171 171 171
21.441184997559 18.270120620728 3.153991699219 173 173 173
21.441184997559 18.270120620728 3.179992675781 174 174 174
21.428073883057 18.278617858887 3.207000732422 174 174 174
21.445798873901 18.248508453369 3.236999511719 170 170 170
21.363243103027 18.264776229858 3.250000000000 165 165 165
20.777584075928 18.309204101563 3.172988891602 140 140 140
20.755973815918 18.304590225220 3.198989868164 138 138 138
20.678031921387 18.299247741699 3.218002319336 154 154 154
20.608587265015 18.307016372681 3.237991333008 158 158 158
21.548633575439 18.004970550537 3.057998657227 185 185 185
21.552883148193 18.011528015137 3.085998535156 201 201 201
21.548633575439 18.004970550537 3.111999511719 203 203 203
21.552883148193 18.011528015137 3.140991210938 200 200 200
21.570241928101 18.009586334229 3.172988891602 162 162 162
21.552883148193 18.011528015137 3.194992065430 201 201 201
21.552883148193 18.011528015137 3.222000122070 201 201 201
21.548633575439 18.004970550537 3.246994018555 198 198 198
21.552883148193 18.011528015137 3.274993896484 205 205 205
21.509662628174 18.002300262451 3.294998168945 107 107 107
20.581394195557 18.063961029053 3.151000976563 188 188 188
20.581394195557 18.063961029053 3.181991577148 191 191 191
20.581394195557 18.063961029053 3.214996337891 193 193 193
20.581394195557 18.063961029053 3.244995117188 170 170 170
20.529312133789 18.069789886475 3.268997192383 131 131 131
20.529312133789 18.069789886475 3.106994628906 159 159 159
21.547300338745 17.773086547852 3.058990478516 182 182 182
21.543050765991 17.766532897949 3.084991455078 199 199 199
21.547300338745 17.773086547852 3.112991333008 196 196 196
21.547300338745 17.773086547852 3.138992309570 204 204 204
21.547300338745 17.773086547852 3.164993286133 201 201 201
21.547300338745 17.773086547852 3.190002441406 199 199 199
21.543050765991 17.766532897949 3.215988159180 201 201 201
21.560411453247 17.764589309692 3.244995117188 199 199 199
21.551914215088 17.751478195190 3.267990112305 196 196 196
21.530303955078 17.746864318848 3.289993286133 137 137 137
20.593540191650 17.795413970947 3.132995605469 184 184 184
20.593540191650 17.795413970947 3.166000366211 171 171 171
20.593540191650 17.795413970947 3.196990966797 192 192 192
20.593540191650 17.795413970947 3.226989746094 194 194 194
20.558816909790 17.799297332764 3.251998901367 177 177 177
20.519847869873 17.796627044678 3.280990600586 117 117 117
20.524097442627 17.803184509277 3.087997436523 152 152 152
21.261854171753 19.401126861572 3.270996093750 28 28 28
21.293056488037 19.334354400635 3.246994018555 192 192 192
21.293056488037 19.334354400635 3.212997436523 196 196 196
21.293056488037 19.334354400635 3.181991577148 196 196 196
21.288806915283 19.327800750732 3.149993896484 195 195 195
21.293056488037 19.334354400635 3.114990234375 189 189 189
20.735191345215 19.910053253174 3.274002075195 125 125 125
20.726694107056 19.896942138672 3.236999511719 194 194 194
20.735191345215 19.910053253174 3.197998046875 207 207 207
20.726694107056 19.896942138672 3.160995483398 203 203 203
20.726694107056 19.896942138672 3.123001098633 178 178 178
21.340047836304 18.717376708984 3.270996093750 72 72 72
21.348911285400 18.702322006226 3.244995117188 124 124 124
21.348911285400 18.702322006226 3.214996337891 126 126 126
21.353525161743 18.680709838867 3.184997558594 118 118 118
21.348911285400 18.702322006226 3.152999877930 125 125 125
21.353525161743 18.680709838867 3.125000000000 126 126 126
21.345027923584 18.667598724365 3.095993041992 111 111 111
20.698534011841 19.393836975098 3.256988525391 177 177 177
20.720508575439 19.370285034180 3.222991943359 190 190 190
21.080728530884 18.662010192871 3.312988281250 107 107 107
21.160858154297 18.498359680176 3.310989379883 146 146 146
21.218284606934 18.414588928223 3.295989990234 174 174 174
21.222896575928 18.392978668213 3.269989013672 178 178 178
21.231760025024 18.377925872803 3.240997314453 175 175 175
21.231760025024 18.377925872803 3.210998535156 174 174 174
21.231760025024 18.377925872803 3.181991577148 157 157 157
21.538803100586 17.759975433350 3.285995483398 165 165 165
21.556528091431 17.729869842529 3.266998291016 174 174 174
21.551914215088 17.751478195190 3.240997314453 171 171 171
21.556528091431 17.729869842529 3.214996337891 170 170 170
21.551914215088 17.751478195190 3.185989379883 173 173 173
21.556528091431 17.729869842529 3.160995483398 177 177 177
21.556528091431 17.729869842529 3.136001586914 169 169 169
21.556528091431 17.729869842529 3.106994628906 170 170 170
21.556528091431 17.729869842529 3.080993652344 171 171 171
21.521076202393 17.790084838867 3.042999267578 170 170 170
21.219013214111 18.358257293701 2.848999023438 184 184 184
21.219013214111 18.358257293701 2.817993164063 183 183 183
21.223625183105 18.336647033691 2.789993286133 186 186 186
21.223625183105 18.336647033691 2.757995605469 185 185 185
21.223625183105 18.336647033691 2.726989746094 185 185 185
21.223625183105 18.336647033691 2.695999145508 187 187 187
21.223625183105 18.336647033691 2.664993286133 186 186 186
21.228240966797 18.315036773682 2.634994506836 187 187 187
21.228240966797 18.315036773682 2.604995727539 188 188 188
21.126136779785 18.502243041992 2.509002685547 125 125 125
21.117271423340 18.517295837402 2.463989257813 119 119 119
21.121887207031 18.495685577393 2.436996459961 118 118 118
21.121887207031 18.495685577393 2.403991699219 120 120 120
21.121887207031 18.495685577393 2.367996215820 124 124 124
21.121887207031 18.495685577393 2.333999633789 128 128 128
21.121887207031 18.495685577393 2.302993774414 121 121 121
20.680809020996 19.423946380615 3.175994873047 160 160 160
20.683124542236 18.910400390625 3.276000976563 24 24 24
20.870334625244 18.509765625000 3.309997558594 137 137 137
20.950464248657 18.346111297607 3.306991577148 168 168 168
20.981300354004 18.307506561279 3.282989501953 201 201 201
20.994415283203 18.299007415771 3.253997802734 210 210 210
20.994415283203 18.299007415771 3.222991943359 207 207 207
20.994415283203 18.299007415771 3.192001342773 205 205 205
20.994415283203 18.299007415771 3.158996582031 205 205 205
20.994415283203 18.299007415771 3.126998901367 204 204 204
20.994415283203 18.299007415771 3.095993041992 205 205 205
20.994415283203 18.299007415771 3.065002441406 209 209 209
20.985916137695 18.285896301270 3.032989501953 205 205 205
20.985916137695 18.285896301270 3.001998901367 207 207 207
20.985916137695 18.285896301270 2.968994140625 206 206 206
20.985916137695 18.285896301270 2.936996459961 207 207 207
20.985916137695 18.285896301270 2.904998779297 208 208 208
20.985916137695 18.285896301270 2.871994018555 206 206 206
20.985916137695 18.285896301270 2.841995239258 206 206 206
20.985916137695 18.285896301270 2.810989379883 205 205 205
20.985916137695 18.285896301270 2.776992797852 207 207 207
20.985916137695 18.285896301270 2.746002197266 207 207 207
20.981666564941 18.279338836670 2.709991455078 203 203 203
20.981666564941 18.279338836670 2.679000854492 206 206 206
20.981666564941 18.279338836670 2.645996093750 204 204 204
20.977416992188 18.272785186768 2.615997314453 206 206 206
20.959692001343 18.302894592285 2.574996948242 191 191 191
20.641853332520 18.415796279907 3.265991210938 26 26 26
20.668439865112 18.370632171631 3.239990234375 157 157 157
20.668439865112 18.370632171631 3.207000732422 151 151 151
20.651077270508 18.372575759888 3.172988891602 145 145 145
20.651077270508 18.372575759888 3.138992309570 148 148 148
20.651077270508 18.372575759888 3.106002807617 156 156 156
20.664192199707 18.364078521729 3.075988769531 38 38 38
20.551288604736 18.046236038208 3.271987915039 60 60 60
20.590988159180 17.992576599121 3.250000000000 104 104 104
20.591352462769 17.964408874512 3.222991943359 120 120 120
20.591352462769 17.964408874512 3.192001342773 115 115 115
20.591352462769 17.964408874512 3.159988403320 129 129 129
20.582855224609 17.951297760010 3.127990722656 119 119 119
20.591352462769 17.964408874512 3.093994140625 118 118 118
20.569013595581 18.016128540039 3.047988891602 86 86 86
20.731910705566 20.163545608521 3.222991943359 157 157 157
20.745023727417 20.155048370361 3.257995605469 203 203 203
21.273872375488 19.477127075195 3.108001708984 179 179 179
21.265373229980 19.464015960693 3.134994506836 221 221 221
21.269622802734 19.470573425293 3.164993286133 222 222 222
21.269622802734 19.470573425293 3.194000244141 221 221 221
21.269622802734 19.470573425293 3.222000122070 222 222 222
21.269622802734 19.470573425293 3.251998901367 217 217 217
20.723537445068 19.805887222290 3.195999145508 219 219 219
20.718925476074 19.827495574951 3.226989746094 201 201 201
20.723537445068 19.805887222290 3.261001586914 196 196 196
21.304471969604 19.122138977051 3.101989746094 126 126 126
21.309085845947 19.100530624390 3.129989624023 180 180 180
21.309085845947 19.100530624390 3.157989501953 183 183 183
21.300222396851 19.115585327148 3.184997558594 181 181 181
21.304836273193 19.093973159790 3.212997436523 180 180 180
21.300222396851 19.115585327148 3.239990234375 179 179 179
20.697076797485 19.506500244141 3.164001464844 165 165 165
20.692829132080 19.499946594238 3.200988769531 221 221 221
20.692829132080 19.499946594238 3.231994628906 209 209 209
20.692829132080 19.499946594238 3.263992309570 182 182 182
21.344297409058 18.723930358887 3.101989746094 141 141 141
21.335433959961 18.738985061646 3.126998901367 163 163 163
21.318075180054 18.740928649902 3.151992797852 163 163 163
21.344297409058 18.723930358887 3.180999755859 153 153 153
21.344297409058 18.723930358887 3.207992553711 153 153 153
21.344297409058 18.723930358887 3.233993530273 149 149 149
21.344297409058 18.723930358887 3.259994506836 152 152 152
20.688703536987 19.148841857910 3.177993774414 196 196 196
20.688703536987 19.148841857910 3.207992553711 207 207 207
20.701816558838 19.140342712402 3.239990234375 200 200 200
20.688703536987 19.148841857910 3.267990112305 115 115 115
21.112659454346 18.538906097412 2.281997680664 139 139 139
21.112659454346 18.538906097412 2.308990478516 141 141 141
21.112659454346 18.538906097412 2.338989257813 143 143 143
21.112659454346 18.538906097412 2.367996215820 138 138 138
21.125770568848 18.530408859253 2.401000976563 135 135 135
21.112659454346 18.538906097412 2.427993774414 138 138 138
21.112659454346 18.538906097412 2.455993652344 138 138 138
21.112659454346 18.538906097412 2.485992431641 137 137 137
21.138883590698 18.521911621094 2.518997192383 132 132 132
21.134634017944 18.515354156494 2.552993774414 150 150 150
21.217554092407 18.470920562744 2.610000610352 193 193 193
21.217554092407 18.470920562744 2.636993408203 191 191 191
21.217554092407 18.470920562744 2.664001464844 192 192 192
21.217554092407 18.470920562744 2.692993164063 190 190 190
21.217554092407 18.470920562744 2.720001220703 191 191 191
21.217554092407 18.470920562744 2.744995117188 192 192 192
21.209056854248 18.457809448242 2.774993896484 193 193 193
21.217554092407 18.470920562744 2.798995971680 193 193 193
21.217554092407 18.470920562744 2.825988769531 195 195 195
21.217554092407 18.470920562744 2.853988647461 194 194 194
21.217554092407 18.470920562744 2.881988525391 197 197 197
21.217554092407 18.470920562744 2.908996582031 193 193 193
21.222167968750 18.449310302734 2.937988281250 193 193 193
21.217554092407 18.470920562744 2.961990356445 196 196 196
21.217554092407 18.470920562744 2.988998413086 193 193 193
21.248390197754 18.432313919067 3.024993896484 195 195 195
21.418846130371 18.321838378906 3.091995239258 127 127 127
21.414232254028 18.343448638916 3.111999511719 137 137 137
21.401121139526 18.351947784424 3.136993408203 143 143 143
21.427345275879 18.334949493408 3.164001464844 145 145 145
21.401121139526 18.351947784424 3.186996459961 147 147 147
21.414232254028 18.343448638916 3.212997436523 144 144 144
21.427345275879 18.334949493408 3.239990234375 137 137 137
21.322448730469 18.402935028076 3.244995117188 177 177 177
21.209056854248 18.457809448242 3.252990722656 192 192 192
21.209056854248 18.457809448242 3.278991699219 194 194 194
21.200193405151 18.472864151001 3.302993774414 180 180 180
21.104160308838 18.525794982910 3.311996459961 128 128 128
20.920593261719 18.644767761230 3.313995361328 111 111 111
20.985916137695 18.285896301270 2.593994140625 163 163 163
20.981666564941 18.279338836670 2.618988037109 177 177 177
20.981666564941 18.279338836670 2.647994995117 180 180 180
20.981666564941 18.279338836670 2.675994873047 176 176 176
20.981666564941 18.279338836670 2.703994750977 179 179 179
20.964305877686 18.281282424927 2.729995727539 180 180 180
20.985916137695 18.285896301270 2.761001586914 177 177 177
20.964305877686 18.281282424927 2.785995483398 177 177 177
20.964305877686 18.281282424927 2.813995361328 179 179 179
20.964305877686 18.281282424927 2.840988159180 179 179 179
20.951194763184 18.289779663086 2.866989135742 180 180 180
20.924968719482 18.306777954102 2.888000488281 157 157 157
21.554340362549 17.898864746094 3.076995849609 189 189 189
21.554340362549 17.898864746094 3.101989746094 189 189 189
21.554340362549 17.898864746094 3.123992919922 194 194 194
21.554340362549 17.898864746094 3.147994995117 189 189 189
21.558588027954 17.905418395996 3.171997070313 189 189 189
21.554340362549 17.898864746094 3.194000244141 189 189 189
21.554340362549 17.898864746094 3.216995239258 189 189 189
21.554340362549 17.898864746094 3.239990234375 190 190 190
21.558588027954 17.905418395996 3.263000488281 189 189 189
21.554340362549 17.898864746094 3.284988403320 184 184 184
20.911857604980 18.315275192261 3.186996459961 170 170 170
20.942331314087 18.304834365845 3.218994140625 181 181 181
20.929218292236 18.313331604004 3.244995117188 180 180 180
20.924968719482 18.306777954102 3.268997192383 181 181 181
20.872524261475 18.340770721436 3.291000366211 173 173 173
20.842048645020 18.351211547852 3.310989379883 33 33 33
20.588436126709 18.189739227295 3.082992553711 135 135 135
20.588436126709 18.189739227295 3.111999511719 156 156 156
20.588436126709 18.189739227295 3.139999389648 148 148 148
20.588436126709 18.189739227295 3.168991088867 145 145 145
20.584186553955 18.183181762695 3.195999145508 153 153 153
20.588436126709 18.189739227295 3.225997924805 151 151 151
20.588436126709 18.189739227295 3.254989624023 113 113 113
20.558090209961 17.855628967285 3.041992187500 109 109 109
20.584312438965 17.838634490967 3.075988769531 157 157 157
20.584312438965 17.838634490967 3.103988647461 157 157 157
20.602037429810 17.808525085449 3.134002685547 162 162 162
20.588926315308 17.817024230957 3.159988403320 156 156 156
20.602037429810 17.808525085449 3.187988281250 160 160 160
20.602037429810 17.808525085449 3.215988159180 160 160 160
20.588926315308 17.817024230957 3.241989135742 147 147 147
20.558090209961 17.855628967285 3.263992309570 145 145 145
20.518753051758 17.881124496460 3.284988403320 83 83 83
20.462421417236 17.880397796631 3.296997070313 61 61 61
20.507099151611 17.776958465576 3.281997680664 138 138 138
20.529073715210 17.753406524658 3.254989624023 137 137 137
20.529073715210 17.753406524658 3.223999023438 152 152 152
20.529073715210 17.753406524658 3.192993164063 151 151 151
20.529073715210 17.753406524658 3.159988403320 148 148 148
20.537937164307 17.738353729248 3.130996704102 147 147 147
20.529073715210 17.753406524658 3.095993041992 158 158 158
20.520210266113 17.768461227417 3.062988281250 129 129 129
20.548736572266 18.243400573730 3.253997802734 153 153 153
20.548736572266 18.243400573730 3.220001220703 160 160 160
20.552986145020 18.249954223633 3.188995361328 151 151 151
20.552986145020 18.249954223633 3.155990600586 151 151 151
20.544486999512 18.236843109131 3.123001098633 154 154 154
20.544486999512 18.236843109131 3.089996337891 106 106 106
20.634321212769 18.662734985352 3.277999877930 61 61 61
20.820804595947 18.318431854248 3.305999755859 183 183 183
20.834281921387 18.281764984131 3.277999877930 203 203 203
20.843143463135 18.266712188721 3.250000000000 208 208 208
20.838531494141 18.288322448730 3.216995239258 207 207 207
20.834281921387 18.281764984131 3.184997558594 207 207 207
20.843143463135 18.266712188721 3.152999877930 202 202 202
20.834281921387 18.281764984131 3.119995117188 209 209 209
20.843143463135 18.266712188721 3.088989257813 208 208 208
20.843143463135 18.266712188721 3.057998657227 206 206 206
20.843143463135 18.266712188721 3.024993896484 205 205 205
20.825782775879 18.268653869629 2.991989135742 205 205 205
20.825782775879 18.268653869629 2.959991455078 208 208 208
20.843143463135 18.266712188721 2.929000854492 206 206 206
20.825782775879 18.268653869629 2.894989013672 206 206 206
20.843143463135 18.266712188721 2.863998413086 206 206 206
20.825782775879 18.268653869629 2.830001831055 206 206 206
20.825782775879 18.268653869629 2.796997070313 210 210 210
20.843143463135 18.266712188721 2.765991210938 208 208 208
20.847755432129 18.245101928711 2.733001708984 209 209 209
20.825782775879 18.268653869629 2.698989868164 207 207 207
20.825782775879 18.268653869629 2.664993286133 206 206 206
20.825782775879 18.268653869629 2.632995605469 207 207 207
20.830394744873 18.247045516968 2.599990844727 200 200 200
20.653617858887 19.180891036987 3.254989624023 187 187 187
20.937955856323 18.642827987671 3.313995361328 159 159 159
21.053173065186 18.447124481201 3.317001342773 138 138 138
21.089351654053 18.330574035645 3.307998657227 179 179 179
21.102828979492 18.293910980225 3.282989501953 203 203 203
21.133300781250 18.283470153809 3.255996704102 207 207 207
21.120189666748 18.291969299316 3.223999023438 210 210 210
21.133300781250 18.283470153809 3.195999145508 206 206 206
21.133300781250 18.283470153809 3.164993286133 206 206 206
21.133300781250 18.283470153809 3.132995605469 210 210 210
21.133300781250 18.283470153809 3.104995727539 209 209 209
21.133300781250 18.283470153809 3.073989868164 207 207 207
21.133300781250 18.283470153809 3.043991088867 208 208 208
21.133300781250 18.283470153809 3.013000488281 207 207 207
21.133300781250 18.283470153809 2.981994628906 209 209 209
21.133300781250 18.283470153809 2.950988769531 209 209 209
21.124803543091 18.270359039307 2.921997070313 208 208 208
21.133300781250 18.283470153809 2.888992309570 203 203 203
21.124803543091 18.270359039307 2.858993530273 205 205 205
21.124803543091 18.270359039307 2.828002929688 204 204 204
21.124803543091 18.270359039307 2.795989990234 205 205 205
21.124803543091 18.270359039307 2.766998291016 209 209 209
21.124803543091 18.270359039307 2.736999511719 204 204 204
21.124803543091 18.270359039307 2.703994750977 204 204 204
21.129417419434 18.248748779297 2.675003051758 205 205 205
21.124803543091 18.270359039307 2.639999389648 203 203 203
21.124803543091 18.270359039307 2.608993530273 205 205 205
21.053901672363 18.390792846680 2.524993896484 192 192 192
21.036174774170 18.420898437500 2.486999511719 181 181 181
21.036174774170 18.420898437500 2.453994750977 189 189 189
21.036174774170 18.420898437500 2.419998168945 182 182 182
21.036174774170 18.420898437500 2.389999389648 184 184 184
21.036174774170 18.420898437500 2.352996826172 180 180 180
21.036174774170 18.420898437500 2.319992065430 180 180 180
21.036174774170 18.420898437500 2.285995483398 183 183 183
20.677162170410 19.705604553223 3.268997192383 184 184 184
20.677162170410 19.705604553223 3.231002807617 191 191 191
20.677162170410 19.705604553223 3.194000244141 204 204 204
20.677162170410 19.705604553223 3.155990600586 201 201 201
20.672912597656 19.699050903320 3.119995117188 152 152 152
21.294767379761 18.532596588135 3.274993896484 125 125 125
21.339445114136 18.429161071777 3.267990112305 109 109 109
21.419574737549 18.265506744385 3.267990112305 114 114 114
21.299745559692 18.482818603516 3.194000244141 158 158 158
21.308242797852 18.495933532715 3.162994384766 157 157 157
21.308242797852 18.495933532715 3.132995605469 161 161 161
21.321720123291 18.459266662598 3.106994628906 136 136 136
21.401851654053 18.295616149902 3.118988037109 100 100 100
21.437301635742 18.235397338867 3.106002807617 107 107 107
21.183799743652 18.734855651855 2.852996826172 28 28 28
21.188413619995 18.713245391846 2.820999145508 80 80 80
21.188413619995 18.713245391846 2.789993286133 97 97 97
21.183799743652 18.734855651855 2.753997802734 126 126 126
21.188413619995 18.713245391846 2.724990844727 135 135 135
21.188413619995 18.713245391846 2.690994262695 143 143 143
21.188413619995 18.713245391846 2.660995483398 148 148 148
21.166439056396 18.736797332764 2.616989135742 203 203 203
21.188413619995 18.713245391846 2.593002319336 106 106 106
20.714183807373 20.193655014038 3.210998535156 120 120 120
20.700710296631 20.230318069458 3.164993286133 144 144 144
20.709571838379 20.215263366699 3.127990722656 151 151 151
21.243160247803 19.171186447144 3.277999877930 77 77 77
21.269748687744 19.126026153564 3.253997802734 192 192 192
21.269748687744 19.126026153564 3.222000122070 198 198 198
21.269748687744 19.126026153564 3.188995361328 195 195 195
21.269748687744 19.126026153564 3.156997680664 195 195 195
21.261251449585 19.112911224365 3.125991821289 185 185 185
21.278976440430 19.082805633545 3.101989746094 28 28 28
21.213531494141 19.786224365234 3.257995605469 190 190 190
21.196168899536 19.788167953491 3.220993041992 194 194 194
21.213531494141 19.786224365234 3.187988281250 195 195 195
