33.274726867676 25.887456893921 36.034000396729 158 158 158
33.375198364258 25.813089370728 38.913002014160 83 83 83
33.226463317871 25.612146377563 38.535999298096 103 103 103
33.226463317871 25.612146377563 38.462001800537 119 119 119
33.226463317871 25.612146377563 38.387001037598 178 178 178
33.263645172119 25.662385940552 38.317001342773 79 79 79
33.226463317871 25.612146377563 38.235000610352 119 119 119
33.226463317871 25.612146377563 38.163002014160 167 167 167
33.226463317871 25.612146377563 38.089000701904 175 175 175
33.375198364258 25.813089370728 37.608001708984 84 84 84
33.375198364258 25.813089370728 37.529998779297 90 90 90
33.375198364258 25.813089370728 37.456001281738 77 77 77
33.375198364258 25.813089370728 37.375999450684 89 89 89
33.338012695313 25.762857437134 37.299999237061 138 138 138
33.412380218506 25.863328933716 37.230998992920 110 110 110
33.375198364258 25.813089370728 37.152999877930 81 81 81
33.375198364258 25.813089370728 37.078998565674 93 93 93
33.375198364258 25.813089370728 37.005001068115 117 117 117
33.202331542969 25.474493026733 38.645000457764 87 87 87
33.202331542969 25.474493026733 38.577999114990 112 112 112
33.202331542969 25.474493026733 38.504001617432 177 177 177
33.202331542969 25.474493026733 38.430999755859 126 126 126
33.202331542969 25.474493026733 38.136001586914 138 138 138
33.202331542969 25.474493026733 38.064998626709 169 169 169
33.202331542969 25.474493026733 37.993000030518 109 109 109
33.388248443604 25.725671768188 37.592998504639 87 87 87
33.388248443604 25.725671768188 37.519001007080 87 87 87
33.313880920410 25.625200271606 37.438999176025 94 94 94
33.351066589355 25.675436019897 37.368000030518 116 116 116
33.388248443604 25.725671768188 37.298000335693 117 117 117
33.388248443604 25.725671768188 37.224998474121 94 94 94
33.388248443604 25.725671768188 37.151000976563 92 92 92
33.388248443604 25.725671768188 37.076999664307 90 90 90
33.425430297852 25.775907516479 37.004001617432 91 91 91
33.228435516357 25.299654006958 38.613998413086 113 113 113
33.191253662109 25.249418258667 38.538002014160 131 131 131
33.228435516357 25.299654006958 38.040000915527 132 132 132
33.228435516357 25.299654006958 37.970001220703 130 130 130
33.228435516357 25.299654006958 37.901000976563 45 45 45
33.414352416992 25.550832748413 37.578998565674 52 52 52
33.414352416992 25.550832748413 37.506000518799 77 77 77
33.414352416992 25.550832748413 37.435001373291 79 79 79
33.414352416992 25.550832748413 37.362998962402 76 76 76
33.451538085938 25.601068496704 37.291000366211 87 87 87
33.488719940186 25.651304244995 37.222000122070 70 70 70
33.563087463379 25.751775741577 37.152000427246 74 74 74
33.538955688477 25.614122390747 37.518001556396 25 25 25
33.501770019531 25.563886642456 37.439998626709 21 21 21
33.613323211670 25.714593887329 37.229999542236 55 55 55
33.036598205566 25.985956192017 38.875999450684 93 93 93
33.049648284912 25.898538589478 38.774002075195 84 84 84
33.086830139160 25.948774337769 38.897998809814 128 128 128
33.075752258301 25.723699569702 38.929000854492 64 64 64
33.099884033203 25.861352920532 36.820999145508 21 21 21
33.099884033203 25.861352920532 36.904998779297 27 27 27
33.150123596191 25.824171066284 36.990001678467 39 39 39
33.150123596191 25.824171066284 37.074001312256 53 53 53
33.099884033203 25.861352920532 37.158000946045 77 77 77
33.150123596191 25.824171066284 37.243000030518 77 77 77
33.150123596191 25.824171066284 37.326999664307 87 87 87
33.150123596191 25.824171066284 37.410999298096 91 91 91
33.150123596191 25.824171066284 37.496002197266 100 100 100
33.150123596191 25.824171066284 37.580001831055 115 115 115
33.150123596191 25.824171066284 37.665000915527 118 118 118
33.150123596191 25.824171066284 37.749000549316 129 129 129
33.150123596191 25.824171066284 37.833000183105 126 126 126
33.150123596191 25.824171066284 37.918998718262 138 138 138
33.150123596191 25.824171066284 38.004001617432 140 140 140
33.150123596191 25.824171066284 38.090000152588 148 148 148
33.150123596191 25.824171066284 38.175998687744 157 157 157
33.150123596191 25.824171066284 38.260002136230 157 157 157
33.150123596191 25.824171066284 38.347999572754 161 161 161
33.150123596191 25.824171066284 38.434001922607 161 161 161
33.150123596191 25.824171066284 38.519001007080 154 154 154
33.150123596191 25.824171066284 38.605998992920 152 152 152
33.112937927246 25.773935317993 38.686000823975 153 153 153
33.150123596191 25.824171066284 38.769001007080 129 129 129
33.150123596191 25.824171066284 38.863998413086 112 112 112
33.163173675537 25.736749649048 38.927001953125 84 84 84
33.187305450439 25.874406814575 35.247001647949 116 116 116
33.187305450439 25.874406814575 35.340000152588 124 124 124
33.187305450439 25.874406814575 35.430999755859 131 131 131
33.187305450439 25.874406814575 35.518001556396 137 137 137
33.224487304688 25.924642562866 35.597999572754 121 121 121
33.187305450439 25.874406814575 36.046001434326 166 166 166
33.187305450439 25.874406814575 36.131000518799 174 174 174
33.187305450439 25.874406814575 36.219001770020 171 171 171
33.187305450439 25.874406814575 36.305999755859 176 176 176
33.187305450439 25.874406814575 36.393001556396 178 178 178
33.187305450439 25.874406814575 36.477001190186 185 185 185
33.187305450439 25.874406814575 36.562999725342 184 184 184
33.237541198730 25.837221145630 36.649002075195 191 191 191
33.237541198730 25.837221145630 36.734001159668 189 189 189
33.237541198730 25.837221145630 36.819000244141 191 191 191
33.237541198730 25.837221145630 36.903999328613 204 204 204
33.187305450439 25.874406814575 36.987998962402 190 190 190
33.237541198730 25.837221145630 37.073001861572 199 199 199
33.237541198730 25.837221145630 37.158000946045 202 202 202
33.237541198730 25.837221145630 37.242000579834 203 203 203
33.237541198730 25.837221145630 37.326999664307 185 185 185
33.237541198730 25.837221145630 37.411998748779 173 173 173
33.237541198730 25.837221145630 37.497001647949 162 162 162
33.237541198730 25.837221145630 37.582000732422 158 158 158
33.274726867676 25.887456893921 37.667999267578 167 167 167
33.224487304688 25.924642562866 37.753002166748 181 181 181
33.224487304688 25.924642562866 37.839000701904 182 182 182
33.224487304688 25.924642562866 37.925998687744 179 179 179
33.224487304688 25.924642562866 38.011001586914 183 183 183
33.224487304688 25.924642562866 38.097999572754 186 186 186
33.224487304688 25.924642562866 38.185001373291 179 179 179
33.274726867676 25.887456893921 38.269001007080 174 174 174
33.274726867676 25.887456893921 38.356998443604 181 181 181
33.274726867676 25.887456893921 38.443000793457 172 172 172
33.274726867676 25.887456893921 38.532001495361 157 157 157
33.274726867676 25.887456893921 38.618999481201 160 160 160
33.274726867676 25.887456893921 38.708000183105 119 119 119
33.200355529785 25.786985397339 38.777000427246 128 128 128
33.237541198730 25.837221145630 38.875000000000 115 115 115
33.213409423828 25.699567794800 38.937999725342 91 91 91
33.274726867676 25.887456893921 35.320999145508 145 145 145
33.274726867676 25.887456893921 35.410999298096 154 154 154
33.274726867676 25.887456893921 35.500999450684 161 161 161
33.274726867676 25.887456893921 35.590000152588 147 147 147
33.324958801270 25.850275039673 36.034999847412 177 177 177
33.274726867676 25.887456893921 36.121002197266 182 182 182
33.274726867676 25.887456893921 36.208000183105 185 185 185
33.274726867676 25.887456893921 36.293998718262 187 187 187
33.324958801270 25.850275039673 36.381999969482 186 186 186
33.324958801270 25.850275039673 36.469001770020 186 186 186
33.324958801270 25.850275039673 36.555000305176 189 189 189
33.324958801270 25.850275039673 36.642002105713 187 187 187
33.324958801270 25.850275039673 36.728000640869 187 187 187
33.324958801270 25.850275039673 36.813999176025 191 191 191
33.324958801270 25.850275039673 36.900001525879 188 188 188
33.324958801270 25.850275039673 36.985000610352 110 110 110
33.324958801270 25.850275039673 37.070999145508 55 55 55
33.274726867676 25.887456893921 37.154998779297 97 97 97
33.324958801270 25.850275039673 37.241001129150 68 68 68
33.287776947021 25.800039291382 37.326000213623 155 155 155
33.287776947021 25.800039291382 37.410999298096 110 110 110
33.324958801270 25.850275039673 38.799999237061 85 85 85
33.298854827881 26.025114059448 38.934001922607 113 113 113
33.287776947021 25.800039291382 38.962001800537 53 53 53
33.375198364258 25.813089370728 37.154998779297 57 57 57
33.362144470215 25.900510787964 37.241001129150 90 90 90
33.375198364258 25.813089370728 37.326000213623 105 105 105
33.351066589355 25.675436019897 37.409000396729 83 83 83
33.351066589355 25.675436019897 37.492000579834 69 69 69
33.362144470215 25.900510787964 38.923999786377 77 77 77
33.425430297852 25.775907516479 36.983001708984 58 58 58
33.425430297852 25.775907516479 37.069000244141 89 89 89
33.425430297852 25.775907516479 37.153999328613 95 95 95
33.425430297852 25.775907516479 37.240001678467 73 73 73
33.425430297852 25.775907516479 37.325000762939 57 57 57
33.451538085938 25.601068496704 37.407001495361 87 87 87
33.451538085938 25.601068496704 37.491001129150 86 86 86
33.563087463379 25.751775741577 37.152999877930 50 50 50
33.563087463379 25.751775741577 37.238998413086 40 40 40
33.501770019531 25.563886642456 37.491001129150 53 53 53
33.563087463379 25.751775741577 37.238998413086 39 39 39
33.589191436768 25.576936721802 37.493000030518 43 43 43
33.663558959961 25.677408218384 37.238998413086 30 30 30
33.283828735352 26.425027847290 38.583000183105 88 88 88
33.321014404297 26.475259780884 38.021999359131 12 12 12
33.246643066406 26.374788284302 38.668998718262 145 145 145
33.246643066406 26.374788284302 38.574001312256 205 205 205
33.283828735352 26.425027847290 38.108001708984 60 60 60
33.283828735352 26.425027847290 38.014999389648 195 195 195
33.283828735352 26.425027847290 37.923000335693 103 103 103
33.259696960449 26.287370681763 38.652000427246 137 137 137
33.259696960449 26.287370681763 38.557998657227 182 182 182
33.259696960449 26.287370681763 38.466999053955 134 134 134
33.259696960449 26.287370681763 38.098999023438 149 149 149
33.259696960449 26.287370681763 38.006000518799 152 152 152
33.259696960449 26.287370681763 37.914001464844 97 97 97
33.272750854492 26.199953079224 38.638999938965 71 71 71
33.272750854492 26.199953079224 38.546001434326 143 143 143
33.272750854492 26.199953079224 38.452999114990 140 140 140
33.272750854492 26.199953079224 38.180000305176 129 129 129
33.272750854492 26.199953079224 38.090000152588 147 147 147
33.272750854492 26.199953079224 38.000000000000 148 148 148
33.198379516602 26.099481582642 38.531002044678 149 149 149
33.198379516602 26.099481582642 38.439998626709 149 149 149
33.198379516602 26.099481582642 38.348999023438 101 101 101
33.235565185547 26.149717330933 38.261001586914 68 68 68
33.235565185547 26.149717330933 38.172000885010 157 157 157
33.235565185547 26.149717330933 38.081001281738 152 152 152
33.447589874268 26.226057052612 37.458000183105 54 54 54
33.397354125977 26.263238906860 37.366001129150 15 15 15
33.036598205566 25.985956192017 38.915000915527 14 14 14
33.298854827881 26.025114059448 38.885002136230 73 73 73
33.248619079590 26.062295913696 38.517002105713 126 126 126
33.298854827881 26.025114059448 38.429000854492 149 149 149
33.248619079590 26.062295913696 38.339000701904 146 146 146
33.298854827881 26.025114059448 38.250000000000 154 154 154
33.298854827881 26.025114059448 38.160999298096 144 144 144
33.298854827881 26.025114059448 38.073001861572 115 115 115
33.373222351074 26.125585556030 37.546001434326 80 80 80
33.373222351074 26.125585556030 37.455001831055 87 87 87
33.373222351074 26.125585556030 37.366001129150 75 75 75
33.373222351074 26.125585556030 37.275001525879 28 28 28
33.049648284912 25.898538589478 39.000999450684 16 16 16
33.049648284912 25.898538589478 38.904998779297 96 96 96
33.049648284912 25.898538589478 38.812999725342 90 90 90
33.086830139160 25.948774337769 38.736999511719 89 89 89
33.086830139160 25.948774337769 38.649002075195 87 87 87
33.137069702148 25.911588668823 38.562999725342 84 84 84
33.137069702148 25.911588668823 38.476001739502 82 82 82
33.137069702148 25.911588668823 38.399002075195 136 136 136
33.137069702148 25.911588668823 38.312999725342 139 139 139
33.137069702148 25.911588668823 38.224998474121 133 133 133
33.187305450439 25.874406814575 38.138999938965 127 127 127
33.137069702148 25.911588668823 38.042999267578 62 62 62
33.137069702148 25.911588668823 37.957000732422 55 55 55
33.137069702148 25.911588668823 37.872001647949 49 49 49
33.137069702148 25.911588668823 37.784999847412 40 40 40
33.137069702148 25.911588668823 37.701000213623 33 33 33
33.261672973633 25.974878311157 37.623001098633 81 81 81
33.298854827881 26.025114059448 37.536998748779 85 85 85
33.261672973633 25.974878311157 37.449001312256 85 85 85
33.349090576172 25.987928390503 37.362998962402 86 86 86
33.298854827881 26.025114059448 37.274002075195 101 101 101
33.298854827881 26.025114059448 37.186000823975 13 13 13
33.261672973633 25.974878311157 37.098999023438 40 40 40
33.261672973633 25.974878311157 37.013000488281 16 16 16
33.062702178955 25.811117172241 38.983001708984 68 68 68
33.150123596191 25.824171066284 38.903999328613 119 119 119
33.062702178955 25.811117172241 38.802001953125 93 93 93
33.150123596191 25.824171066284 38.735000610352 106 106 106
33.099884033203 25.861352920532 38.638000488281 160 160 160
33.150123596191 25.824171066284 38.554000854492 151 151 151
33.150123596191 25.824171066284 38.465999603271 155 155 155
33.099884033203 25.861352920532 38.378002166748 162 162 162
33.150123596191 25.824171066284 38.295001983643 170 170 170
33.150123596191 25.824171066284 38.208000183105 175 175 175
33.099884033203 25.861352920532 38.121002197266 173 173 173
33.099884033203 25.861352920532 38.035999298096 178 178 178
33.150123596191 25.824171066284 37.951999664307 183 183 183
33.099884033203 25.861352920532 37.866001129150 183 183 183
33.150123596191 25.824171066284 37.781002044678 190 190 190
33.150123596191 25.824171066284 37.696998596191 198 198 198
33.150123596191 25.824171066284 37.611999511719 209 209 209
33.150123596191 25.824171066284 37.527999877930 216 216 216
33.150123596191 25.824171066284 37.443000793457 231 231 231
33.150123596191 25.824171066284 37.359001159668 220 220 220
33.099884033203 25.861352920532 37.274002075195 206 206 206
33.150123596191 25.824171066284 37.188999176025 195 195 195
33.150123596191 25.824171066284 37.104999542236 193 193 193
33.150123596191 25.824171066284 37.020000457764 190 190 190
33.150123596191 25.824171066284 36.935001373291 186 186 186
33.150123596191 25.824171066284 36.849998474121 183 183 183
33.150123596191 25.824171066284 36.764999389648 180 180 180
33.150123596191 25.824171066284 36.680000305176 176 176 176
33.150123596191 25.824171066284 36.594001770020 175 175 175
33.150123596191 25.824171066284 36.508998870850 168 168 168
33.150123596191 25.824171066284 36.422000885010 164 164 164
33.187305450439 25.874406814575 36.335998535156 160 160 160
33.187305450439 25.874406814575 36.249000549316 152 152 152
33.187305450439 25.874406814575 36.163002014160 150 150 150
33.187305450439 25.874406814575 36.076000213623 146 146 146
33.187305450439 25.874406814575 35.720001220703 133 133 133
33.187305450439 25.874406814575 35.632999420166 128 128 128
33.187305450439 25.874406814575 35.542999267578 126 126 126
33.187305450439 25.874406814575 35.451000213623 124 124 124
33.187305450439 25.874406814575 35.359001159668 113 113 113
33.187305450439 25.874406814575 35.267002105713 112 112 112
33.075752258301 25.723699569702 38.972999572754 17 17 17
33.324958801270 25.850275039673 38.937999725342 106 106 106
33.200355529785 25.786985397339 38.805000305176 89 89 89
33.237541198730 25.837221145630 38.730998992920 54 54 54
33.150123596191 25.824171066284 38.630001068115 75 75 75
33.237541198730 25.837221145630 38.470001220703 67 67 67
33.237541198730 25.837221145630 38.387001037598 165 165 165
33.237541198730 25.837221145630 38.298000335693 160 160 160
33.237541198730 25.837221145630 38.213001251221 165 165 165
33.237541198730 25.837221145630 38.125000000000 100 100 100
33.237541198730 25.837221145630 38.040000915527 100 100 100
33.237541198730 25.837221145630 37.952999114990 101 101 101
33.237541198730 25.837221145630 37.868000030518 107 107 107
33.237541198730 25.837221145630 37.783000946045 118 118 118
33.237541198730 25.837221145630 37.698001861572 130 130 130
33.324958801270 25.850275039673 37.613998413086 148 148 148
33.324958801270 25.850275039673 37.528999328613 150 150 150
33.237541198730 25.837221145630 37.443000793457 153 153 153
33.237541198730 25.837221145630 37.358001708984 156 156 156
33.237541198730 25.837221145630 37.271999359131 166 166 166
33.274726867676 25.887456893921 37.187000274658 158 158 158
33.274726867676 25.887456893921 37.102001190186 161 161 161
33.324958801270 25.850275039673 37.015998840332 160 160 160
33.237541198730 25.837221145630 36.930999755859 141 141 141
33.237541198730 25.837221145630 36.846000671387 147 147 147
33.274726867676 25.887456893921 36.758998870850 145 145 145
33.274726867676 25.887456893921 36.674999237061 137 137 137
33.274726867676 25.887456893921 36.589000701904 139 139 139
33.237541198730 25.837221145630 36.503002166748 137 137 137
33.274726867676 25.887456893921 36.416999816895 138 138 138
33.237541198730 25.837221145630 36.332000732422 142 142 142
33.274726867676 25.887456893921 36.243999481201 138 138 138
33.274726867676 25.887456893921 36.156002044678 142 142 142
33.237541198730 25.837221145630 36.070999145508 141 141 141
33.274726867676 25.887456893921 35.717998504639 141 141 141
33.237541198730 25.837221145630 35.631999969482 139 139 139
33.237541198730 25.837221145630 35.543998718262 127 127 127
33.237541198730 25.837221145630 35.452999114990 126 126 126
33.237541198730 25.837221145630 35.367000579834 121 121 121
33.237541198730 25.837221145630 35.276000976563 128 128 128
33.338012695313 25.762857437134 38.918998718262 84 84 84
33.250595092773 25.749803543091 38.458000183105 157 157 157
33.250595092773 25.749803543091 38.373001098633 170 170 170
33.250595092773 25.749803543091 38.285999298096 166 166 166
33.250595092773 25.749803543091 38.201000213623 174 174 174
33.250595092773 25.749803543091 38.116001129150 164 164 164
33.425430297852 25.775907516479 37.617000579834 86 86 86
33.425430297852 25.775907516479 37.531002044678 83 83 83
33.425430297852 25.775907516479 37.444999694824 84 84 84
33.375198364258 25.813089370728 37.358001708984 86 86 86
33.375198364258 25.813089370728 37.271999359131 92 92 92
33.425430297852 25.775907516479 37.186000823975 76 76 76
33.425430297852 25.775907516479 37.099998474121 91 91 91
33.425430297852 25.775907516479 37.013999938965 76 76 76
33.226463317871 25.612146377563 38.529998779297 164 164 164
33.226463317871 25.612146377563 38.444000244141 174 174 174
33.263645172119 25.662385940552 38.359001159668 184 184 184
33.226463317871 25.612146377563 38.272998809814 99 99 99
33.226463317871 25.612146377563 38.187999725342 203 203 203
33.213409423828 25.699567794800 38.104999542236 189 189 189
33.388248443604 25.725671768188 37.611999511719 87 87 87
33.388248443604 25.725671768188 37.526000976563 92 92 92
33.351066589355 25.675436019897 37.439998626709 86 86 86
33.388248443604 25.725671768188 37.355998992920 92 92 92
33.388248443604 25.725671768188 37.270999908447 99 99 99
33.425430297852 25.775907516479 37.186000823975 89 89 89
33.425430297852 25.775907516479 37.099998474121 89 89 89
33.425430297852 25.775907516479 37.014999389648 83 83 83
33.239513397217 25.524728775024 38.597999572754 141 141 141
33.239513397217 25.524728775024 38.514999389648 159 159 159
33.239513397217 25.524728775024 38.429000854492 198 198 198
33.239513397217 25.524728775024 38.177001953125 194 194 194
33.239513397217 25.524728775024 38.095001220703 182 182 182
33.239513397217 25.524728775024 38.012001037598 155 155 155
33.401298522949 25.638254165649 37.606998443604 85 85 85
33.401298522949 25.638254165649 37.522998809814 86 86 86
33.401298522949 25.638254165649 37.438999176025 87 87 87
33.438484191895 25.688486099243 37.354999542236 82 82 82
33.438484191895 25.688486099243 37.270999908447 86 86 86
33.438484191895 25.688486099243 37.187000274658 85 85 85
33.438484191895 25.688486099243 37.102001190186 24 24 24
33.202331542969 25.474493026733 38.663002014160 93 93 93
33.202331542969 25.474493026733 38.581001281738 156 156 156
33.202331542969 25.474493026733 38.498001098633 192 192 192
33.202331542969 25.474493026733 38.416000366211 86 86 86
33.202331542969 25.474493026733 38.166000366211 116 116 116
33.202331542969 25.474493026733 38.083999633789 201 201 201
33.202331542969 25.474493026733 38.001998901367 153 153 153
33.414352416992 25.550832748413 37.520000457764 82 82 82
33.414352416992 25.550832748413 37.437000274658 84 84 84
33.414352416992 25.550832748413 37.354000091553 88 88 88
33.414352416992 25.550832748413 37.270000457764 36 36 36
33.178199768066 25.336839675903 38.728000640869 16 16 16
33.215381622314 25.387071609497 38.650001525879 155 155 155
33.215381622314 25.387071609497 38.567001342773 161 161 161
33.215381622314 25.387071609497 38.485000610352 135 135 135
33.215381622314 25.387071609497 38.074001312256 190 190 190
33.215381622314 25.387071609497 37.993000030518 162 162 162
33.215381622314 25.387071609497 37.913002014160 143 143 143
33.191253662109 25.249418258667 38.632999420166 108 108 108
33.191253662109 25.249418258667 38.550998687744 157 157 157
33.228435516357 25.299654006958 38.067001342773 124 124 124
33.191253662109 25.249418258667 37.984001159668 174 174 174
33.191253662109 25.249418258667 38.529998779297 62 62 62
33.191253662109 25.249418258667 38.048999786377 22 22 22
33.178199768066 25.336839675903 38.623001098633 142 142 142
33.178199768066 25.336839675903 38.541999816895 155 155 155
33.178199768066 25.336839675903 38.056999206543 146 146 146
33.178199768066 25.336839675903 37.974998474121 189 189 189
33.178199768066 25.336839675903 37.895000457764 85 85 85
33.165145874023 25.424257278442 38.721000671387 16 16 16
33.165145874023 25.424257278442 38.638999938965 157 157 157
33.165145874023 25.424257278442 38.555999755859 159 159 159
33.165145874023 25.424257278442 38.473999023438 135 135 135
33.165145874023 25.424257278442 38.064998626709 192 192 192
33.165145874023 25.424257278442 37.983001708984 154 154 154
33.165145874023 25.424257278442 37.902999877930 140 140 140
33.202331542969 25.474493026733 38.650001525879 120 120 120
33.202331542969 25.474493026733 38.569000244141 158 158 158
33.202331542969 25.474493026733 38.486000061035 181 181 181
33.202331542969 25.474493026733 38.404998779297 37 37 37
33.202331542969 25.474493026733 38.156002044678 60 60 60
33.202331542969 25.474493026733 38.073001861572 203 203 203
33.202331542969 25.474493026733 37.992000579834 153 153 153
33.202331542969 25.474493026733 37.909000396729 70 70 70
33.364116668701 25.588014602661 37.510002136230 83 83 83
33.414352416992 25.550832748413 37.427001953125 87 87 87
33.364116668701 25.588014602661 37.344001770020 80 80 80
33.189277648926 25.561914443970 38.584999084473 162 162 162
33.189277648926 25.561914443970 38.498001098633 188 188 188
33.189277648926 25.561914443970 38.416999816895 181 181 181
33.189277648926 25.561914443970 38.164001464844 161 161 161
33.189277648926 25.561914443970 38.083000183105 174 174 174
33.189277648926 25.561914443970 38.000999450684 165 165 165
33.401298522949 25.638254165649 37.598999023438 80 80 80
33.401298522949 25.638254165649 37.514999389648 93 93 93
33.401298522949 25.638254165649 37.430999755859 83 83 83
33.401298522949 25.638254165649 37.347000122070 87 87 87
33.401298522949 25.638254165649 37.263999938965 81 81 81
33.401298522949 25.638254165649 37.180000305176 59 59 59
33.176223754883 25.649332046509 38.595001220703 56 56 56
33.226463317871 25.612146377563 38.514999389648 161 161 161
33.226463317871 25.612146377563 38.428001403809 197 197 197
33.226463317871 25.612146377563 38.345001220703 105 105 105
33.176223754883 25.649332046509 38.174999237061 188 188 188
33.176223754883 25.649332046509 38.091999053955 186 186 186
33.176223754883 25.649332046509 38.008998870850 136 136 136
33.351066589355 25.675436019897 37.604000091553 85 85 85
33.351066589355 25.675436019897 37.520000457764 84 84 84
33.351066589355 25.675436019897 37.432998657227 86 86 86
33.351066589355 25.675436019897 37.349998474121 99 99 99
33.351066589355 25.675436019897 37.265998840332 88 88 88
33.351066589355 25.675436019897 37.180999755859 87 87 87
33.388248443604 25.725671768188 37.096000671387 75 75 75
33.213409423828 25.699567794800 38.527000427246 150 150 150
33.213409423828 25.699567794800 38.443000793457 162 162 162
33.213409423828 25.699567794800 38.358001708984 196 196 196
33.213409423828 25.699567794800 38.271999359131 95 95 95
33.213409423828 25.699567794800 38.186000823975 204 204 204
33.213409423828 25.699567794800 38.102001190186 195 195 195
33.388248443604 25.725671768188 37.610000610352 92 92 92
33.388248443604 25.725671768188 37.524002075195 92 92 92
33.338012695313 25.762857437134 37.437000274658 87 87 87
33.338012695313 25.762857437134 37.353000640869 87 87 87
33.388248443604 25.725671768188 37.268001556396 111 111 111
33.388248443604 25.725671768188 37.181999206543 88 88 88
33.388248443604 25.725671768188 37.097000122070 87 87 87
33.425430297852 25.775907516479 37.011001586914 83 83 83
33.287776947021 25.800039291382 38.909999847412 80 80 80
33.250595092773 25.749803543091 38.453998565674 160 160 160
33.250595092773 25.749803543091 38.368000030518 178 178 178
33.250595092773 25.749803543091 38.282001495361 152 152 152
33.250595092773 25.749803543091 38.195999145508 169 169 169
33.200355529785 25.786985397339 38.111000061035 178 178 178
33.375198364258 25.813089370728 37.612998962402 79 79 79
33.375198364258 25.813089370728 37.527000427246 85 85 85
33.375198364258 25.813089370728 37.441001892090 86 86 86
33.375198364258 25.813089370728 37.354999542236 83 83 83
33.375198364258 25.813089370728 37.269001007080 91 91 91
33.375198364258 25.813089370728 37.182998657227 84 84 84
33.375198364258 25.813089370728 37.097000122070 90 90 90
33.375198364258 25.813089370728 37.010002136230 74 74 74
33.324958801270 25.850275039673 38.930999755859 93 93 93
33.150123596191 25.824171066284 38.798999786377 29 29 29
33.237541198730 25.837221145630 38.464000701904 110 110 110
33.237541198730 25.837221145630 38.381000518799 164 164 164
33.237541198730 25.837221145630 38.292999267578 153 153 153
33.237541198730 25.837221145630 38.206001281738 171 171 171
33.237541198730 25.837221145630 38.119998931885 111 111 111
33.324958801270 25.850275039673 37.617000579834 81 81 81
33.324958801270 25.850275039673 37.531002044678 80 80 80
33.274726867676 25.887456893921 37.439998626709 94 94 94
33.274726867676 25.887456893921 37.354999542236 96 96 96
33.237541198730 25.837221145630 37.270000457764 110 110 110
33.324958801270 25.850275039673 37.184001922607 92 92 92
33.324958801270 25.850275039673 37.098999023438 101 101 101
33.324958801270 25.850275039673 37.013000488281 126 126 126
33.274726867676 25.887456893921 36.929000854492 97 97 97
33.274726867676 25.887456893921 36.842998504639 101 101 101
33.274726867676 25.887456893921 36.757999420166 105 105 105
33.274726867676 25.887456893921 36.672000885010 110 110 110
33.274726867676 25.887456893921 36.587001800537 114 114 114
33.274726867676 25.887456893921 36.500999450684 114 114 114
33.274726867676 25.887456893921 36.414001464844 112 112 112
33.274726867676 25.887456893921 36.326999664307 121 121 121
33.274726867676 25.887456893921 36.238998413086 125 125 125
33.274726867676 25.887456893921 36.151000976563 128 128 128
33.274726867676 25.887456893921 36.063999176025 127 127 127
33.274726867676 25.887456893921 35.710998535156 128 128 128
33.274726867676 25.887456893921 35.624000549316 134 134 134
33.274726867676 25.887456893921 35.534999847412 133 133 133
33.274726867676 25.887456893921 35.444999694824 133 133 133
33.274726867676 25.887456893921 35.354000091553 130 130 130
33.274726867676 25.887456893921 35.264999389648 131 131 131
33.112937927246 25.773935317993 38.978000640869 45 45 45
33.274726867676 25.887456893921 38.916999816895 110 110 110
33.112937927246 25.773935317993 38.800998687744 89 89 89
33.150123596191 25.824171066284 38.721000671387 122 122 122
33.112937927246 25.773935317993 38.628002166748 153 153 153
33.224487304688 25.924642562866 38.557998657227 130 130 130
33.224487304688 25.924642562866 38.471000671387 137 137 137
33.224487304688 25.924642562866 38.383998870850 164 164 164
33.224487304688 25.924642562866 38.298000335693 162 162 162
33.224487304688 25.924642562866 38.212001800537 156 156 156
33.224487304688 25.924642562866 38.124000549316 148 148 148
33.224487304688 25.924642562866 38.038002014160 148 148 148
33.224487304688 25.924642562866 37.951999664307 149 149 149
33.224487304688 25.924642562866 37.865001678467 146 146 146
33.224487304688 25.924642562866 37.779998779297 162 162 162
33.224487304688 25.924642562866 37.694999694824 156 156 156
33.224487304688 25.924642562866 37.609001159668 162 162 162
33.224487304688 25.924642562866 37.524002075195 165 165 165
33.224487304688 25.924642562866 37.437999725342 168 168 168
33.224487304688 25.924642562866 37.353000640869 167 167 167
33.224487304688 25.924642562866 37.268001556396 166 166 166
33.224487304688 25.924642562866 37.182998657227 162 162 162
33.224487304688 25.924642562866 37.098999023438 158 158 158
33.150123596191 25.824171066284 37.013999938965 148 148 148
33.150123596191 25.824171066284 36.929000854492 154 154 154
33.150123596191 25.824171066284 36.845001220703 147 147 147
33.150123596191 25.824171066284 36.760002136230 148 148 148
33.150123596191 25.824171066284 36.674999237061 149 149 149
33.150123596191 25.824171066284 36.590000152588 155 155 155
33.150123596191 25.824171066284 36.504001617432 156 156 156
33.150123596191 25.824171066284 36.417999267578 161 161 161
33.150123596191 25.824171066284 36.333000183105 157 157 157
33.187305450439 25.874406814575 36.244998931885 158 158 158
33.187305450439 25.874406814575 36.159000396729 161 161 161
33.150123596191 25.824171066284 36.073001861572 157 157 157
33.187305450439 25.874406814575 35.722999572754 155 155 155
33.187305450439 25.874406814575 35.632999420166 157 157 157
33.187305450439 25.874406814575 35.543998718262 156 156 156
33.187305450439 25.874406814575 35.451999664307 156 156 156
33.187305450439 25.874406814575 35.363998413086 154 154 154
33.187305450439 25.874406814575 35.268001556396 153 153 153
33.049648284912 25.898538589478 38.981998443604 64 64 64
33.099884033203 25.861352920532 38.896999359131 116 116 116
33.012466430664 25.848302841187 38.799999237061 91 91 91
33.099884033203 25.861352920532 38.722000122070 107 107 107
33.099884033203 25.861352920532 38.635002136230 167 167 167
33.099884033203 25.861352920532 38.548999786377 166 166 166
33.099884033203 25.861352920532 38.462001800537 168 168 168
33.099884033203 25.861352920532 38.374000549316 171 171 171
33.099884033203 25.861352920532 38.286998748779 173 173 173
33.099884033203 25.861352920532 38.201999664307 177 177 177
33.099884033203 25.861352920532 38.117000579834 180 180 180
33.099884033203 25.861352920532 38.032001495361 186 186 186
33.099884033203 25.861352920532 37.945999145508 185 185 185
33.137069702148 25.911588668823 37.861999511719 183 183 183
33.099884033203 25.861352920532 37.776000976563 187 187 187
33.099884033203 25.861352920532 37.692001342773 195 195 195
33.099884033203 25.861352920532 37.606998443604 205 205 205
33.099884033203 25.861352920532 37.521999359131 218 218 218
33.099884033203 25.861352920532 37.437000274658 227 227 227
33.137069702148 25.911588668823 37.353000640869 224 224 224
33.099884033203 25.861352920532 37.268001556396 210 210 210
33.137069702148 25.911588668823 37.182998657227 194 194 194
33.137069702148 25.911588668823 37.098999023438 195 195 195
33.137069702148 25.911588668823 37.013999938965 183 183 183
33.137069702148 25.911588668823 36.928001403809 171 171 171
33.137069702148 25.911588668823 36.842998504639 165 165 165
33.137069702148 25.911588668823 36.757999420166 164 164 164
33.137069702148 25.911588668823 36.672000885010 152 152 152
33.137069702148 25.911588668823 36.587001800537 148 148 148
33.137069702148 25.911588668823 36.500999450684 137 137 137
33.137069702148 25.911588668823 36.414001464844 129 129 129
33.137069702148 25.911588668823 36.327999114990 122 122 122
33.137069702148 25.911588668823 36.241001129150 120 120 120
33.137069702148 25.911588668823 36.154998779297 107 107 107
33.137069702148 25.911588668823 36.068000793457 94 94 94
33.137069702148 25.911588668823 35.709999084473 86 86 86
33.137069702148 25.911588668823 35.616001129150 87 87 87
33.224487304688 25.924642562866 35.513999938965 164 164 164
33.224487304688 25.924642562866 35.417999267578 181 181 181
33.261672973633 25.974878311157 35.326000213623 158 158 158
33.261672973633 25.974878311157 35.221000671387 132 132 132
33.049648284912 25.898538589478 38.991001129150 14 14 14
33.049648284912 25.898538589478 38.894001007080 100 100 100
33.049648284912 25.898538589478 38.807998657227 86 86 86
33.086830139160 25.948774337769 38.727001190186 102 102 102
33.086830139160 25.948774337769 38.642002105713 128 128 128
33.086830139160 25.948774337769 38.554000854492 122 122 122
33.086830139160 25.948774337769 38.465999603271 114 114 114
33.086830139160 25.948774337769 38.385002136230 120 120 120
33.086830139160 25.948774337769 38.298999786377 129 129 129
33.137069702148 25.911588668823 38.213001251221 126 126 126
33.086830139160 25.948774337769 38.128002166748 130 130 130
33.086830139160 25.948774337769 38.035999298096 83 83 83
33.086830139160 25.948774337769 37.949001312256 83 83 83
33.086830139160 25.948774337769 37.865001678467 75 75 75
33.086830139160 25.948774337769 37.779998779297 74 74 74
33.086830139160 25.948774337769 37.694000244141 69 69 69
33.137069702148 25.911588668823 37.611999511719 92 92 92
33.137069702148 25.911588668823 37.526000976563 95 95 95
33.137069702148 25.911588668823 37.439998626709 92 92 92
33.224487304688 25.924642562866 37.354999542236 95 95 95
33.298854827881 26.025114059448 37.268001556396 101 101 101
33.174255371094 25.961824417114 37.180999755859 26 26 26
33.261672973633 25.974878311157 37.092998504639 50 50 50
33.036598205566 25.985956192017 38.901000976563 57 57 57
33.086830139160 25.948774337769 38.839000701904 98 98 98
33.086830139160 25.948774337769 38.740001678467 80 80 80
33.211437225342 26.012060165405 38.505001068115 71 71 71
33.211437225342 26.012060165405 38.415000915527 152 152 152
33.211437225342 26.012060165405 38.326999664307 156 156 156
33.211437225342 26.012060165405 38.238998413086 157 157 157
33.248619079590 26.062295913696 38.151000976563 149 149 149
33.248619079590 26.062295913696 38.064998626709 56 56 56
33.373222351074 26.125585556030 37.628002166748 30 30 30
33.373222351074 26.125585556030 37.538002014160 85 85 85
33.373222351074 26.125585556030 37.448001861572 86 86 86
33.373222351074 26.125585556030 37.359001159668 77 77 77
33.373222351074 26.125585556030 37.269001007080 16 16 16
33.161201477051 26.049245834351 38.875999450684 72 72 72
33.198379516602 26.099481582642 38.514999389648 134 134 134
33.198379516602 26.099481582642 38.424999237061 143 143 143
33.198379516602 26.099481582642 38.335998535156 145 145 145
33.198379516602 26.099481582642 38.249000549316 137 137 137
33.198379516602 26.099481582642 38.158000946045 138 138 138
33.198379516602 26.099481582642 38.069000244141 145 145 145
33.410408020020 26.175821304321 37.539001464844 81 81 81
33.410408020020 26.175821304321 37.450000762939 83 83 83
33.410408020020 26.175821304321 37.359001159668 86 86 86
33.410408020020 26.175821304321 37.268001556396 14 14 14
33.235565185547 26.149717330933 38.528999328613 146 146 146
33.235565185547 26.149717330933 38.437000274658 144 144 144
33.235565185547 26.149717330933 38.346000671387 96 96 96
33.235565185547 26.149717330933 38.167999267578 156 156 156
33.235565185547 26.149717330933 38.076999664307 159 159 159
33.235565185547 26.149717330933 37.986999511719 66 66 66
33.397354125977 26.263238906860 37.452999114990 25 25 25
33.222511291504 26.237134933472 38.632999420166 13 13 13
33.222511291504 26.237134933472 38.541000366211 146 146 146
33.222511291504 26.237134933472 38.451000213623 148 148 148
33.222511291504 26.237134933472 38.175998687744 127 127 127
33.222511291504 26.237134933472 38.087001800537 149 149 149
33.222511291504 26.237134933472 37.996002197266 146 146 146
33.209461212158 26.324556350708 38.646999359131 116 116 116
33.209461212158 26.324556350708 38.554000854492 145 145 145
33.209461212158 26.324556350708 38.463001251221 145 145 145
33.209461212158 26.324556350708 38.094001770020 153 153 153
33.259696960449 26.287370681763 38.003002166748 151 151 151
33.259696960449 26.287370681763 37.911998748779 76 76 76
33.246643066406 26.374788284302 38.660999298096 143 143 143
33.246643066406 26.374788284302 38.567001342773 187 187 187
33.246643066406 26.374788284302 38.472999572754 127 127 127
33.246643066406 26.374788284302 38.103000640869 119 119 119
33.246643066406 26.374788284302 38.013000488281 173 173 173
33.246643066406 26.374788284302 37.920001983643 136 136 136
33.283828735352 26.425027847290 38.673000335693 105 105 105
33.283828735352 26.425027847290 38.577999114990 202 202 202
33.283828735352 26.425027847290 38.485000610352 16 16 16
33.283828735352 26.425027847290 38.020000457764 181 181 181
33.283828735352 26.425027847290 37.925998687744 70 70 70
33.270774841309 26.512445449829 38.590000152588 85 85 85
33.270774841309 26.512445449829 38.026000976563 36 36 36
33.576141357422 25.664358139038 37.519001007080 16 16 16
33.488719940186 25.651304244995 37.514999389648 20 20 20
33.451538085938 25.601068496704 37.437999725342 64 64 64
33.563087463379 25.751775741577 37.228000640869 50 50 50
33.563087463379 25.751775741577 37.151000976563 15 15 15
33.178199768066 25.336839675903 38.611999511719 88 88 88
33.191253662109 25.249418258667 38.535999298096 130 130 130
33.178199768066 25.336839675903 38.036998748779 114 114 114
33.178199768066 25.336839675903 37.969001770020 149 149 149
33.178199768066 25.336839675903 37.899002075195 68 68 68
33.401298522949 25.638254165649 37.580001831055 40 40 40
33.326934814453 25.537782669067 37.505001068115 81 81 81
33.401298522949 25.638254165649 37.434001922607 82 82 82
33.401298522949 25.638254165649 37.361999511719 77 77 77
33.401298522949 25.638254165649 37.289001464844 86 86 86
33.438484191895 25.688486099243 37.220001220703 70 70 70
33.512851715088 25.788957595825 37.151000976563 72 72 72
33.165145874023 25.424257278442 38.638999938965 120 120 120
33.165145874023 25.424257278442 38.564998626709 123 123 123
33.202331542969 25.474493026733 38.493999481201 121 121 121
33.202331542969 25.474493026733 38.424999237061 76 76 76
33.165145874023 25.424257278442 38.128002166748 88 88 88
33.202331542969 25.474493026733 38.056999206543 181 181 181
33.165145874023 25.424257278442 37.983001708984 106 106 106
33.202331542969 25.474493026733 37.914001464844 86 86 86
33.351066589355 25.675436019897 37.588001251221 74 74 74
33.351066589355 25.675436019897 37.514999389648 85 85 85
33.313880920410 25.625200271606 37.437999725342 90 90 90
33.351066589355 25.675436019897 37.367000579834 124 124 124
33.351066589355 25.675436019897 37.295001983643 94 94 94
33.388248443604 25.725671768188 37.222000122070 95 95 95
33.388248443604 25.725671768188 37.149002075195 85 85 85
33.388248443604 25.725671768188 37.075000762939 89 89 89
33.388248443604 25.725671768188 37.001998901367 73 73 73
33.189277648926 25.561914443970 38.588001251221 83 83 83
33.226463317871 25.612146377563 38.522998809814 115 115 115
33.189277648926 25.561914443970 38.444999694824 177 177 177
33.226463317871 25.612146377563 38.373001098633 129 129 129
33.189277648926 25.561914443970 38.147998809814 182 182 182
33.189277648926 25.561914443970 38.076000213623 154 154 154
33.189277648926 25.561914443970 38.004001617432 117 117 117
33.375198364258 25.813089370728 37.599998474121 78 78 78
33.375198364258 25.813089370728 37.524002075195 86 86 86
33.338012695313 25.762857437134 37.443000793457 81 81 81
33.375198364258 25.813089370728 37.374000549316 81 81 81
33.375198364258 25.813089370728 37.299999237061 92 92 92
33.375198364258 25.813089370728 37.226001739502 117 117 117
33.375198364258 25.813089370728 37.151000976563 99 99 99
33.375198364258 25.813089370728 37.076999664307 110 110 110
33.375198364258 25.813089370728 37.003002166748 78 78 78
33.375198364258 25.813089370728 36.928001403809 88 88 88
33.324958801270 25.850275039673 38.916999816895 91 91 91
33.213409423828 25.699567794800 38.473999023438 126 126 126
33.250595092773 25.749803543091 38.397998809814 163 163 163
33.213409423828 25.699567794800 38.321998596191 128 128 128
33.213409423828 25.699567794800 38.244998931885 145 145 145
33.213409423828 25.699567794800 38.167999267578 144 144 144
33.213409423828 25.699567794800 38.095001220703 167 167 167
33.362144470215 25.900510787964 37.610000610352 86 86 86
33.362144470215 25.900510787964 37.534000396729 82 82 82
33.362144470215 25.900510787964 37.458000183105 83 83 83
33.287776947021 25.800039291382 37.371002197266 124 124 124
33.287776947021 25.800039291382 37.297000885010 138 138 138
33.362144470215 25.900510787964 37.229999542236 112 112 112
33.324958801270 25.850275039673 37.152000427246 75 75 75
33.324958801270 25.850275039673 37.076999664307 80 80 80
33.399326324463 25.950746536255 37.003002166748 132 132 132
33.200355529785 25.786985397339 38.944000244141 22 22 22
33.311908721924 25.937692642212 38.937999725342 137 137 137
33.274726867676 25.887456893921 38.818000793457 109 109 109
33.237541198730 25.837221145630 38.727001190186 83 83 83
33.237541198730 25.837221145630 38.418998718262 117 117 117
33.237541198730 25.837221145630 38.341999053955 118 118 118
33.237541198730 25.837221145630 38.264999389648 119 119 119
33.237541198730 25.837221145630 38.189998626709 133 133 133
33.237541198730 25.837221145630 38.116001129150 61 61 61
33.237541198730 25.837221145630 38.040000915527 63 63 63
33.237541198730 25.837221145630 37.965000152588 79 79 79
33.237541198730 25.837221145630 37.890998840332 77 77 77
33.237541198730 25.837221145630 37.814998626709 77 77 77
33.274726867676 25.887456893921 37.742000579834 87 87 87
33.274726867676 25.887456893921 37.667999267578 95 95 95
33.274726867676 25.887456893921 37.597000122070 127 127 127
33.274726867676 25.887456893921 37.520999908447 134 134 134
33.274726867676 25.887456893921 37.446998596191 145 145 145
33.274726867676 25.887456893921 37.372001647949 152 152 152
33.274726867676 25.887456893921 37.298999786377 167 167 167
33.274726867676 25.887456893921 37.223999023438 173 173 173
33.274726867676 25.887456893921 37.150001525879 192 192 192
33.274726867676 25.887456893921 37.076999664307 237 237 237
33.274726867676 25.887456893921 37.003002166748 188 188 188
33.274726867676 25.887456893921 36.929000854492 178 178 178
33.274726867676 25.887456893921 36.854999542236 182 182 182
33.274726867676 25.887456893921 36.781002044678 183 183 183
33.274726867676 25.887456893921 36.707000732422 180 180 180
33.274726867676 25.887456893921 36.632999420166 172 172 172
33.274726867676 25.887456893921 36.559001922607 173 173 173
33.274726867676 25.887456893921 36.485000610352 172 172 172
33.274726867676 25.887456893921 36.409999847412 171 171 171
33.274726867676 25.887456893921 36.334999084473 169 169 169
33.274726867676 25.887456893921 36.260002136230 170 170 170
33.274726867676 25.887456893921 36.187000274658 167 167 167
33.274726867676 25.887456893921 36.111999511719 164 164 164
33.274726867676 25.887456893921 36.035999298096 160 160 160
33.075752258301 25.723699569702 38.929000854492 73 73 73
33.150123596191 25.824171066284 38.880001068115 124 124 124
33.112937927246 25.773935317993 38.784000396729 110 110 110
33.150123596191 25.824171066284 38.717998504639 134 134 134
33.150123596191 25.824171066284 38.637001037598 161 161 161
33.224487304688 25.924642562866 38.575000762939 161 161 161
33.224487304688 25.924642562866 38.503002166748 150 150 150
33.224487304688 25.924642562866 38.423999786377 165 165 165
33.224487304688 25.924642562866 38.344001770020 161 161 161
33.224487304688 25.924642562866 38.267002105713 158 158 158
33.187305450439 25.874406814575 38.191001892090 154 154 154
33.150123596191 25.824171066284 38.112998962402 142 142 142
33.150123596191 25.824171066284 38.035999298096 140 140 140
33.150123596191 25.824171066284 37.962001800537 140 140 140
33.150123596191 25.824171066284 37.885002136230 141 141 141
33.150123596191 25.824171066284 37.811000823975 143 143 143
33.150123596191 25.824171066284 37.736000061035 149 149 149
33.150123596191 25.824171066284 37.663002014160 154 154 154
33.150123596191 25.824171066284 37.588001251221 165 165 165
33.150123596191 25.824171066284 37.514999389648 165 165 165
33.150123596191 25.824171066284 37.441001892090 172 172 172
33.150123596191 25.824171066284 37.368000030518 184 184 184
33.150123596191 25.824171066284 37.295001983643 195 195 195
33.150123596191 25.824171066284 37.221000671387 211 211 211
33.150123596191 25.824171066284 37.147998809814 226 226 226
33.150123596191 25.824171066284 37.075000762939 255 255 255
33.150123596191 25.824171066284 37.001998901367 229 229 229
33.150123596191 25.824171066284 36.929000854492 233 233 233
33.150123596191 25.824171066284 36.855998992920 220 220 220
33.150123596191 25.824171066284 36.783000946045 211 211 211
33.150123596191 25.824171066284 36.709999084473 213 213 213
33.150123596191 25.824171066284 36.636001586914 210 210 210
33.150123596191 25.824171066284 36.562999725342 199 199 199
33.150123596191 25.824171066284 36.488998413086 201 201 201
33.150123596191 25.824171066284 36.416000366211 196 196 196
33.150123596191 25.824171066284 36.340999603271 192 192 192
33.150123596191 25.824171066284 36.267002105713 189 189 189
33.150123596191 25.824171066284 36.193000793457 177 177 177
33.150123596191 25.824171066284 36.118000030518 176 176 176
33.150123596191 25.824171066284 36.042999267578 170 170 170
33.062702178955 25.811117172241 38.932998657227 67 67 67
33.099884033203 25.861352920532 38.876998901367 135 135 135
33.062702178955 25.811117172241 38.783000946045 102 102 102
33.099884033203 25.861352920532 38.715999603271 125 125 125
33.049648284912 25.898538589478 38.635002136230 176 176 176
33.099884033203 25.861352920532 38.564998626709 167 167 167
33.099884033203 25.861352920532 38.488998413086 166 166 166
33.099884033203 25.861352920532 38.410999298096 169 169 169
33.099884033203 25.861352920532 38.333999633789 167 167 167
33.099884033203 25.861352920532 38.258998870850 166 166 166
33.099884033203 25.861352920532 38.182998657227 168 168 168
33.099884033203 25.861352920532 38.109001159668 165 165 165
33.099884033203 25.861352920532 38.034000396729 158 158 158
33.099884033203 25.861352920532 37.959999084473 155 155 155
33.099884033203 25.861352920532 37.885002136230 152 152 152
33.099884033203 25.861352920532 37.811000823975 149 149 149
33.137069702148 25.911588668823 37.736999511719 140 140 140
33.099884033203 25.861352920532 37.663002014160 137 137 137
33.099884033203 25.861352920532 37.589000701904 135 135 135
33.099884033203 25.861352920532 37.514999389648 128 128 128
33.137069702148 25.911588668823 37.442001342773 107 107 107
33.049648284912 25.898538589478 37.368000030518 110 110 110
33.137069702148 25.911588668823 37.295001983643 98 98 98
33.086830139160 25.948774337769 37.222000122070 89 89 89
33.086830139160 25.948774337769 37.149002075195 84 84 84
33.086830139160 25.948774337769 37.076000213623 74 74 74
33.086830139160 25.948774337769 37.001998901367 66 66 66
33.137069702148 25.911588668823 36.929000854492 55 55 55
