21.338251113892 22.097358703613 56.040000915527 97 97 97
21.334711074829 22.090393066406 56.006996154785 89 89 89
21.338251113892 22.097358703613 55.971992492676 87 87 87
21.338251113892 22.097358703613 55.939002990723 82 82 82
21.338251113892 22.097358703613 55.904991149902 78 78 78
21.338251113892 22.097358703613 55.870994567871 72 72 72
21.313932418823 22.118484497070 55.835990905762 65 65 65
21.313932418823 22.118484497070 55.801994323730 58 58 58
21.313932418823 22.118484497070 55.767997741699 41 41 41
21.313932418823 22.118484497070 55.730995178223 29 29 29
21.218477249146 22.482475280762 58.043998718262 139 139 139
21.249876022339 22.475280761719 58.004997253418 161 161 161
21.218477249146 22.482475280762 57.971992492676 169 169 169
21.222017288208 22.489437103271 57.935005187988 152 152 152
21.218477249146 22.482475280762 57.900001525879 158 158 158
21.222017288208 22.489437103271 57.861991882324 157 157 157
21.222017288208 22.489437103271 57.823997497559 140 140 140
21.194158554077 22.503595352173 57.540000915527 172 172 172
21.222017288208 22.489437103271 57.503990173340 183 183 183
21.194158554077 22.503595352173 57.469001770020 189 189 189
21.194158554077 22.503595352173 57.432991027832 185 185 185
21.194158554077 22.503595352173 57.398002624512 187 187 187
21.201238632202 22.517524719238 57.362998962402 185 185 185
21.194158554077 22.503595352173 57.327003479004 178 178 178
21.208551406860 21.497249603271 57.314994812012 18 18 18
21.236410140991 21.483093261719 57.349998474121 233 233 233
21.236410140991 21.483093261719 57.387001037598 13 13 13
21.236410140991 21.483093261719 57.424003601074 22 22 22
21.236410140991 21.483093261719 57.460990905762 238 238 238
21.215631484985 21.511180877686 57.909004211426 226 226 226
21.215631484985 21.511180877686 57.945991516113 250 250 250
21.247028350830 21.503986358643 57.982994079590 255 255 255
21.247028350830 21.503986358643 58.021003723145 221 221 221
21.212091445923 21.504215240479 58.062995910645 56 56 56
21.045850753784 21.728912353516 56.669990539551 94 94 94
21.052928924561 21.742839813232 56.708000183105 129 129 129
21.049388885498 21.735877990723 56.747001647949 125 125 125
21.025070190430 21.756999969482 56.784996032715 111 111 111
21.025070190430 21.756999969482 56.823997497559 107 107 107
21.025070190430 21.756999969482 56.861991882324 104 104 104
21.025070190430 21.756999969482 56.900993347168 97 97 97
21.203298568726 21.762823104858 57.388999938965 19 19 19
21.206838607788 21.769788742065 57.426002502441 23 23 23
21.206838607788 21.769788742065 57.463996887207 24 24 24
21.210378646851 21.776752471924 57.500999450684 23 23 23
21.210378646851 21.776752471924 57.538993835449 24 24 24
21.206838607788 21.769788742065 57.577995300293 24 24 24
21.210378646851 21.776752471924 57.614997863770 231 231 231
21.210378646851 21.776752471924 57.767997741699 241 241 241
21.210378646851 21.776752471924 57.805992126465 4 4 4
21.206838607788 21.769788742065 57.846000671387 5 5 5
21.206838607788 21.769788742065 57.883995056152 6 6 6
21.210378646851 21.776752471924 57.920997619629 5 5 5
21.238237380981 21.762596130371 57.959999084473 255 255 255
21.238237380981 21.762596130371 57.997001647949 185 185 185
21.187425613403 22.007503509521 54.827003479004 209 209 209
21.225902557373 22.014238357544 54.881996154785 115 115 115
21.253761291504 22.000080108643 55.010993957520 101 101 101
21.183885574341 22.000537872314 55.030998229980 237 237 237
21.232980728149 22.028167724609 55.092002868652 109 109 109
21.232980728149 22.028167724609 55.133995056152 112 112 112
21.128168106079 22.028852462769 55.146003723145 21 21 21
21.257301330566 22.007045745850 55.219001770020 99 99 99
21.257301330566 22.007045745850 55.258995056152 92 92 92
21.260839462280 22.014011383057 55.299003601074 94 94 94
21.264379501343 22.020977020264 55.342994689941 93 93 93
21.260839462280 22.014011383057 55.381004333496 99 99 99
21.264379501343 22.020977020264 55.422004699707 100 100 100
21.260839462280 22.014011383057 55.458992004395 99 99 99
21.257301330566 22.007045745850 55.497993469238 95 95 95
21.264379501343 22.020977020264 55.540000915527 102 102 102
21.264379501343 22.020977020264 55.579994201660 103 103 103
21.260839462280 22.014011383057 55.618003845215 97 97 97
21.260839462280 22.014011383057 55.657005310059 103 103 103
21.292238235474 22.006816864014 55.697990417480 98 98 98
21.292238235474 22.006816864014 55.736991882324 102 102 102
21.264379501343 22.020977020264 55.775993347168 96 96 96
21.295778274536 22.013782501221 55.816993713379 102 102 102
21.292238235474 22.006816864014 55.853996276855 100 100 100
21.292238235474 22.006816864014 55.892997741699 97 97 97
21.295778274536 22.013782501221 55.931999206543 100 100 100
21.295778274536 22.013782501221 55.971000671387 106 106 106
21.295778274536 22.013782501221 56.010002136230 105 105 105
21.295778274536 22.013782501221 56.047004699707 99 99 99
21.264379501343 22.020977020264 56.084999084473 102 102 102
21.264379501343 22.020977020264 56.122993469238 100 100 100
21.292238235474 22.006816864014 56.161994934082 105 105 105
21.295778274536 22.013782501221 56.200996398926 105 105 105
21.292238235474 22.006816864014 56.237998962402 105 105 105
21.295778274536 22.013782501221 56.277000427246 107 107 107
21.292238235474 22.006816864014 56.314994812012 109 109 109
21.264379501343 22.020977020264 56.350990295410 131 131 131
21.267919540405 22.027942657471 56.389991760254 126 126 126
21.267919540405 22.027942657471 56.428001403809 128 128 128
21.260839462280 22.014011383057 56.465003967285 114 114 114
21.267919540405 22.027942657471 56.693992614746 119 119 119
21.232980728149 22.028167724609 56.732002258301 149 149 149
21.260839462280 22.014011383057 56.769996643066 174 174 174
21.260839462280 22.014011383057 56.807991027832 162 162 162
21.232980728149 22.028167724609 56.846992492676 156 156 156
21.267919540405 22.027942657471 56.885002136230 143 143 143
21.271459579468 22.034904479980 56.922996520996 141 141 141
21.271459579468 22.034904479980 56.960990905762 146 146 146
21.274997711182 22.041870117188 56.997993469238 131 131 131
21.299318313599 22.020748138428 57.036003112793 132 132 132
21.274997711182 22.041870117188 57.073997497559 130 130 130
21.274997711182 22.041870117188 57.111991882324 128 128 128
21.306396484375 22.034675598145 57.150001525879 128 128 128
21.299318313599 22.020748138428 57.187004089355 130 130 130
21.274997711182 22.041870117188 57.225990295410 131 131 131
21.306396484375 22.034675598145 57.262992858887 129 129 129
21.299318313599 22.020748138428 57.301002502441 124 124 124
21.306396484375 22.034675598145 57.338996887207 132 132 132
21.306396484375 22.034675598145 57.377998352051 132 132 132
21.306396484375 22.034675598145 57.415992736816 131 131 131
21.306396484375 22.034675598145 57.454002380371 137 137 137
21.302856445313 22.027713775635 57.491004943848 139 139 139
21.264379501343 22.020977020264 57.534996032715 203 203 203
21.236520767212 22.035133361816 57.575004577637 233 233 233
21.236520767212 22.035133361816 57.613990783691 232 232 232
21.236520767212 22.035133361816 57.652992248535 223 223 223
21.236520767212 22.035133361816 57.691993713379 229 229 229
21.236520767212 22.035133361816 57.730003356934 222 222 222
21.236520767212 22.035133361816 57.769004821777 220 220 220
21.236520767212 22.035133361816 57.806999206543 216 216 216
21.271459579468 22.034904479980 57.842002868652 172 172 172
21.274997711182 22.041870117188 57.879997253418 165 165 165
21.306396484375 22.034675598145 57.915992736816 165 165 165
21.306396484375 22.034675598145 57.954994201660 161 161 161
21.306396484375 22.034675598145 57.993995666504 160 160 160
21.306396484375 22.034675598145 58.032997131348 162 162 162
21.341335296631 22.034448623657 58.064002990723 53 53 53
21.161390304565 22.301162719727 57.419990539551 36 36 36
21.172010421753 22.322057723999 57.456993103027 14 14 14
21.172010421753 22.322057723999 57.497001647949 26 26 26
21.168470382690 22.315092086792 57.536994934082 24 24 24
21.172010421753 22.322057723999 57.577003479004 26 26 26
21.199869155884 22.307899475098 57.616004943848 20 20 20
21.172010421753 22.322057723999 57.655998229980 250 250 250
21.196329116821 22.300933837891 57.693992614746 192 192 192
21.199869155884 22.307899475098 57.734992980957 9 9 9
21.203407287598 22.314863204956 57.773994445801 8 8 8
21.199869155884 22.307899475098 57.814002990723 250 250 250
21.203407287598 22.314863204956 57.853996276855 249 249 249
21.203407287598 22.314863204956 57.894004821777 255 255 255
21.199869155884 22.307899475098 57.932991027832 226 226 226
21.166757583618 22.587631225586 57.288002014160 6 6 6
21.163217544556 22.580665588379 57.329002380371 18 18 18
21.166757583618 22.587631225586 57.368995666504 13 13 13
21.166757583618 22.587631225586 57.409004211426 28 28 28
21.166757583618 22.587631225586 57.450004577637 28 28 28
21.166757583618 22.587631225586 57.489997863770 27 27 27
21.166757583618 22.587631225586 57.530998229980 121 121 121
21.198154449463 22.580436706543 57.853996276855 198 198 198
21.173833847046 22.601558685303 57.896003723145 243 243 243
21.173833847046 22.601558685303 57.937004089355 234 234 234
21.201692581177 22.587402343750 57.975990295410 238 238 238
21.173833847046 22.601558685303 58.019004821777 220 220 220
21.173833847046 22.601558685303 58.060997009277 239 239 239
21.201692581177 22.587402343750 58.099998474121 194 194 194
21.253650665283 21.448041915894 58.008003234863 57 57 57
21.281511306763 21.433883666992 57.967002868652 100 100 100
21.257190704346 21.455005645752 57.930000305176 74 74 74
21.264268875122 21.468935012817 57.478004455566 16 16 16
21.257190704346 21.455005645752 57.439002990723 121 121 121
21.267808914185 21.475900650024 57.402992248535 154 154 154
21.236410140991 21.483093261719 57.366996765137 96 96 96
21.239950180054 21.490058898926 57.329994201660 52 52 52
21.070625305176 21.777664184570 56.963996887207 65 65 65
21.070625305176 21.777664184570 56.924995422363 83 83 83
21.091405868530 21.749578475952 56.885002136230 79 79 79
21.070625305176 21.777664184570 56.846000671387 77 77 77
21.070625305176 21.777664184570 56.806999206543 84 84 84
21.070625305176 21.777664184570 56.766990661621 82 82 82
21.091405868530 21.749578475952 56.728004455566 80 80 80
21.070625305176 21.777664184570 56.689002990723 102 102 102
21.087865829468 21.742612838745 56.650001525879 57 57 57
21.091405868530 21.749578475952 56.611000061035 19 19 19
21.074165344238 21.784629821777 56.570991516113 17 17 17
21.243143081665 21.979187011719 57.846000671387 167 167 167
21.243143081665 21.979187011719 57.808998107910 154 154 154
21.246683120728 21.986152648926 57.766990661621 145 145 145
21.243143081665 21.979187011719 57.725990295410 133 133 133
21.246683120728 21.986152648926 57.689002990723 136 136 136
21.243143081665 21.979187011719 57.646995544434 136 136 136
21.246683120728 21.986152648926 57.609001159668 135 135 135
21.243143081665 21.979187011719 57.568992614746 142 142 142
21.243143081665 21.979187011719 57.529991149902 129 129 129
21.246683120728 21.986152648926 57.491996765137 89 89 89
21.246683120728 21.986152648926 57.452995300293 103 103 103
21.246683120728 21.986152648926 57.413002014160 116 116 116
21.222364425659 22.007274627686 57.374992370605 123 123 123
21.246683120728 21.986152648926 57.334999084473 125 125 125
21.246683120728 21.986152648926 57.295997619629 120 120 120
21.222364425659 22.007274627686 57.258003234863 123 123 123
21.222364425659 22.007274627686 57.217994689941 123 123 123
21.229442596436 22.021203994751 57.180000305176 124 124 124
21.222364425659 22.007274627686 57.140998840332 124 124 124
21.222364425659 22.007274627686 57.100990295410 126 126 126
21.229442596436 22.021203994751 57.062995910645 135 135 135
21.229442596436 22.021203994751 57.023994445801 141 141 141
21.229442596436 22.021203994751 56.984992980957 151 151 151
21.229442596436 22.021203994751 56.945991516113 157 157 157
21.229442596436 22.021203994751 56.907005310059 175 175 175
21.229442596436 22.021203994751 56.868003845215 175 175 175
21.229442596436 22.021203994751 56.829002380371 178 178 178
21.250223159790 21.993118286133 56.790000915527 164 164 164
21.222364425659 22.007274627686 56.750999450684 186 186 186
21.229442596436 22.021203994751 56.711997985840 194 194 194
21.229442596436 22.021203994751 56.672004699707 194 194 194
21.229442596436 22.021203994751 56.633995056152 191 191 191
21.232980728149 22.028167724609 56.594993591309 187 187 187
21.229442596436 22.021203994751 56.555000305176 165 165 165
21.229442596436 22.021203994751 56.515998840332 192 192 192
21.232980728149 22.028167724609 56.476997375488 190 190 190
21.232980728149 22.028167724609 56.437004089355 190 190 190
21.229442596436 22.021203994751 56.398994445801 186 186 186
21.232980728149 22.028167724609 56.359992980957 185 185 185
21.232980728149 22.028167724609 56.319999694824 181 181 181
21.232980728149 22.028167724609 56.280998229980 181 181 181
21.232980728149 22.028167724609 56.241996765137 175 175 175
21.232980728149 22.028167724609 56.202003479004 179 179 179
21.236520767212 22.035133361816 56.163002014160 179 179 179
21.236520767212 22.035133361816 56.122993469238 175 175 175
21.236520767212 22.035133361816 56.083992004395 177 177 177
21.236520767212 22.035133361816 56.044990539551 179 179 179
21.236520767212 22.035133361816 56.004997253418 180 180 180
21.232980728149 22.028167724609 55.967002868652 177 177 177
21.232980728149 22.028167724609 55.926994323730 179 179 179
21.232980728149 22.028167724609 55.887001037598 174 174 174
21.232980728149 22.028167724609 55.846992492676 173 173 173
21.260839462280 22.014011383057 55.807991027832 173 173 173
21.260839462280 22.014011383057 55.767997741699 172 172 172
21.260839462280 22.014011383057 55.728996276855 170 170 170
21.260839462280 22.014011383057 55.687995910645 167 167 167
21.253761291504 22.000080108643 55.650001525879 168 168 168
21.257301330566 22.007045745850 55.611000061035 163 163 163
21.260839462280 22.014011383057 55.568992614746 161 161 161
21.253761291504 22.000080108643 55.528999328613 159 159 159
21.257301330566 22.007045745850 55.491004943848 160 160 160
21.257301330566 22.007045745850 55.450996398926 155 155 155
21.253761291504 22.000080108643 55.411994934082 154 154 154
21.253761291504 22.000080108643 55.372001647949 155 155 155
21.257301330566 22.007045745850 55.329994201660 156 156 156
21.253761291504 22.000080108643 55.290992736816 159 159 159
21.253761291504 22.000080108643 55.249992370605 157 157 157
21.253761291504 22.000080108643 55.208000183105 158 158 158
21.285160064697 21.992889404297 55.168998718262 158 158 158
21.285160064697 21.992889404297 55.127998352051 156 156 156
21.285160064697 21.992889404297 55.085990905762 161 161 161
21.281620025635 21.985923767090 55.047996520996 162 162 162
21.285160064697 21.992889404297 55.003990173340 165 165 165
21.285160064697 21.992889404297 54.961997985840 165 165 165
21.285160064697 21.992889404297 54.920997619629 164 164 164
21.285160064697 21.992889404297 54.878990173340 165 165 165
21.285160064697 21.992889404297 54.835990905762 166 166 166
21.249876022339 22.475280761719 58.038993835449 117 117 117
21.249876022339 22.475280761719 57.997993469238 128 128 128
21.249876022339 22.475280761719 57.954994201660 127 127 127
21.249876022339 22.475280761719 57.915000915527 114 114 114
21.225557327271 22.496402740479 57.875999450684 126 126 126
21.249876022339 22.475280761719 57.831993103027 86 86 86
21.229097366333 22.503368377686 57.547996520996 50 50 50
21.208314895630 22.531455993652 57.508995056152 142 142 142
21.215394973755 22.545385360718 57.469993591309 140 140 140
21.208314895630 22.531455993652 57.426994323730 147 147 147
21.215394973755 22.545385360718 57.387992858887 151 151 151
21.208314895630 22.531455993652 57.346000671387 166 166 166
21.215394973755 22.545385360718 57.305992126465 122 122 122
21.043333053589 22.413738250732 56.857002258301 75 75 75
21.043333053589 22.413738250732 56.898002624512 39 39 39
21.179544448853 22.405860900879 57.375999450684 203 203 203
21.179544448853 22.405860900879 57.415992736816 27 27 27
21.179544448853 22.405860900879 57.456993103027 27 27 27
21.183084487915 22.412826538086 57.495994567871 20 20 20
21.179544448853 22.405860900879 57.536994934082 27 27 27
21.179544448853 22.405860900879 57.577003479004 27 27 27
21.179544448853 22.405860900879 57.616996765137 244 244 244
21.214483261108 22.405633926392 57.816001892090 221 221 221
21.218021392822 22.412599563599 57.855003356934 245 245 245
21.214483261108 22.405633926392 57.896995544434 237 237 237
21.214483261108 22.405633926392 57.937995910645 241 241 241
21.214483261108 22.405633926392 57.976997375488 228 228 228
21.214483261108 22.405633926392 58.019004821777 247 247 247
21.214483261108 22.405633926392 58.060005187988 170 170 170
21.043333053589 22.413738250732 56.816001892090 19 19 19
21.212657928467 22.126132965088 56.792991638184 127 127 127
21.034429550171 22.120307922363 56.870994567871 116 116 116
21.037969589233 22.127269744873 56.911003112793 105 105 105
21.030889511108 22.113342285156 56.950004577637 101 101 101
21.037969589233 22.127269744873 56.989997863770 171 171 171
21.037969589233 22.127269744873 57.029991149902 48 48 48
21.205579757690 22.112201690674 57.534004211426 47 47 47
21.205579757690 22.112201690674 57.572990417480 242 242 242
21.205579757690 22.112201690674 57.612998962402 2 2 2
21.209119796753 22.119167327881 57.652000427246 253 253 253
21.212657928467 22.126132965088 57.689002990723 17 17 17
21.212657928467 22.126132965088 57.728004455566 11 11 11
21.216197967529 22.133094787598 57.766990661621 249 249 249
21.209119796753 22.119167327881 57.808998107910 15 15 15
21.212657928467 22.126132965088 57.846992492676 241 241 241
21.216197967529 22.133094787598 57.883995056152 204 204 204
21.107843399048 22.126815795898 56.831001281738 77 77 77
21.067543029785 21.840576171875 56.456993103027 40 40 40
21.071081161499 21.847541809082 56.497993469238 122 122 122
21.071081161499 21.847541809082 56.536994934082 247 247 247
21.036144256592 21.847768783569 56.730003356934 103 103 103
21.098939895630 21.833381652832 56.769004821777 108 108 108
21.098939895630 21.833381652832 56.807991027832 96 96 96
21.098939895630 21.833381652832 56.846000671387 102 102 102
21.071081161499 21.847541809082 56.885002136230 98 98 98
21.036144256592 21.847768783569 56.924003601074 92 92 92
21.032606124878 21.840805053711 56.963005065918 98 98 98
21.032606124878 21.840805053711 57.001991271973 102 102 102
21.235153198242 21.825506210327 57.491996765137 3 3 3
21.235153198242 21.825506210327 57.529991149902 24 24 24
21.235153198242 21.825506210327 57.568000793457 24 24 24
21.235153198242 21.825506210327 57.607002258301 24 24 24
21.235153198242 21.825506210327 57.644004821777 24 24 24
21.235153198242 21.825506210327 57.683998107910 23 23 23
21.235153198242 21.825506210327 57.721992492676 236 236 236
21.235153198242 21.825506210327 57.760993957520 3 3 3
21.203752517700 21.832698822021 57.799995422363 9 9 9
21.203752517700 21.832698822021 57.838996887207 6 6 6
21.203752517700 21.832698822021 57.876991271973 16 16 16
21.235153198242 21.825506210327 57.915992736816 255 255 255
21.235153198242 21.825506210327 57.952995300293 220 220 220
21.236867904663 21.552970886230 57.305000305176 200 200 200
21.233327865601 21.546005249023 57.342994689941 23 23 23
21.233327865601 21.546005249023 57.379997253418 23 23 23
21.233327865601 21.546005249023 57.416999816895 23 23 23
21.233327865601 21.546005249023 57.454002380371 23 23 23
21.233327865601 21.546005249023 57.491004943848 23 23 23
21.233327865601 21.546005249023 57.527992248535 23 23 23
21.233327865601 21.546005249023 57.566001892090 45 45 45
21.233327865601 21.546005249023 57.903999328613 245 245 245
21.233327865601 21.546005249023 57.941001892090 3 3 3
21.233327865601 21.546005249023 57.978996276855 252 252 252
21.233327865601 21.546005249023 58.015998840332 254 254 254
21.233327865601 21.546005249023 58.055992126465 6 6 6
21.233327865601 21.546005249023 58.092994689941 253 253 253
21.233327865601 21.546005249023 58.131004333496 198 198 198
21.204776763916 22.524490356445 58.118995666504 129 129 129
21.201238632202 22.517524719238 58.081001281738 150 150 150
21.204776763916 22.524490356445 58.044990539551 168 168 168
21.201238632202 22.517524719238 58.006004333496 157 157 157
21.201238632202 22.517524719238 57.969993591309 154 154 154
21.201238632202 22.517524719238 57.933998107910 151 151 151
21.204776763916 22.524490356445 57.898994445801 152 152 152
21.173379898071 22.531682968140 57.538002014160 165 165 165
21.180456161499 22.545614242554 57.502998352051 185 185 185
21.173379898071 22.531682968140 57.465995788574 186 186 186
21.173379898071 22.531682968140 57.430992126465 190 190 190
21.173379898071 22.531682968140 57.396003723145 199 199 199
21.173379898071 22.531682968140 57.359001159668 194 194 194
21.176918029785 22.538648605347 57.323997497559 174 174 174
21.359033584595 22.069272994995 58.075996398926 156 156 156
21.355493545532 22.062307357788 58.043998718262 155 155 155
21.355493545532 22.062307357788 58.008995056152 152 152 152
21.359033584595 22.069272994995 57.972999572754 155 155 155
21.359033584595 22.069272994995 57.937995910645 153 153 153
21.355493545532 22.062307357788 57.904991149902 152 152 152
21.355493545532 22.062307357788 57.870002746582 155 155 155
21.355493545532 22.062307357788 57.835990905762 159 159 159
21.355493545532 22.062307357788 57.801994323730 158 158 158
21.355493545532 22.062307357788 57.769004821777 159 159 159
21.351953506470 22.055343627930 57.734001159668 162 162 162
21.355493545532 22.062307357788 57.702003479004 167 167 167
21.331171035767 22.083431243896 57.669990539551 166 166 166
21.324092864990 22.069499969482 57.635002136230 167 167 167
21.327632904053 22.076465606689 57.603004455566 168 168 168
21.327632904053 22.076465606689 57.568992614746 171 171 171
21.327632904053 22.076465606689 57.534996032715 171 171 171
21.355493545532 22.062307357788 57.497993469238 155 155 155
21.355493545532 22.062307357788 57.458992004395 140 140 140
21.355493545532 22.062307357788 57.428001403809 138 138 138
21.351953506470 22.055343627930 57.394004821777 132 132 132
21.351953506470 22.055343627930 57.361000061035 136 136 136
21.355493545532 22.062307357788 57.327995300293 134 134 134
21.351953506470 22.055343627930 57.292991638184 135 135 135
21.355493545532 22.062307357788 57.262001037598 126 126 126
21.355493545532 22.062307357788 57.226997375488 127 127 127
21.355493545532 22.062307357788 57.193992614746 130 130 130
21.351953506470 22.055343627930 57.159996032715 124 124 124
21.355493545532 22.062307357788 57.126991271973 126 126 126
21.355493545532 22.062307357788 57.094001770020 121 121 121
21.355493545532 22.062307357788 57.060997009277 119 119 119
21.355493545532 22.062307357788 57.027992248535 116 116 116
21.327632904053 22.076465606689 56.995994567871 139 139 139
21.327632904053 22.076465606689 56.963005065918 141 141 141
21.327632904053 22.076465606689 56.928993225098 135 135 135
21.268375396729 22.097816467285 56.900001525879 180 180 180
21.327632904053 22.076465606689 56.862998962402 130 130 130
21.299774169922 22.090621948242 56.829994201660 137 137 137
21.299774169922 22.090621948242 56.797004699707 141 141 141
21.275453567505 22.111745834351 56.763999938965 143 143 143
21.271915435791 22.104780197144 56.730995178223 169 169 169
21.271915435791 22.104780197144 56.696998596191 149 149 149
21.271915435791 22.104780197144 56.663993835449 160 160 160
21.275453567505 22.111745834351 56.629997253418 152 152 152
21.275453567505 22.111745834351 56.596992492676 149 149 149
21.299774169922 22.090621948242 56.564002990723 124 124 124
21.271915435791 22.104780197144 56.529991149902 119 119 119
21.296234130859 22.083660125732 56.497001647949 112 112 112
21.327632904053 22.076465606689 56.463996887207 92 92 92
21.327632904053 22.076465606689 56.430992126465 85 85 85
21.324092864990 22.069499969482 56.398002624512 82 82 82
21.327632904053 22.076465606689 56.363990783691 87 87 87
21.320554733276 22.062534332275 56.331001281738 81 81 81
21.327632904053 22.076465606689 56.297996520996 79 79 79
21.327632904053 22.076465606689 56.263999938965 71 71 71
21.320554733276 22.062534332275 56.232002258301 72 72 72
21.327632904053 22.076465606689 56.197990417480 70 70 70
21.296234130859 22.083660125732 56.163002014160 67 67 67
21.327632904053 22.076465606689 56.131004333496 64 64 64
21.299774169922 22.090621948242 56.096000671387 67 67 67
21.299774169922 22.090621948242 56.062995910645 66 66 66
21.296234130859 22.083660125732 56.028999328613 55 55 55
21.324092864990 22.069499969482 55.995994567871 53 53 53
21.296234130859 22.083660125732 55.961997985840 46 46 46
21.296234130859 22.083660125732 55.928001403809 44 44 44
21.299774169922 22.090621948242 55.892997741699 34 34 34
21.296234130859 22.083660125732 55.859001159668 25 25 25
21.292695999146 22.076694488525 55.822990417480 20 20 20
21.231157302856 21.748664855957 57.980995178223 183 183 183
21.234697341919 21.755630493164 57.943992614746 186 186 186
21.231157302856 21.748664855957 57.911003112793 182 182 182
21.238237380981 21.762596130371 57.877998352051 184 184 184
21.231157302856 21.748664855957 57.842994689941 180 180 180
21.231157302856 21.748664855957 57.808998107910 184 184 184
21.210378646851 21.776752471924 57.775993347168 173 173 173
21.231157302856 21.748664855957 57.669990539551 147 147 147
21.231157302856 21.748664855957 57.635993957520 173 173 173
21.231157302856 21.748664855957 57.603004455566 175 175 175
21.231157302856 21.748664855957 57.568992614746 173 173 173
21.231157302856 21.748664855957 57.534996032715 173 173 173
21.210378646851 21.776752471924 57.502998352051 173 173 173
21.231157302856 21.748664855957 57.467994689941 173 173 173
21.231157302856 21.748664855957 57.433998107910 104 104 104
21.039684295654 21.854734420776 57.016990661621 86 86 86
21.039684295654 21.854734420776 56.982994079590 90 90 90
21.039684295654 21.854734420776 56.948997497559 83 83 83
21.067543029785 21.840576171875 56.913993835449 86 86 86
21.091861724854 21.819454193115 56.877998352051 83 83 83
21.095401763916 21.826419830322 56.844001770020 88 88 88
21.091861724854 21.819454193115 56.810005187988 83 83 83
21.091861724854 21.819454193115 56.777000427246 88 88 88
21.071081161499 21.847541809082 56.743003845215 85 85 85
21.067543029785 21.840576171875 56.709999084473 109 109 109
21.064002990723 21.833610534668 56.676002502441 119 119 119
21.071081161499 21.847541809082 56.506996154785 80 80 80
21.067543029785 21.840576171875 56.471992492676 75 75 75
21.064002990723 21.833610534668 56.437995910645 54 54 54
21.201692581177 22.587402343750 58.152992248535 13 13 13
21.201692581177 22.587402343750 58.111991882324 72 72 72
21.201692581177 22.587402343750 58.068000793457 110 110 110
21.201692581177 22.587402343750 58.028999328613 111 111 111
21.205232620239 22.594366073608 57.988990783691 129 129 129
21.201692581177 22.587402343750 57.944999694824 101 101 101
21.177373886108 22.608524322510 57.493003845215 81 81 81
21.184453964233 22.622451782227 57.452995300293 131 131 131
21.184453964233 22.622451782227 57.411994934082 95 95 95
21.184453964233 22.622451782227 57.370002746582 70 70 70
21.243143081665 21.979187011719 58.068992614746 140 140 140
21.225902557373 22.014238357544 58.034004211426 184 184 184
21.218824386597 22.000308990479 57.991004943848 179 179 179
21.218824386597 22.000308990479 57.952003479004 174 174 174
21.218824386597 22.000308990479 57.911003112793 173 173 173
21.218824386597 22.000308990479 57.870994567871 181 181 181
21.218824386597 22.000308990479 57.831993103027 184 184 184
21.243143081665 21.979187011719 57.790000915527 187 187 187
21.243143081665 21.979187011719 57.750999450684 190 190 190
21.243143081665 21.979187011719 57.711997985840 194 194 194
21.218824386597 22.000308990479 57.674003601074 191 191 191
21.218824386597 22.000308990479 57.633995056152 192 192 192
21.218824386597 22.000308990479 57.596000671387 191 191 191
21.218824386597 22.000308990479 57.555992126465 190 190 190
21.218824386597 22.000308990479 57.516990661621 191 191 191
21.218824386597 22.000308990479 57.478004455566 192 192 192
21.218824386597 22.000308990479 57.439002990723 189 189 189
21.218824386597 22.000308990479 57.400001525879 191 191 191
21.225902557373 22.014238357544 57.361991882324 191 191 191
21.225902557373 22.014238357544 57.322990417480 194 194 194
21.225902557373 22.014238357544 57.284004211426 196 196 196
21.225902557373 22.014238357544 57.245002746582 195 195 195
21.218824386597 22.000308990479 57.206001281738 194 194 194
21.225902557373 22.014238357544 57.166999816895 193 193 193
21.225902557373 22.014238357544 57.127998352051 196 196 196
21.218824386597 22.000308990479 57.088996887207 197 197 197
21.225902557373 22.014238357544 57.049995422363 197 197 197
21.225902557373 22.014238357544 57.012001037598 198 198 198
21.225902557373 22.014238357544 56.972999572754 198 198 198
21.225902557373 22.014238357544 56.933998107910 204 204 204
21.225902557373 22.014238357544 56.894996643066 206 206 206
21.225902557373 22.014238357544 56.855995178223 203 203 203
21.218824386597 22.000308990479 56.816993713379 173 173 173
21.225902557373 22.014238357544 56.777992248535 192 192 192
21.225902557373 22.014238357544 56.739997863770 196 196 196
21.225902557373 22.014238357544 56.700996398926 195 195 195
21.225902557373 22.014238357544 56.661994934082 192 192 192
21.225902557373 22.014238357544 56.622993469238 193 193 193
21.225902557373 22.014238357544 56.583992004395 167 167 167
21.225902557373 22.014238357544 56.544990539551 188 188 188
21.225902557373 22.014238357544 56.506004333496 192 192 192
21.218824386597 22.000308990479 56.467994689941 185 185 185
21.225902557373 22.014238357544 56.428001403809 183 183 183
21.218824386597 22.000308990479 56.389991760254 184 184 184
21.225902557373 22.014238357544 56.349998474121 182 182 182
21.218824386597 22.000308990479 56.312004089355 179 179 179
21.225902557373 22.014238357544 56.271995544434 175 175 175
21.218824386597 22.000308990479 56.234992980957 176 176 176
21.218824386597 22.000308990479 56.194999694824 175 175 175
21.218824386597 22.000308990479 56.155998229980 171 171 171
21.218824386597 22.000308990479 56.116996765137 170 170 170
21.218824386597 22.000308990479 56.077995300293 171 171 171
21.243143081665 21.979187011719 56.040000915527 168 168 168
21.218824386597 22.000308990479 55.999992370605 166 166 166
21.218824386597 22.000308990479 55.959999084473 162 162 162
21.243143081665 21.979187011719 55.920997619629 162 162 162
21.218824386597 22.000308990479 55.881004333496 158 158 158
21.243143081665 21.979187011719 55.842994689941 158 158 158
21.243143081665 21.979187011719 55.803001403809 155 155 155
21.243143081665 21.979187011719 55.764991760254 154 154 154
21.239603042603 21.972221374512 55.725990295410 158 158 158
21.243143081665 21.979187011719 55.685997009277 158 158 158
21.239603042603 21.972221374512 55.646995544434 155 155 155
21.239603042603 21.972221374512 55.605995178223 160 160 160
21.243143081665 21.979187011719 55.566001892090 158 158 158
21.239603042603 21.972221374512 55.527000427246 159 159 159
21.239603042603 21.972221374512 55.486991882324 159 159 159
21.239603042603 21.972221374512 55.446998596191 159 159 159
21.243143081665 21.979187011719 55.402992248535 161 161 161
21.243143081665 21.979187011719 55.363990783691 160 160 160
21.243143081665 21.979187011719 55.323997497559 161 161 161
21.243143081665 21.979187011719 55.282997131348 160 160 160
21.239603042603 21.972221374512 55.243003845215 161 161 161
21.243143081665 21.979187011719 55.202003479004 161 161 161
21.239603042603 21.972221374512 55.161994934082 160 160 160
21.239603042603 21.972221374512 55.120994567871 164 164 164
21.243143081665 21.979187011719 55.077995300293 164 164 164
21.239603042603 21.972221374512 55.038002014160 166 166 166
21.243143081665 21.979187011719 54.995002746582 166 166 166
21.243143081665 21.979187011719 54.954002380371 165 165 165
21.239603042603 21.972221374512 54.911994934082 167 167 167
21.243143081665 21.979187011719 54.868995666504 167 167 167
21.239603042603 21.972221374512 54.829002380371 167 167 167
21.218713760376 21.448268890381 58.072990417480 67 67 67
21.218713760376 21.448268890381 58.034996032715 107 107 107
21.250112533569 21.441076278687 57.995002746582 141 141 141
21.225791931152 21.462200164795 57.958992004395 109 109 109
21.229331970215 21.469161987305 57.506996154785 40 40 40
21.225791931152 21.462200164795 57.467994689941 131 131 131
21.225791931152 21.462200164795 57.431999206543 159 159 159
21.225791931152 21.462200164795 57.394004821777 100 100 100
21.225791931152 21.462200164795 57.357994079590 69 69 69
21.028608322144 21.763965606689 56.993995666504 57 57 57
21.049388885498 21.735877990723 56.954994201660 82 82 82
21.049388885498 21.735877990723 56.915992736816 81 81 81
21.049388885498 21.735877990723 56.876991271973 82 82 82
21.049388885498 21.735877990723 56.838005065918 82 82 82
21.049388885498 21.735877990723 56.799003601074 81 81 81
21.045850753784 21.728912353516 56.760002136230 83 83 83
21.049388885498 21.735877990723 56.721000671387 93 93 93
21.073709487915 21.714754104614 56.681999206543 66 66 66
21.045850753784 21.728912353516 56.642997741699 16 16 16
21.190855026245 21.462429046631 57.260002136230 122 122 122
21.190855026245 21.462429046631 57.297004699707 1 1 1
21.222253799438 21.455234527588 57.333000183105 22 22 22
21.222253799438 21.455234527588 57.370002746582 22 22 22
21.194395065308 21.469390869141 57.407005310059 22 22 22
21.222253799438 21.455234527588 57.443992614746 18 18 18
21.222253799438 21.455234527588 57.480995178223 22 22 22
21.225791931152 21.462200164795 57.892997741699 188 188 188
21.222253799438 21.455234527588 57.931999206543 254 254 254
21.222253799438 21.455234527588 57.969001770020 1 1 1
21.225791931152 21.462200164795 58.006996154785 251 251 251
21.225791931152 21.462200164795 58.042991638184 0 0 0
21.222253799438 21.455234527588 58.081993103027 236 236 236
21.225791931152 21.462200164795 58.120002746582 123 123 123
21.042766571045 21.791824340820 56.452003479004 27 27 27
21.077703475952 21.791595458984 56.493003845215 224 224 224
21.042766571045 21.791824340820 56.529991149902 195 195 195
21.007829666138 21.792051315308 56.685005187988 86 86 86
21.039228439331 21.784858703613 56.723991394043 109 109 109
21.070625305176 21.777664184570 56.762992858887 117 117 117
21.074165344238 21.784629821777 56.801994323730 103 103 103
21.070625305176 21.777664184570 56.840003967285 106 106 106
21.039228439331 21.784858703613 56.878990173340 102 102 102
21.035688400269 21.777893066406 56.917991638184 104 104 104
21.007829666138 21.792051315308 56.956993103027 99 99 99
21.004289627075 21.785085678101 56.995994567871 66 66 66
21.186056137085 21.797874450684 57.446998596191 228 228 228
21.186056137085 21.797874450684 57.486000061035 24 24 24
21.186056137085 21.797874450684 57.523994445801 24 24 24
21.182516098022 21.790908813477 57.562995910645 24 24 24
21.186056137085 21.797874450684 57.600990295410 24 24 24
21.182516098022 21.790908813477 57.639991760254 24 24 24
21.186056137085 21.797874450684 57.676994323730 247 247 247
21.182516098022 21.790908813477 57.717002868652 236 236 236
21.186056137085 21.797874450684 57.754997253418 3 3 3
21.178977966309 21.783946990967 57.794990539551 8 8 8
21.182516098022 21.790908813477 57.833000183105 3 3 3
21.182516098022 21.790908813477 57.872001647949 7 7 7
21.182516098022 21.790908813477 57.911003112793 255 255 255
21.213916778564 21.783718109131 57.946998596191 201 201 201
20.995952606201 22.113569259644 56.876991271973 101 101 101
21.027349472046 22.106376647949 56.916999816895 123 123 123
21.030889511108 22.113342285156 56.956993103027 155 155 155
21.027349472046 22.106376647949 56.997001647949 63 63 63
21.174180984497 22.119394302368 57.502998352051 153 153 153
21.170640945435 22.112430572510 57.542991638184 255 255 255
21.174180984497 22.119394302368 57.581001281738 8 8 8
21.174180984497 22.119394302368 57.620994567871 255 255 255
21.174180984497 22.119394302368 57.659996032715 10 10 10
21.177721023560 22.126359939575 57.698997497559 18 18 18
21.177721023560 22.126359939575 57.737998962402 6 6 6
21.177721023560 22.126359939575 57.777992248535 0 0 0
21.177721023560 22.126359939575 57.816993713379 5 5 5
21.177721023560 22.126359939575 57.857002258301 248 248 248
21.030889511108 22.113342285156 56.838005065918 57 57 57
21.134445190430 22.455072402954 57.312004089355 117 117 117
21.162303924561 22.440914154053 57.351997375488 27 27 27
21.162303924561 22.440914154053 57.392997741699 27 27 27
21.158765792847 22.433948516846 57.432991027832 27 27 27
21.162303924561 22.440914154053 57.471992492676 27 27 27
21.162303924561 22.440914154053 57.512992858887 27 27 27
21.162303924561 22.440914154053 57.553001403809 16 16 16
21.197240829468 22.440685272217 57.833000183105 218 218 218
21.165842056274 22.447877883911 57.875999450684 247 247 247
21.165842056274 22.447877883911 57.915992736816 236 236 236
21.165842056274 22.447877883911 57.956993103027 237 237 237
21.197240829468 22.440685272217 57.997993469238 225 225 225
21.165842056274 22.447877883911 58.040000915527 254 254 254
21.165842056274 22.447877883911 58.081001281738 152 152 152
21.042310714722 21.721946716309 56.581001281738 36 36 36
21.042310714722 21.721946716309 56.614997863770 57 57 57
21.014451980591 21.736106872559 56.648002624512 85 85 85
21.014451980591 21.736106872559 56.681999206543 113 113 113
21.014451980591 21.736106872559 56.715995788574 94 94 94
21.010911941528 21.729141235352 56.749992370605 99 99 99
21.010911941528 21.729141235352 56.782997131348 102 102 102
21.010911941528 21.729141235352 56.816993713379 100 100 100
21.010911941528 21.729141235352 56.850990295410 102 102 102
21.014451980591 21.736106872559 56.883995056152 100 100 100
21.010911941528 21.729141235352 56.918998718262 102 102 102
21.010911941528 21.729141235352 56.952995300293 101 101 101
21.205924987793 21.630035400391 57.331001281738 32 32 32
21.205924987793 21.630035400391 57.366004943848 177 177 177
21.205924987793 21.630035400391 57.398994445801 177 177 177
21.205924987793 21.630035400391 57.432991027832 177 177 177
21.205924987793 21.630035400391 57.465003967285 175 175 175
21.205924987793 21.630035400391 57.497993469238 177 177 177
21.205924987793 21.630035400391 57.530998229980 175 175 175
21.205924987793 21.630035400391 57.564994812012 170 170 170
21.181606292725 21.651161193848 57.803993225098 175 175 175
21.205924987793 21.630035400391 57.834999084473 183 183 183
21.205924987793 21.630035400391 57.870994567871 183 183 183
21.205924987793 21.630035400391 57.903999328613 183 183 183
21.205924987793 21.630035400391 57.939002990723 180 180 180
21.205924987793 21.630035400391 57.972999572754 182 182 182
21.205924987793 21.630035400391 58.006004333496 182 182 182
21.233783721924 21.615879058838 58.036994934082 94 94 94
21.257301330566 22.007045745850 54.812995910645 152 152 152
21.260839462280 22.014011383057 54.846000671387 155 155 155
21.257301330566 22.007045745850 54.885002136230 156 156 156
21.264379501343 22.020977020264 54.918998718262 162 162 162
21.257301330566 22.007045745850 54.956993103027 159 159 159
21.257301330566 22.007045745850 54.993003845215 161 161 161
21.264379501343 22.020977020264 55.027000427246 162 162 162
21.257301330566 22.007045745850 55.064002990723 165 165 165
21.257301330566 22.007045745850 55.098991394043 163 163 163
21.260839462280 22.014011383057 55.137001037598 165 165 165
21.260839462280 22.014011383057 55.172004699707 168 168 168
21.260839462280 22.014011383057 55.206993103027 169 169 169
21.260839462280 22.014011383057 55.243003845215 169 169 169
21.260839462280 22.014011383057 55.277000427246 173 173 173
21.260839462280 22.014011383057 55.314002990723 174 174 174
21.260839462280 22.014011383057 55.347999572754 174 174 174
21.288698196411 21.999851226807 55.383995056152 173 173 173
21.260839462280 22.014011383057 55.417991638184 176 176 176
21.260839462280 22.014011383057 55.452003479004 174 174 174
21.285160064697 21.992889404297 55.486991882324 178 178 178
21.288698196411 21.999851226807 55.523002624512 176 176 176
21.288698196411 21.999851226807 55.556999206543 180 180 180
21.288698196411 21.999851226807 55.590995788574 180 180 180
21.288698196411 21.999851226807 55.624992370605 181 181 181
21.288698196411 21.999851226807 55.657997131348 185 185 185
21.288698196411 21.999851226807 55.691993713379 183 183 183
21.288698196411 21.999851226807 55.726997375488 187 187 187
21.288698196411 21.999851226807 55.760993957520 186 186 186
21.288698196411 21.999851226807 55.795997619629 185 185 185
21.288698196411 21.999851226807 55.827995300293 186 186 186
21.288698196411 21.999851226807 55.861991882324 186 186 186
21.288698196411 21.999851226807 55.896003723145 186 186 186
21.288698196411 21.999851226807 55.928993225098 188 188 188
21.288698196411 21.999851226807 55.963005065918 189 189 189
21.288698196411 21.999851226807 55.997001647949 192 192 192
21.285160064697 21.992889404297 56.030998229980 192 192 192
21.288698196411 21.999851226807 56.062995910645 195 195 195
21.288698196411 21.999851226807 56.096992492676 200 200 200
21.288698196411 21.999851226807 56.129997253418 196 196 196
21.288698196411 21.999851226807 56.163002014160 203 203 203
21.288698196411 21.999851226807 56.196998596191 199 199 199
21.288698196411 21.999851226807 56.228996276855 202 202 202
21.288698196411 21.999851226807 56.262992858887 204 204 204
21.285160064697 21.992889404297 56.295997619629 204 204 204
21.285160064697 21.992889404297 56.329002380371 205 205 205
21.285160064697 21.992889404297 56.361991882324 204 204 204
21.285160064697 21.992889404297 56.394996643066 208 208 208
21.285160064697 21.992889404297 56.428001403809 212 212 212
21.288698196411 21.999851226807 56.460990905762 212 212 212
21.320098876953 21.992660522461 56.493995666504 213 213 213
21.285160064697 21.992889404297 56.527000427246 219 219 219
21.288698196411 21.999851226807 56.560005187988 223 223 223
21.288698196411 21.999851226807 56.592994689941 224 224 224
21.285160064697 21.992889404297 56.625999450684 235 235 235
21.288698196411 21.999851226807 56.659004211426 3 3 3
21.285160064697 21.992889404297 56.691993713379 251 251 251
21.285160064697 21.992889404297 56.724998474121 242 242 242
21.285160064697 21.992889404297 56.758003234863 235 235 235
21.288698196411 21.999851226807 56.790992736816 227 227 227
21.288698196411 21.999851226807 56.823997497559 232 232 232
21.320098876953 21.992660522461 56.855995178223 223 223 223
21.320098876953 21.992660522461 56.888999938965 217 217 217
21.320098876953 21.992660522461 56.922004699707 215 215 215
21.320098876953 21.992660522461 56.954994201660 214 214 214
21.320098876953 21.992660522461 56.987998962402 213 213 213
21.288698196411 21.999851226807 57.021995544434 216 216 216
21.288698196411 21.999851226807 57.055000305176 212 212 212
21.320098876953 21.992660522461 57.086997985840 208 208 208
21.320098876953 21.992660522461 57.120994567871 213 213 213
21.313020706177 21.978731155396 57.152992248535 208 208 208
21.313020706177 21.978731155396 57.187004089355 210 210 210
21.313020706177 21.978731155396 57.219993591309 205 205 205
21.320098876953 21.992660522461 57.253990173340 202 202 202
21.313020706177 21.978731155396 57.286003112793 203 203 203
21.313020706177 21.978731155396 57.319999694824 201 201 201
21.313020706177 21.978731155396 57.353004455566 197 197 197
21.313020706177 21.978731155396 57.385993957520 194 194 194
21.313020706177 21.978731155396 57.419990539551 194 194 194
21.313020706177 21.978731155396 57.454002380371 195 195 195
21.313020706177 21.978731155396 57.486991882324 194 194 194
21.313020706177 21.978731155396 57.521995544434 187 187 187
21.313020706177 21.978731155396 57.553993225098 190 190 190
21.320098876953 21.992660522461 57.590003967285 192 192 192
21.313020706177 21.978731155396 57.622993469238 189 189 189
21.313020706177 21.978731155396 57.655998229980 189 189 189
21.313020706177 21.978731155396 57.689994812012 187 187 187
21.313020706177 21.978731155396 57.724998474121 184 184 184
21.313020706177 21.978731155396 57.758003234863 184 184 184
21.313020706177 21.978731155396 57.793998718262 182 182 182
21.313020706177 21.978731155396 57.827003479004 180 180 180
21.313020706177 21.978731155396 57.859992980957 183 183 183
21.313020706177 21.978731155396 57.894996643066 181 181 181
21.313020706177 21.978731155396 57.930000305176 180 180 180
21.313020706177 21.978731155396 57.965995788574 179 179 179
21.313020706177 21.978731155396 57.999000549316 178 178 178
21.313020706177 21.978731155396 58.036994934082 178 178 178
21.120744705200 22.497089385986 57.282997131348 89 89 89
21.148603439331 22.482931137085 57.316001892090 182 182 182
21.145063400269 22.475965499878 57.353004455566 188 188 188
21.148603439331 22.482931137085 57.387001037598 188 188 188
21.148603439331 22.482931137085 57.422996520996 188 188 188
21.145063400269 22.475965499878 57.458000183105 188 188 188
21.145063400269 22.475965499878 57.493995666504 184 184 184
21.145063400269 22.475965499878 57.528999328613 146 146 146
21.176462173462 22.468772888184 57.814994812012 65 65 65
21.176462173462 22.468772888184 57.848991394043 161 161 161
21.176462173462 22.468772888184 57.885993957520 153 153 153
21.172922134399 22.461807250977 57.922996520996 157 157 157
21.172922134399 22.461807250977 57.960990905762 171 171 171
21.172922134399 22.461807250977 57.997001647949 164 164 164
21.176462173462 22.468772888184 58.032005310059 162 162 162
21.172922134399 22.461807250977 58.070991516113 23 23 23
21.195306777954 21.609142303467 58.042991638184 89 89 89
21.170988082886 21.630264282227 58.006996154785 157 157 157
21.178066253662 21.644195556641 57.971000671387 145 145 145
21.178066253662 21.644195556641 57.930992126465 156 156 156
21.178066253662 21.644195556641 57.894004821777 156 156 156
21.178066253662 21.644195556641 57.853996276855 146 146 146
21.178066253662 21.644195556641 57.816001892090 147 147 147
21.160825729370 21.679246902466 57.784996032715 75 75 75
21.181606292725 21.651161193848 57.586997985840 125 125 125
21.181606292725 21.651161193848 57.549003601074 134 134 134
21.181606292725 21.651161193848 57.510993957520 131 131 131
21.181606292725 21.651161193848 57.472999572754 131 131 131
21.181606292725 21.651161193848 57.435005187988 122 122 122
21.157285690308 21.672281265259 57.396995544434 129 129 129
20.995038986206 21.973819732666 56.991996765137 114 114 114
20.995038986206 21.973819732666 56.952003479004 126 126 126
20.995038986206 21.973819732666 56.911994934082 141 141 141
21.015819549561 21.945732116699 56.872001647949 134 134 134
21.012279510498 21.938766479492 56.831993103027 90 90 90
21.019357681274 21.952695846558 56.791999816895 127 127 127
21.019357681274 21.952695846558 56.752998352051 110 110 110
21.057380676270 21.889558792114 56.713005065918 165 165 165
21.033061981201 21.910678863525 56.674003601074 157 157 157
21.012279510498 21.938766479492 56.633995056152 156 156 156
21.019357681274 21.952695846558 56.594001770020 159 159 159
20.998579025269 21.980783462524 56.553001403809 63 63 63
21.002119064331 21.987749099731 56.512992858887 76 76 76
21.002119064331 21.987749099731 56.472999572754 77 77 77
21.002119064331 21.987749099731 56.432991027832 72 72 72
21.005657196045 21.994712829590 56.392997741699 60 60 60
21.005657196045 21.994712829590 56.353004455566 72 72 72
21.005657196045 21.994712829590 56.312995910645 88 88 88
21.327177047729 22.006589889526 58.051002502441 142 142 142
21.327177047729 22.006589889526 58.012001037598 142 142 142
21.302856445313 22.027713775635 57.973991394043 134 134 134
21.327177047729 22.006589889526 57.932991027832 125 125 125
21.309934616089 22.041641235352 57.902000427246 151 151 151
21.309934616089 22.041641235352 57.863990783691 145 145 145
