20.363563537598 13.962173461914 37.270000457764 104 104 104
20.307008743286 13.935565948486 37.181999206543 99 99 99
20.363563537598 13.962173461914 37.092998504639 135 135 135
20.363563537598 13.962173461914 37.004001617432 122 122 122
20.363563537598 13.962173461914 36.915000915527 122 122 122
20.529882431030 13.902275085449 38.413002014160 181 181 181
20.529882431030 13.902275085449 37.881000518799 207 207 207
20.529882431030 13.902275085449 37.792999267578 181 181 181
20.416774749756 13.849063873291 37.538002014160 88 88 88
20.390169143677 13.905616760254 37.449001312256 102 102 102
20.473327636719 13.875669479370 37.358001708984 91 91 91
20.416774749756 13.849063873291 37.270999908447 118 118 118
20.416774749756 13.849063873291 37.181999206543 86 86 86
20.473327636719 13.875669479370 37.092998504639 43 43 43
20.390169143677 13.905616760254 37.004001617432 113 113 113
20.416774749756 13.849063873291 37.449001312256 103 103 103
20.416774749756 13.849063873291 37.360000610352 95 95 95
20.360219955444 13.822456359863 37.270999908447 109 109 109
20.416774749756 13.849063873291 37.181999206543 110 110 110
20.360219955444 13.822456359863 37.091999053955 59 59 59
20.413433074951 13.709348678589 37.451000213623 70 70 70
20.413433074951 13.709348678589 37.360000610352 105 105 105
20.413433074951 13.709348678589 37.270999908447 82 82 82
20.164081573486 14.973461151123 37.069999694824 77 77 77
20.390298843384 15.079885482788 37.135002136230 102 102 102
20.390298843384 15.079885482788 37.205001831055 104 104 104
20.390298843384 15.079885482788 37.275001525879 97 97 97
20.416904449463 15.023330688477 37.345001220703 104 104 104
20.416904449463 15.023330688477 37.416000366211 102 102 102
20.416904449463 15.023330688477 37.486999511719 81 81 81
20.386957168579 14.940172195435 36.923000335693 86 86 86
20.386957168579 14.940172195435 36.993999481201 111 111 111
20.386957168579 14.940172195435 37.064998626709 104 104 104
20.386957168579 14.940172195435 37.136001586914 111 111 111
20.386957168579 14.940172195435 37.207000732422 127 127 127
20.443511962891 14.966777801514 37.274002075195 94 94 94
20.443511962891 14.966777801514 37.344001770020 88 88 88
20.386957168579 14.940172195435 37.421001434326 99 99 99
20.386957168579 14.940172195435 37.491001129150 108 108 108
20.556619644165 15.019989013672 37.821998596191 128 128 128
20.556619644165 15.019989013672 38.321998596191 43 43 43
20.613174438477 15.046596527100 38.388999938965 109 109 109
20.357009887695 14.857011795044 36.848999023438 121 121 121
20.357009887695 14.857011795044 36.921001434326 108 108 108
20.383615493774 14.800457000732 36.993000030518 117 117 117
20.383615493774 14.800457000732 37.063999176025 110 110 110
20.383615493774 14.800457000732 37.136001586914 131 131 131
20.383615493774 14.800457000732 37.207000732422 135 135 135
20.383615493774 14.800457000732 37.278999328613 117 117 117
20.383615493774 14.800457000732 37.351001739502 119 119 119
20.383615493774 14.800457000732 37.424999237061 143 143 143
20.383615493774 14.800457000732 37.497001647949 109 109 109
20.553277969360 14.880275726318 37.686000823975 146 146 146
20.553277969360 14.880275726318 37.756999969482 186 186 186
20.553277969360 14.880275726318 37.827999114990 152 152 152
20.553277969360 14.880275726318 37.901000976563 131 131 131
20.553277969360 14.880275726318 38.258998870850 17 17 17
20.609830856323 14.906881332397 38.326999664307 163 163 163
20.609830856323 14.906881332397 38.400001525879 172 172 172
20.609830856323 14.906881332397 38.472999572754 169 169 169
20.353666305542 14.717296600342 36.847000122070 135 135 135
20.353666305542 14.717296600342 36.920001983643 132 132 132
20.353666305542 14.717296600342 36.992000579834 113 113 113
20.353666305542 14.717296600342 37.063999176025 120 120 120
20.523328781128 14.797115325928 37.131000518799 120 120 120
20.410221099854 14.743904113770 37.206001281738 115 115 115
20.466773986816 14.770509719849 37.275001525879 116 116 116
20.410221099854 14.743904113770 37.348999023438 113 113 113
20.353666305542 14.717296600342 37.429000854492 145 145 145
20.353666305542 14.717296600342 37.503002166748 114 114 114
20.523328781128 14.797115325928 37.763999938965 153 153 153
20.523328781128 14.797115325928 37.835998535156 156 156 156
20.523328781128 14.797115325928 37.906002044678 151 151 151
20.523328781128 14.797115325928 37.979999542236 70 70 70
20.523328781128 14.797115325928 38.265998840332 167 167 167
20.523328781128 14.797115325928 38.340000152588 173 173 173
20.636436462402 14.850326538086 38.411998748779 172 172 172
20.323719024658 14.634138107300 36.917999267578 141 141 141
20.323719024658 14.634138107300 36.991001129150 130 130 130
20.436828613281 14.687349319458 37.063999176025 125 125 125
20.493381500244 14.713954925537 37.131999969482 125 125 125
20.493381500244 14.713954925537 37.203998565674 132 132 132
20.549934387207 14.740562438965 37.272998809814 117 117 117
20.493381500244 14.713954925537 37.347000122070 108 108 108
20.323719024658 14.634138107300 37.431999206543 120 120 120
20.406879425049 14.604188919067 37.505001068115 116 116 116
20.549934387207 14.740562438965 37.841999053955 156 156 156
20.549934387207 14.740562438965 37.913002014160 153 153 153
20.549934387207 14.740562438965 37.984001159668 157 157 157
20.549934387207 14.740562438965 38.200000762939 162 162 162
20.549934387207 14.740562438965 38.274002075195 172 172 172
20.549934387207 14.740562438965 38.349998474121 172 172 172
20.490039825439 14.574241638184 36.845001220703 63 63 63
20.433485031128 14.547634124756 37.063999176025 83 83 83
20.433485031128 14.547634124756 37.137001037598 75 75 75
20.433485031128 14.547634124756 37.212001800537 113 113 113
20.490039825439 14.574241638184 37.281002044678 120 120 120
20.433485031128 14.547634124756 37.360000610352 111 111 111
20.376930236816 14.521030426025 37.435001373291 111 111 111
20.376930236816 14.521030426025 37.510002136230 107 107 107
20.546592712402 14.600847244263 37.847000122070 81 81 81
20.546592712402 14.600847244263 37.921001434326 153 153 153
20.546592712402 14.600847244263 37.993999481201 156 156 156
20.546592712402 14.600847244263 38.067001342773 158 158 158
20.546592712402 14.600847244263 38.138000488281 164 164 164
20.546592712402 14.600847244263 38.212001800537 169 169 169
20.546592712402 14.600847244263 38.285999298096 173 173 173
20.490039825439 14.574241638184 38.700000762939 104 104 104
20.346982955933 14.437870025635 37.215000152588 98 98 98
20.460090637207 14.491081237793 37.283000946045 113 113 113
20.403535842896 14.464475631714 37.362998962402 116 116 116
20.317033767700 14.354709625244 37.443000793457 110 110 110
20.516645431519 14.517686843872 37.930999755859 149 149 149
20.516645431519 14.517686843872 38.003002166748 156 156 156
20.543251037598 14.461132049561 38.074001312256 171 171 171
20.516645431519 14.517686843872 38.151000976563 173 173 173
20.543251037598 14.461132049561 38.224998474121 171 171 171
20.599803924561 14.487739562988 38.578998565674 110 110 110
20.486696243286 14.434526443481 38.716999053955 123 123 123
20.656358718872 14.514343261719 38.717998504639 96 96 96
20.543251037598 14.461132049561 35.895999908447 156 156 156
20.543251037598 14.461132049561 35.970001220703 161 161 161
20.543251037598 14.461132049561 36.045001983643 161 161 161
20.543251037598 14.461132049561 36.118000030518 161 161 161
20.543251037598 14.461132049561 36.193000793457 159 159 159
20.543251037598 14.461132049561 36.265998840332 164 164 164
20.543251037598 14.461132049561 36.339000701904 158 158 158
20.543251037598 14.461132049561 36.410999298096 156 156 156
20.543251037598 14.461132049561 36.485000610352 153 153 153
20.543251037598 14.461132049561 36.556999206543 151 151 151
20.543251037598 14.461132049561 36.629001617432 152 152 152
20.543251037598 14.461132049561 36.701999664307 150 150 150
20.626411437988 14.431184768677 36.774002075195 165 165 165
20.599803924561 14.487739562988 36.846000671387 166 166 166
20.599803924561 14.487739562988 36.917999267578 158 158 158
20.599803924561 14.487739562988 36.988998413086 162 162 162
20.626411437988 14.431184768677 37.061000823975 172 172 172
20.599803924561 14.487739562988 37.131999969482 149 149 149
20.599803924561 14.487739562988 37.203998565674 156 156 156
20.599803924561 14.487739562988 37.276000976563 154 154 154
20.626411437988 14.431184768677 37.346000671387 147 147 147
20.626411437988 14.431184768677 37.417999267578 154 154 154
20.626411437988 14.431184768677 37.490001678467 150 150 150
20.626411437988 14.431184768677 37.562000274658 153 153 153
20.626411437988 14.431184768677 37.632999420166 150 150 150
20.626411437988 14.431184768677 37.705001831055 146 146 146
20.626411437988 14.431184768677 37.776000976563 148 148 148
20.626411437988 14.431184768677 37.847999572754 145 145 145
20.626411437988 14.431184768677 37.921001434326 149 149 149
20.682964324951 14.457790374756 37.992000579834 152 152 152
20.682964324951 14.457790374756 38.063999176025 148 148 148
20.682964324951 14.457790374756 38.138000488281 146 146 146
20.682964324951 14.457790374756 38.209999084473 145 145 145
20.682964324951 14.457790374756 38.282001495361 145 145 145
20.682964324951 14.457790374756 38.355998992920 148 148 148
20.682964324951 14.457790374756 38.425998687744 158 158 158
20.682964324951 14.457790374756 38.508998870850 157 157 157
20.739521026611 14.484397888184 38.564998626709 153 153 153
20.739521026611 14.484397888184 38.645999908447 97 97 97
20.739521026611 14.484397888184 38.715999603271 113 113 113
20.682964324951 14.457790374756 38.799999237061 78 78 78
20.653017044067 14.374629974365 35.909000396729 153 153 153
20.653017044067 14.374629974365 35.984001159668 156 156 156
20.653017044067 14.374629974365 36.056999206543 157 157 157
20.653017044067 14.374629974365 36.131000518799 158 158 158
20.653017044067 14.374629974365 36.201999664307 155 155 155
20.653017044067 14.374629974365 36.272998809814 161 161 161
20.653017044067 14.374629974365 36.345001220703 157 157 157
20.653017044067 14.374629974365 36.417999267578 161 161 161
20.653017044067 14.374629974365 36.490001678467 159 159 159
20.653017044067 14.374629974365 36.561000823975 157 157 157
20.653017044067 14.374629974365 36.631999969482 156 156 156
20.653017044067 14.374629974365 36.703998565674 158 158 158
20.653017044067 14.374629974365 36.775001525879 157 157 157
20.653017044067 14.374629974365 36.846000671387 157 157 157
20.653017044067 14.374629974365 36.916999816895 147 147 147
20.653017044067 14.374629974365 36.987998962402 154 154 154
20.653017044067 14.374629974365 37.057998657227 172 172 172
20.653017044067 14.374629974365 37.130001068115 151 151 151
20.653017044067 14.374629974365 37.201000213623 149 149 149
20.653017044067 14.374629974365 37.271999359131 141 141 141
20.653017044067 14.374629974365 37.342998504639 140 140 140
20.653017044067 14.374629974365 37.414001464844 137 137 137
20.653017044067 14.374629974365 37.486000061035 127 127 127
20.653017044067 14.374629974365 37.556999206543 125 125 125
20.653017044067 14.374629974365 37.628002166748 122 122 122
20.653017044067 14.374629974365 37.699001312256 119 119 119
20.653017044067 14.374629974365 37.771999359131 117 117 117
20.653017044067 14.374629974365 37.844001770020 112 112 112
20.653017044067 14.374629974365 37.922000885010 125 125 125
20.653017044067 14.374629974365 37.996002197266 136 136 136
20.653017044067 14.374629974365 38.071998596191 143 143 143
20.653017044067 14.374629974365 38.145999908447 135 135 135
20.653017044067 14.374629974365 38.224998474121 136 136 136
20.653017044067 14.374629974365 38.282001495361 92 92 92
20.653017044067 14.374629974365 38.358001708984 82 82 82
20.709571838379 14.401237487793 38.429000854492 83 83 83
20.653017044067 14.374629974365 38.525001525879 77 77 77
20.709571838379 14.401237487793 38.568000793457 129 129 129
20.653017044067 14.374629974365 38.659000396729 117 117 117
20.766126632690 14.427843093872 38.709999084473 104 104 104
20.366903305054 14.101886749268 36.839000701904 94 94 94
20.340297698975 14.158439636230 36.915000915527 114 114 114
20.310350418091 14.075279235840 36.992000579834 115 115 115
20.340297698975 14.158439636230 37.068000793457 111 111 111
20.480012893677 14.155097961426 37.139999389648 141 141 141
20.480012893677 14.155097961426 37.214000701904 112 112 112
20.480012893677 14.155097961426 37.289001464844 129 129 129
20.366903305054 14.101886749268 37.374000549316 107 107 107
20.366903305054 14.101886749268 37.451000213623 108 108 108
20.366903305054 14.101886749268 37.527999877930 105 105 105
20.593120574951 14.208309173584 37.875999450684 157 157 157
20.593120574951 14.208309173584 37.951000213623 165 165 165
20.593120574951 14.208309173584 38.026000976563 153 153 153
20.593120574951 14.208309173584 38.099998474121 105 105 105
20.593120574951 14.208309173584 38.180000305176 147 147 147
20.593120574951 14.208309173584 38.253002166748 148 148 148
20.593120574951 14.208309173584 38.332000732422 139 139 139
20.593120574951 14.208309173584 38.707000732422 108 108 108
20.336956024170 14.018726348877 36.838001251221 119 119 119
20.336956024170 14.018726348877 36.915000915527 130 130 130
20.393508911133 14.045331954956 36.991001129150 101 101 101
20.393508911133 14.045331954956 37.067001342773 109 109 109
20.450065612793 14.071937561035 37.139999389648 131 131 131
20.506618499756 14.098545074463 37.213001251221 125 125 125
20.450065612793 14.071937561035 37.290000915527 115 115 115
20.450065612793 14.071937561035 37.366001129150 112 112 112
20.336956024170 14.018726348877 37.451999664307 112 112 112
20.336956024170 14.018726348877 37.528999328613 101 101 101
20.533226013184 14.041990280151 37.810001373291 143 143 143
20.533226013184 14.041990280151 37.885002136230 152 152 152
20.533226013184 14.041990280151 37.959999084473 140 140 140
20.563171386719 14.125150680542 38.032001495361 111 111 111
20.563171386719 14.125150680542 38.187999725342 143 143 143
20.533226013184 14.041990280151 38.265998840332 143 143 143
20.563171386719 14.125150680542 38.341999053955 145 145 145
20.563171386719 14.125150680542 38.420001983643 60 60 60
20.307008743286 13.935565948486 36.914001464844 134 134 134
20.363563537598 13.962173461914 36.991001129150 137 137 137
20.363563537598 13.962173461914 37.067001342773 147 147 147
20.533226013184 14.041990280151 37.138999938965 143 143 143
20.476671218872 14.015384674072 37.216999053955 127 127 127
20.533226013184 14.041990280151 37.290000915527 135 135 135
20.390169143677 13.905616760254 37.375000000000 105 105 105
20.390169143677 13.905616760254 37.452999114990 106 106 106
20.390169143677 13.905616760254 37.529998779297 96 96 96
20.559831619263 13.985435485840 37.738998413086 102 102 102
20.559831619263 13.985435485840 37.813999176025 136 136 136
20.559831619263 13.985435485840 37.889999389648 136 136 136
20.616384506226 14.012042999268 37.965999603271 141 141 141
20.559831619263 13.985435485840 38.276000976563 147 147 147
20.559831619263 13.985435485840 38.352001190186 148 148 148
20.559831619263 13.985435485840 38.430999755859 149 149 149
20.416774749756 13.849063873291 36.990001678467 91 91 91
20.416774749756 13.849063873291 37.066001892090 82 82 82
20.416774749756 13.849063873291 37.143001556396 98 98 98
20.416774749756 13.849063873291 37.222000122070 135 135 135
20.416774749756 13.849063873291 37.296001434326 104 104 104
20.473327636719 13.875669479370 37.372001647949 102 102 102
20.416774749756 13.849063873291 37.453998565674 110 110 110
20.416774749756 13.849063873291 37.531002044678 83 83 83
20.529882431030 13.902275085449 37.744998931885 144 144 144
20.529882431030 13.902275085449 37.820999145508 148 148 148
20.529882431030 13.902275085449 37.896999359131 162 162 162
20.529882431030 13.902275085449 38.285999298096 43 43 43
20.529882431030 13.902275085449 38.363998413086 141 141 141
20.529882431030 13.902275085449 38.442001342773 145 145 145
20.529882431030 13.902275085449 38.521999359131 110 110 110
20.386825561523 13.765903472900 37.143001556396 87 87 87
20.386825561523 13.765903472900 37.221000671387 114 114 114
20.386825561523 13.765903472900 37.298000335693 110 110 110
20.386825561523 13.765903472900 37.375999450684 111 111 111
20.386825561523 13.765903472900 37.453998565674 105 105 105
20.526538848877 13.762561798096 37.824001312256 98 98 98
20.526538848877 13.762561798096 38.372001647949 89 89 89
20.440038681030 13.652793884277 37.298999786377 50 50 50
20.440038681030 13.652793884277 37.376998901367 38 38 38
20.107528686523 14.946855545044 37.099998474121 72 72 72
20.190689086914 14.916908264160 37.098999023438 106 106 106
20.330404281616 14.913566589355 37.015998840332 73 73 73
20.303798675537 14.970119476318 37.101001739502 100 100 100
20.390298843384 15.079885482788 37.182998657227 93 93 93
20.390298843384 15.079885482788 37.263000488281 87 87 87
20.390298843384 15.079885482788 37.424999237061 80 80 80
20.357009887695 14.857011795044 36.848999023438 100 100 100
20.330404281616 14.913566589355 36.932998657227 97 97 97
20.330404281616 14.913566589355 37.014999389648 100 100 100
20.357009887695 14.857011795044 37.097999572754 104 104 104
20.386957168579 14.940172195435 37.180999755859 113 113 113
20.443511962891 14.966777801514 37.262001037598 96 96 96
20.443511962891 14.966777801514 37.342998504639 82 82 82
20.330404281616 14.913566589355 37.428001403809 134 134 134
20.330404281616 14.913566589355 37.511001586914 94 94 94
20.353666305542 14.717296600342 36.842998504639 41 41 41
20.353666305542 14.717296600342 36.925998687744 132 132 132
20.327060699463 14.773851394653 37.013000488281 102 102 102
20.327060699463 14.773851394653 37.095001220703 97 97 97
20.440168380737 14.827064514160 37.179000854492 129 129 129
20.383615493774 14.800457000732 37.261001586914 112 112 112
20.353666305542 14.717296600342 37.346000671387 121 121 121
20.353666305542 14.717296600342 37.430000305176 136 136 136
20.353666305542 14.717296600342 37.514999389648 100 100 100
20.556619644165 15.019989013672 37.814998626709 82 82 82
20.613174438477 15.046596527100 38.375000000000 77 77 77
20.436828613281 14.687349319458 36.924999237061 28 28 28
20.406879425049 14.604188919067 37.008998870850 82 82 82
20.410221099854 14.743904113770 37.096000671387 98 98 98
20.440168380737 14.827064514160 37.178001403809 112 112 112
20.466773986816 14.770509719849 37.258998870850 119 119 119
20.466773986816 14.770509719849 37.341999053955 86 86 86
20.406879425049 14.604188919067 37.431999206543 94 94 94
20.406879425049 14.604188919067 37.517002105713 85 85 85
20.553277969360 14.880275726318 37.738998413086 105 105 105
20.553277969360 14.880275726318 37.820999145508 112 112 112
20.553277969360 14.880275726318 37.902000427246 104 104 104
20.553277969360 14.880275726318 38.305999755859 105 105 105
20.553277969360 14.880275726318 38.386001586914 111 111 111
20.609830856323 14.906881332397 38.466999053955 95 95 95
20.376930236816 14.521030426025 35.080001831055 143 143 143
20.490039825439 14.574241638184 36.841999053955 42 42 42
20.203926086426 14.301496505737 37.000999450684 63 63 63
20.203926086426 14.301496505737 37.089000701904 101 101 101
20.317033767700 14.354709625244 37.177001953125 86 86 86
20.549934387207 14.740562438965 37.258998870850 113 113 113
20.433485031128 14.547634124756 37.347000122070 102 102 102
20.317033767700 14.354709625244 37.436000823975 91 91 91
20.260478973389 14.328102111816 37.527999877930 81 81 81
20.549934387207 14.740562438965 37.826999664307 89 89 89
20.549934387207 14.740562438965 37.909999847412 106 106 106
20.549934387207 14.740562438965 37.991001129150 104 104 104
20.549934387207 14.740562438965 38.159999847412 65 65 65
20.606491088867 14.767168045044 38.235000610352 104 104 104
20.606491088867 14.767168045044 38.319000244141 106 106 106
20.606491088867 14.767168045044 38.396999359131 63 63 63
20.433485031128 14.547634124756 38.714000701904 92 92 92
20.313692092896 14.214994430542 36.911998748779 97 97 97
20.313692092896 14.214994430542 37.000999450684 96 96 96
20.313692092896 14.214994430542 37.089000701904 99 99 99
20.257139205933 14.188388824463 37.177001953125 103 103 103
20.490039825439 14.574241638184 37.260002136230 89 89 89
20.287086486816 14.271549224854 37.351001739502 70 70 70
20.313692092896 14.214994430542 37.441001892090 83 83 83
20.313692092896 14.214994430542 37.528999328613 88 88 88
20.490039825439 14.574241638184 37.920001983643 106 106 106
20.490039825439 14.574241638184 38.004001617432 112 112 112
20.546592712402 14.600847244263 38.083999633789 115 115 115
20.546592712402 14.600847244263 38.167999267578 109 109 109
20.546592712402 14.600847244263 38.250999450684 107 107 107
20.490039825439 14.574241638184 38.601001739502 82 82 82
20.430141448975 14.407920837402 38.723999023438 112 112 112
20.486696243286 14.434526443481 35.121002197266 133 133 133
20.543251037598 14.461132049561 35.210998535156 127 127 127
20.543251037598 14.461132049561 35.303001403809 136 136 136
20.543251037598 14.461132049561 35.830001831055 159 159 159
20.543251037598 14.461132049561 35.915000915527 161 161 161
20.543251037598 14.461132049561 36.001998901367 165 165 165
20.543251037598 14.461132049561 36.084999084473 162 162 162
20.543251037598 14.461132049561 36.172000885010 172 172 172
20.543251037598 14.461132049561 36.256000518799 180 180 180
20.543251037598 14.461132049561 36.341999053955 181 181 181
20.543251037598 14.461132049561 36.425998687744 186 186 186
20.543251037598 14.461132049561 36.508998870850 188 188 188
20.543251037598 14.461132049561 36.594001770020 189 189 189
20.543251037598 14.461132049561 36.678001403809 187 187 187
20.543251037598 14.461132049561 36.762001037598 195 195 195
20.543251037598 14.461132049561 36.845001220703 196 196 196
20.543251037598 14.461132049561 36.928001403809 194 194 194
20.543251037598 14.461132049561 37.011001586914 201 201 201
20.543251037598 14.461132049561 37.094001770020 201 201 201
20.543251037598 14.461132049561 37.177001953125 154 154 154
20.543251037598 14.461132049561 37.260002136230 202 202 202
20.543251037598 14.461132049561 37.342998504639 230 230 230
20.543251037598 14.461132049561 37.425998687744 206 206 206
20.543251037598 14.461132049561 37.507999420166 202 202 202
20.543251037598 14.461132049561 37.591999053955 202 202 202
20.543251037598 14.461132049561 37.674999237061 200 200 200
20.543251037598 14.461132049561 37.756999969482 196 196 196
20.543251037598 14.461132049561 37.840999603271 191 191 191
20.543251037598 14.461132049561 37.923999786377 196 196 196
20.543251037598 14.461132049561 38.006999969482 197 197 197
20.543251037598 14.461132049561 38.090999603271 195 195 195
20.543251037598 14.461132049561 38.174999237061 196 196 196
20.543251037598 14.461132049561 38.256999969482 188 188 188
20.543251037598 14.461132049561 38.340999603271 144 144 144
20.543251037598 14.461132049561 38.427001953125 177 177 177
20.543251037598 14.461132049561 38.503002166748 107 107 107
20.573198318481 14.544292449951 38.576000213623 118 118 118
20.573198318481 14.544292449951 38.666999816895 106 106 106
20.603147506714 14.627452850342 38.731998443604 71 71 71
20.599803924561 14.487739562988 35.150001525879 149 149 149
20.599803924561 14.487739562988 35.242000579834 161 161 161
20.599803924561 14.487739562988 35.327999114990 168 168 168
20.626411437988 14.431184768677 35.847999572754 176 176 176
20.626411437988 14.431184768677 35.931999206543 179 179 179
20.599803924561 14.487739562988 36.019001007080 178 178 178
20.599803924561 14.487739562988 36.104000091553 180 180 180
20.599803924561 14.487739562988 36.187999725342 189 189 189
20.599803924561 14.487739562988 36.271999359131 185 185 185
20.599803924561 14.487739562988 36.354999542236 187 187 187
20.626411437988 14.431184768677 36.437000274658 193 193 193
20.626411437988 14.431184768677 36.520000457764 194 194 194
20.599803924561 14.487739562988 36.603000640869 193 193 193
20.599803924561 14.487739562988 36.686000823975 198 198 198
20.599803924561 14.487739562988 36.768001556396 201 201 201
20.599803924561 14.487739562988 36.849998474121 202 202 202
20.626411437988 14.431184768677 36.931999206543 201 201 201
20.656358718872 14.514343261719 37.013999938965 203 203 203
20.656358718872 14.514343261719 37.096000671387 204 204 204
20.656358718872 14.514343261719 37.177001953125 214 214 214
20.656358718872 14.514343261719 37.258998870850 236 236 236
20.626411437988 14.431184768677 37.340999603271 255 255 255
20.656358718872 14.514343261719 37.422000885010 237 237 237
20.656358718872 14.514343261719 37.504001617432 203 203 203
20.656358718872 14.514343261719 37.584999084473 208 208 208
20.656358718872 14.514343261719 37.666999816895 202 202 202
20.656358718872 14.514343261719 37.749000549316 202 202 202
20.656358718872 14.514343261719 37.831001281738 202 202 202
20.656358718872 14.514343261719 37.913002014160 201 201 201
20.656358718872 14.514343261719 37.994998931885 199 199 199
20.656358718872 14.514343261719 38.076999664307 198 198 198
20.656358718872 14.514343261719 38.160999298096 200 200 200
20.656358718872 14.514343261719 38.243000030518 197 197 197
20.656358718872 14.514343261719 38.326000213623 193 193 193
20.656358718872 14.514343261719 38.409000396729 196 196 196
20.656358718872 14.514343261719 38.492000579834 175 175 175
20.712913513184 14.540950775146 38.567001342773 133 133 133
20.656358718872 14.514343261719 38.656002044678 94 94 94
20.686307907104 14.597505569458 38.717998504639 83 83 83
20.390169143677 13.905616760254 36.999000549316 107 107 107
20.363563537598 13.962173461914 37.089000701904 81 81 81
20.450065612793 14.071937561035 37.177001953125 113 113 113
20.506618499756 14.098545074463 37.263000488281 101 101 101
20.450065612793 14.071937561035 37.349998474121 100 100 100
20.390169143677 13.905616760254 37.443000793457 87 87 87
20.390169143677 13.905616760254 37.532001495361 82 82 82
20.536565780640 14.181705474854 37.856998443604 105 105 105
20.536565780640 14.181705474854 37.944000244141 109 109 109
20.536565780640 14.181705474854 38.028999328613 105 105 105
20.536565780640 14.181705474854 38.203998565674 97 97 97
20.536565780640 14.181705474854 38.291000366211 101 101 101
20.536565780640 14.181705474854 38.375999450684 93 93 93
20.709571838379 14.401237487793 38.568000793457 102 102 102
20.653017044067 14.374629974365 38.677001953125 100 100 100
20.796073913574 14.511001586914 38.719001770020 77 77 77
20.416774749756 13.849063873291 37.175998687744 43 43 43
20.360219955444 13.822456359863 37.264999389648 94 94 94
20.416774749756 13.849063873291 37.353000640869 87 87 87
20.360219955444 13.822456359863 37.443000793457 83 83 83
20.533226013184 14.041990280151 37.778999328613 105 105 105
20.533226013184 14.041990280151 37.866001129150 108 108 108
20.533226013184 14.041990280151 37.951999664307 81 81 81
20.559831619263 13.985435485840 38.305000305176 98 98 98
20.559831619263 13.985435485840 38.394001007080 101 101 101
20.559831619263 13.985435485840 38.480998992920 92 92 92
20.706228256226 14.261522293091 38.684001922607 32 32 32
20.413433074951 13.709348678589 37.263999938965 24 24 24
20.413433074951 13.709348678589 37.354000091553 47 47 47
20.529882431030 13.902275085449 37.784999847412 58 58 58
20.529882431030 13.902275085449 37.872001647949 72 72 72
20.529882431030 13.902275085449 38.401000976563 47 47 47
20.413433074951 13.709348678589 37.205001831055 111 111 111
20.413433074951 13.709348678589 37.282001495361 108 108 108
20.413433074951 13.709348678589 37.360000610352 110 110 110
20.413433074951 13.709348678589 37.437000274658 97 97 97
20.443380355835 13.792510986328 37.048999786377 41 41 41
20.443380355835 13.792510986328 37.125000000000 85 85 85
20.386825561523 13.765903472900 37.203998565674 122 122 122
20.386825561523 13.765903472900 37.279998779297 121 121 121
20.386825561523 13.765903472900 37.358001708984 111 111 111
20.386825561523 13.765903472900 37.436000823975 108 108 108
20.556488037109 13.845722198486 37.727001190186 97 97 97
20.556488037109 13.845722198486 37.805000305176 154 154 154
20.556488037109 13.845722198486 37.881000518799 25 25 25
20.556488037109 13.845722198486 38.349998474121 150 150 150
20.556488037109 13.845722198486 38.428001403809 102 102 102
20.416774749756 13.849063873291 36.972000122070 126 126 126
20.416774749756 13.849063873291 37.048000335693 88 88 88
20.416774749756 13.849063873291 37.125000000000 113 113 113
20.416774749756 13.849063873291 37.202999114990 145 145 145
20.473327636719 13.875669479370 37.277000427246 105 105 105
20.416774749756 13.849063873291 37.354000091553 104 104 104
20.416774749756 13.849063873291 37.435001373291 106 106 106
20.416774749756 13.849063873291 37.512001037598 103 103 103
20.586437225342 13.928882598877 37.722999572754 154 154 154
20.529882431030 13.902275085449 37.800998687744 164 164 164
20.529882431030 13.902275085449 37.878002166748 162 162 162
20.586437225342 13.928882598877 38.262001037598 78 78 78
20.586437225342 13.928882598877 38.339000701904 138 138 138
20.529882431030 13.902275085449 38.420001983643 139 139 139
20.586437225342 13.928882598877 38.498001098633 127 127 127
20.390169143677 13.905616760254 36.895000457764 130 130 130
20.390169143677 13.905616760254 36.972000122070 137 137 137
20.446722030640 13.932224273682 37.048000335693 142 142 142
20.559831619263 13.985435485840 37.121002197266 140 140 140
20.446722030640 13.932224273682 37.199001312256 131 131 131
20.503276824951 13.958829879761 37.272998809814 129 129 129
20.446722030640 13.932224273682 37.354999542236 104 104 104
20.390169143677 13.905616760254 37.434001922607 107 107 107
20.390169143677 13.905616760254 37.511001586914 103 103 103
20.559831619263 13.985435485840 37.720001220703 86 86 86
20.559831619263 13.985435485840 37.796001434326 135 135 135
20.559831619263 13.985435485840 37.868999481201 141 141 141
20.616384506226 14.012042999268 37.944000244141 150 150 150
20.559831619263 13.985435485840 38.255001068115 148 148 148
20.559831619263 13.985435485840 38.333999633789 149 149 149
20.559831619263 13.985435485840 38.414001464844 148 148 148
20.363563537598 13.962173461914 36.819000244141 81 81 81
20.363563537598 13.962173461914 36.895000457764 105 105 105
20.363563537598 13.962173461914 36.972000122070 120 120 120
20.363563537598 13.962173461914 37.048000335693 101 101 101
20.476671218872 14.015384674072 37.121002197266 133 133 133
20.476671218872 14.015384674072 37.194000244141 121 121 121
20.476671218872 14.015384674072 37.269001007080 118 118 118
20.476671218872 14.015384674072 37.347000122070 113 113 113
20.363563537598 13.962173461914 37.431999206543 107 107 107
20.363563537598 13.962173461914 37.508998870850 104 104 104
20.589778900146 14.068595886230 37.789001464844 156 156 156
20.589778900146 14.068595886230 37.863998413086 155 155 155
20.589778900146 14.068595886230 37.941001892090 143 143 143
20.589778900146 14.068595886230 38.013000488281 65 65 65
20.589778900146 14.068595886230 38.168998718262 96 96 96
20.589778900146 14.068595886230 38.249000549316 137 137 137
20.589778900146 14.068595886230 38.325000762939 144 144 144
20.589778900146 14.068595886230 38.400001525879 123 123 123
20.310350418091 14.075279235840 36.819999694824 112 112 112
20.310350418091 14.075279235840 36.895999908447 121 121 121
20.366903305054 14.101886749268 36.972000122070 105 105 105
20.366903305054 14.101886749268 37.048000335693 104 104 104
20.423458099365 14.128492355347 37.121002197266 133 133 133
20.480012893677 14.155097961426 37.195999145508 126 126 126
20.506618499756 14.098545074463 37.269001007080 119 119 119
20.423458099365 14.128492355347 37.347000122070 120 120 120
20.310350418091 14.075279235840 37.432998657227 107 107 107
20.336956024170 14.018726348877 37.508998870850 106 106 106
20.563171386719 14.125150680542 37.859001159668 155 155 155
20.563171386719 14.125150680542 37.935001373291 166 166 166
20.563171386719 14.125150680542 38.011001586914 167 167 167
20.563171386719 14.125150680542 38.163002014160 151 151 151
20.563171386719 14.125150680542 38.240001678467 152 152 152
20.563171386719 14.125150680542 38.317001342773 149 149 149
20.676280975342 14.178361892700 38.674999237061 93 93 93
20.340297698975 14.158439636230 36.821998596191 20 20 20
20.340297698975 14.158439636230 36.897998809814 111 111 111
20.366903305054 14.101886749268 36.973999023438 108 108 108
20.310350418091 14.075279235840 37.050998687744 110 110 110
20.396852493286 14.185047149658 37.124000549316 131 131 131
20.340297698975 14.158439636230 37.201999664307 114 114 114
20.480012893677 14.155097961426 37.271999359131 122 122 122
20.340297698975 14.158439636230 37.354999542236 110 110 110
20.340297698975 14.158439636230 37.432998657227 110 110 110
20.340297698975 14.158439636230 37.510002136230 107 107 107
20.593120574951 14.208309173584 37.855998992920 83 83 83
20.593120574951 14.208309173584 37.930000305176 159 159 159
20.593120574951 14.208309173584 38.004001617432 160 160 160
20.593120574951 14.208309173584 38.078998565674 165 165 165
20.593120574951 14.208309173584 38.156002044678 148 148 148
20.593120574951 14.208309173584 38.231998443604 150 150 150
20.593120574951 14.208309173584 38.310001373291 115 115 115
20.706228256226 14.261522293091 38.564998626709 109 109 109
20.593120574951 14.208309173584 38.696998596191 110 110 110
20.762783050537 14.288127899170 38.693000793457 84 84 84
20.653017044067 14.374629974365 35.894001007080 147 147 147
20.653017044067 14.374629974365 35.966999053955 154 154 154
20.653017044067 14.374629974365 36.040000915527 156 156 156
20.653017044067 14.374629974365 36.113998413086 155 155 155
20.653017044067 14.374629974365 36.185001373291 154 154 154
20.653017044067 14.374629974365 36.257999420166 159 159 159
20.653017044067 14.374629974365 36.330001831055 158 158 158
20.653017044067 14.374629974365 36.401000976563 162 162 162
20.653017044067 14.374629974365 36.472999572754 162 162 162
20.653017044067 14.374629974365 36.543998718262 160 160 160
20.653017044067 14.374629974365 36.615001678467 164 164 164
20.653017044067 14.374629974365 36.686000823975 164 164 164
20.653017044067 14.374629974365 36.756999969482 165 165 165
20.653017044067 14.374629974365 36.827999114990 166 166 166
20.653017044067 14.374629974365 36.899002075195 160 160 160
20.653017044067 14.374629974365 36.970001220703 167 167 167
20.653017044067 14.374629974365 37.041000366211 187 187 187
20.653017044067 14.374629974365 37.111999511719 166 166 166
20.653017044067 14.374629974365 37.182998657227 164 164 164
20.653017044067 14.374629974365 37.254001617432 161 161 161
20.653017044067 14.374629974365 37.325000762939 155 155 155
20.653017044067 14.374629974365 37.395999908447 152 152 152
20.653017044067 14.374629974365 37.465999603271 147 147 147
20.653017044067 14.374629974365 37.538002014160 148 148 148
20.653017044067 14.374629974365 37.609001159668 145 145 145
20.653017044067 14.374629974365 37.680999755859 138 138 138
20.653017044067 14.374629974365 37.751998901367 135 135 135
20.653017044067 14.374629974365 37.825000762939 134 134 134
20.653017044067 14.374629974365 37.897998809814 135 135 135
20.653017044067 14.374629974365 37.969001770020 135 135 135
20.653017044067 14.374629974365 38.041999816895 131 131 131
20.653017044067 14.374629974365 38.115001678467 130 130 130
20.653017044067 14.374629974365 38.187999725342 131 131 131
20.709571838379 14.401237487793 38.261001586914 125 125 125
20.653017044067 14.374629974365 38.337001800537 124 124 124
20.709571838379 14.401237487793 38.408000946045 122 122 122
20.653017044067 14.374629974365 38.493999481201 111 111 111
20.709571838379 14.401237487793 38.548999786377 138 138 138
20.709571838379 14.401237487793 38.633998870850 105 105 105
20.709571838379 14.401237487793 38.698001861572 115 115 115
20.709571838379 14.401237487793 38.783000946045 55 55 55
20.626411437988 14.431184768677 35.887001037598 134 134 134
20.626411437988 14.431184768677 35.963001251221 133 133 133
20.626411437988 14.431184768677 36.034999847412 139 139 139
20.626411437988 14.431184768677 36.109001159668 146 146 146
20.626411437988 14.431184768677 36.184001922607 142 142 142
20.626411437988 14.431184768677 36.254001617432 146 146 146
20.626411437988 14.431184768677 36.326000213623 150 150 150
20.626411437988 14.431184768677 36.400001525879 150 150 150
20.626411437988 14.431184768677 36.472000122070 151 151 151
20.626411437988 14.431184768677 36.543998718262 152 152 152
20.626411437988 14.431184768677 36.615001678467 158 158 158
20.626411437988 14.431184768677 36.687000274658 153 153 153
20.626411437988 14.431184768677 36.757999420166 172 172 172
20.626411437988 14.431184768677 36.828998565674 171 171 171
20.626411437988 14.431184768677 36.900001525879 158 158 158
20.626411437988 14.431184768677 36.972000122070 162 162 162
20.626411437988 14.431184768677 37.042999267578 166 166 166
20.626411437988 14.431184768677 37.113998413086 164 164 164
20.626411437988 14.431184768677 37.185001373291 161 161 161
20.626411437988 14.431184768677 37.256000518799 161 161 161
20.626411437988 14.431184768677 37.326000213623 160 160 160
20.682964324951 14.457790374756 37.396999359131 163 163 163
20.626411437988 14.431184768677 37.469001770020 158 158 158
20.682964324951 14.457790374756 37.540000915527 160 160 160
20.682964324951 14.457790374756 37.610000610352 153 153 153
20.682964324951 14.457790374756 37.682998657227 149 149 149
20.682964324951 14.457790374756 37.754001617432 150 150 150
20.682964324951 14.457790374756 37.825000762939 150 150 150
20.682964324951 14.457790374756 37.897998809814 155 155 155
20.682964324951 14.457790374756 37.969001770020 156 156 156
20.682964324951 14.457790374756 38.042999267578 157 157 157
20.682964324951 14.457790374756 38.117000579834 157 157 157
20.682964324951 14.457790374756 38.187999725342 157 157 157
20.682964324951 14.457790374756 38.262001037598 158 158 158
20.682964324951 14.457790374756 38.334999084473 157 157 157
20.682964324951 14.457790374756 38.409000396729 163 163 163
20.682964324951 14.457790374756 38.486000061035 162 162 162
20.739521026611 14.484397888184 38.548999786377 153 153 153
20.739521026611 14.484397888184 38.625000000000 98 98 98
20.739521026611 14.484397888184 38.698001861572 117 117 117
20.739521026611 14.484397888184 38.775001525879 88 88 88
20.486696243286 14.434526443481 37.119998931885 51 51 51
20.543251037598 14.461132049561 37.188999176025 114 114 114
20.543251037598 14.461132049561 37.261001586914 113 113 113
20.486696243286 14.434526443481 37.338001251221 110 110 110
20.260478973389 14.328102111816 37.430999755859 110 110 110
20.543251037598 14.461132049561 37.913002014160 80 80 80
20.543251037598 14.461132049561 37.987998962402 162 162 162
20.543251037598 14.461132049561 38.061000823975 174 174 174
20.543251037598 14.461132049561 38.135002136230 178 178 178
20.543251037598 14.461132049561 38.209999084473 174 174 174
20.543251037598 14.461132049561 38.279998779297 63 63 63
20.543251037598 14.461132049561 38.354999542236 79 79 79
20.656358718872 14.514343261719 38.413002014160 99 99 99
20.656358718872 14.514343261719 38.493000030518 78 78 78
20.712913513184 14.540950775146 38.553001403809 126 126 126
20.656358718872 14.514343261719 38.645999908447 115 115 115
20.656358718872 14.514343261719 38.708000183105 103 103 103
20.460090637207 14.491081237793 36.827999114990 19 19 19
20.403535842896 14.464475631714 37.196998596191 119 119 119
20.516645431519 14.517686843872 37.261001586914 114 114 114
20.403535842896 14.464475631714 37.345001220703 112 112 112
20.403535842896 14.464475631714 37.418998718262 112 112 112
20.516645431519 14.517686843872 37.909999847412 162 162 162
20.516645431519 14.517686843872 37.981998443604 159 159 159
20.516645431519 14.517686843872 38.055000305176 167 167 167
20.516645431519 14.517686843872 38.128002166748 161 161 161
20.573198318481 14.544292449951 38.200000762939 164 164 164
20.573198318481 14.544292449951 38.274002075195 162 162 162
20.516645431519 14.517686843872 38.580001831055 47 47 47
20.460090637207 14.491081237793 38.694999694824 121 121 121
20.629753112793 14.570899963379 38.709999084473 81 81 81
20.376930236816 14.521030426025 36.974998474121 14 14 14
20.433485031128 14.547634124756 37.048000335693 75 75 75
20.490039825439 14.574241638184 37.119998931885 86 86 86
20.433485031128 14.547634124756 37.194999694824 112 112 112
20.546592712402 14.600847244263 37.258998870850 112 112 112
20.433485031128 14.547634124756 37.340000152588 98 98 98
20.433485031128 14.547634124756 37.417999267578 113 113 113
20.376930236816 14.521030426025 37.492000579834 116 116 116
20.546592712402 14.600847244263 37.827999114990 94 94 94
20.546592712402 14.600847244263 37.902000427246 151 151 151
20.546592712402 14.600847244263 37.974998474121 155 155 155
20.546592712402 14.600847244263 38.047000885010 154 154 154
20.603147506714 14.627452850342 38.117000579834 165 165 165
20.603147506714 14.627452850342 38.191001892090 167 167 167
20.546592712402 14.600847244263 38.265998840332 166 166 166
20.603147506714 14.627452850342 38.335998535156 89 89 89
20.490039825439 14.574241638184 38.675998687744 36 36 36
20.406879425049 14.604188919067 36.901000976563 126 126 126
20.406879425049 14.604188919067 36.974998474121 127 127 127
20.463434219360 14.630794525146 37.047000885010 111 111 111
20.493381500244 14.713954925537 37.116001129150 128 128 128
20.493381500244 14.713954925537 37.187000274658 134 134 134
20.549934387207 14.740562438965 37.256000518799 116 116 116
20.493381500244 14.713954925537 37.331001281738 105 105 105
20.406879425049 14.604188919067 37.415000915527 122 122 122
20.406879425049 14.604188919067 37.488998413086 117 117 117
20.549934387207 14.740562438965 37.823001861572 154 154 154
20.549934387207 14.740562438965 37.894001007080 154 154 154
20.549934387207 14.740562438965 37.967998504639 158 158 158
20.576541900635 14.684005737305 38.182998657227 166 166 166
20.576541900635 14.684005737305 38.256999969482 170 170 170
20.576541900635 14.684005737305 38.331001281738 172 172 172
20.380271911621 14.660743713379 36.828998565674 115 115 115
20.380271911621 14.660743713379 36.902000427246 127 127 127
20.380271911621 14.660743713379 36.973999023438 116 116 116
20.380271911621 14.660743713379 37.046001434326 117 117 117
20.549934387207 14.740562438965 37.112998962402 122 122 122
20.549934387207 14.740562438965 37.185001373291 121 121 121
20.549934387207 14.740562438965 37.256000518799 118 118 118
20.549934387207 14.740562438965 37.327999114990 111 111 111
20.380271911621 14.660743713379 37.411998748779 118 118 118
20.380271911621 14.660743713379 37.485000610352 115 115 115
20.606491088867 14.767168045044 37.746002197266 142 142 142
20.606491088867 14.767168045044 37.819000244141 153 153 153
20.606491088867 14.767168045044 37.889999389648 153 153 153
20.606491088867 14.767168045044 37.960998535156 139 139 139
20.606491088867 14.767168045044 38.179000854492 86 86 86
20.606491088867 14.767168045044 38.250999450684 160 160 160
20.606491088867 14.767168045044 38.321998596191 169 169 169
20.606491088867 14.767168045044 38.394001007080 169 169 169
20.327060699463 14.773851394653 36.828998565674 128 128 128
20.327060699463 14.773851394653 36.901000976563 130 130 130
20.383615493774 14.800457000732 36.972999572754 111 111 111
20.383615493774 14.800457000732 37.043998718262 109 109 109
20.327060699463 14.773851394653 37.117000579834 132 132 132
20.440168380737 14.827064514160 37.185001373291 121 121 121
20.440168380737 14.827064514160 37.256000518799 113 113 113
20.327060699463 14.773851394653 37.334999084473 110 110 110
20.327060699463 14.773851394653 37.407001495361 117 117 117
20.327060699463 14.773851394653 37.479999542236 144 144 144
20.579883575439 14.823722839355 37.668998718262 39 39 39
20.579883575439 14.823722839355 37.741001129150 149 149 149
20.579883575439 14.823722839355 37.812000274658 157 157 157
20.579883575439 14.823722839355 37.881000518799 154 154 154
20.579883575439 14.823722839355 38.241001129150 159 159 159
20.579883575439 14.823722839355 38.311000823975 161 161 161
20.579883575439 14.823722839355 38.386001586914 163 163 163
20.579883575439 14.823722839355 38.456001281738 138 138 138
20.357009887695 14.857011795044 36.830001831055 101 101 101
20.357009887695 14.857011795044 36.901000976563 105 105 105
20.357009887695 14.857011795044 36.972999572754 111 111 111
20.357009887695 14.857011795044 37.045001983643 113 113 113
20.383615493774 14.800457000732 37.116001129150 121 121 121
20.383615493774 14.800457000732 37.187000274658 144 144 144
20.413562774658 14.883617401123 37.257999420166 147 147 147
20.413562774658 14.883617401123 37.327999114990 117 117 117
20.383615493774 14.800457000732 37.402999877930 124 124 124
20.383615493774 14.800457000732 37.476001739502 107 107 107
20.609830856323 14.906881332397 37.666000366211 104 104 104
20.609830856323 14.906881332397 37.735000610352 170 170 170
20.609830856323 14.906881332397 37.805999755859 154 154 154
20.609830856323 14.906881332397 37.875999450684 100 100 100
20.609830856323 14.906881332397 38.304000854492 169 169 169
20.609830856323 14.906881332397 38.375000000000 177 177 177
20.609830856323 14.906881332397 38.446998596191 158 158 158
20.386957168579 14.940172195435 36.902000427246 83 83 83
20.386957168579 14.940172195435 36.972999572754 107 107 107
20.386957168579 14.940172195435 37.043998718262 105 105 105
20.386957168579 14.940172195435 37.115001678467 113 113 113
20.386957168579 14.940172195435 37.185001373291 133 133 133
20.443511962891 14.966777801514 37.254001617432 97 97 97
20.443511962891 14.966777801514 37.323001861572 95 95 95
20.386957168579 14.940172195435 37.399002075195 101 101 101
20.386957168579 14.940172195435 37.470001220703 110 110 110
20.556619644165 15.019989013672 37.799999237061 111 111 111
20.613174438477 15.046596527100 38.366001129150 104 104 104
20.303798675537 14.970119476318 37.043998718262 98 98 98
20.416904449463 15.023330688477 37.112998962402 113 113 113
20.416904449463 15.023330688477 37.184001922607 109 109 109
20.416904449463 15.023330688477 37.254001617432 106 106 106
20.416904449463 15.023330688477 37.325000762939 102 102 102
20.473461151123 15.049938201904 37.395000457764 102 102 102
20.473461151123 15.049938201904 37.465000152588 101 101 101
20.390298843384 15.079885482788 37.181999206543 65 65 65
20.446853637695 15.106491088867 37.251998901367 101 101 101
20.446853637695 15.106491088867 37.321998596191 107 107 107
20.390298843384 15.079885482788 37.392002105713 98 98 98
20.413433074951 13.709348678589 37.250999450684 72 72 72
20.413433074951 13.709348678589 37.340000152588 93 93 93
20.413433074951 13.709348678589 37.429000854492 56 56 56
20.529882431030 13.902275085449 37.681999206543 51 51 51
20.529882431030 13.902275085449 37.770000457764 114 114 114
20.529882431030 13.902275085449 37.858001708984 108 108 108
20.529882431030 13.902275085449 38.296001434326 28 28 28
20.529882431030 13.902275085449 38.387001037598 98 98 98
20.586437225342 13.928882598877 38.470001220703 59 59 59
20.416774749756 13.849063873291 37.160999298096 39 39 39
20.360219955444 13.822456359863 37.250000000000 97 97 97
20.416774749756 13.849063873291 37.337001800537 84 84 84
20.360219955444 13.822456359863 37.427001953125 87 87 87
20.533226013184 14.041990280151 37.763999938965 112 112 112
20.589778900146 14.068595886230 37.848999023438 108 108 108
20.589778900146 14.068595886230 37.936000823975 98 98 98
20.559831619263 13.985435485840 38.288002014160 94 94 94
20.559831619263 13.985435485840 38.375000000000 92 92 92
20.559831619263 13.985435485840 38.465999603271 73 73 73
20.649675369263 14.234916687012 38.673999786377 58 58 58
20.766126632690 14.427843093872 38.706001281738 31 31 31
20.390169143677 13.905616760254 36.985000610352 89 89 89
20.446722030640 13.932224273682 37.075000762939 69 69 69
20.476671218872 14.015384674072 37.161998748779 109 109 109
20.533226013184 14.041990280151 37.248001098633 110 110 110
20.476671218872 14.015384674072 37.334999084473 100 100 100
20.416774749756 13.849063873291 37.428001403809 88 88 88
