32.875000000000 14.421875000000 56.790000915527 139 139 139
32.843750000000 14.421875000000 56.827995300293 142 142 142
32.875000000000 14.421875000000 56.866004943848 134 134 134
32.843750000000 14.421875000000 56.903999328613 135 135 135
32.843750000000 14.421875000000 56.941993713379 137 137 137
32.875000000000 14.421875000000 56.980003356934 136 136 136
32.843750000000 14.421875000000 57.017997741699 138 138 138
32.875000000000 14.421875000000 57.055992126465 140 140 140
32.843750000000 14.421875000000 57.092994689941 133 133 133
32.875000000000 14.421875000000 57.131996154785 136 136 136
32.843750000000 14.421875000000 57.169990539551 132 132 132
32.875000000000 14.421875000000 57.208000183105 141 141 141
32.875000000000 14.437500000000 57.247993469238 129 129 129
32.875000000000 14.429687500000 57.284996032715 125 125 125
32.875000000000 14.429687500000 57.323997497559 121 121 121
32.843750000000 14.406250000000 57.357994079590 212 212 212
32.812500000000 14.414062500000 57.394996643066 217 217 217
32.875000000000 14.437500000000 57.439002990723 132 132 132
32.875000000000 14.421875000000 57.478996276855 129 129 129
32.906250000000 14.429687500000 57.517997741699 131 131 131
32.812500000000 14.406250000000 57.547996520996 214 214 214
32.843750000000 14.406250000000 57.586997985840 196 196 196
32.875000000000 14.437500000000 57.631996154785 140 140 140
32.875000000000 14.437500000000 57.669990539551 137 137 137
32.875000000000 14.421875000000 57.711997985840 137 137 137
32.875000000000 14.437500000000 57.747993469238 136 136 136
32.875000000000 14.437500000000 57.788002014160 133 133 133
33.031250000000 14.835937500000 56.536994934082 99 99 99
33.062500000000 14.828125000000 56.575996398926 111 111 111
33.031250000000 14.828125000000 56.616004943848 65 65 65
32.906250000000 14.750000000000 57.152000427246 28 28 28
32.875000000000 14.757812500000 57.189994812012 201 201 201
32.875000000000 14.757812500000 57.228004455566 214 214 214
32.875000000000 14.757812500000 57.265998840332 207 207 207
32.875000000000 14.757812500000 57.305000305176 209 209 209
32.875000000000 14.757812500000 57.342994689941 213 213 213
32.875000000000 14.750000000000 57.381004333496 206 206 206
32.906250000000 14.750000000000 57.575996398926 182 182 182
32.906250000000 14.757812500000 57.616004943848 203 203 203
32.906250000000 14.757812500000 57.654991149902 206 206 206
32.906250000000 14.757812500000 57.693992614746 200 200 200
32.906250000000 14.757812500000 57.732994079590 201 201 201
32.906250000000 14.757812500000 57.771995544434 199 199 199
32.906250000000 14.757812500000 57.812004089355 152 152 152
32.843750000000 15.031250000000 57.198997497559 120 120 120
32.843750000000 15.046875000000 57.238990783691 176 176 176
32.968750000000 14.054687500000 57.778999328613 150 150 150
32.937500000000 14.054687500000 57.736991882324 167 167 167
32.968750000000 14.054687500000 57.697990417480 163 163 163
32.937500000000 14.062500000000 57.657005310059 167 167 167
32.937500000000 14.062500000000 57.614997863770 161 161 161
32.937500000000 14.062500000000 57.575004577637 165 165 165
32.937500000000 14.078125000000 57.534996032715 76 76 76
32.937500000000 14.062500000000 57.336997985840 181 181 181
32.937500000000 14.062500000000 57.297996520996 186 186 186
32.968750000000 14.054687500000 57.260002136230 188 188 188
32.968750000000 14.054687500000 57.219993591309 186 186 186
32.968750000000 14.054687500000 57.180000305176 190 190 190
32.968750000000 14.054687500000 57.140998840332 183 183 183
32.968750000000 14.062500000000 57.101997375488 88 88 88
32.843750000000 14.429687500000 57.784004211426 139 139 139
32.843750000000 14.445312500000 57.741996765137 146 146 146
32.843750000000 14.445312500000 57.702995300293 122 122 122
32.843750000000 14.429687500000 57.665000915527 127 127 127
32.843750000000 14.445312500000 57.624000549316 131 131 131
32.843750000000 14.429687500000 57.586997985840 126 126 126
32.843750000000 14.429687500000 57.547996520996 134 134 134
32.843750000000 14.429687500000 57.508003234863 133 133 133
32.843750000000 14.445312500000 57.469001770020 134 134 134
32.843750000000 14.429687500000 57.430992126465 124 124 124
32.843750000000 14.445312500000 57.390998840332 132 132 132
32.843750000000 14.445312500000 57.350990295410 129 129 129
32.843750000000 14.445312500000 57.312995910645 127 127 127
32.812500000000 14.453125000000 57.273002624512 125 125 125
32.843750000000 14.445312500000 57.234992980957 125 125 125
32.843750000000 14.429687500000 57.196998596191 128 128 128
32.843750000000 14.445312500000 57.157997131348 126 126 126
32.843750000000 14.445312500000 57.118995666504 128 128 128
32.843750000000 14.445312500000 57.081001281738 136 136 136
32.843750000000 14.445312500000 57.041999816895 124 124 124
32.843750000000 14.445312500000 57.002998352051 125 125 125
32.812500000000 14.453125000000 56.963996887207 128 128 128
32.812500000000 14.453125000000 56.926002502441 124 124 124
32.812500000000 14.453125000000 56.887001037598 127 127 127
32.843750000000 14.445312500000 56.848991394043 132 132 132
32.812500000000 14.453125000000 56.810005187988 133 133 133
32.843750000000 14.445312500000 56.771995544434 138 138 138
32.843750000000 14.445312500000 56.732994079590 136 136 136
32.812500000000 14.453125000000 56.694999694824 140 140 140
32.812500000000 14.453125000000 56.655998229980 137 137 137
32.812500000000 14.453125000000 56.618003845215 132 132 132
32.812500000000 14.453125000000 56.579002380371 134 134 134
32.843750000000 14.445312500000 56.540000915527 136 136 136
32.843750000000 14.445312500000 56.501991271973 135 135 135
32.812500000000 14.453125000000 56.463996887207 134 134 134
32.812500000000 14.453125000000 56.424995422363 133 133 133
32.843750000000 14.453125000000 56.385993957520 142 142 142
32.812500000000 14.453125000000 56.347999572754 136 136 136
32.812500000000 14.453125000000 56.308998107910 137 137 137
32.812500000000 14.453125000000 56.269996643066 136 136 136
32.812500000000 14.460937500000 56.230995178223 142 142 142
32.812500000000 14.453125000000 56.193000793457 144 144 144
32.812500000000 14.460937500000 56.152992248535 148 148 148
32.812500000000 14.453125000000 56.114997863770 141 141 141
32.812500000000 14.460937500000 56.075996398926 145 145 145
32.812500000000 14.460937500000 56.036994934082 145 145 145
32.812500000000 14.460937500000 55.997993469238 139 139 139
32.812500000000 14.453125000000 55.959999084473 143 143 143
32.812500000000 14.460937500000 55.919990539551 141 141 141
32.812500000000 14.460937500000 55.881004333496 147 147 147
32.812500000000 14.460937500000 55.840995788574 142 142 142
32.812500000000 14.460937500000 55.801002502441 145 145 145
32.812500000000 14.468750000000 55.763999938965 146 146 146
32.812500000000 14.460937500000 55.722999572754 150 150 150
32.812500000000 14.460937500000 55.683998107910 150 150 150
32.812500000000 14.460937500000 55.644004821777 151 151 151
32.812500000000 14.460937500000 55.603004455566 156 156 156
32.812500000000 14.460937500000 55.564994812012 154 154 154
32.812500000000 14.468750000000 55.525993347168 155 155 155
32.812500000000 14.460937500000 55.482994079590 151 151 151
32.812500000000 14.460937500000 55.445991516113 152 152 152
32.812500000000 14.460937500000 55.404991149902 151 151 151
32.812500000000 14.460937500000 55.363990783691 152 152 152
32.812500000000 14.468750000000 55.325996398926 150 150 150
32.812500000000 14.460937500000 55.284004211426 146 146 146
32.812500000000 14.468750000000 55.243995666504 146 146 146
32.843750000000 14.468750000000 55.200004577637 148 148 148
32.812500000000 14.460937500000 55.161003112793 151 151 151
32.812500000000 14.460937500000 55.120994567871 146 146 146
32.812500000000 14.460937500000 55.079994201660 145 145 145
32.843750000000 14.468750000000 55.036994934082 139 139 139
32.843750000000 14.460937500000 54.993995666504 140 140 140
32.843750000000 14.468750000000 54.952995300293 144 144 144
32.843750000000 14.468750000000 54.911994934082 142 142 142
32.843750000000 14.468750000000 54.870002746582 141 141 141
32.843750000000 14.468750000000 54.829002380371 137 137 137
32.843750000000 14.468750000000 54.788002014160 143 143 143
32.843750000000 14.468750000000 54.745994567871 140 140 140
32.812500000000 14.476562500000 54.706001281738 174 174 174
32.843750000000 14.468750000000 54.659996032715 173 173 173
32.843750000000 14.468750000000 54.620002746582 169 169 169
32.812500000000 14.476562500000 54.579994201660 165 165 165
32.843750000000 14.468750000000 54.534004211426 164 164 164
32.843750000000 14.726562500000 57.773994445801 120 120 120
32.875000000000 14.734375000000 57.734992980957 182 182 182
32.875000000000 14.718750000000 57.695991516113 177 177 177
32.875000000000 14.718750000000 57.657997131348 184 184 184
32.875000000000 14.718750000000 57.618003845215 179 179 179
32.875000000000 14.718750000000 57.577995300293 176 176 176
32.875000000000 14.718750000000 57.538993835449 161 161 161
32.875000000000 14.718750000000 57.420997619629 90 90 90
32.875000000000 14.734375000000 57.379997253418 163 163 163
32.843750000000 14.742187500000 57.340995788574 159 159 159
32.875000000000 14.734375000000 57.303001403809 163 163 163
32.875000000000 14.734375000000 57.263999938965 166 166 166
32.875000000000 14.734375000000 57.224998474121 163 163 163
32.843750000000 14.742187500000 57.185997009277 137 137 137
33.031250000000 14.625000000000 56.758995056152 160 160 160
33.031250000000 14.625000000000 56.719001770020 166 166 166
33.031250000000 14.625000000000 56.678993225098 166 166 166
33.000000000000 14.648437500000 56.639991760254 142 142 142
32.968750000000 14.671875000000 56.600990295410 155 155 155
32.968750000000 14.671875000000 56.562004089355 158 158 158
32.968750000000 14.671875000000 56.521995544434 137 137 137
33.000000000000 14.648437500000 56.480995178223 156 156 156
33.000000000000 14.640625000000 56.441001892090 185 185 185
33.000000000000 14.648437500000 56.402000427246 163 163 163
32.937500000000 14.687500000000 56.366004943848 139 139 139
32.937500000000 14.687500000000 56.325996398926 128 128 128
32.968750000000 14.671875000000 56.284004211426 136 136 136
33.000000000000 14.648437500000 56.241996765137 148 148 148
33.000000000000 14.648437500000 56.202003479004 94 94 94
32.812500000000 15.062500000000 57.752998352051 124 124 124
32.843750000000 15.039062500000 57.717994689941 16 16 16
33.000000000000 13.890625000000 57.030998229980 198 198 198
33.000000000000 13.890625000000 57.064994812012 247 247 247
33.000000000000 13.890625000000 57.098991394043 255 255 255
33.000000000000 13.898437500000 57.133003234863 0 0 0
33.000000000000 13.890625000000 57.167991638184 18 18 18
33.000000000000 13.890625000000 57.200996398926 15 15 15
33.000000000000 13.898437500000 57.236000061035 5 5 5
33.000000000000 13.890625000000 57.269004821777 63 63 63
33.000000000000 13.890625000000 57.618995666504 150 150 150
32.968750000000 13.898437500000 57.650993347168 211 211 211
32.968750000000 13.898437500000 57.687995910645 216 216 216
33.000000000000 13.890625000000 57.723991394043 208 208 208
33.000000000000 13.890625000000 57.760002136230 206 206 206
33.000000000000 13.890625000000 57.795997619629 210 210 210
33.000000000000 13.898437500000 57.833992004395 208 208 208
33.031250000000 13.890625000000 57.877998352051 23 23 23
33.093750000000 14.195312500000 56.293998718262 78 78 78
33.093750000000 14.203125000000 56.329002380371 146 146 146
33.093750000000 14.203125000000 56.362998962402 169 169 169
33.093750000000 14.203125000000 56.398002624512 172 172 172
33.093750000000 14.203125000000 56.431999206543 168 168 168
33.093750000000 14.203125000000 56.467002868652 167 167 167
33.093750000000 14.203125000000 56.500999450684 169 169 169
33.093750000000 14.203125000000 56.536003112793 163 163 163
33.093750000000 14.203125000000 56.570991516113 173 173 173
33.093750000000 14.203125000000 56.605003356934 170 170 170
33.125000000000 14.203125000000 56.639991760254 171 171 171
33.125000000000 14.203125000000 56.674995422363 174 174 174
33.125000000000 14.203125000000 56.709999084473 169 169 169
33.125000000000 14.203125000000 56.745002746582 135 135 135
33.000000000000 14.203125000000 57.183998107910 63 63 63
32.968750000000 14.203125000000 57.215995788574 229 229 229
32.968750000000 14.203125000000 57.250999450684 0 0 0
32.968750000000 14.203125000000 57.284996032715 11 11 11
32.968750000000 14.203125000000 57.318992614746 6 6 6
32.968750000000 14.195312500000 57.353004455566 15 15 15
32.937500000000 14.210937500000 57.385993957520 18 18 18
32.968750000000 14.195312500000 57.422004699707 1 1 1
32.937500000000 14.203125000000 57.452003479004 196 196 196
32.937500000000 14.203125000000 57.487998962402 227 227 227
32.937500000000 14.210937500000 57.523994445801 231 231 231
32.937500000000 14.210937500000 57.556999206543 215 215 215
32.937500000000 14.210937500000 57.592994689941 214 214 214
32.937500000000 14.210937500000 57.628990173340 215 215 215
32.937500000000 14.210937500000 57.663993835449 210 210 210
32.968750000000 14.203125000000 57.704002380371 49 49 49
32.937500000000 14.507812500000 54.497993469238 154 154 154
32.937500000000 14.515625000000 54.538002014160 154 154 154
32.937500000000 14.515625000000 54.571998596191 155 155 155
32.937500000000 14.515625000000 54.611991882324 161 161 161
32.937500000000 14.515625000000 54.650001525879 161 161 161
32.937500000000 14.515625000000 54.685997009277 162 162 162
32.937500000000 14.515625000000 54.722999572754 162 162 162
32.937500000000 14.515625000000 54.754997253418 168 168 168
32.937500000000 14.515625000000 54.794990539551 171 171 171
32.937500000000 14.515625000000 54.831001281738 175 175 175
32.968750000000 14.515625000000 54.862998962402 187 187 187
32.968750000000 14.507812500000 54.896995544434 194 194 194
32.968750000000 14.507812500000 54.931999206543 209 209 209
32.968750000000 14.507812500000 54.967002868652 208 208 208
33.000000000000 14.507812500000 54.995994567871 232 232 232
33.000000000000 14.515625000000 55.034004211426 217 217 217
32.937500000000 14.507812500000 55.086997985840 149 149 149
33.031250000000 14.507812500000 55.099998474121 221 221 221
32.937500000000 14.515625000000 55.153999328613 159 159 159
32.937500000000 14.507812500000 55.193000793457 143 143 143
32.937500000000 14.507812500000 55.228996276855 138 138 138
32.937500000000 14.515625000000 55.262992858887 142 142 142
32.937500000000 14.507812500000 55.299003601074 134 134 134
32.937500000000 14.507812500000 55.334999084473 134 134 134
32.937500000000 14.507812500000 55.368995666504 142 142 142
32.937500000000 14.507812500000 55.404991149902 131 131 131
32.937500000000 14.507812500000 55.439002990723 127 127 127
32.937500000000 14.507812500000 55.472999572754 138 138 138
32.937500000000 14.507812500000 55.508003234863 132 132 132
32.937500000000 14.507812500000 55.542991638184 127 127 127
32.906250000000 14.515625000000 55.579002380371 124 124 124
32.937500000000 14.507812500000 55.611000061035 127 127 127
32.937500000000 14.507812500000 55.646003723145 126 126 126
32.937500000000 14.507812500000 55.680000305176 126 126 126
32.937500000000 14.507812500000 55.715003967285 123 123 123
32.937500000000 14.507812500000 55.749000549316 123 123 123
32.906250000000 14.500000000000 55.784004211426 118 118 118
32.906250000000 14.500000000000 55.818000793457 112 112 112
32.937500000000 14.507812500000 55.850990295410 111 111 111
32.906250000000 14.500000000000 55.885993957520 120 120 120
32.906250000000 14.500000000000 55.919990539551 113 113 113
32.906250000000 14.515625000000 55.954994201660 115 115 115
32.906250000000 14.500000000000 55.987998962402 121 121 121
32.906250000000 14.515625000000 56.021995544434 111 111 111
32.906250000000 14.500000000000 56.055000305176 112 112 112
32.968750000000 14.500000000000 56.085990905762 139 139 139
32.968750000000 14.507812500000 56.118995666504 169 169 169
32.968750000000 14.515625000000 56.152000427246 166 166 166
33.000000000000 14.507812500000 56.185997009277 169 169 169
33.000000000000 14.507812500000 56.219993591309 168 168 168
33.000000000000 14.515625000000 56.252998352051 177 177 177
33.000000000000 14.515625000000 56.286994934082 162 162 162
33.000000000000 14.507812500000 56.320991516113 138 138 138
33.000000000000 14.507812500000 56.355995178223 157 157 157
32.906250000000 14.515625000000 56.391990661621 160 160 160
32.937500000000 14.515625000000 56.424995422363 174 174 174
33.031250000000 14.507812500000 56.458000183105 173 173 173
33.000000000000 14.515625000000 56.491996765137 173 173 173
32.937500000000 14.507812500000 56.525001525879 160 160 160
32.875000000000 14.515625000000 56.558998107910 168 168 168
33.062500000000 14.500000000000 56.594993591309 173 173 173
33.062500000000 14.500000000000 56.628990173340 170 170 170
33.062500000000 14.500000000000 56.663993835449 161 161 161
33.062500000000 14.500000000000 56.697990417480 169 169 169
33.062500000000 14.500000000000 56.732994079590 172 172 172
33.062500000000 14.500000000000 56.767997741699 116 116 116
32.906250000000 14.515625000000 57.299003601074 216 216 216
32.906250000000 14.515625000000 57.333992004395 225 225 225
32.906250000000 14.515625000000 57.368995666504 226 226 226
32.906250000000 14.515625000000 57.402000427246 220 220 220
32.906250000000 14.515625000000 57.437995910645 226 226 226
32.906250000000 14.515625000000 57.472999572754 221 221 221
32.906250000000 14.515625000000 57.506996154785 225 225 225
32.937500000000 14.507812500000 57.543998718262 248 248 248
32.937500000000 14.507812500000 57.579002380371 242 242 242
32.906250000000 14.500000000000 57.611991882324 233 233 233
32.906250000000 14.500000000000 57.646995544434 98 98 98
33.000000000000 14.812500000000 56.452003479004 78 78 78
33.031250000000 14.812500000000 56.486000061035 148 148 148
33.031250000000 14.812500000000 56.521003723145 170 170 170
33.031250000000 14.812500000000 56.555000305176 176 176 176
33.031250000000 14.812500000000 56.588996887207 174 174 174
33.031250000000 14.812500000000 56.622993469238 168 168 168
33.031250000000 14.812500000000 56.657997131348 127 127 127
32.875000000000 14.812500000000 57.120994567871 177 177 177
32.843750000000 14.812500000000 57.152992248535 221 221 221
32.875000000000 14.812500000000 57.187995910645 232 232 232
32.843750000000 14.812500000000 57.219993591309 218 218 218
32.843750000000 14.812500000000 57.253990173340 221 221 221
32.843750000000 14.812500000000 57.286994934082 228 228 228
32.843750000000 14.812500000000 57.321998596191 220 220 220
32.843750000000 14.812500000000 57.355995178223 152 152 152
32.875000000000 14.812500000000 57.564994812012 111 111 111
32.875000000000 14.812500000000 57.597999572754 220 220 220
32.875000000000 14.820312500000 57.635002136230 237 237 237
32.906250000000 14.812500000000 57.669990539551 239 239 239
32.875000000000 14.820312500000 57.704002380371 238 238 238
32.906250000000 14.812500000000 57.739997863770 249 249 249
32.875000000000 14.812500000000 57.771003723145 230 230 230
32.875000000000 14.812500000000 57.805000305176 224 224 224
32.906250000000 14.812500000000 57.844993591309 33 33 33
32.875000000000 14.929687500000 57.902992248535 148 148 148
32.875000000000 14.929687500000 57.863990783691 187 187 187
32.875000000000 14.929687500000 57.823997497559 180 180 180
32.875000000000 14.929687500000 57.784996032715 186 186 186
32.875000000000 14.929687500000 57.745994567871 178 178 178
32.875000000000 14.929687500000 57.704994201660 177 177 177
32.875000000000 14.929687500000 57.666999816895 153 153 153
32.843750000000 14.945312500000 57.351997375488 112 112 112
32.843750000000 14.945312500000 57.312995910645 169 169 169
32.843750000000 14.945312500000 57.275001525879 166 166 166
32.843750000000 14.953125000000 57.236000061035 167 167 167
32.843750000000 14.945312500000 57.197990417480 164 164 164
32.843750000000 14.945312500000 57.159004211426 166 166 166
32.843750000000 14.953125000000 57.120002746582 115 115 115
33.062500000000 14.820312500000 56.771995544434 32 32 32
33.031250000000 14.828125000000 56.732002258301 154 154 154
33.031250000000 14.828125000000 56.693000793457 167 167 167
33.031250000000 14.828125000000 56.652992248535 164 164 164
33.031250000000 14.828125000000 56.612998962402 170 170 170
33.031250000000 14.828125000000 56.572990417480 169 169 169
33.031250000000 14.828125000000 56.534004211426 170 170 170
33.031250000000 14.843750000000 56.495002746582 159 159 159
33.031250000000 14.843750000000 56.454994201660 106 106 106
32.906250000000 14.585937500000 57.689002990723 24 24 24
32.906250000000 14.570312500000 57.650001525879 179 179 179
32.906250000000 14.570312500000 57.611000061035 181 181 181
32.906250000000 14.570312500000 57.571998596191 182 182 182
32.906250000000 14.585937500000 57.530998229980 170 170 170
32.906250000000 14.578125000000 57.491004943848 166 166 166
32.906250000000 14.570312500000 57.452995300293 167 167 167
32.906250000000 14.562500000000 57.413002014160 169 169 169
32.906250000000 14.578125000000 57.374000549316 169 169 169
32.906250000000 14.578125000000 57.333992004395 162 162 162
33.093750000000 14.460937500000 56.788002014160 154 154 154
33.093750000000 14.460937500000 56.747993469238 165 165 165
33.093750000000 14.460937500000 56.708000183105 158 158 158
33.093750000000 14.468750000000 56.667991638184 167 167 167
33.062500000000 14.476562500000 56.627998352051 166 166 166
32.875000000000 14.578125000000 56.594993591309 154 154 154
32.937500000000 14.562500000000 56.553993225098 142 142 142
32.968750000000 14.539062500000 56.513999938965 157 157 157
32.937500000000 14.554687500000 56.474998474121 164 164 164
32.906250000000 14.562500000000 56.437004089355 161 161 161
32.906250000000 14.562500000000 56.398002624512 143 143 143
33.000000000000 14.515625000000 56.353004455566 147 147 147
33.000000000000 14.515625000000 56.312995910645 148 148 148
33.000000000000 14.515625000000 56.273994445801 156 156 156
33.000000000000 14.523437500000 56.234992980957 158 158 158
33.000000000000 14.523437500000 56.194999694824 153 153 153
32.968750000000 14.531250000000 56.157005310059 151 151 151
32.968750000000 14.531250000000 56.118003845215 141 141 141
32.906250000000 14.562500000000 56.084999084473 108 108 108
32.906250000000 14.554687500000 56.043998718262 103 103 103
32.906250000000 14.554687500000 56.004997253418 114 114 114
32.906250000000 14.562500000000 55.965995788574 108 108 108
32.906250000000 14.554687500000 55.924995422363 113 113 113
32.906250000000 14.562500000000 55.885993957520 108 108 108
32.906250000000 14.554687500000 55.846000671387 111 111 111
32.937500000000 14.546875000000 55.803993225098 110 110 110
32.906250000000 14.554687500000 55.764991760254 121 121 121
32.906250000000 14.562500000000 55.726997375488 119 119 119
32.906250000000 14.554687500000 55.687004089355 126 126 126
32.906250000000 14.554687500000 55.644996643066 131 131 131
32.906250000000 14.554687500000 55.605995178223 131 131 131
32.906250000000 14.554687500000 55.564994812012 129 129 129
32.906250000000 14.562500000000 55.527000427246 135 135 135
32.906250000000 14.554687500000 55.484992980957 138 138 138
32.906250000000 14.554687500000 55.443992614746 144 144 144
32.906250000000 14.554687500000 55.402992248535 151 151 151
32.906250000000 14.554687500000 55.363990783691 156 156 156
32.906250000000 14.554687500000 55.321998596191 153 153 153
32.906250000000 14.554687500000 55.279991149902 157 157 157
32.906250000000 14.554687500000 55.237998962402 158 158 158
32.906250000000 14.554687500000 55.197990417480 157 157 157
32.906250000000 14.554687500000 55.155998229980 163 163 163
32.937500000000 14.546875000000 55.113990783691 156 156 156
32.906250000000 14.546875000000 55.075004577637 156 156 156
32.906250000000 14.546875000000 55.032997131348 153 153 153
32.906250000000 14.554687500000 54.988990783691 161 161 161
32.937500000000 14.546875000000 54.946998596191 156 156 156
32.906250000000 14.546875000000 54.907005310059 156 156 156
32.906250000000 14.554687500000 54.862998962402 151 151 151
32.906250000000 14.546875000000 54.821998596191 149 149 149
32.937500000000 14.546875000000 54.777992248535 154 154 154
32.937500000000 14.546875000000 54.734001159668 153 153 153
32.937500000000 14.546875000000 54.693000793457 153 153 153
32.937500000000 14.539062500000 54.650001525879 151 151 151
32.937500000000 14.546875000000 54.605003356934 154 154 154
32.937500000000 14.539062500000 54.562995910645 145 145 145
32.937500000000 14.546875000000 54.519004821777 139 139 139
32.968750000000 14.195312500000 57.758003234863 125 125 125
32.968750000000 14.195312500000 57.717002868652 171 171 171
32.968750000000 14.195312500000 57.678001403809 165 165 165
32.968750000000 14.210937500000 57.637001037598 166 166 166
32.937500000000 14.210937500000 57.596000671387 162 162 162
32.937500000000 14.218750000000 57.555000305176 169 169 169
32.937500000000 14.218750000000 57.514991760254 108 108 108
32.937500000000 14.210937500000 57.437004089355 133 133 133
32.968750000000 14.195312500000 57.398002624512 188 188 188
32.968750000000 14.195312500000 57.359001159668 189 189 189
32.968750000000 14.187500000000 57.320991516113 187 187 187
32.968750000000 14.187500000000 57.280998229980 187 187 187
32.968750000000 14.187500000000 57.241996765137 186 186 186
33.000000000000 14.179687500000 57.202995300293 176 176 176
33.000000000000 13.835937500000 57.745002746582 67 67 67
32.843750000000 14.937500000000 57.113990783691 195 195 195
32.843750000000 14.937500000000 57.146995544434 225 225 225
32.843750000000 14.937500000000 57.180992126465 233 233 233
32.843750000000 14.929687500000 57.213996887207 217 217 217
32.843750000000 14.929687500000 57.247001647949 223 223 223
32.843750000000 14.937500000000 57.282005310059 228 228 228
32.843750000000 14.929687500000 57.314994812012 221 221 221
32.843750000000 14.921875000000 57.349998474121 115 115 115
32.843750000000 14.929687500000 57.659996032715 212 212 212
32.875000000000 14.921875000000 57.695991516113 232 232 232
32.875000000000 14.929687500000 57.732994079590 242 242 242
32.875000000000 14.921875000000 57.763999938965 228 228 228
32.875000000000 14.921875000000 57.799995422363 239 239 239
32.843750000000 14.921875000000 57.833000183105 232 232 232
32.843750000000 14.914062500000 57.866004943848 225 225 225
32.843750000000 14.914062500000 57.900993347168 115 115 115
33.031250000000 14.632812500000 56.146003723145 145 145 145
33.031250000000 14.632812500000 56.180000305176 168 168 168
33.000000000000 14.625000000000 56.213996887207 167 167 167
33.031250000000 14.617187500000 56.247993469238 166 166 166
33.031250000000 14.617187500000 56.282005310059 140 140 140
33.031250000000 14.617187500000 56.316001892090 171 171 171
33.062500000000 14.609375000000 56.349998474121 169 169 169
33.031250000000 14.609375000000 56.385002136230 186 186 186
33.031250000000 14.617187500000 56.418998718262 177 177 177
33.062500000000 14.609375000000 56.452995300293 165 165 165
33.062500000000 14.609375000000 56.487998962402 167 167 167
33.062500000000 14.609375000000 56.521995544434 163 163 163
33.031250000000 14.609375000000 56.555992126465 162 162 162
33.000000000000 14.609375000000 56.590003967285 183 183 183
33.031250000000 14.609375000000 56.624992370605 177 177 177
33.062500000000 14.609375000000 56.659996032715 168 168 168
33.062500000000 14.609375000000 56.693992614746 160 160 160
33.062500000000 14.601562500000 56.728004455566 169 169 169
33.062500000000 14.601562500000 56.762992858887 175 175 175
33.062500000000 14.609375000000 56.797996520996 98 98 98
32.906250000000 14.593750000000 57.295997619629 202 202 202
32.906250000000 14.593750000000 57.329994201660 224 224 224
32.906250000000 14.593750000000 57.363990783691 229 229 229
32.875000000000 14.609375000000 57.396995544434 218 218 218
32.906250000000 14.593750000000 57.432991027832 224 224 224
32.906250000000 14.593750000000 57.467994689941 222 222 222
32.906250000000 14.593750000000 57.501991271973 224 224 224
32.937500000000 14.593750000000 57.538993835449 233 233 233
32.906250000000 14.601562500000 57.572990417480 236 236 236
32.937500000000 14.593750000000 57.607994079590 241 241 241
32.906250000000 14.593750000000 57.639991760254 230 230 230
32.906250000000 14.593750000000 57.674003601074 218 218 218
33.062500000000 14.281250000000 56.290992736816 117 117 117
33.093750000000 14.281250000000 56.325996398926 160 160 160
33.093750000000 14.281250000000 56.359992980957 170 170 170
33.093750000000 14.281250000000 56.394996643066 170 170 170
33.093750000000 14.281250000000 56.428993225098 172 172 172
33.093750000000 14.281250000000 56.463996887207 163 163 163
33.093750000000 14.273437500000 56.497993469238 163 163 163
33.093750000000 14.281250000000 56.532997131348 157 157 157
33.062500000000 14.281250000000 56.566993713379 175 175 175
33.062500000000 14.273437500000 56.601997375488 177 177 177
33.062500000000 14.281250000000 56.637001037598 176 176 176
33.125000000000 14.273437500000 56.672004699707 169 169 169
33.125000000000 14.273437500000 56.706993103027 166 166 166
33.125000000000 14.273437500000 56.741996765137 168 168 168
33.125000000000 14.273437500000 56.775993347168 143 143 143
33.000000000000 14.257812500000 57.215003967285 72 72 72
32.968750000000 14.273437500000 57.247993469238 231 231 231
32.968750000000 14.265625000000 57.280998229980 244 244 244
32.968750000000 14.273437500000 57.316993713379 8 8 8
32.968750000000 14.265625000000 57.349998474121 253 253 253
32.937500000000 14.265625000000 57.383003234863 0 0 0
32.968750000000 14.265625000000 57.418998718262 1 1 1
32.937500000000 14.265625000000 57.452995300293 243 243 243
32.937500000000 14.273437500000 57.484001159668 221 221 221
32.937500000000 14.257812500000 57.519996643066 230 230 230
32.937500000000 14.257812500000 57.555000305176 222 222 222
32.937500000000 14.257812500000 57.588996887207 215 215 215
32.937500000000 14.257812500000 57.624000549316 208 208 208
32.968750000000 14.257812500000 57.661994934082 210 210 210
32.937500000000 14.257812500000 57.694999694824 198 198 198
33.000000000000 13.929687500000 57.060997009277 175 175 175
33.000000000000 13.929687500000 57.096000671387 238 238 238
33.000000000000 13.929687500000 57.129997253418 245 245 245
33.000000000000 13.929687500000 57.163993835449 10 10 10
33.000000000000 13.929687500000 57.197990417480 17 17 17
32.968750000000 13.929687500000 57.232002258301 10 10 10
32.968750000000 13.929687500000 57.263999938965 161 161 161
32.968750000000 13.921875000000 57.648002624512 143 143 143
32.968750000000 13.921875000000 57.682991027832 208 208 208
33.000000000000 13.921875000000 57.721000671387 218 218 218
33.000000000000 13.914062500000 57.756004333496 211 211 211
33.000000000000 13.921875000000 57.792991638184 206 206 206
33.000000000000 13.921875000000 57.829994201660 207 207 207
33.000000000000 13.929687500000 57.866004943848 181 181 181
32.875000000000 14.890625000000 57.159004211426 193 193 193
32.843750000000 14.882812500000 57.196998596191 212 212 212
32.843750000000 14.882812500000 57.234992980957 213 213 213
32.843750000000 14.882812500000 57.273002624512 208 208 208
32.843750000000 14.882812500000 57.310997009277 211 211 211
32.843750000000 14.882812500000 57.348991394043 209 209 209
32.843750000000 14.882812500000 57.387992858887 119 119 119
32.875000000000 14.898437500000 57.622993469238 53 53 53
32.875000000000 14.898437500000 57.661994934082 193 193 193
32.875000000000 14.898437500000 57.700996398926 201 201 201
32.875000000000 14.898437500000 57.738990783691 198 198 198
32.875000000000 14.898437500000 57.777992248535 198 198 198
32.875000000000 14.882812500000 57.818992614746 199 199 199
32.875000000000 14.882812500000 57.857002258301 195 195 195
32.875000000000 14.882812500000 57.896995544434 51 51 51
33.031250000000 14.656250000000 56.169990539551 114 114 114
33.031250000000 14.664062500000 56.208000183105 155 155 155
33.031250000000 14.656250000000 56.247993469238 150 150 150
33.031250000000 14.664062500000 56.286994934082 153 153 153
33.031250000000 14.656250000000 56.325996398926 160 160 160
33.031250000000 14.656250000000 56.366004943848 173 173 173
32.906250000000 14.585937500000 56.411994934082 146 146 146
32.968750000000 14.617187500000 56.446998596191 168 168 168
32.968750000000 14.609375000000 56.486991882324 160 160 160
32.968750000000 14.609375000000 56.525001525879 163 163 163
32.937500000000 14.601562500000 56.564002990723 162 162 162
32.937500000000 14.609375000000 56.603004455566 161 161 161
33.000000000000 14.640625000000 56.640998840332 159 159 159
33.062500000000 14.671875000000 56.678993225098 155 155 155
33.062500000000 14.671875000000 56.719001770020 163 163 163
33.062500000000 14.671875000000 56.758003234863 164 164 164
33.062500000000 14.679687500000 56.797996520996 123 123 123
32.906250000000 14.578125000000 57.333992004395 202 202 202
32.906250000000 14.578125000000 57.372993469238 207 207 207
32.906250000000 14.578125000000 57.411003112793 203 203 203
32.906250000000 14.570312500000 57.450004577637 198 198 198
32.906250000000 14.578125000000 57.489997863770 200 200 200
32.906250000000 14.578125000000 57.527992248535 199 199 199
32.906250000000 14.578125000000 57.566993713379 201 201 201
32.906250000000 14.562500000000 57.607002258301 205 205 205
32.906250000000 14.570312500000 57.646003723145 199 199 199
32.937500000000 14.570312500000 57.687004089355 144 144 144
33.062500000000 14.343750000000 56.181999206543 109 109 109
33.062500000000 14.343750000000 56.221992492676 152 152 152
33.093750000000 14.351562500000 56.260002136230 158 158 158
33.062500000000 14.343750000000 56.299995422363 166 166 166
33.093750000000 14.351562500000 56.338996887207 165 165 165
33.093750000000 14.351562500000 56.378990173340 159 159 159
33.093750000000 14.351562500000 56.418998718262 187 187 187
33.062500000000 14.343750000000 56.458992004395 196 196 196
33.062500000000 14.343750000000 56.497993469238 173 173 173
33.062500000000 14.328125000000 56.538993835449 144 144 144
33.031250000000 14.320312500000 56.577995300293 169 169 169
33.062500000000 14.328125000000 56.616996765137 168 168 168
33.062500000000 14.328125000000 56.657005310059 162 162 162
33.093750000000 14.359375000000 56.695991516113 161 161 161
33.093750000000 14.359375000000 56.736000061035 162 162 162
33.093750000000 14.359375000000 56.775001525879 151 151 151
32.968750000000 14.273437500000 57.239997863770 121 121 121
32.968750000000 14.273437500000 57.278999328613 205 205 205
32.937500000000 14.273437500000 57.316993713379 203 203 203
32.968750000000 14.265625000000 57.355995178223 194 194 194
32.968750000000 14.273437500000 57.396003723145 195 195 195
32.968750000000 14.265625000000 57.433998107910 192 192 192
32.937500000000 14.265625000000 57.472999572754 176 176 176
32.937500000000 14.257812500000 57.510993957520 189 189 189
32.937500000000 14.250000000000 57.549003601074 194 194 194
32.937500000000 14.257812500000 57.588005065918 198 198 198
32.937500000000 14.257812500000 57.628990173340 197 197 197
32.968750000000 14.250000000000 57.667991638184 196 196 196
32.968750000000 14.265625000000 57.709999084473 185 185 185
33.000000000000 13.968750000000 57.057991027832 164 164 164
33.000000000000 13.968750000000 57.096992492676 199 199 199
33.000000000000 13.960937500000 57.135993957520 197 197 197
33.000000000000 13.960937500000 57.174995422363 193 193 193
33.000000000000 13.960937500000 57.213996887207 197 197 197
33.000000000000 13.945312500000 57.252998352051 192 192 192
33.000000000000 13.953125000000 57.292991638184 139 139 139
33.000000000000 13.945312500000 57.646003723145 83 83 83
32.968750000000 13.945312500000 57.685005187988 190 190 190
33.000000000000 13.953125000000 57.726997375488 193 193 193
33.000000000000 13.953125000000 57.766990661621 197 197 197
33.000000000000 13.945312500000 57.805992126465 189 189 189
33.000000000000 13.953125000000 57.847999572754 195 195 195
33.000000000000 13.945312500000 57.887992858887 131 131 131
32.968750000000 13.867187500000 57.185997009277 143 143 143
32.968750000000 13.851562500000 57.698997497559 179 179 179
32.968750000000 13.851562500000 57.738990783691 141 141 141
33.062500000000 14.289062500000 56.264991760254 120 120 120
33.062500000000 14.296875000000 56.303993225098 161 161 161
33.062500000000 14.296875000000 56.344001770020 166 166 166
33.062500000000 14.289062500000 56.383995056152 168 168 168
33.062500000000 14.296875000000 56.424003601074 161 161 161
33.062500000000 14.296875000000 56.463996887207 154 154 154
33.062500000000 14.296875000000 56.502998352051 134 134 134
33.031250000000 14.289062500000 56.543998718262 143 143 143
33.031250000000 14.281250000000 56.583992004395 149 149 149
33.062500000000 14.289062500000 56.622993469238 147 147 147
33.093750000000 14.312500000000 56.661994934082 165 165 165
33.093750000000 14.312500000000 56.702003479004 166 166 166
33.093750000000 14.312500000000 56.741996765137 160 160 160
32.937500000000 14.218750000000 57.169990539551 100 100 100
32.937500000000 14.218750000000 57.208992004395 203 203 203
32.937500000000 14.218750000000 57.247993469238 206 206 206
32.937500000000 14.218750000000 57.286994934082 197 197 197
32.937500000000 14.218750000000 57.325996398926 201 201 201
32.937500000000 14.218750000000 57.364997863770 194 194 194
32.937500000000 14.203125000000 57.402992248535 186 186 186
32.937500000000 14.210937500000 57.482002258301 91 91 91
32.906250000000 14.218750000000 57.519996643066 196 196 196
32.906250000000 14.218750000000 57.558998107910 198 198 198
32.906250000000 14.210937500000 57.597999572754 198 198 198
32.937500000000 14.203125000000 57.638999938965 196 196 196
32.937500000000 14.203125000000 57.678993225098 201 201 201
32.937500000000 14.203125000000 57.717994689941 153 153 153
32.937500000000 14.625000000000 54.502998352051 110 110 110
32.875000000000 14.578125000000 54.907997131348 25 25 25
32.906250000000 14.593750000000 54.944999694824 25 25 25
32.906250000000 14.601562500000 54.982994079590 19 19 19
32.875000000000 14.585937500000 55.028999328613 26 26 26
32.906250000000 14.593750000000 55.068992614746 23 23 23
32.875000000000 14.578125000000 55.113990783691 19 19 19
32.875000000000 14.578125000000 55.154991149902 13 13 13
32.875000000000 14.578125000000 55.193992614746 20 20 20
32.875000000000 14.578125000000 55.237998962402 14 14 14
32.875000000000 14.570312500000 55.279991149902 14 14 14
32.875000000000 14.578125000000 55.357002258301 16 16 16
32.875000000000 14.585937500000 55.394996643066 13 13 13
33.000000000000 14.648437500000 56.135993957520 148 148 148
33.000000000000 14.640625000000 56.176002502441 157 157 157
33.000000000000 14.648437500000 56.215003967285 156 156 156
33.000000000000 14.640625000000 56.254997253418 131 131 131
33.000000000000 14.640625000000 56.292991638184 162 162 162
33.000000000000 14.640625000000 56.333000183105 171 171 171
32.875000000000 14.570312500000 56.379997253418 154 154 154
32.875000000000 14.578125000000 56.417991638184 163 163 163
32.875000000000 14.578125000000 56.456993103027 132 132 132
32.875000000000 14.578125000000 56.495994567871 138 138 138
32.875000000000 14.570312500000 56.534996032715 146 146 146
32.906250000000 14.585937500000 56.571998596191 160 160 160
32.968750000000 14.625000000000 56.609992980957 144 144 144
33.031250000000 14.664062500000 56.648002624512 168 168 168
33.031250000000 14.656250000000 56.687995910645 160 160 160
33.031250000000 14.656250000000 56.726997375488 165 165 165
33.031250000000 14.656250000000 56.766990661621 126 126 126
32.875000000000 14.578125000000 57.306999206543 201 201 201
32.875000000000 14.570312500000 57.344993591309 210 210 210
32.875000000000 14.562500000000 57.383003234863 209 209 209
32.875000000000 14.562500000000 57.422004699707 202 202 202
32.875000000000 14.562500000000 57.460990905762 209 209 209
32.875000000000 14.570312500000 57.500999450684 207 207 207
32.875000000000 14.562500000000 57.540000915527 208 208 208
32.906250000000 14.570312500000 57.579994201660 207 207 207
32.906250000000 14.570312500000 57.618995666504 202 202 202
32.843750000000 14.906250000000 57.096000671387 49 49 49
32.812500000000 14.906250000000 57.131996154785 204 204 204
32.812500000000 14.914062500000 57.170997619629 217 217 217
32.812500000000 14.906250000000 57.208992004395 212 212 212
32.812500000000 14.906250000000 57.247001647949 214 214 214
32.812500000000 14.914062500000 57.286003112793 219 219 219
32.812500000000 14.906250000000 57.323997497559 213 213 213
32.843750000000 14.914062500000 57.597999572754 77 77 77
32.843750000000 14.914062500000 57.637001037598 202 202 202
32.843750000000 14.914062500000 57.676002502441 206 206 206
32.843750000000 14.914062500000 57.713996887207 204 204 204
32.843750000000 14.906250000000 57.752998352051 205 205 205
32.843750000000 14.914062500000 57.791999816895 203 203 203
32.843750000000 14.906250000000 57.831001281738 193 193 193
32.968750000000 14.226562500000 57.721000671387 116 116 116
32.968750000000 14.226562500000 57.680992126465 155 155 155
32.937500000000 14.226562500000 57.638999938965 150 150 150
32.937500000000 14.226562500000 57.596992492676 152 152 152
32.937500000000 14.242187500000 57.556999206543 153 153 153
32.937500000000 14.242187500000 57.516990661621 158 158 158
32.937500000000 14.250000000000 57.474998474121 123 123 123
32.968750000000 14.234375000000 57.439002990723 56 56 56
32.937500000000 14.242187500000 57.398002624512 177 177 177
32.968750000000 14.234375000000 57.359001159668 171 171 171
32.968750000000 14.234375000000 57.318992614746 172 172 172
32.968750000000 14.226562500000 57.280998229980 173 173 173
32.968750000000 14.234375000000 57.241004943848 170 170 170
32.968750000000 14.226562500000 57.200996398926 166 166 166
33.125000000000 14.156250000000 56.646003723145 70 70 70
33.125000000000 14.164062500000 56.605003356934 120 120 120
33.125000000000 14.164062500000 56.564994812012 132 132 132
33.125000000000 14.164062500000 56.523994445801 128 128 128
33.125000000000 14.164062500000 56.484001159668 118 118 118
32.906250000000 14.632812500000 57.665992736816 156 156 156
32.906250000000 14.640625000000 57.624992370605 168 168 168
32.906250000000 14.640625000000 57.585990905762 167 167 167
32.906250000000 14.632812500000 57.547004699707 168 168 168
32.906250000000 14.632812500000 57.506996154785 165 165 165
32.906250000000 14.640625000000 57.465995788574 154 154 154
32.906250000000 14.656250000000 57.426002502441 154 154 154
32.906250000000 14.656250000000 57.387001037598 152 152 152
32.906250000000 14.656250000000 57.347999572754 153 153 153
32.906250000000 14.656250000000 57.307991027832 153 153 153
32.906250000000 14.648437500000 57.269996643066 152 152 152
33.093750000000 14.562500000000 56.762992858887 131 131 131
33.093750000000 14.562500000000 56.721992492676 148 148 148
33.093750000000 14.562500000000 56.681999206543 147 147 147
33.062500000000 14.570312500000 56.641990661621 151 151 151
33.062500000000 14.578125000000 56.601997375488 155 155 155
33.062500000000 14.578125000000 56.562995910645 152 152 152
33.062500000000 14.578125000000 56.523002624512 153 153 153
33.031250000000 14.585937500000 56.482994079590 158 158 158
33.031250000000 14.601562500000 56.443992614746 146 146 146
33.031250000000 14.585937500000 56.402992248535 144 144 144
33.031250000000 14.601562500000 56.363990783691 158 158 158
33.031250000000 14.585937500000 56.322990417480 144 144 144
33.031250000000 14.601562500000 56.284004211426 141 141 141
33.031250000000 14.601562500000 56.245002746582 133 133 133
33.031250000000 14.601562500000 56.204002380371 147 147 147
33.031250000000 14.601562500000 56.163993835449 149 149 149
33.031250000000 14.609375000000 56.124992370605 143 143 143
33.031250000000 14.609375000000 56.084999084473 64 64 64
32.843750000000 15.046875000000 57.853004455566 128 128 128
32.843750000000 15.046875000000 57.812004089355 169 169 169
32.843750000000 15.054687500000 57.771995544434 161 161 161
32.843750000000 15.054687500000 57.730995178223 167 167 167
32.843750000000 15.046875000000 57.694999694824 103 103 103
32.843750000000 15.062500000000 57.260993957520 109 109 109
32.812500000000 15.085937500000 57.221992492676 168 168 168
32.843750000000 15.062500000000 57.183998107910 160 160 160
32.812500000000 15.078125000000 57.144996643066 97 97 97
33.000000000000 13.914062500000 57.819999694824 160 160 160
33.000000000000 13.914062500000 57.782005310059 200 200 200
32.968750000000 13.914062500000 57.743995666504 211 211 211
32.968750000000 13.914062500000 57.708000183105 208 208 208
32.968750000000 13.914062500000 57.670997619629 190 190 190
33.000000000000 13.929687500000 57.254997253418 41 41 41
32.968750000000 13.921875000000 57.217002868652 253 253 253
32.968750000000 13.921875000000 57.181999206543 6 6 6
32.968750000000 13.921875000000 57.146995544434 1 1 1
32.968750000000 13.929687500000 57.113990783691 225 225 225
32.968750000000 13.929687500000 57.079002380371 190 190 190
32.937500000000 14.281250000000 57.713005065918 82 82 82
32.937500000000 14.273437500000 57.676002502441 203 203 203
32.937500000000 14.273437500000 57.640998840332 211 211 211
32.937500000000 14.273437500000 57.605003356934 210 210 210
32.906250000000 14.281250000000 57.568000793457 213 213 213
32.937500000000 14.273437500000 57.534996032715 226 226 226
32.937500000000 14.273437500000 57.499992370605 228 228 228
32.906250000000 14.281250000000 57.463005065918 204 204 204
32.937500000000 14.281250000000 57.431999206543 247 247 247
32.937500000000 14.289062500000 57.398002624512 10 10 10
32.937500000000 14.281250000000 57.361991882324 253 253 253
32.968750000000 14.281250000000 57.329994201660 252 252 252
32.937500000000 14.296875000000 57.294990539551 247 247 247
32.937500000000 14.289062500000 57.258995056152 235 235 235
32.937500000000 14.296875000000 57.224998474121 218 218 218
33.093750000000 14.289062500000 56.750999450684 163 163 163
33.093750000000 14.289062500000 56.715995788574 164 164 164
33.125000000000 14.296875000000 56.680992126465 167 167 167
33.093750000000 14.296875000000 56.646003723145 166 166 166
33.031250000000 14.304687500000 56.609992980957 179 179 179
33.031250000000 14.304687500000 56.575996398926 185 185 185
33.031250000000 14.296875000000 56.540992736816 171 171 171
33.031250000000 14.304687500000 56.506004333496 174 174 174
33.093750000000 14.296875000000 56.471992492676 157 157 157
33.093750000000 14.304687500000 56.437004089355 161 161 161
33.062500000000 14.304687500000 56.402000427246 171 171 171
33.062500000000 14.304687500000 56.366996765137 169 169 169
33.062500000000 14.304687500000 56.331993103027 172 172 172
33.062500000000 14.304687500000 56.297996520996 159 159 159
33.062500000000 14.312500000000 56.262992858887 129 129 129
33.062500000000 14.312500000000 56.228004455566 73 73 73
32.875000000000 14.640625000000 57.683998107910 203 203 203
32.906250000000 14.640625000000 57.653999328613 236 236 236
32.875000000000 14.648437500000 57.614997863770 238 238 238
32.875000000000 14.648437500000 57.581001281738 231 231 231
32.875000000000 14.656250000000 57.547004699707 229 229 229
32.875000000000 14.648437500000 57.510993957520 233 233 233
32.875000000000 14.648437500000 57.474998474121 210 210 210
32.875000000000 14.656250000000 57.439994812012 215 215 215
32.875000000000 14.648437500000 57.405998229980 220 220 220
32.875000000000 14.648437500000 57.372001647949 216 216 216
32.875000000000 14.656250000000 57.336997985840 220 220 220
32.875000000000 14.656250000000 57.303001403809 221 221 221
32.875000000000 14.656250000000 57.267997741699 212 212 212
32.906250000000 14.664062500000 57.236991882324 25 25 25
33.062500000000 14.671875000000 56.767997741699 157 157 157
33.062500000000 14.664062500000 56.732994079590 171 171 171
33.031250000000 14.664062500000 56.697990417480 162 162 162
33.062500000000 14.664062500000 56.663002014160 171 171 171
