21.351715087891 22.006334304810 5.597991943359 92 92 92
21.353569030762 22.335941314697 4.996002197266 95 95 95
21.353569030762 22.335941314697 5.028991699219 127 127 127
21.353569030762 22.335941314697 5.060989379883 158 158 158
21.340282440186 22.344161987305 5.090988159180 122 122 122
21.353569030762 22.335941314697 5.562988281250 31 31 31
21.331108093262 22.359027862549 5.589996337891 112 112 112
21.683528900146 22.067430496216 4.518997192383 48 48 48
21.669288635254 22.103805541992 4.476989746094 87 87 87
21.660114288330 22.118671417236 4.436996459961 128 128 128
21.432388305664 21.928848266602 5.916000366211 129 129 129
21.530155181885 21.730529785156 5.936996459961 103 103 103
21.575080871582 21.684352874756 5.907989501953 113 113 113
21.511806488037 21.760261535645 5.840988159180 88 88 88
21.469089508057 21.869384765625 5.770996093750 95 95 95
21.483329772949 21.833011627197 5.738998413086 110 110 110
21.403907775879 22.001596450806 5.576995849609 91 91 91
21.426372528076 21.978507995605 5.541992187500 140 140 140
21.426372528076 21.978507995605 5.501998901367 133 133 133
21.426372528076 21.978507995605 5.461990356445 140 140 140
21.426372528076 21.978507995605 5.421997070313 134 134 134
21.408020019531 22.008239746094 5.378997802734 132 132 132
21.418148040771 21.965221405029 5.345993041992 109 109 109
21.426372528076 21.978507995605 5.304992675781 117 117 117
21.435546875000 21.963642120361 5.267990112305 107 107 107
21.435546875000 21.963642120361 5.227996826172 110 110 110
21.435546875000 21.963642120361 5.188995361328 106 106 106
21.435546875000 21.963642120361 5.149002075195 112 112 112
21.426372528076 21.978507995605 5.108001708984 73 73 73
21.596588134766 21.689416885376 4.628997802734 76 76 76
21.573173522949 21.740657806396 4.583999633789 150 150 150
21.541538238525 21.778612136841 4.541992187500 169 169 169
21.596588134766 21.689416885376 4.506988525391 141 141 141
21.587413787842 21.704282760620 4.466995239258 117 117 117
21.527301788330 21.814987182617 4.421997070313 133 133 133
21.507995605469 21.872867584229 4.379989624023 166 166 166
21.476360321045 21.910823822021 4.339996337891 186 186 186
21.481422424316 21.889312744141 4.300994873047 177 177 177
21.554824829102 21.770389556885 4.263992309570 141 141 141
21.573173522949 21.740657806396 4.224990844727 156 156 156
21.522235870361 21.836496353149 4.184997558594 82 82 82
21.521282196045 21.864646911621 4.145996093750 72 72 72
21.526348114014 21.843139648438 4.106994628906 70 70 70
21.518123626709 21.829853057861 4.067001342773 87 87 87
21.544696807861 21.813407897949 4.027999877930 151 151 151
21.539634704590 21.834917068481 3.988998413086 157 157 157
21.558937072754 21.777032852173 3.947998046875 112 112 112
21.220157623291 21.793750762939 5.940002441406 110 110 110
21.216999053955 21.758955001831 5.908996582031 139 139 139
21.331214904785 21.587207794189 5.922988891602 130 130 130
21.353675842285 21.564121246338 5.886993408203 121 121 121
21.225219726563 21.772241592407 5.784988403320 118 118 118
21.234394073486 21.757375717163 5.748992919922 143 143 143
21.298622131348 21.653316497803 5.735992431641 118 118 118
21.465682983398 21.329429626465 5.692993164063 65 65 65
21.473907470703 21.342716217041 5.647994995117 120 120 120
21.473907470703 21.342716217041 5.606994628906 126 126 126
21.473907470703 21.342716217041 5.563995361328 137 137 137
21.478969573975 21.321205139160 5.524002075195 146 146 146
21.473907470703 21.342716217041 5.477996826172 118 118 118
21.473907470703 21.342716217041 5.185989379883 20 20 20
21.483081817627 21.327850341797 5.146987915039 123 123 123
21.492256164551 21.312984466553 5.108993530273 147 147 147
21.492256164551 21.312984466553 5.067001342773 137 137 137
21.492256164551 21.312984466553 5.024993896484 129 129 129
21.492256164551 21.312984466553 4.983993530273 116 116 116
21.497322082520 21.291473388672 4.944000244141 90 90 90
21.510608673096 21.283252716064 4.905990600586 27 27 27
21.386459350586 22.389087677002 5.054000854492 101 101 101
21.386459350586 22.389087677002 5.087997436523 114 114 114
21.373172760010 22.397308349609 5.587997436523 82 82 82
21.539932250977 21.954166412354 3.958999633789 25 25 25
21.539932250977 21.954166412354 3.991989135742 162 162 162
21.557331085205 21.952587127686 4.026000976563 173 173 173
21.557331085205 21.952587127686 4.058990478516 164 164 164
21.557331085205 21.952587127686 4.093002319336 144 144 144
21.557331085205 21.952587127686 4.126998901367 155 155 155
21.530757904053 21.969032287598 4.158996582031 151 151 151
21.535823822021 21.947525024414 4.192993164063 168 168 168
21.557331085205 21.952587127686 4.226989746094 185 185 185
21.539932250977 21.954166412354 4.259994506836 185 185 185
21.557331085205 21.952587127686 4.294998168945 165 165 165
21.557331085205 21.952587127686 4.328994750977 154 154 154
21.530757904053 21.969032287598 4.358993530273 122 122 122
21.517471313477 21.977256774902 4.391998291016 93 93 93
21.530757904053 21.969032287598 4.425994873047 92 92 92
21.530757904053 21.969032287598 4.459991455078 95 95 95
21.579792022705 21.929500579834 4.498992919922 136 136 136
21.583904266357 21.936143875122 4.533996582031 155 155 155
21.583904266357 21.936143875122 4.567993164063 151 151 151
21.583904266357 21.936143875122 4.601989746094 144 144 144
21.398845672607 22.023105621338 5.080001831055 155 155 155
21.416244506836 22.021526336670 5.115997314453 165 165 165
21.398845672607 22.023105621338 5.147994995117 162 162 162
21.416244506836 22.021526336670 5.182998657227 162 162 162
21.416244506836 22.021526336670 5.218002319336 169 169 169
21.416244506836 22.021526336670 5.251998901367 162 162 162
21.398845672607 22.023105621338 5.284988403320 139 139 139
21.416244506836 22.021526336670 5.354995727539 75 75 75
21.381446838379 22.024684906006 5.384002685547 166 166 166
21.381446838379 22.024684906006 5.418991088867 173 173 173
21.381446838379 22.024684906006 5.453994750977 176 176 176
21.394733428955 22.016462326050 5.489990234375 172 172 172
21.381446838379 22.024684906006 5.522994995117 175 175 175
21.394733428955 22.016462326050 5.560989379883 173 173 173
21.389671325684 22.037971496582 5.591995239258 145 145 145
21.560543060303 21.601474761963 4.075988769531 69 69 69
21.560543060303 21.601474761963 4.110000610352 130 130 130
21.560543060303 21.601474761963 4.144989013672 156 156 156
21.565605163574 21.579967498779 4.179992675781 160 160 160
21.560543060303 21.601474761963 4.213989257813 157 157 157
21.520683288574 21.626142501831 4.246002197266 156 156 156
21.583003997803 21.578388214111 4.284988403320 156 156 156
21.565605163574 21.579967498779 4.319000244141 155 155 155
21.547256469727 21.609697341919 4.351989746094 114 114 114
21.520683288574 21.626142501831 4.384002685547 104 104 104
21.427677154541 21.683700561523 4.409988403320 109 109 109
21.525745391846 21.604633331299 4.453994750977 93 93 93
21.587116241455 21.585029602051 4.494995117188 157 157 157
21.583003997803 21.578388214111 4.529998779297 163 163 163
21.578891754150 21.571743011475 4.565994262695 166 166 166
21.583003997803 21.578388214111 4.598999023438 132 132 132
21.313163757324 21.736194610596 4.834991455078 28 28 28
21.286590576172 21.752639770508 4.863998413086 50 50 50
21.303985595703 21.751060485840 4.899002075195 67 67 67
21.303985595703 21.751060485840 4.932998657227 76 76 76
21.313163757324 21.736194610596 4.970993041992 77 77 77
21.313163757324 21.736194610596 5.003997802734 89 89 89
21.309051513672 21.729549407959 5.035995483398 92 92 92
21.313163757324 21.736194610596 5.071990966797 94 94 94
21.366310119629 21.703304290771 5.118988037109 149 149 149
21.370418548584 21.709945678711 5.154998779297 152 152 152
21.392883300781 21.686859130859 5.195999145508 170 170 170
21.361244201660 21.724811553955 5.220001220703 173 173 173
21.374530792236 21.716590881348 5.256988525391 188 188 188
21.392883300781 21.686859130859 5.302001953125 186 186 186
21.387817382813 21.708366394043 5.333999633789 156 156 156
21.370418548584 21.709945678711 5.366989135742 143 143 143
21.361244201660 21.724811553955 5.394989013672 152 152 152
21.313163757324 21.736194610596 5.420989990234 162 162 162
21.366310119629 21.703304290771 5.468994140625 136 136 136
21.313163757324 21.736194610596 5.491989135742 110 110 110
21.313163757324 21.736194610596 5.528991699219 105 105 105
21.309051513672 21.729549407959 5.558990478516 177 177 177
21.286590576172 21.752639770508 5.589996337891 159 159 159
21.313163757324 21.736194610596 5.632995605469 149 149 149
21.343845367432 21.726390838623 5.679992675781 115 115 115
21.343845367432 21.726390838623 5.713989257813 121 121 121
21.246730804443 21.777305603027 5.716995239258 131 131 131
21.233444213867 21.785528182983 5.742996215820 159 159 159
21.260017395020 21.769083023071 5.792999267578 122 122 122
21.269191741943 21.754217147827 5.832000732422 104 104 104
21.282478332520 21.745994567871 5.873001098633 124 124 124
21.229331970215 21.778884887695 5.892990112305 139 139 139
21.220157623291 21.793750762939 5.921997070313 140 140 140
21.269191741943 21.754217147827 5.981994628906 101 101 101
21.489097595215 21.278186798096 4.909988403320 107 107 107
21.489097595215 21.278186798096 4.945999145508 163 163 163
21.475811004639 21.286411285400 4.981002807617 175 175 175
21.479923248291 21.293052673340 5.015991210938 171 171 171
21.475811004639 21.286411285400 5.052993774414 194 194 194
21.475811004639 21.286411285400 5.088989257813 189 189 189
21.479923248291 21.293052673340 5.125000000000 156 156 156
21.475811004639 21.286411285400 5.158996582031 19 19 19
21.475811004639 21.286411285400 5.455001831055 83 83 83
21.462524414063 21.294631958008 5.488998413086 171 171 171
21.449237823486 21.302856445313 5.524002075195 191 191 191
21.449237823486 21.302856445313 5.561996459961 179 179 179
21.449237823486 21.302856445313 5.597000122070 174 174 174
21.449237823486 21.302856445313 5.634994506836 174 174 174
21.440063476563 21.317722320557 5.668991088867 162 162 162
21.411781311035 22.281539916992 4.925994873047 55 55 55
21.394382476807 22.283119201660 4.960998535156 210 210 210
21.394382476807 22.283119201660 4.998001098633 232 232 232
21.394382476807 22.283119201660 5.035995483398 226 226 226
21.394382476807 22.283119201660 5.072998046875 233 233 233
21.394382476807 22.283119201660 5.110992431641 237 237 237
21.390270233154 22.276477813721 5.146987915039 232 232 232
21.394382476807 22.283119201660 5.185989379883 20 20 20
21.371921539307 22.306209564209 5.522994995117 124 124 124
21.371921539307 22.306209564209 5.558990478516 222 222 222
21.371921539307 22.306209564209 5.598999023438 227 227 227
21.371921539307 22.306209564209 5.634994506836 227 227 227
21.371921539307 22.306209564209 5.672988891602 230 230 230
21.385208129883 22.297985076904 5.715988159180 231 231 231
21.371921539307 22.306209564209 5.752990722656 208 208 208
21.543090820313 21.988964080811 3.988998413086 119 119 119
21.543090820313 21.988964080811 4.026992797852 184 184 184
21.543090820313 21.988964080811 4.065002441406 159 159 159
21.547203063965 21.995605468750 4.102996826172 161 161 161
21.560489654541 21.987384796143 4.141998291016 185 185 185
21.538982391357 21.982318878174 4.179992675781 181 181 181
21.547203063965 21.995605468750 4.218002319336 198 198 198
21.547203063965 21.995605468750 4.255996704102 202 202 202
21.547203063965 21.995605468750 4.294998168945 194 194 194
21.543090820313 21.988964080811 4.332992553711 168 168 168
21.538982391357 21.982318878174 4.369995117188 139 139 139
21.512409210205 21.998764038086 4.407989501953 112 112 112
21.533916473389 22.003829956055 4.446990966797 113 113 113
21.520629882813 22.012050628662 4.483993530273 115 115 115
21.590221405029 22.005733489990 4.526000976563 190 190 190
21.568714141846 22.000671386719 4.563995361328 194 194 194
21.586109161377 21.999092102051 4.602996826172 191 191 191
21.586109161377 21.999092102051 4.640991210938 50 50 50
21.416244506836 22.021526336670 5.084991455078 173 173 173
21.412132263184 22.014883041382 5.121994018555 226 226 226
21.412132263184 22.014883041382 5.159988403320 230 230 230
21.412132263184 22.014883041382 5.197998046875 223 223 223
21.416244506836 22.021526336670 5.237991333008 228 228 228
21.412132263184 22.014883041382 5.274993896484 223 223 223
21.412132263184 22.014883041382 5.313995361328 195 195 195
21.412132263184 22.014883041382 5.352996826172 83 83 83
21.408020019531 22.008239746094 5.389999389648 221 221 221
21.394733428955 22.016462326050 5.427993774414 231 231 231
21.394733428955 22.016462326050 5.466995239258 232 232 232
21.394733428955 22.016462326050 5.506988525391 226 226 226
21.398845672607 22.023105621338 5.546997070313 230 230 230
21.394733428955 22.016462326050 5.583999633789 224 224 224
21.394733428955 22.016462326050 5.625000000000 142 142 142
21.556728363037 21.714084625244 3.965988159180 144 144 144
21.552619934082 21.707441329956 4.004989624023 203 203 203
21.556728363037 21.714084625244 4.043991088867 211 211 211
21.552619934082 21.707441329956 4.082992553711 201 201 201
21.552619934082 21.707441329956 4.121994018555 192 192 192
21.556728363037 21.714084625244 4.160995483398 196 196 196
21.556728363037 21.714084625244 4.200988769531 202 202 202
21.417549133301 21.726718902588 4.237991333008 175 175 175
21.452346801758 21.723560333252 4.276992797852 190 190 190
21.483028411865 21.713758468628 4.315994262695 169 169 169
21.448234558105 21.716917037964 4.353988647461 174 174 174
21.417549133301 21.726718902588 4.390991210938 185 185 185
21.452346801758 21.723560333252 4.431991577148 167 167 167
21.530155181885 21.730529785156 4.473999023438 165 165 165
21.487140655518 21.720401763916 4.511001586914 167 167 167
21.495361328125 21.733688354492 4.550003051758 181 181 181
21.495361328125 21.733688354492 4.587997436523 185 185 185
21.417549133301 21.726718902588 4.623001098633 132 132 132
21.413436889648 21.720073699951 4.659988403320 129 129 129
21.413436889648 21.720073699951 4.698989868164 133 133 133
21.425773620605 21.740005493164 4.737991333008 143 143 143
21.425773620605 21.740005493164 4.776992797852 158 158 158
21.425773620605 21.740005493164 4.815002441406 159 159 159
21.408374786377 21.741584777832 4.852996826172 159 159 159
21.408374786377 21.741584777832 4.892990112305 156 156 156
21.425773620605 21.740005493164 4.931991577148 162 162 162
21.390975952148 21.743164062500 4.968002319336 154 154 154
21.390975952148 21.743164062500 5.005996704102 153 153 153
21.356182098389 21.746322631836 5.041992187500 148 148 148
21.373577117920 21.744743347168 5.082992553711 151 151 151
21.369468688965 21.738098144531 5.119995117188 142 142 142
21.390975952148 21.743164062500 5.162002563477 153 153 153
21.390975952148 21.743164062500 5.200988769531 162 162 162
21.321384429932 21.749481201172 5.228988647461 233 233 233
21.303985595703 21.751060485840 5.265991210938 231 231 231
21.373577117920 21.744743347168 5.317993164063 182 182 182
21.373577117920 21.744743347168 5.356994628906 177 177 177
21.373577117920 21.744743347168 5.395996093750 181 181 181
21.303985595703 21.751060485840 5.421997070313 233 233 233
21.321384429932 21.749481201172 5.465988159180 186 186 186
21.368515014648 21.766250610352 5.514999389648 150 150 150
21.368515014648 21.766250610352 5.555999755859 141 141 141
21.385913848877 21.764671325684 5.597000122070 142 142 142
21.329608917236 21.762767791748 5.623001098633 162 162 162
21.333717346191 21.769409179688 5.666000366211 161 161 161
21.368515014648 21.766250610352 5.716995239258 133 133 133
21.294811248779 21.765926361084 5.733993530273 125 125 125
21.216999053955 21.758955001831 5.757995605469 160 160 160
21.260017395020 21.769083023071 5.807998657227 123 123 123
21.277412414551 21.767503738403 5.850997924805 109 109 109
21.294811248779 21.765926361084 5.894989013672 126 126 126
21.164802551270 21.763692855835 5.901992797852 136 136 136
21.225219726563 21.772241592407 5.959991455078 136 136 136
21.277412414551 21.767503738403 6.014999389648 62 62 62
21.569416046143 21.467357635498 4.337997436523 119 119 119
21.582702636719 21.459133148193 4.377990722656 173 173 173
21.582702636719 21.459133148193 4.418991088867 173 173 173
21.582702636719 21.459133148193 4.457992553711 172 172 172
21.582702636719 21.459133148193 4.498992919922 134 134 134
21.582702636719 21.459133148193 4.539001464844 22 22 22
21.473251342773 21.490118026733 5.050994873047 215 215 215
21.455856323242 21.491697311401 5.090988159180 204 204 204
21.455856323242 21.491697311401 5.130996704102 198 198 198
21.451744079590 21.485054016113 5.169998168945 215 215 215
21.455856323242 21.491697311401 5.211990356445 220 220 220
21.455856323242 21.491697311401 5.250991821289 222 222 222
21.451744079590 21.485054016113 5.291000366211 148 148 148
21.455856323242 21.491697311401 5.373001098633 200 200 200
21.455856323242 21.491697311401 5.414001464844 230 230 230
21.455856323242 21.491697311401 5.455001831055 204 204 204
21.451744079590 21.485054016113 5.493988037109 254 254 254
21.451744079590 21.485054016113 5.535995483398 1 1 1
21.451744079590 21.485054016113 5.576995849609 251 251 251
21.464076995850 21.504983901978 5.621002197266 74 74 74
21.359691619873 21.514461517334 5.886001586914 64 64 64
21.504291534424 21.213661193848 4.923995971680 125 125 125
21.504291534424 21.213661193848 4.965988159180 213 213 213
21.491004943848 21.221881866455 5.005996704102 223 223 223
21.508399963379 21.220304489136 5.048995971680 238 238 238
21.491004943848 21.221881866455 5.087997436523 225 225 225
21.485939025879 21.243392944336 5.128997802734 111 111 111
21.477718353271 21.230106353760 5.500991821289 169 169 169
21.477718353271 21.230106353760 5.542999267578 253 253 253
21.464431762695 21.238327026367 5.582992553711 246 246 246
21.464431762695 21.238327026367 5.625991821289 250 250 250
21.464431762695 21.238327026367 5.667999267578 6 6 6
21.451145172119 21.246551513672 5.708999633789 246 246 246
21.459365844727 21.259838104248 5.750000000000 106 106 106
21.483081817627 21.327850341797 4.925994873047 134 134 134
21.478969573975 21.321205139160 4.964996337891 227 227 227
21.478969573975 21.321205139160 5.006988525391 237 237 237
21.465682983398 21.329429626465 5.046997070313 234 234 234
21.473907470703 21.342716217041 5.086990356445 214 214 214
21.473907470703 21.342716217041 5.127990722656 223 223 223
21.460620880127 21.350936889648 5.166992187500 217 217 217
21.443222045898 21.352516174316 5.414001464844 236 236 236
21.443222045898 21.352516174316 5.455001831055 225 225 225
21.443222045898 21.352516174316 5.496994018555 235 235 235
21.460620880127 21.350936889648 5.539993286133 14 14 14
21.443222045898 21.352516174316 5.580001831055 252 252 252
21.439109802246 21.345874786377 5.619995117188 236 236 236
21.525745391846 21.604633331299 4.004989624023 129 129 129
21.555477142334 21.622983932495 4.043991088867 188 188 188
21.568763732910 21.614761352539 4.083999633789 204 204 204
21.568763732910 21.614761352539 4.123992919922 210 210 210
21.568763732910 21.614761352539 4.164001464844 204 204 204
21.568763732910 21.614761352539 4.203002929688 203 203 203
21.568763732910 21.614761352539 4.242996215820 206 206 206
21.568763732910 21.614761352539 4.282989501953 184 184 184
21.538078308105 21.624563217163 4.321990966797 151 151 151
21.533969879150 21.617919921875 4.360992431641 107 107 107
21.520683288574 21.626142501831 4.399993896484 103 103 103
21.533969879150 21.617919921875 4.440002441406 109 109 109
21.585208892822 21.641334533691 4.483001708984 177 177 177
21.581096649170 21.634693145752 4.522994995117 193 193 193
21.585208892822 21.641334533691 4.562988281250 182 182 182
21.576988220215 21.628047943115 4.601989746094 62 62 62
21.437805175781 21.640682220459 5.143997192383 218 218 218
21.437805175781 21.640682220459 5.183990478516 223 223 223
21.437805175781 21.640682220459 5.222991943359 233 233 233
21.437805175781 21.640682220459 5.263000488281 226 226 226
21.437805175781 21.640682220459 5.302993774414 232 232 232
21.437805175781 21.640682220459 5.343002319336 223 223 223
21.432743072510 21.662191390991 5.384002685547 230 230 230
21.432743072510 21.662191390991 5.423995971680 214 214 214
21.419456481934 21.670413970947 5.462997436523 181 181 181
21.419456481934 21.670413970947 5.500991821289 87 87 87
21.337528228760 21.656799316406 5.524993896484 172 172 172
21.415344238281 21.663770675659 5.580993652344 98 98 98
21.419456481934 21.670413970947 5.623992919922 101 101 101
21.397945404053 21.665348052979 5.662002563477 106 106 106
21.376438140869 21.660285949707 5.694000244141 112 112 112
21.233142852783 21.666275024414 5.701995849609 145 145 145
21.229030609131 21.659633636475 5.740997314453 148 148 148
21.237255096436 21.672920227051 5.783996582031 85 85 85
21.276161193848 21.676403045654 5.832992553711 119 119 119
21.245475769043 21.686206817627 5.867996215820 127 127 127
21.194236755371 21.662790298462 5.890991210938 124 124 124
21.258762359619 21.677982330322 5.950988769531 132 132 132
21.532665252686 21.912727355957 3.944992065430 128 128 128
21.532665252686 21.912727355957 3.983001708984 197 197 197
21.532665252686 21.912727355957 4.021987915039 181 181 181
21.540885925293 21.926013946533 4.059997558594 188 188 188
21.540885925293 21.926013946533 4.098999023438 191 191 191
21.540885925293 21.926013946533 4.136993408203 195 195 195
21.536773681641 21.919372558594 4.175994873047 214 214 214
21.544998168945 21.932659149170 4.214996337891 209 209 209
21.549110412598 21.939300537109 4.252990722656 199 199 199
21.549110412598 21.939300537109 4.291992187500 171 171 171
21.540885925293 21.926013946533 4.330001831055 155 155 155
21.527599334717 21.934238433838 4.367996215820 114 114 114
21.514312744141 21.942459106445 4.405990600586 112 112 112
21.514312744141 21.942459106445 4.444992065430 114 114 114
21.579792022705 21.929500579834 4.485992431641 188 188 188
21.579792022705 21.929500579834 4.524993896484 197 197 197
21.583904266357 21.936143875122 4.563995361328 188 188 188
21.579792022705 21.929500579834 4.602996826172 110 110 110
21.409927368164 21.951934814453 5.050994873047 23 23 23
21.405815124512 21.945293426514 5.085998535156 222 222 222
21.400749206543 21.966800689697 5.125000000000 228 228 228
21.400749206543 21.966800689697 5.164001464844 228 228 228
21.418148040771 21.965221405029 5.203994750977 229 229 229
21.400749206543 21.966800689697 5.240997314453 229 229 229
21.400749206543 21.966800689697 5.279998779297 215 215 215
21.400749206543 21.966800689697 5.319000244141 172 172 172
21.396640777588 21.960157394409 5.356002807617 228 228 228
21.383354187012 21.968379974365 5.393997192383 232 232 232
21.396640777588 21.960157394409 5.434997558594 231 231 231
21.396640777588 21.960157394409 5.473999023438 232 232 232
21.396640777588 21.960157394409 5.513000488281 231 231 231
21.383354187012 21.968379974365 5.552001953125 218 218 218
21.382049560547 22.263191223145 4.892990112305 176 176 176
21.382049560547 22.263191223145 4.929000854492 218 218 218
21.386161804199 22.269832611084 4.968002319336 231 231 231
21.382049560547 22.263191223145 5.002990722656 229 229 229
21.382049560547 22.263191223145 5.041000366211 238 238 238
21.394382476807 22.283119201660 5.080001831055 230 230 230
21.390270233154 22.276477813721 5.115997314453 216 216 216
21.359588623047 22.286277770996 5.527999877930 209 209 209
21.359588623047 22.286277770996 5.565994262695 231 231 231
21.376983642578 22.284698486328 5.608001708984 233 233 233
21.371921539307 22.306209564209 5.643997192383 230 230 230
21.371921539307 22.306209564209 5.684997558594 187 187 187
21.187919616699 21.593200683594 5.863998413086 79 79 79
21.220508575439 21.527095794678 5.843994140625 23 23 23
21.441669464111 21.142162322998 5.611999511719 38 38 38
21.454956054688 21.133941650391 5.572998046875 86 86 86
21.454956054688 21.133941650391 5.529998779297 52 52 52
21.463176727295 21.147228240967 5.020996093750 12 12 12
21.400451660156 21.847549438477 5.947998046875 100 100 100
21.359638214111 21.900369644165 5.886993408203 132 132 132
21.474807739258 21.700471878052 5.909988403320 109 109 109
21.465633392334 21.715337753296 5.860000610352 113 113 113
21.405513763428 21.826042175293 5.785995483398 91 91 91
21.391277313232 21.862415313721 5.735992431641 122 122 122
21.405513763428 21.826042175293 5.707000732422 128 128 128
21.492206573486 21.698892593384 5.698989868164 75 75 75
21.399497985840 21.875701904297 5.490997314453 100 100 100
21.408672332764 21.860836029053 5.457992553711 133 133 133
21.403610229492 21.882347106934 5.412002563477 124 124 124
21.403610229492 21.882347106934 5.373992919922 134 134 134
21.386211395264 21.883926391602 5.330993652344 126 126 126
21.386211395264 21.883926391602 5.289993286133 123 123 123
21.421958923340 21.852615356445 5.256988525391 115 115 115
21.416896820068 21.874122619629 5.216995239258 108 108 108
21.416896820068 21.874122619629 5.177993774414 108 108 108
21.403610229492 21.882347106934 5.134994506836 107 107 107
21.586162567139 21.613182067871 4.571990966797 131 131 131
21.506744384766 21.781770706177 4.520996093750 177 177 177
21.581096649170 21.634693145752 4.490997314453 126 126 126
21.571922302246 21.649557113647 4.448989868164 105 105 105
21.511806488037 21.760261535645 4.403991699219 115 115 115
21.464977264404 21.862743377686 4.360992431641 144 144 144
21.464977264404 21.862743377686 4.321990966797 167 167 167
21.451690673828 21.870964050293 4.282989501953 170 170 170
21.464977264404 21.862743377686 4.244995117188 148 148 148
21.535221099854 21.709020614624 4.207992553711 161 161 161
21.525093078613 21.752038955688 4.167999267578 102 102 102
21.509902954102 21.816566467285 4.128997802734 58 58 58
21.487442016602 21.839653015137 4.089996337891 60 60 60
21.504837036133 21.838073730469 4.050994873047 68 68 68
21.524143218994 21.780191421509 4.011001586914 100 100 100
21.514965057373 21.795057296753 3.972000122070 155 155 155
21.520030975342 21.773548126221 3.931991577148 139 139 139
21.520030975342 21.773548126221 3.891998291016 26 26 26
21.700923919678 22.065851211548 4.472000122070 44 44 44
21.705036163330 22.072494506836 4.431991577148 52 52 52
21.686687469482 22.102226257324 4.391998291016 36 36 36
21.427730560303 21.297790527344 5.643997192383 167 167 167
21.436904907227 21.282924652100 5.608993530273 172 172 172
21.436904907227 21.282924652100 5.570999145508 170 170 170
21.445125579834 21.296211242676 5.531997680664 186 186 186
21.436904907227 21.282924652100 5.496002197266 189 189 189
21.441017150879 21.289569854736 5.460998535156 168 168 168
21.454303741455 21.281345367432 5.425003051758 35 35 35
21.454303741455 21.281345367432 5.128997802734 132 132 132
21.454303741455 21.281345367432 5.091995239258 186 186 186
21.467590332031 21.273124694824 5.056991577148 180 180 180
21.467590332031 21.273124694824 5.020996093750 171 171 171
21.471698760986 21.279766082764 4.986999511719 174 174 174
21.471698760986 21.279766082764 4.949996948242 170 170 170
21.467590332031 21.273124694824 4.912994384766 131 131 131
21.280570983887 21.802299499512 5.949996948242 133 133 133
21.222362518311 21.856698989868 5.882995605469 130 130 130
21.307144165039 21.785854339600 5.886001586914 116 116 116
21.307144165039 21.785854339600 5.848999023438 110 110 110
21.280570983887 21.802299499512 5.800994873047 93 93 93
21.280570983887 21.802299499512 5.764999389648 133 133 133
21.258110046387 21.825387954712 5.718994140625 152 152 152
21.311256408691 21.792499542236 5.705993652344 122 122 122
21.390975952148 21.743164062500 5.696990966797 125 125 125
21.364402770996 21.759609222412 5.652999877930 135 135 135
21.390975952148 21.743164062500 5.621002197266 128 128 128
21.368515014648 21.766250610352 5.580993652344 128 128 128
21.368515014648 21.766250610352 5.544998168945 128 128 128
21.373577117920 21.744743347168 5.509994506836 131 131 131
21.368515014648 21.766250610352 5.473999023438 132 132 132
21.390975952148 21.743164062500 5.440002441406 141 141 141
21.368515014648 21.766250610352 5.401000976563 146 146 146
21.368515014648 21.766250610352 5.366989135742 139 139 139
21.368515014648 21.766250610352 5.330001831055 140 140 140
21.385913848877 21.764671325684 5.296997070313 136 136 136
21.368515014648 21.766250610352 5.259994506836 140 140 140
21.368515014648 21.766250610352 5.224990844727 138 138 138
21.368515014648 21.766250610352 5.188995361328 144 144 144
21.364402770996 21.759609222412 5.152999877930 137 137 137
21.368515014648 21.766250610352 5.118988037109 142 142 142
21.364402770996 21.759609222412 5.082000732422 138 138 138
21.364402770996 21.759609222412 5.047988891602 142 142 142
21.364402770996 21.759609222412 5.011993408203 140 140 140
21.364402770996 21.759609222412 4.977996826172 138 138 138
21.372627258301 21.772895812988 4.942993164063 137 137 137
21.364402770996 21.759609222412 4.909988403320 138 138 138
21.364402770996 21.759609222412 4.875991821289 134 134 134
21.372627258301 21.772895812988 4.839996337891 131 131 131
21.372627258301 21.772895812988 4.806991577148 133 133 133
21.372627258301 21.772895812988 4.770996093750 131 131 131
21.372627258301 21.772895812988 4.736999511719 134 134 134
21.359340667725 21.781116485596 4.703002929688 132 132 132
21.372627258301 21.772895812988 4.669998168945 132 132 132
21.359340667725 21.781116485596 4.634994506836 129 129 129
21.372627258301 21.772895812988 4.601989746094 138 138 138
21.359340667725 21.781116485596 4.567993164063 134 134 134
21.372627258301 21.772895812988 4.534988403320 132 132 132
21.372627258301 21.772895812988 4.500991821289 131 131 131
21.350162506104 21.795982360840 4.465988159180 129 129 129
21.359340667725 21.781116485596 4.432998657227 132 132 132
21.367561340332 21.794403076172 4.399993896484 133 133 133
21.350162506104 21.795982360840 4.365997314453 132 132 132
21.367561340332 21.794403076172 4.332992553711 135 135 135
21.350162506104 21.795982360840 4.298995971680 131 131 131
21.350162506104 21.795982360840 4.265991210938 133 133 133
21.350162506104 21.795982360840 4.233001708984 131 131 131
21.350162506104 21.795982360840 4.198989868164 128 128 128
21.350162506104 21.795982360840 4.166000366211 126 126 126
21.346054077148 21.789340972900 4.132995605469 122 122 122
21.350162506104 21.795982360840 4.099990844727 117 117 117
21.350162506104 21.795982360840 4.067001342773 120 120 120
21.340988159180 21.810848236084 4.032989501953 130 130 130
21.350162506104 21.795982360840 4.000991821289 121 121 121
21.350162506104 21.795982360840 3.968002319336 122 122 122
21.327701568604 21.819072723389 3.933990478516 119 119 119
21.340988159180 21.810848236084 3.901000976563 117 117 117
21.327701568604 21.819072723389 3.868988037109 117 117 117
21.327701568604 21.819072723389 3.835998535156 123 123 123
21.327701568604 21.819072723389 3.802993774414 129 129 129
21.327701568604 21.819072723389 3.769989013672 121 121 121
21.327701568604 21.819072723389 3.736999511719 130 130 130
21.327701568604 21.819072723389 3.703994750977 126 126 126
21.327701568604 21.819072723389 3.670989990234 128 128 128
21.335922241211 21.832359313965 3.638992309570 132 132 132
21.327701568604 21.819072723389 3.604995727539 134 134 134
21.335922241211 21.832359313965 3.571990966797 132 132 132
21.335922241211 21.832359313965 3.539993286133 139 139 139
21.335922241211 21.832359313965 3.506988525391 136 136 136
21.335922241211 21.832359313965 3.473999023438 137 137 137
21.327701568604 21.819072723389 3.440002441406 135 135 135
21.335922241211 21.832359313965 3.407989501953 133 133 133
21.335922241211 21.832359313965 3.375000000000 135 135 135
21.335922241211 21.832359313965 3.340988159180 132 132 132
21.318527221680 21.833936691284 3.308990478516 131 131 131
21.335922241211 21.832359313965 3.274993896484 130 130 130
21.335922241211 21.832359313965 3.241989135742 128 128 128
21.318527221680 21.833936691284 3.208999633789 124 124 124
21.335922241211 21.832359313965 3.175994873047 132 132 132
21.389068603516 21.799468994141 2.585998535156 136 136 136
21.313461303711 21.855445861816 2.567993164063 155 155 155
21.313461303711 21.855445861816 2.532989501953 158 158 158
21.330860137939 21.853866577148 2.496994018555 164 164 164
21.313461303711 21.855445861816 2.463989257813 165 165 165
21.313461303711 21.855445861816 2.429000854492 161 161 161
21.313461303711 21.855445861816 2.394989013672 158 158 158
21.330860137939 21.853866577148 2.358001708984 161 161 161
21.367507934570 22.180313110352 5.667999267578 159 159 159
21.367507934570 22.180313110352 5.632995605469 182 182 182
21.384906768799 22.178733825684 5.600997924805 176 176 176
21.367507934570 22.180313110352 5.562988281250 183 183 183
21.367507934570 22.180313110352 5.527999877930 206 206 206
21.367507934570 22.180313110352 5.494995117188 197 197 197
21.367507934570 22.180313110352 5.458999633789 158 158 158
21.398193359375 22.170511245728 5.187988281250 103 103 103
21.398193359375 22.170511245728 5.153991699219 160 160 160
21.384906768799 22.178733825684 5.118988037109 169 169 169
21.384906768799 22.178733825684 5.085998535156 165 165 165
21.398193359375 22.170511245728 5.052993774414 165 165 165
21.398193359375 22.170511245728 5.019989013672 164 164 164
21.398193359375 22.170511245728 4.986999511719 159 159 159
21.398193359375 22.170511245728 4.953002929688 108 108 108
21.561740875244 22.078483581543 4.582000732422 54 54 54
21.561740875244 22.078483581543 4.547988891602 146 146 146
21.561740875244 22.078483581543 4.513992309570 149 149 149
21.561740875244 22.078483581543 4.481002807617 145 145 145
21.561740875244 22.078483581543 4.445999145508 148 148 148
21.552566528320 22.093349456787 4.412002563477 153 153 153
21.552566528320 22.093349456787 4.378997802734 150 150 150
21.552566528320 22.093349456787 4.345001220703 153 153 153
21.552566528320 22.093349456787 4.311996459961 149 149 149
21.535167694092 22.094928741455 4.276992797852 150 150 150
21.548454284668 22.086708068848 4.244995117188 145 145 145
21.535167694092 22.094928741455 4.210998535156 112 112 112
21.552566528320 22.093349456787 4.228988647461 153 153 153
21.535167694092 22.094928741455 4.266998291016 192 192 192
21.535167694092 22.094928741455 4.304992675781 181 181 181
21.543392181396 22.108215332031 4.343002319336 206 206 206
21.543392181396 22.108215332031 4.381988525391 201 201 201
21.547504425049 22.114860534668 4.419998168945 202 202 202
21.547504425049 22.114860534668 4.457992553711 202 202 202
21.547504425049 22.114860534668 4.496994018555 202 202 202
21.547504425049 22.114860534668 4.534988403320 195 195 195
21.564899444580 22.113281250000 4.573989868164 193 193 193
21.409275054932 22.099340438843 5.016998291016 151 151 151
21.395988464355 22.107563018799 5.052001953125 229 229 229
21.395988464355 22.107563018799 5.090988159180 234 234 234
21.391876220703 22.100919723511 5.126998901367 229 229 229
21.386810302734 22.122428894043 5.166000366211 233 233 233
21.386810302734 22.122428894043 5.203994750977 229 229 229
21.386810302734 22.122428894043 5.242996215820 220 220 220
21.369415283203 22.124008178711 5.432998657227 193 193 193
21.373523712158 22.130651473999 5.472991943359 230 230 230
21.373523712158 22.130651473999 5.511993408203 233 233 233
21.373523712158 22.130651473999 5.550994873047 229 229 229
21.373523712158 22.130651473999 5.589996337891 234 234 234
21.373523712158 22.130651473999 5.628997802734 231 231 231
21.369415283203 22.124008178711 5.666000366211 204 204 204
21.407421112061 21.769737243652 3.287002563477 41 41 41
21.411533355713 21.776378631592 3.323989868164 81 81 81
21.394134521484 21.777957916260 3.364990234375 105 105 105
21.411533355713 21.776378631592 3.401992797852 114 114 114
21.407421112061 21.769737243652 3.442001342773 129 129 129
21.394134521484 21.777957916260 3.481994628906 119 119 119
21.394134521484 21.777957916260 3.519989013672 132 132 132
21.376735687256 21.779537200928 3.559997558594 128 128 128
21.407421112061 21.769737243652 3.597000122070 130 130 130
21.394134521484 21.777957916260 3.636001586914 138 138 138
21.407421112061 21.769737243652 3.673995971680 145 145 145
21.394134521484 21.777957916260 3.712997436523 150 150 150
21.394134521484 21.777957916260 3.750991821289 152 152 152
21.380847930908 21.786182403564 3.789993286133 151 151 151
21.380847930908 21.786182403564 3.828994750977 155 155 155
21.394134521484 21.777957916260 3.866989135742 162 162 162
21.372627258301 21.772895812988 3.905990600586 156 156 156
21.359340667725 21.781116485596 3.944992065430 156 156 156
21.341941833496 21.782695770264 3.983001708984 162 162 162
21.341941833496 21.782695770264 4.020996093750 158 158 158
21.341941833496 21.782695770264 4.058990478516 143 143 143
21.372627258301 21.772895812988 4.097000122070 135 135 135
21.359340667725 21.781116485596 4.136001586914 129 129 129
21.372627258301 21.772895812988 4.173995971680 126 126 126
21.419754028320 21.789665222168 4.212997436523 157 157 157
21.450439453125 21.779865264893 4.250991821289 181 181 181
21.437152862549 21.788085937500 4.289993286133 185 185 185
21.423866271973 21.796310424805 4.328002929688 180 180 180
21.437152862549 21.788085937500 4.366989135742 176 176 176
21.380847930908 21.786182403564 4.402999877930 160 160 160
21.380847930908 21.786182403564 4.440994262695 153 153 153
21.341941833496 21.782695770264 4.478988647461 157 157 157
21.350162506104 21.795982360840 4.516998291016 169 169 169
21.311256408691 21.792499542236 4.552993774414 188 188 188
21.307144165039 21.785854339600 4.590988159180 191 191 191
21.307144165039 21.785854339600 4.628997802734 189 189 189
21.332767486572 21.797561645508 4.668991088867 185 185 185
21.332767486572 21.797561645508 4.707000732422 186 186 186
21.346054077148 21.789340972900 4.746002197266 189 189 189
21.350162506104 21.795982360840 4.784988403320 178 178 178
21.350162506104 21.795982360840 4.823989868164 167 167 167
21.350162506104 21.795982360840 4.861999511719 157 157 157
21.367561340332 21.794403076172 4.901992797852 156 156 156
21.350162506104 21.795982360840 4.940002441406 147 147 147
21.367561340332 21.794403076172 4.979995727539 143 143 143
21.389068603516 21.799468994141 5.021987915039 139 139 139
21.384960174561 21.792823791504 5.059997558594 153 153 153
21.384960174561 21.792823791504 5.099990844727 137 137 137
21.384960174561 21.792823791504 5.138992309570 152 152 152
21.389068603516 21.799468994141 5.179000854492 147 147 147
21.384960174561 21.792823791504 5.216995239258 149 149 149
21.384960174561 21.792823791504 5.256988525391 155 155 155
21.389068603516 21.799468994141 5.297988891602 157 157 157
21.384960174561 21.792823791504 5.335998535156 162 162 162
21.402355194092 21.791244506836 5.377990722656 159 159 159
21.389068603516 21.799468994141 5.416992187500 155 155 155
21.402355194092 21.791244506836 5.457992553711 161 161 161
21.389068603516 21.799468994141 5.496994018555 158 158 158
21.384960174561 21.792823791504 5.534988403320 146 146 146
21.393180847168 21.806110382080 5.575988769531 130 130 130
21.397293090820 21.812755584717 5.617996215820 129 129 129
21.393180847168 21.806110382080 5.655990600586 114 114 114
21.397293090820 21.812755584717 5.697998046875 96 96 96
21.332767486572 21.797561645508 5.723999023438 128 128 128
21.241664886475 21.798814773560 5.739990234375 150 150 150
21.249889373779 21.812101364136 5.784988403320 139 139 139
21.263175964355 21.803878784180 5.825988769531 86 86 86
21.319480895996 21.805786132813 5.882995605469 108 108 108
21.241664886475 21.798814773560 5.899002075195 122 122 122
21.210979461670 21.808616638184 5.933990478516 134 134 134
21.280570983887 21.802299499512 5.992996215820 74 74 74
21.565307617188 21.460712432861 4.315002441406 96 96 96
21.569416046143 21.467357635498 4.356002807617 172 172 172
21.582702636719 21.459133148193 4.395996093750 184 184 184
21.569416046143 21.467357635498 4.436996459961 181 181 181
21.569416046143 21.467357635498 4.476989746094 174 174 174
21.569416046143 21.467357635498 4.517990112305 139 139 139
21.447631835938 21.478410720825 5.033996582031 185 185 185
21.443519592285 21.471767425537 5.072998046875 220 220 220
21.443519592285 21.471767425537 5.113998413086 205 205 205
21.443519592285 21.471767425537 5.152999877930 226 226 226
21.443519592285 21.471767425537 5.194000244141 214 214 214
21.430233001709 21.479990005493 5.233001708984 228 228 228
21.443519592285 21.471767425537 5.274993896484 191 191 191
21.478317260742 21.468608856201 5.362991333008 27 27 27
21.443519592285 21.471767425537 5.399002075195 237 237 237
21.443519592285 21.471767425537 5.438995361328 203 203 203
21.430233001709 21.479990005493 5.478988647461 237 237 237
21.443519592285 21.471767425537 5.522994995117 8 8 8
21.430233001709 21.479990005493 5.561996459961 248 248 248
21.412837982178 21.481571197510 5.601989746094 228 228 228
21.471401214600 21.160514831543 5.033996582031 182 182 182
21.484687805176 21.152292251587 5.076995849609 178 178 178
21.449890136719 21.155448913574 5.533996582031 157 157 157
21.449890136719 21.155448913574 5.575988769531 248 248 248
21.436603546143 21.163673400879 5.617996215820 236 236 236
21.432495117188 21.157028198242 5.656997680664 213 213 213
21.436603546143 21.163673400879 5.703002929688 14 14 14
21.380142211914 22.319496154785 5.733001708984 134 134 134
21.380142211914 22.319496154785 5.695999145508 172 172 172
21.349460601807 22.329296112061 5.658996582031 179 179 179
21.349460601807 22.329296112061 5.623992919922 179 179 179
21.349460601807 22.329296112061 5.588989257813 180 180 180
21.380142211914 22.319496154785 5.556991577148 115 115 115
21.380142211914 22.319496154785 5.153991699219 118 118 118
21.380142211914 22.319496154785 5.118988037109 160 160 160
21.380142211914 22.319496154785 5.086990356445 166 166 166
21.380142211914 22.319496154785 5.054992675781 168 168 168
21.380142211914 22.319496154785 5.020996093750 157 157 157
21.380142211914 22.319496154785 4.988998413086 161 161 161
21.380142211914 22.319496154785 4.957000732422 143 143 143
21.380142211914 22.319496154785 4.922988891602 47 47 47
21.588615417480 22.181293487549 4.493988037109 81 81 81
21.571216583252 22.182872772217 4.458999633789 97 97 97
21.571216583252 22.182872772217 4.425003051758 106 106 106
21.544643402100 22.199316024780 4.389999389648 48 48 48
21.315666198730 21.918394088745 5.906997680664 114 114 114
21.492504119873 21.818145751953 5.940002441406 109 109 109
21.532363891602 21.793478012085 5.917999267578 106 106 106
21.509902954102 21.816566467285 5.867996215820 107 107 107
21.368812561035 21.885505676270 5.782989501953 97 97 97
21.368812561035 21.885505676270 5.748001098633 107 107 107
21.456756591797 21.849456787109 5.736999511719 106 106 106
21.403610229492 21.882347106934 5.503997802734 153 153 153
21.403610229492 21.882347106934 5.470993041992 174 174 174
21.403610229492 21.882347106934 5.433990478516 168 168 168
21.403610229492 21.882347106934 5.399002075195 170 170 170
21.403610229492 21.882347106934 5.363998413086 175 175 175
21.403610229492 21.882347106934 5.330001831055 168 168 168
21.403610229492 21.882347106934 5.291992187500 168 168 168
21.403610229492 21.882347106934 5.259994506836 167 167 167
21.421958923340 21.852615356445 5.226989746094 166 166 166
21.426071166992 21.859256744385 5.192993164063 162 162 162
21.443470001221 21.857677459717 5.162002563477 26 26 26
21.501678466797 21.803279876709 4.621002197266 100 100 100
21.528251647949 21.786834716797 4.589996337891 157 157 157
21.475105285645 21.819725036621 4.550003051758 176 176 176
21.470043182373 21.841232299805 4.513992309570 157 157 157
21.475105285645 21.819725036621 4.481002807617 162 162 162
21.426071166992 21.859256744385 4.442001342773 148 148 148
21.408672332764 21.860836029053 4.406997680664 140 140 140
21.448532104492 21.836170196533 4.377990722656 152 152 152
21.475105285645 21.819725036621 4.345001220703 164 164 164
21.448532104492 21.836170196533 4.308990478516 152 152 152
21.408672332764 21.860836029053 4.274002075195 144 144 144
21.408672332764 21.860836029053 4.239990234375 134 134 134
21.448532104492 21.836170196533 4.208999633789 126 126 126
21.421958923340 21.852615356445 4.173995971680 111 111 111
21.421958923340 21.852615356445 4.139999389648 114 114 114
21.421958923340 21.852615356445 4.106994628906 113 113 113
21.421958923340 21.852615356445 4.073989868164 114 114 114
21.430183410645 21.865901947021 4.041000366211 129 129 129
21.435245513916 21.844390869141 4.007995605469 122 122 122
21.435245513916 21.844390869141 3.973999023438 131 131 131
21.408672332764 21.860836029053 3.940994262695 130 130 130
21.395385742188 21.869060516357 3.907989501953 129 129 129
21.395385742188 21.869060516357 3.873992919922 142 142 142
21.395385742188 21.869060516357 3.840988159180 141 141 141
21.403610229492 21.882347106934 3.807998657227 137 137 137
21.408672332764 21.860836029053 3.774993896484 143 143 143
21.408672332764 21.860836029053 3.740997314453 135 135 135
21.408672332764 21.860836029053 3.707992553711 141 141 141
21.408672332764 21.860836029053 3.675003051758 144 144 144
21.395385742188 21.869060516357 3.641998291016 131 131 131
21.399497985840 21.875701904297 3.608993530273 132 132 132
21.408672332764 21.860836029053 3.574996948242 139 139 139
21.403610229492 21.882347106934 3.541992187500 138 138 138
21.395385742188 21.869060516357 3.509002685547 134 134 134
21.395385742188 21.869060516357 3.474990844727 134 134 134
21.395385742188 21.869060516357 3.442001342773 128 128 128
21.399497985840 21.875701904297 3.408996582031 130 130 130
21.395385742188 21.869060516357 3.375000000000 130 130 130
21.399497985840 21.875701904297 3.341995239258 136 136 136
21.395385742188 21.869060516357 3.307998657227 132 132 132
21.395385742188 21.869060516357 3.274993896484 130 130 130
21.395385742188 21.869060516357 3.240997314453 141 141 141
21.395385742188 21.869060516357 3.207992553711 140 140 140
21.435245513916 21.844390869141 3.168991088867 112 112 112
21.448532104492 21.836170196533 2.720993041992 90 90 90
21.395385742188 21.869060516357 2.658996582031 96 96 96
21.351417541504 21.887083053589 2.638000488281 118 118 118
21.334018707275 21.888662338257 2.603988647461 128 128 128
21.334018707275 21.888662338257 2.569992065430 122 122 122
21.334018707275 21.888662338257 2.537002563477 114 114 114
21.334018707275 21.888662338257 2.502990722656 113 113 113
21.334018707275 21.888662338257 2.466995239258 136 136 136
21.334018707275 21.888662338257 2.435989379883 141 141 141
21.334018707275 21.888662338257 2.399002075195 142 142 142
21.334018707275 21.888662338257 2.361999511719 144 144 144
21.448532104492 21.836170196533 2.927993774414 92 92 92
21.448532104492 21.836170196533 2.893997192383 88 88 88
21.448532104492 21.836170196533 2.856994628906 88 88 88
21.417850494385 21.845970153809 2.828002929688 89 89 89
21.421958923340 21.852615356445 2.795989990234 87 87 87
21.421958923340 21.852615356445 2.759994506836 89 89 89
21.421958923340 21.852615356445 2.692001342773 85 85 85
21.214492797852 21.576755523682 5.878997802734 42 42 42
21.290100097656 21.520778656006 5.876998901367 67 67 67
21.445426940918 21.415466308594 5.634002685547 139 139 139
21.445426940918 21.415466308594 5.597991943359 171 171 171
21.445426940918 21.415466308594 5.558990478516 173 173 173
21.445426940918 21.415466308594 5.522994995117 178 178 178
21.449539184570 21.422107696533 5.488998413086 197 197 197
21.445426940918 21.415466308594 5.448989868164 187 187 187
21.449539184570 21.422107696533 5.412994384766 112 112 112
21.449539184570 21.422107696533 5.229995727539 97 97 97
21.466934204102 21.420528411865 5.194992065430 175 175 175
21.472000122070 21.399021148682 5.162002563477 199 199 199
21.472000122070 21.399021148682 5.125991821289 190 190 190
21.466934204102 21.420528411865 5.087997436523 182 182 182
21.472000122070 21.399021148682 5.052993774414 177 177 177
21.480220794678 21.412307739258 5.015991210938 156 156 156
21.472000122070 21.399021148682 4.981994628906 113 113 113
21.380142211914 22.319496154785 5.718994140625 24 24 24
21.388366699219 22.332782745361 5.679000854492 84 84 84
