21.042131423950 25.831060409546 35.980998992920 182 182 182
21.042131423950 25.831060409546 36.049999237061 183 183 183
21.042131423950 25.831060409546 36.117000579834 185 185 185
21.042131423950 25.831060409546 36.186000823975 185 185 185
21.042131423950 25.831060409546 36.251998901367 189 189 189
21.042131423950 25.831060409546 36.319000244141 194 194 194
21.042131423950 25.831060409546 36.387001037598 187 187 187
21.042131423950 25.831060409546 36.453998565674 189 189 189
21.042131423950 25.831060409546 36.520000457764 189 189 189
21.042131423950 25.831060409546 36.587001800537 189 189 189
21.042131423950 25.831060409546 36.652999877930 190 190 190
21.042131423950 25.831060409546 36.720001220703 188 188 188
21.042131423950 25.831060409546 36.785999298096 195 195 195
21.042131423950 25.831060409546 36.852001190186 202 202 202
21.001741409302 25.878753662109 36.917999267578 208 208 208
21.042131423950 25.831060409546 36.984001159668 212 212 212
21.042131423950 25.831060409546 37.049999237061 241 241 241
21.042131423950 25.831060409546 37.116001129150 199 199 199
21.042131423950 25.831060409546 37.182998657227 184 184 184
21.042131423950 25.831060409546 37.249000549316 177 177 177
21.042131423950 25.831060409546 37.314998626709 168 168 168
21.001741409302 25.878753662109 37.381999969482 169 169 169
21.001741409302 25.878753662109 37.448001861572 160 160 160
21.001741409302 25.878753662109 37.515998840332 157 157 157
21.001741409302 25.878753662109 37.582000732422 154 154 154
21.001741409302 25.878753662109 37.649002075195 150 150 150
21.042131423950 25.831060409546 37.715999603271 145 145 145
21.042131423950 25.831060409546 37.783000946045 147 147 147
21.001741409302 25.878753662109 37.852001190186 141 141 141
21.001741409302 25.878753662109 37.918998718262 136 136 136
21.001741409302 25.878753662109 37.990001678467 146 146 146
21.001741409302 25.878753662109 38.061000823975 153 153 153
21.001741409302 25.878753662109 38.130001068115 156 156 156
21.001741409302 25.878753662109 38.198001861572 156 156 156
21.001741409302 25.878753662109 38.271999359131 166 166 166
21.001741409302 25.878753662109 38.340000152588 162 162 162
21.001741409302 25.878753662109 38.409999847412 158 158 158
21.115625381470 25.647588729858 35.069000244141 116 116 116
21.115625381470 25.647588729858 35.135002136230 131 131 131
21.034837722778 25.742973327637 35.165000915527 135 135 135
20.913652420044 25.886051177979 35.185001373291 145 145 145
20.913652420044 25.886051177979 35.256000518799 147 147 147
20.913652420044 25.886051177979 35.332000732422 146 146 146
20.913652420044 25.886051177979 35.402000427246 146 146 146
20.913652420044 25.886051177979 35.473999023438 154 154 154
20.913652420044 25.886051177979 35.548000335693 154 154 154
20.913652420044 25.886051177979 35.618000030518 149 149 149
20.913652420044 25.886051177979 35.689998626709 148 148 148
20.913652420044 25.886051177979 35.760002136230 153 153 153
20.913652420044 25.886051177979 35.828998565674 146 146 146
20.913652420044 25.886051177979 35.899002075195 142 142 142
20.913652420044 25.886051177979 35.967998504639 129 129 129
20.913652420044 25.886051177979 36.038002014160 122 122 122
20.913652420044 25.886051177979 36.108001708984 111 111 111
20.913652420044 25.886051177979 36.175998687744 111 111 111
20.913652420044 25.886051177979 36.243999481201 104 104 104
20.913652420044 25.886051177979 36.312000274658 98 98 98
20.913652420044 25.886051177979 36.380001068115 94 94 94
20.913652420044 25.886051177979 36.448001861572 90 90 90
20.913652420044 25.886051177979 36.514999389648 86 86 86
20.913652420044 25.886051177979 36.582000732422 88 88 88
20.913652420044 25.886051177979 36.649002075195 76 76 76
20.954050064087 25.838359832764 36.719001770020 84 84 84
20.913652420044 25.886051177979 36.783000946045 69 69 69
20.913652420044 25.886051177979 36.849998474121 74 74 74
20.913652420044 25.886051177979 36.916000366211 103 103 103
20.913652420044 25.886051177979 37.118000030518 118 118 118
20.954050064087 25.838359832764 37.184001922607 121 121 121
20.906354904175 25.797966003418 37.921001434326 134 134 134
20.906354904175 25.797966003418 37.988998413086 131 131 131
20.906354904175 25.797966003418 38.053001403809 143 143 143
20.906354904175 25.797966003418 38.119998931885 138 138 138
20.906354904175 25.797966003418 38.192001342773 131 131 131
20.946748733521 25.750272750854 38.254001617432 110 110 110
20.939447402954 25.662185668945 37.244998931885 111 111 111
20.939447402954 25.662185668945 37.833000183105 131 131 131
20.939447402954 25.662185668945 37.900001525879 119 119 119
20.979845046997 25.614494323730 37.965999603271 119 119 119
20.979845046997 25.614494323730 38.032001495361 95 95 95
20.979845046997 25.614494323730 38.098999023438 74 74 74
20.979845046997 25.614494323730 38.160999298096 138 138 138
20.979845046997 25.614494323730 38.229000091553 139 139 139
20.979845046997 25.614494323730 38.298999786377 131 131 131
20.932153701782 25.574100494385 38.361000061035 65 65 65
20.891756057739 25.621791839600 37.111999511719 125 125 125
20.891756057739 25.621791839600 37.178001403809 133 133 133
20.932153701782 25.574100494385 37.241001129150 128 128 128
20.891756057739 25.621791839600 37.307998657227 102 102 102
20.972543716431 25.526407241821 37.750000000000 128 128 128
20.972543716431 25.526407241821 37.813999176025 125 125 125
20.972543716431 25.526407241821 37.879001617432 123 123 123
20.972543716431 25.526407241821 37.944000244141 99 99 99
20.972543716431 25.526407241821 38.206001281738 94 94 94
21.012941360474 25.478713989258 38.268001556396 125 125 125
21.012941360474 25.478713989258 38.333999633789 140 140 140
21.012941360474 25.478713989258 38.401000976563 138 138 138
20.957948684692 25.350234985352 37.670001983643 89 89 89
20.957948684692 25.350234985352 37.733001708984 126 126 126
20.957948684692 25.350234985352 37.793998718262 117 117 117
20.917551040649 25.397926330566 37.861999511719 97 97 97
20.998338699341 25.302541732788 38.307998657227 103 103 103
20.998338699341 25.302541732788 38.369998931885 123 123 123
20.998338699341 25.302541732788 38.441001892090 47 47 47
20.869859695435 25.357532501221 37.298000335693 87 87 87
20.862562179565 25.269447326660 37.104999542236 85 85 85
20.862562179565 25.269447326660 37.355998992920 98 98 98
21.019739151001 26.631137847900 37.240001678467 49 49 49
21.019739151001 26.631137847900 37.325000762939 63 63 63
20.972043991089 26.590744018555 37.156002044678 93 93 93
20.972043991089 26.590744018555 37.241001129150 97 97 97
20.972043991089 26.590744018555 37.325000762939 95 95 95
20.972043991089 26.590744018555 37.409999847412 95 95 95
20.924352645874 26.550350189209 37.743000030518 65 65 65
20.924352645874 26.550350189209 37.826999664307 161 161 161
20.924352645874 26.550350189209 38.335998535156 165 165 165
20.924352645874 26.550350189209 38.422000885010 88 88 88
20.828966140747 26.469562530518 37.656002044678 99 99 99
20.828966140747 26.469562530518 37.738998413086 201 201 201
20.917055130005 26.462265014648 37.821998596191 177 177 177
20.917055130005 26.462265014648 37.904998779297 79 79 79
20.917055130005 26.462265014648 38.238998413086 20 20 20
20.828966140747 26.469562530518 38.326999664307 167 167 167
20.828966140747 26.469562530518 38.411998748779 162 162 162
20.917055130005 26.462265014648 38.494998931885 86 86 86
20.909753799438 26.374176025391 37.733001708984 185 185 185
20.909753799438 26.374176025391 37.814998626709 190 190 190
20.950147628784 26.326484680176 37.896999359131 182 182 182
20.909753799438 26.374176025391 38.229000091553 176 176 176
20.909753799438 26.374176025391 38.312999725342 172 172 172
20.950147628784 26.326484680176 38.395999908447 170 170 170
20.902452468872 26.286090850830 37.809001922607 177 177 177
20.902452468872 26.286090850830 37.889999389648 180 180 180
20.902452468872 26.286090850830 37.972000122070 177 177 177
20.902452468872 26.286090850830 38.220001220703 177 177 177
20.902452468872 26.286090850830 38.300998687744 174 174 174
20.902452468872 26.286090850830 38.385002136230 138 138 138
20.895158767700 26.198003768921 37.803001403809 104 104 104
20.895158767700 26.198003768921 37.882999420166 180 180 180
20.895158767700 26.198003768921 37.963001251221 183 183 183
20.983240127563 26.190704345703 38.041999816895 126 126 126
20.895158767700 26.198003768921 38.126998901367 171 171 171
20.895158767700 26.198003768921 38.207000732422 166 166 166
20.895158767700 26.198003768921 38.289001464844 175 175 175
20.935548782349 26.150310516357 37.874000549316 169 169 169
20.935548782349 26.150310516357 37.955001831055 188 188 188
20.935548782349 26.150310516357 38.034999847412 186 186 186
20.935548782349 26.150310516357 38.115001678467 173 173 173
20.935548782349 26.150310516357 38.196998596191 182 182 182
20.935548782349 26.150310516357 38.275001525879 156 156 156
21.056734085083 26.007232666016 36.229000091553 21 21 21
21.056734085083 26.007232666016 36.309001922607 21 21 21
21.056734085083 26.007232666016 36.387001037598 24 24 24
21.056734085083 26.007232666016 36.465999603271 33 33 33
21.056734085083 26.007232666016 36.543998718262 34 34 34
21.056734085083 26.007232666016 36.624000549316 39 39 39
21.056734085083 26.007232666016 36.700000762939 45 45 45
21.056734085083 26.007232666016 36.778999328613 67 67 67
21.056734085083 26.007232666016 36.855998992920 52 52 52
21.056734085083 26.007232666016 36.931999206543 65 65 65
21.056734085083 26.007232666016 37.008998870850 67 67 67
21.056734085083 26.007232666016 37.085998535156 91 91 91
21.056734085083 26.007232666016 37.163002014160 90 90 90
21.016336441040 26.054925918579 37.240001678467 105 105 105
21.016336441040 26.054925918579 37.317001342773 105 105 105
21.056734085083 26.007232666016 37.394001007080 112 112 112
21.056734085083 26.007232666016 37.470001220703 108 108 108
21.056734085083 26.007232666016 37.546001434326 83 83 83
21.056734085083 26.007232666016 37.622001647949 89 89 89
21.097124099731 25.959541320801 37.698001861572 91 91 91
21.056734085083 26.007232666016 37.776000976563 98 98 98
21.056734085083 26.007232666016 37.854000091553 102 102 102
21.056734085083 26.007232666016 37.934001922607 134 134 134
21.056734085083 26.007232666016 38.013000488281 136 136 136
21.056734085083 26.007232666016 38.089000701904 134 134 134
21.056734085083 26.007232666016 38.166999816895 125 125 125
21.097124099731 25.959541320801 38.240001678467 109 109 109
21.097124099731 25.959541320801 38.316001892090 112 112 112
21.097124099731 25.959541320801 38.395000457764 117 117 117
21.049432754517 25.919147491455 35.272998809814 155 155 155
21.049432754517 25.919147491455 35.359001159668 156 156 156
21.049432754517 25.919147491455 35.439998626709 167 167 167
21.049432754517 25.919147491455 35.522998809814 177 177 177
21.049432754517 25.919147491455 35.603000640869 182 182 182
21.049432754517 25.919147491455 35.687000274658 182 182 182
21.049432754517 25.919147491455 35.767002105713 186 186 186
21.049432754517 25.919147491455 35.847000122070 187 187 187
21.049432754517 25.919147491455 35.925998687744 186 186 186
21.089826583862 25.871454238892 36.006000518799 187 187 187
21.049432754517 25.919147491455 36.083999633789 190 190 190
21.049432754517 25.919147491455 36.163002014160 187 187 187
21.089826583862 25.871454238892 36.242000579834 191 191 191
21.089826583862 25.871454238892 36.320999145508 191 191 191
21.089826583862 25.871454238892 36.397998809814 193 193 193
21.089826583862 25.871454238892 36.474998474121 193 193 193
21.089826583862 25.871454238892 36.552001953125 196 196 196
21.089826583862 25.871454238892 36.629001617432 198 198 198
21.089826583862 25.871454238892 36.707000732422 195 195 195
21.089826583862 25.871454238892 36.783000946045 184 184 184
21.089826583862 25.871454238892 36.859001159668 197 197 197
21.089826583862 25.871454238892 36.935001373291 198 198 198
21.089826583862 25.871454238892 37.012001037598 198 198 198
21.089826583862 25.871454238892 37.088001251221 198 198 198
21.089826583862 25.871454238892 37.164001464844 201 201 201
21.089826583862 25.871454238892 37.240001678467 199 199 199
21.089826583862 25.871454238892 37.314998626709 204 204 204
21.089826583862 25.871454238892 37.390998840332 203 203 203
21.089826583862 25.871454238892 37.466999053955 196 196 196
21.089826583862 25.871454238892 37.542999267578 195 195 195
21.089826583862 25.871454238892 37.618999481201 187 187 187
21.089826583862 25.871454238892 37.694999694824 184 184 184
21.089826583862 25.871454238892 37.770999908447 178 178 178
21.089826583862 25.871454238892 37.847999572754 174 174 174
21.089826583862 25.871454238892 37.923999786377 165 165 165
21.089826583862 25.871454238892 38.001998901367 156 156 156
21.089826583862 25.871454238892 38.077999114990 153 153 153
21.089826583862 25.871454238892 38.154998779297 150 150 150
21.089826583862 25.871454238892 38.230998992920 137 137 137
21.089826583862 25.871454238892 38.310001373291 138 138 138
21.089826583862 25.871454238892 38.387001037598 137 137 137
21.089826583862 25.871454238892 38.467998504639 77 77 77
21.042131423950 25.831060409546 35.054000854492 140 140 140
20.913652420044 25.886051177979 35.249000549316 149 149 149
20.913652420044 25.886051177979 35.337001800537 157 157 157
20.913652420044 25.886051177979 35.417999267578 155 155 155
20.913652420044 25.886051177979 35.512001037598 101 101 101
20.913652420044 25.886051177979 35.591999053955 103 103 103
20.913652420044 25.886051177979 35.674999237061 108 108 108
20.913652420044 25.886051177979 35.755001068115 113 113 113
20.913652420044 25.886051177979 35.833999633789 114 114 114
20.913652420044 25.886051177979 35.915000915527 111 111 111
21.001741409302 25.878753662109 35.997001647949 108 108 108
20.913652420044 25.886051177979 36.075000762939 111 111 111
20.913652420044 25.886051177979 36.153999328613 107 107 107
20.913652420044 25.886051177979 36.233001708984 106 106 106
20.913652420044 25.886051177979 36.311000823975 110 110 110
21.001741409302 25.878753662109 36.390998840332 106 106 106
21.001741409302 25.878753662109 36.469001770020 109 109 109
21.001741409302 25.878753662109 36.547000885010 102 102 102
21.001741409302 25.878753662109 36.624000549316 96 96 96
21.001741409302 25.878753662109 36.701999664307 95 95 95
21.001741409302 25.878753662109 36.781002044678 86 86 86
21.042131423950 25.831060409546 36.861000061035 33 33 33
21.001741409302 25.878753662109 36.931999206543 76 76 76
20.954050064087 25.838359832764 37.008998870850 66 66 66
21.001741409302 25.878753662109 37.085998535156 51 51 51
21.001741409302 25.878753662109 37.163002014160 110 110 110
21.001741409302 25.878753662109 37.238998413086 118 118 118
21.001741409302 25.878753662109 37.314998626709 89 89 89
20.954050064087 25.838359832764 37.930000305176 185 185 185
20.954050064087 25.838359832764 38.006999969482 189 189 189
20.954050064087 25.838359832764 38.083999633789 189 189 189
20.954050064087 25.838359832764 38.160999298096 185 185 185
21.001741409302 25.878753662109 38.236999511719 155 155 155
21.122919082642 25.735675811768 35.105998992920 118 118 118
21.122919082642 25.735675811768 35.187999725342 128 128 128
20.906354904175 25.797966003418 37.238998413086 111 111 111
20.946748733521 25.750272750854 37.921001434326 183 183 183
20.946748733521 25.750272750854 37.997001647949 181 181 181
20.946748733521 25.750272750854 38.073001861572 186 186 186
20.946748733521 25.750272750854 38.147998809814 187 187 187
20.946748733521 25.750272750854 38.227001190186 186 186 186
20.946748733521 25.750272750854 38.300998687744 101 101 101
21.115625381470 25.647588729858 35.041000366211 111 111 111
21.115625381470 25.647588729858 35.119998931885 128 128 128
20.946748733521 25.750272750854 37.237998962402 113 113 113
21.027536392212 25.654888153076 37.835998535156 186 186 186
21.027536392212 25.654888153076 37.911998748779 185 185 185
21.027536392212 25.654888153076 37.987998962402 177 177 177
21.027536392212 25.654888153076 38.138000488281 187 187 187
21.027536392212 25.654888153076 38.210998535156 186 186 186
21.027536392212 25.654888153076 38.289001464844 183 183 183
21.027536392212 25.654888153076 38.363998413086 26 26 26
20.891756057739 25.621791839600 37.087001800537 108 108 108
20.932153701782 25.574100494385 37.236999511719 112 112 112
20.891756057739 25.621791839600 37.312000274658 100 100 100
20.932153701782 25.574100494385 37.755001068115 84 84 84
21.020235061646 25.566801071167 37.827999114990 182 182 182
21.020235061646 25.566801071167 37.902000427246 181 181 181
21.020235061646 25.566801071167 37.977001190186 171 171 171
21.020235061646 25.566801071167 38.200000762939 185 185 185
21.020235061646 25.566801071167 38.276000976563 191 191 191
21.020235061646 25.566801071167 38.349998474121 186 186 186
20.932153701782 25.574100494385 37.090000152588 114 114 114
20.932153701782 25.574100494385 37.164001464844 106 106 106
20.884458541870 25.533706665039 37.236999511719 101 101 101
20.932153701782 25.574100494385 37.311000823975 107 107 107
20.972543716431 25.526407241821 37.749000549316 184 184 184
20.972543716431 25.526407241821 37.820999145508 184 184 184
20.972543716431 25.526407241821 37.895000457764 178 178 178
21.012941360474 25.478713989258 38.262001037598 183 183 183
21.012941360474 25.478713989258 38.338001251221 188 188 188
21.012941360474 25.478713989258 38.410999298096 190 190 190
20.965246200562 25.438320159912 37.668998718262 131 131 131
20.965246200562 25.438320159912 37.741001129150 184 184 184
20.965246200562 25.438320159912 37.813999176025 179 179 179
20.965246200562 25.438320159912 37.886001586914 171 171 171
21.053331375122 25.431022644043 38.247001647949 66 66 66
21.053331375122 25.431022644043 38.323001861572 187 187 187
21.053331375122 25.431022644043 38.395000457764 187 187 187
21.053331375122 25.431022644043 38.469001770020 191 191 191
20.869859695435 25.357532501221 37.017002105713 43 43 43
20.869859695435 25.357532501221 37.236000061035 97 97 97
20.869859695435 25.357532501221 37.307998657227 86 86 86
20.957948684692 25.350234985352 37.735000610352 98 98 98
20.957948684692 25.350234985352 37.805000305176 180 180 180
20.957948684692 25.350234985352 38.307998657227 117 117 117
20.957948684692 25.350234985352 38.380001068115 138 138 138
20.862562179565 25.269447326660 37.091999053955 38 38 38
20.917551040649 25.397926330566 37.656002044678 106 106 106
20.957948684692 25.350234985352 37.717998504639 125 125 125
20.917551040649 25.397926330566 37.783000946045 116 116 116
20.957948684692 25.350234985352 37.845001220703 105 105 105
20.998338699341 25.302541732788 38.291000366211 131 131 131
20.998338699341 25.302541732788 38.356998443604 128 128 128
20.998338699341 25.302541732788 38.425998687744 84 84 84
20.884458541870 25.533706665039 37.096000671387 119 119 119
20.891756057739 25.621791839600 37.161998748779 125 125 125
20.884458541870 25.533706665039 37.226001739502 124 124 124
20.884458541870 25.533706665039 37.288002014160 105 105 105
20.924852371216 25.486013412476 37.730998992920 122 122 122
20.924852371216 25.486013412476 37.795001983643 128 128 128
20.924852371216 25.486013412476 37.861999511719 121 121 121
20.924852371216 25.486013412476 37.929000854492 72 72 72
20.924852371216 25.486013412476 38.187999725342 37 37 37
20.965246200562 25.438320159912 38.248001098633 136 136 136
20.965246200562 25.438320159912 38.314998626709 141 141 141
20.965246200562 25.438320159912 38.381000518799 129 129 129
20.965246200562 25.438320159912 38.442001342773 97 97 97
20.891756057739 25.621791839600 37.098999023438 115 115 115
20.932153701782 25.574100494385 37.226001739502 123 123 123
20.932153701782 25.574100494385 37.811000823975 123 123 123
20.932153701782 25.574100494385 37.875999450684 127 127 127
20.932153701782 25.574100494385 37.941001892090 122 122 122
20.932153701782 25.574100494385 38.139999389648 91 91 91
20.972543716431 25.526407241821 38.201999664307 127 127 127
20.972543716431 25.526407241821 38.268001556396 140 140 140
20.972543716431 25.526407241821 38.339000701904 135 135 135
21.148717880249 25.511810302734 35.085998535156 131 131 131
20.906354904175 25.797966003418 37.233001708984 127 127 127
20.946748733521 25.750272750854 37.825000762939 97 97 97
20.946748733521 25.750272750854 37.893001556396 121 121 121
20.939447402954 25.662185668945 37.958999633789 121 121 121
20.939447402954 25.662185668945 38.026000976563 129 129 129
20.939447402954 25.662185668945 38.091999053955 143 143 143
20.939447402954 25.662185668945 38.158000946045 131 131 131
20.939447402954 25.662185668945 38.224998474121 128 128 128
20.939447402954 25.662185668945 38.291999816895 125 125 125
21.115625381470 25.647588729858 35.055999755859 121 121 121
21.115625381470 25.647588729858 35.125999450684 128 128 128
21.034837722778 25.742973327637 35.153999328613 131 131 131
20.913652420044 25.886051177979 35.167999267578 143 143 143
20.913652420044 25.886051177979 35.243999481201 149 149 149
20.913652420044 25.886051177979 35.312000274658 145 145 145
20.913652420044 25.886051177979 35.388999938965 146 146 146
20.913652420044 25.886051177979 35.459999084473 153 153 153
20.913652420044 25.886051177979 35.529998779297 154 154 154
20.913652420044 25.886051177979 35.602001190186 148 148 148
20.913652420044 25.886051177979 35.673999786377 147 147 147
20.913652420044 25.886051177979 35.746002197266 147 147 147
20.913652420044 25.886051177979 35.814998626709 145 145 145
20.913652420044 25.886051177979 35.887001037598 138 138 138
20.913652420044 25.886051177979 35.953998565674 133 133 133
20.913652420044 25.886051177979 36.022998809814 125 125 125
20.913652420044 25.886051177979 36.090999603271 116 116 116
20.913652420044 25.886051177979 36.159999847412 111 111 111
20.913652420044 25.886051177979 36.228000640869 110 110 110
20.913652420044 25.886051177979 36.297000885010 104 104 104
20.913652420044 25.886051177979 36.365001678467 102 102 102
20.913652420044 25.886051177979 36.431999206543 96 96 96
20.865961074829 25.845657348633 36.500000000000 96 96 96
20.865961074829 25.845657348633 36.568000793457 89 89 89
20.954050064087 25.838359832764 36.703998565674 89 89 89
20.913652420044 25.886051177979 36.901000976563 114 114 114
20.913652420044 25.886051177979 37.035999298096 102 102 102
20.954050064087 25.838359832764 37.167999267578 122 122 122
20.954050064087 25.838359832764 37.235000610352 116 116 116
20.906354904175 25.797966003418 37.300998687744 113 113 113
20.906354904175 25.797966003418 37.907001495361 125 125 125
20.906354904175 25.797966003418 37.978000640869 131 131 131
20.906354904175 25.797966003418 38.040000915527 144 144 144
20.906354904175 25.797966003418 38.110000610352 141 141 141
20.906354904175 25.797966003418 38.179000854492 134 134 134
20.906354904175 25.797966003418 38.243000030518 99 99 99
21.001741409302 25.878753662109 35.189998626709 157 157 157
21.001741409302 25.878753662109 35.261001586914 161 161 161
21.001741409302 25.878753662109 35.335998535156 159 159 159
21.001741409302 25.878753662109 35.406002044678 161 161 161
21.001741409302 25.878753662109 35.478000640869 163 163 163
21.001741409302 25.878753662109 35.548999786377 162 162 162
21.001741409302 25.878753662109 35.619998931885 163 163 163
21.001741409302 25.878753662109 35.689998626709 162 162 162
21.001741409302 25.878753662109 35.757999420166 163 163 163
21.001741409302 25.878753662109 35.827999114990 165 165 165
21.001741409302 25.878753662109 35.897998809814 160 160 160
21.001741409302 25.878753662109 35.965999603271 165 165 165
21.001741409302 25.878753662109 36.034000396729 161 161 161
21.001741409302 25.878753662109 36.103000640869 163 163 163
21.001741409302 25.878753662109 36.168998718262 168 168 168
21.001741409302 25.878753662109 36.237998962402 165 165 165
21.001741409302 25.878753662109 36.304000854492 168 168 168
21.001741409302 25.878753662109 36.372001647949 165 165 165
21.001741409302 25.878753662109 36.438999176025 165 165 165
21.001741409302 25.878753662109 36.506000518799 163 163 163
21.001741409302 25.878753662109 36.571998596191 159 159 159
21.001741409302 25.878753662109 36.638999938965 158 158 158
21.001741409302 25.878753662109 36.705001831055 145 145 145
21.042131423950 25.831060409546 36.771999359131 142 142 142
21.042131423950 25.831060409546 36.838001251221 141 141 141
21.001741409302 25.878753662109 36.903999328613 159 159 159
21.001741409302 25.878753662109 36.970001220703 156 156 156
21.001741409302 25.878753662109 37.035999298096 163 163 163
21.001741409302 25.878753662109 37.103000640869 150 150 150
21.001741409302 25.878753662109 37.168998718262 150 150 150
21.001741409302 25.878753662109 37.236000061035 146 146 146
21.001741409302 25.878753662109 37.302001953125 149 149 149
21.001741409302 25.878753662109 37.369998931885 162 162 162
21.001741409302 25.878753662109 37.437000274658 165 165 165
21.001741409302 25.878753662109 37.504001617432 168 168 168
21.001741409302 25.878753662109 37.571998596191 172 172 172
21.001741409302 25.878753662109 37.639999389648 171 171 171
21.001741409302 25.878753662109 37.708000183105 171 171 171
21.001741409302 25.878753662109 37.775001525879 171 171 171
21.001741409302 25.878753662109 37.842998504639 172 172 172
21.001741409302 25.878753662109 37.913002014160 169 169 169
21.001741409302 25.878753662109 37.979999542236 172 172 172
21.001741409302 25.878753662109 38.049999237061 170 170 170
21.001741409302 25.878753662109 38.118000030518 171 171 171
21.001741409302 25.878753662109 38.187999725342 169 169 169
21.001741409302 25.878753662109 38.258998870850 171 171 171
21.001741409302 25.878753662109 38.328998565674 167 167 167
21.001741409302 25.878753662109 38.400001525879 163 163 163
21.089826583862 25.871454238892 35.050998687744 119 119 119
21.009038925171 25.966838836670 35.229000091553 148 148 148
21.009038925171 25.966838836670 35.302001953125 142 142 142
21.049432754517 25.919147491455 35.401000976563 61 61 61
21.049432754517 25.919147491455 35.473999023438 72 72 72
21.089826583862 25.871454238892 35.548999786377 77 77 77
21.049432754517 25.919147491455 35.616001129150 88 88 88
21.049432754517 25.919147491455 35.688999176025 96 96 96
21.049432754517 25.919147491455 35.756999969482 98 98 98
21.089826583862 25.871454238892 35.830001831055 99 99 99
21.049432754517 25.919147491455 35.895000457764 103 103 103
21.089826583862 25.871454238892 35.966999053955 105 105 105
21.049432754517 25.919147491455 36.032001495361 110 110 110
21.049432754517 25.919147491455 36.101001739502 113 113 113
21.049432754517 25.919147491455 36.170001983643 127 127 127
21.089826583862 25.871454238892 36.237998962402 138 138 138
21.089826583862 25.871454238892 36.305000305176 138 138 138
21.089826583862 25.871454238892 36.373001098633 139 139 139
21.089826583862 25.871454238892 36.438999176025 146 146 146
21.089826583862 25.871454238892 36.506000518799 152 152 152
21.089826583862 25.871454238892 36.574001312256 152 152 152
21.089826583862 25.871454238892 36.639999389648 152 152 152
21.049432754517 25.919147491455 36.705001831055 161 161 161
21.089826583862 25.871454238892 36.772998809814 130 130 130
21.089826583862 25.871454238892 36.839000701904 163 163 163
21.089826583862 25.871454238892 36.904998779297 172 172 172
21.089826583862 25.871454238892 36.971000671387 174 174 174
21.089826583862 25.871454238892 37.036998748779 186 186 186
21.089826583862 25.871454238892 37.103000640869 182 182 182
21.089826583862 25.871454238892 37.168998718262 182 182 182
21.089826583862 25.871454238892 37.236000061035 182 182 182
21.089826583862 25.871454238892 37.302001953125 179 179 179
21.089826583862 25.871454238892 37.368000030518 183 183 183
21.089826583862 25.871454238892 37.434001922607 177 177 177
21.089826583862 25.871454238892 37.500000000000 182 182 182
21.089826583862 25.871454238892 37.567001342773 185 185 185
21.089826583862 25.871454238892 37.632999420166 182 182 182
21.089826583862 25.871454238892 37.700000762939 182 182 182
21.089826583862 25.871454238892 37.767002105713 182 182 182
21.089826583862 25.871454238892 37.833000183105 182 182 182
21.089826583862 25.871454238892 37.902000427246 183 183 183
21.089826583862 25.871454238892 37.970001220703 181 181 181
21.089826583862 25.871454238892 38.036998748779 181 181 181
21.089826583862 25.871454238892 38.105998992920 181 181 181
21.089826583862 25.871454238892 38.173000335693 178 178 178
21.089826583862 25.871454238892 38.243000030518 178 178 178
21.089826583862 25.871454238892 38.312000274658 177 177 177
21.089826583862 25.871454238892 38.382999420166 176 176 176
21.089826583862 25.871454238892 38.451000213623 126 126 126
20.895158767700 26.198003768921 37.812000274658 138 138 138
20.895158767700 26.198003768921 37.882999420166 131 131 131
20.895158767700 26.198003768921 37.951999664307 125 125 125
20.935548782349 26.150310516357 38.020999908447 110 110 110
20.895158767700 26.198003768921 38.097000122070 103 103 103
20.895158767700 26.198003768921 38.171001434326 116 116 116
20.895158767700 26.198003768921 38.241001129150 116 116 116
20.895158767700 26.198003768921 38.314998626709 103 103 103
20.902452468872 26.286090850830 37.751998901367 135 135 135
20.902452468872 26.286090850830 37.825000762939 134 134 134
20.902452468872 26.286090850830 37.895999908447 128 128 128
20.902452468872 26.286090850830 37.964000701904 50 50 50
20.902452468872 26.286090850830 38.187999725342 123 123 123
20.902452468872 26.286090850830 38.262001037598 115 115 115
20.902452468872 26.286090850830 38.333000183105 115 115 115
20.909753799438 26.374176025391 37.694000244141 146 146 146
20.909753799438 26.374176025391 37.765998840332 135 135 135
20.909753799438 26.374176025391 37.840000152588 132 132 132
20.909753799438 26.374176025391 38.281002044678 121 121 121
20.909753799438 26.374176025391 38.355998992920 118 118 118
20.909753799438 26.374176025391 38.429000854492 113 113 113
20.876661300659 26.509956359863 37.777000427246 113 113 113
20.876661300659 26.509956359863 38.298999786377 98 98 98
20.876661300659 26.509956359863 38.373001098633 91 91 91
20.972043991089 26.590744018555 37.267002105713 92 92 92
20.972043991089 26.590744018555 37.340999603271 80 80 80
20.855264663696 25.181360244751 37.290000915527 43 43 43
20.862562179565 25.269447326660 37.145000457764 93 93 93
20.869859695435 25.357532501221 37.000000000000 43 43 43
20.869859695435 25.357532501221 37.071998596191 37 37 37
20.869859695435 25.357532501221 37.216999053955 103 103 103
20.869859695435 25.357532501221 37.289001464844 92 92 92
20.998338699341 25.302541732788 37.784999847412 125 125 125
20.998338699341 25.302541732788 38.358001708984 90 90 90
21.005640029907 25.390628814697 37.645999908447 91 91 91
21.005640029907 25.390628814697 37.719001770020 183 183 183
21.005640029907 25.390628814697 37.791000366211 181 181 181
21.005640029907 25.390628814697 37.863998413086 112 112 112
21.005640029907 25.390628814697 38.296001434326 188 188 188
21.005640029907 25.390628814697 38.369998931885 189 189 189
21.005640029907 25.390628814697 38.444999694824 155 155 155
20.965246200562 25.438320159912 37.651000976563 59 59 59
20.965246200562 25.438320159912 37.723999023438 184 184 184
20.965246200562 25.438320159912 37.796001434326 180 180 180
20.965246200562 25.438320159912 37.868000030518 181 181 181
20.965246200562 25.438320159912 38.233001708984 132 132 132
20.965246200562 25.438320159912 38.307998657227 185 185 185
20.965246200562 25.438320159912 38.381999969482 184 184 184
20.965246200562 25.438320159912 38.453998565674 178 178 178
20.884458541870 25.533706665039 37.068000793457 115 115 115
20.884458541870 25.533706665039 37.142002105713 107 107 107
20.884458541870 25.533706665039 37.215999603271 99 99 99
20.972543716431 25.526407241821 37.289001464844 108 108 108
20.972543716431 25.526407241821 37.727001190186 185 185 185
20.972543716431 25.526407241821 37.799999237061 180 180 180
20.972543716431 25.526407241821 37.874000549316 185 185 185
20.972543716431 25.526407241821 37.948001861572 57 57 57
21.012941360474 25.478713989258 38.241001129150 185 185 185
21.012941360474 25.478713989258 38.316001892090 188 188 188
21.012941360474 25.478713989258 38.390998840332 190 190 190
20.891756057739 25.621791839600 37.066001892090 104 104 104
20.891756057739 25.621791839600 37.215999603271 103 103 103
20.891756057739 25.621791839600 37.291000366211 102 102 102
20.972543716431 25.526407241821 37.731998443604 83 83 83
20.972543716431 25.526407241821 37.805999755859 184 184 184
20.972543716431 25.526407241821 37.880001068115 181 181 181
20.972543716431 25.526407241821 37.953998565674 181 181 181
20.972543716431 25.526407241821 38.177001953125 186 186 186
20.972543716431 25.526407241821 38.251998901367 189 189 189
20.972543716431 25.526407241821 38.326999664307 183 183 183
20.972543716431 25.526407241821 38.402000427246 74 74 74
20.891756057739 25.621791839600 37.140998840332 118 118 118
20.979845046997 25.614494323730 37.216999053955 112 112 112
20.891756057739 25.621791839600 37.291999816895 101 101 101
20.979845046997 25.614494323730 37.812000274658 187 187 187
20.979845046997 25.614494323730 37.888000488281 181 181 181
20.979845046997 25.614494323730 37.962001800537 183 183 183
20.979845046997 25.614494323730 38.111000061035 103 103 103
20.979845046997 25.614494323730 38.186000823975 181 181 181
20.979845046997 25.614494323730 38.263000488281 185 185 185
20.979845046997 25.614494323730 38.335998535156 180 180 180
21.115625381470 25.647588729858 35.101001739502 122 122 122
21.115625381470 25.647588729858 35.189998626709 114 114 114
20.946748733521 25.750272750854 37.215999603271 120 120 120
20.987142562866 25.702579498291 37.816001892090 122 122 122
20.946748733521 25.750272750854 37.892002105713 184 184 184
20.946748733521 25.750272750854 37.967998504639 183 183 183
20.946748733521 25.750272750854 38.043998718262 136 136 136
20.987142562866 25.702579498291 38.118999481201 187 187 187
20.987142562866 25.702579498291 38.194000244141 188 188 188
20.987142562866 25.702579498291 38.270999908447 184 184 184
20.946748733521 25.750272750854 37.215000152588 112 112 112
20.946748733521 25.750272750854 37.899002075195 184 184 184
20.946748733521 25.750272750854 37.974998474121 185 185 185
20.946748733521 25.750272750854 38.049999237061 189 189 189
20.946748733521 25.750272750854 38.126998901367 188 188 188
20.946748733521 25.750272750854 38.203998565674 185 185 185
20.946748733521 25.750272750854 38.279998779297 127 127 127
21.082529067993 25.783367156982 35.038002014160 133 133 133
20.913652420044 25.886051177979 35.324001312256 31 31 31
20.954050064087 25.838359832764 35.408000946045 23 23 23
20.954050064087 25.838359832764 37.139999389648 78 78 78
20.954050064087 25.838359832764 37.215999603271 117 117 117
20.954050064087 25.838359832764 37.904998779297 177 177 177
20.954050064087 25.838359832764 37.981998443604 188 188 188
20.954050064087 25.838359832764 38.057998657227 188 188 188
20.954050064087 25.838359832764 38.137001037598 190 190 190
20.954050064087 25.838359832764 38.213001251221 186 186 186
21.001741409302 25.878753662109 35.250999450684 127 127 127
21.001741409302 25.878753662109 35.332000732422 126 126 126
21.001741409302 25.878753662109 35.418998718262 127 127 127
21.001741409302 25.878753662109 35.498001098633 132 132 132
21.001741409302 25.878753662109 35.578998565674 137 137 137
21.001741409302 25.878753662109 35.659999847412 135 135 135
21.001741409302 25.878753662109 35.738998413086 144 144 144
21.001741409302 25.878753662109 35.819999694824 136 136 136
21.001741409302 25.878753662109 35.899002075195 140 140 140
21.001741409302 25.878753662109 35.979000091553 143 143 143
21.001741409302 25.878753662109 36.059001922607 148 148 148
21.001741409302 25.878753662109 36.138000488281 146 146 146
21.001741409302 25.878753662109 36.215999603271 150 150 150
21.001741409302 25.878753662109 36.292999267578 165 165 165
21.001741409302 25.878753662109 36.369998931885 158 158 158
21.001741409302 25.878753662109 36.449001312256 159 159 159
21.001741409302 25.878753662109 36.525001525879 162 162 162
21.001741409302 25.878753662109 36.603000640869 166 166 166
21.001741409302 25.878753662109 36.680999755859 168 168 168
21.001741409302 25.878753662109 36.756999969482 180 180 180
21.001741409302 25.878753662109 36.833999633789 166 166 166
21.001741409302 25.878753662109 36.909999847412 181 181 181
21.001741409302 25.878753662109 36.986999511719 186 186 186
21.001741409302 25.878753662109 37.063999176025 187 187 187
21.001741409302 25.878753662109 37.140998840332 132 132 132
21.001741409302 25.878753662109 37.216999053955 182 182 182
21.001741409302 25.878753662109 37.292999267578 125 125 125
21.001741409302 25.878753662109 37.369998931885 197 197 197
21.001741409302 25.878753662109 37.446998596191 190 190 190
21.001741409302 25.878753662109 37.524002075195 189 189 189
21.001741409302 25.878753662109 37.599998474121 186 186 186
21.001741409302 25.878753662109 37.677001953125 187 187 187
21.001741409302 25.878753662109 37.754001617432 185 185 185
21.001741409302 25.878753662109 37.831001281738 176 176 176
21.001741409302 25.878753662109 37.909000396729 172 172 172
21.001741409302 25.878753662109 37.985000610352 185 185 185
21.001741409302 25.878753662109 38.063999176025 184 184 184
21.001741409302 25.878753662109 38.140998840332 181 181 181
21.001741409302 25.878753662109 38.220001220703 164 164 164
21.001741409302 25.878753662109 38.296001434326 158 158 158
21.001741409302 25.878753662109 38.375999450684 153 153 153
21.001741409302 25.878753662109 38.451999664307 91 91 91
21.137521743774 25.911848068237 35.263000488281 138 138 138
21.049432754517 25.919147491455 35.333999633789 135 135 135
21.049432754517 25.919147491455 35.416000366211 151 151 151
21.049432754517 25.919147491455 35.500000000000 156 156 156
21.049432754517 25.919147491455 35.578998565674 172 172 172
21.049432754517 25.919147491455 35.661998748779 175 175 175
21.049432754517 25.919147491455 35.742000579834 177 177 177
21.049432754517 25.919147491455 35.823001861572 180 180 180
21.137521743774 25.911848068237 35.903999328613 181 181 181
21.137521743774 25.911848068237 35.983001708984 183 183 183
21.137521743774 25.911848068237 36.062999725342 185 185 185
21.137521743774 25.911848068237 36.139999389648 190 190 190
21.137521743774 25.911848068237 36.219001770020 189 189 189
21.137521743774 25.911848068237 36.296001434326 191 191 191
21.137521743774 25.911848068237 36.375000000000 194 194 194
21.137521743774 25.911848068237 36.451999664307 196 196 196
21.137521743774 25.911848068237 36.529998779297 197 197 197
21.137521743774 25.911848068237 36.606998443604 198 198 198
21.137521743774 25.911848068237 36.684001922607 198 198 198
21.137521743774 25.911848068237 36.760002136230 198 198 198
21.137521743774 25.911848068237 36.837001800537 200 200 200
21.137521743774 25.911848068237 36.913002014160 203 203 203
21.137521743774 25.911848068237 36.988998413086 202 202 202
21.137521743774 25.911848068237 37.066001892090 206 206 206
21.137521743774 25.911848068237 37.142002105713 217 217 217
21.137521743774 25.911848068237 37.217998504639 237 237 237
21.137521743774 25.911848068237 37.293998718262 255 255 255
21.089826583862 25.871454238892 37.369998931885 255 255 255
21.137521743774 25.911848068237 37.445999145508 235 235 235
21.137521743774 25.911848068237 37.521999359131 217 217 217
21.137521743774 25.911848068237 37.597999572754 205 205 205
21.137521743774 25.911848068237 37.673999786377 201 201 201
21.137521743774 25.911848068237 37.750000000000 198 198 198
21.137521743774 25.911848068237 37.826999664307 199 199 199
21.137521743774 25.911848068237 37.903999328613 199 199 199
21.137521743774 25.911848068237 37.979999542236 196 196 196
21.137521743774 25.911848068237 38.056999206543 196 196 196
21.137521743774 25.911848068237 38.133998870850 194 194 194
21.137521743774 25.911848068237 38.210998535156 193 193 193
21.137521743774 25.911848068237 38.289001464844 193 193 193
21.137521743774 25.911848068237 38.366001129150 188 188 188
21.137521743774 25.911848068237 38.444000244141 169 169 169
21.056734085083 26.007232666016 36.208000183105 21 21 21
21.056734085083 26.007232666016 36.289001464844 22 22 22
21.056734085083 26.007232666016 36.368000030518 24 24 24
21.056734085083 26.007232666016 36.448001861572 29 29 29
21.056734085083 26.007232666016 36.522998809814 30 30 30
21.056734085083 26.007232666016 36.599998474121 33 33 33
21.056734085083 26.007232666016 36.679000854492 39 39 39
21.056734085083 26.007232666016 36.757999420166 56 56 56
21.056734085083 26.007232666016 36.833999633789 50 50 50
21.056734085083 26.007232666016 36.910999298096 59 59 59
21.056734085083 26.007232666016 36.986999511719 52 52 52
21.056734085083 26.007232666016 37.063999176025 74 74 74
21.056734085083 26.007232666016 37.140998840332 83 83 83
21.056734085083 26.007232666016 37.217998504639 103 103 103
21.056734085083 26.007232666016 37.295001983643 103 103 103
21.056734085083 26.007232666016 37.373001098633 107 107 107
21.056734085083 26.007232666016 37.450000762939 105 105 105
21.056734085083 26.007232666016 37.525001525879 66 66 66
21.056734085083 26.007232666016 37.602001190186 67 67 67
21.056734085083 26.007232666016 37.678001403809 72 72 72
21.056734085083 26.007232666016 37.756000518799 68 68 68
21.056734085083 26.007232666016 37.832000732422 70 70 70
21.056734085083 26.007232666016 37.916999816895 134 134 134
21.056734085083 26.007232666016 37.996002197266 142 142 142
21.056734085083 26.007232666016 38.074001312256 143 143 143
21.056734085083 26.007232666016 38.151000976563 130 130 130
21.056734085083 26.007232666016 38.222999572754 105 105 105
21.097124099731 25.959541320801 38.298000335693 82 82 82
21.097124099731 25.959541320801 38.375999450684 82 82 82
21.097124099731 25.959541320801 38.453998565674 32 32 32
20.887857437134 26.109916687012 37.851001739502 122 122 122
20.975946426392 26.102619171143 37.930000305176 185 185 185
20.975946426392 26.102619171143 38.010002136230 183 183 183
20.887857437134 26.109916687012 38.090000152588 178 178 178
20.887857437134 26.109916687012 38.172000885010 184 184 184
20.887857437134 26.109916687012 38.251998901367 169 169 169
20.935548782349 26.150310516357 37.856998443604 185 185 185
20.935548782349 26.150310516357 37.937000274658 186 186 186
20.935548782349 26.150310516357 38.015998840332 185 185 185
20.935548782349 26.150310516357 38.097999572754 181 181 181
20.935548782349 26.150310516357 38.180000305176 175 175 175
20.935548782349 26.150310516357 38.262001037598 169 169 169
20.942850112915 26.238397598267 37.779998779297 138 138 138
20.942850112915 26.238397598267 37.861999511719 185 185 185
20.942850112915 26.238397598267 37.942001342773 179 179 179
20.942850112915 26.238397598267 38.022998809814 82 82 82
20.942850112915 26.238397598267 38.103000640869 70 70 70
20.895158767700 26.198003768921 38.187000274658 176 176 176
20.942850112915 26.238397598267 38.269001007080 170 170 170
20.895158767700 26.198003768921 38.353000640869 95 95 95
20.902452468872 26.286090850830 37.784000396729 185 185 185
20.902452468872 26.286090850830 37.866001129150 184 184 184
20.990541458130 26.278791427612 37.946998596191 184 184 184
20.902452468872 26.286090850830 38.195999145508 173 173 173
20.902452468872 26.286090850830 38.277000427246 169 169 169
20.902452468872 26.286090850830 38.361000061035 174 174 174
20.950147628784 26.326484680176 37.133998870850 113 113 113
20.950147628784 26.326484680176 37.297000885010 113 113 113
20.950147628784 26.326484680176 37.707000732422 150 150 150
20.950147628784 26.326484680176 37.789001464844 182 182 182
20.950147628784 26.326484680176 37.872001647949 179 179 179
20.950147628784 26.326484680176 37.952999114990 43 43 43
20.950147628784 26.326484680176 38.201999664307 159 159 159
20.950147628784 26.326484680176 38.286998748779 167 167 167
20.950147628784 26.326484680176 38.369998931885 170 170 170
20.909753799438 26.374176025391 37.712001800537 188 188 188
20.909753799438 26.374176025391 37.795001983643 184 184 184
20.909753799438 26.374176025391 37.878002166748 179 179 179
20.909753799438 26.374176025391 38.213001251221 34 34 34
20.909753799438 26.374176025391 38.296001434326 163 163 163
20.909753799438 26.374176025391 38.378002166748 168 168 168
20.909753799438 26.374176025391 38.465999603271 91 91 91
20.876661300659 26.509956359863 37.716999053955 192 192 192
20.876661300659 26.509956359863 37.800998687744 182 182 182
20.876661300659 26.509956359863 38.305999755859 175 175 175
20.876661300659 26.509956359863 38.389999389648 160 160 160
20.876661300659 26.509956359863 38.476001739502 104 104 104
20.924352645874 26.550350189209 37.805999755859 139 139 139
20.924352645874 26.550350189209 38.314998626709 129 129 129
21.019739151001 26.631137847900 37.220001220703 80 80 80
21.019739151001 26.631137847900 37.304000854492 95 95 95
21.019739151001 26.631137847900 37.388999938965 70 70 70
20.862562179565 25.269447326660 37.372001647949 140 140 140
20.862562179565 25.269447326660 37.156002044678 101 101 101
20.862562179565 25.269447326660 37.083999633789 68 68 68
20.884458541870 25.533706665039 37.304000854492 129 129 129
20.924852371216 25.486013412476 37.229999542236 153 153 153
20.924852371216 25.486013412476 37.156002044678 154 154 154
20.932153701782 25.574100494385 37.081001281738 135 135 135
21.005640029907 25.390628814697 38.465000152588 35 35 35
20.957948684692 25.350234985352 38.382999420166 64 64 64
20.957948684692 25.350234985352 38.310001373291 76 76 76
21.012941360474 25.478713989258 37.886001586914 85 85 85
21.005640029907 25.390628814697 37.804000854492 118 118 118
20.965246200562 25.438320159912 37.735000610352 111 111 111
21.005640029907 25.390628814697 37.659999847412 46 46 46
20.932153701782 25.574100494385 37.229999542236 122 122 122
20.913652420044 25.886051177979 35.978000640869 41 41 41
20.913652420044 25.886051177979 35.901000976563 69 69 69
20.913652420044 25.886051177979 35.817001342773 80 80 80
20.913652420044 25.886051177979 35.741001129150 93 93 93
20.913652420044 25.886051177979 35.657001495361 99 99 99
20.913652420044 25.886051177979 35.576999664307 106 106 106
20.961343765259 25.926445007324 35.479999542236 192 192 192
20.913652420044 25.886051177979 35.399002075195 164 164 164
20.913652420044 25.886051177979 35.318000793457 155 155 155
20.913652420044 25.886051177979 35.233001708984 152 152 152
20.913652420044 25.886051177979 35.145999908447 149 149 149
20.913652420044 25.886051177979 35.067001342773 133 133 133
21.020235061646 25.566801071167 38.351001739502 62 62 62
20.987142562866 25.702579498291 38.285999298096 95 95 95
20.946748733521 25.750272750854 38.217998504639 119 119 119
20.994440078735 25.790666580200 38.145999908447 146 146 146
20.954050064087 25.838359832764 38.076000213623 151 151 151
20.954050064087 25.838359832764 38.000000000000 166 166 166
21.001741409302 25.878753662109 37.923999786377 155 155 155
20.913652420044 25.886051177979 37.848999023438 149 149 149
20.961343765259 25.926445007324 37.771999359131 169 169 169
20.961343765259 25.926445007324 37.694000244141 184 184 184
20.961343765259 25.926445007324 37.617000579834 197 197 197
20.961343765259 25.926445007324 37.540000915527 209 209 209
20.961343765259 25.926445007324 37.462001800537 221 221 221
20.961343765259 25.926445007324 37.385002136230 233 233 233
20.961343765259 25.926445007324 37.307998657227 221 221 221
20.961343765259 25.926445007324 37.230998992920 255 255 255
20.961343765259 25.926445007324 37.152999877930 224 224 224
20.961343765259 25.926445007324 37.076000213623 230 230 230
20.961343765259 25.926445007324 36.999000549316 226 226 226
21.001741409302 25.878753662109 36.922000885010 213 213 213
20.961343765259 25.926445007324 36.844001770020 204 204 204
20.961343765259 25.926445007324 36.767002105713 197 197 197
20.961343765259 25.926445007324 36.688999176025 190 190 190
20.961343765259 25.926445007324 36.611000061035 195 195 195
20.961343765259 25.926445007324 36.534000396729 193 193 193
20.961343765259 25.926445007324 36.455001831055 186 186 186
