14.703125000000 11.250000000000 56.753021240234 176 176 176
14.625000000000 11.312500000000 56.778015136719 185 185 185
14.546875000000 11.375000000000 56.792022705078 179 179 179
14.468750000000 11.375000000000 56.804016113281 187 187 187
14.421875000000 11.437500000000 56.811004638672 187 187 187
14.468750000000 11.375000000000 56.710021972656 176 176 176
14.437500000000 11.437500000000 56.689025878906 168 168 168
14.390625000000 11.437500000000 56.682006835938 167 167 167
14.343750000000 11.500000000000 56.678009033203 169 169 169
14.312500000000 11.500000000000 56.662017822266 156 156 156
14.234375000000 11.562500000000 56.679016113281 168 168 168
14.187500000000 11.625000000000 56.692016601563 165 165 165
14.171875000000 11.625000000000 56.672027587891 155 155 155
14.109375000000 11.625000000000 56.675018310547 152 152 152
14.078125000000 11.625000000000 56.667999267578 165 165 165
14.046875000000 11.625000000000 56.647003173828 148 148 148
14.000000000000 11.687500000000 56.646026611328 145 145 145
13.984375000000 11.687500000000 56.629028320313 147 147 147
13.937500000000 11.750000000000 56.637023925781 143 143 143
13.875000000000 11.812500000000 56.656005859375 140 140 140
13.859375000000 11.812500000000 56.636016845703 150 150 150
13.796875000000 11.875000000000 56.649017333984 149 149 149
13.765625000000 11.812500000000 56.656005859375 154 154 154
13.718750000000 11.875000000000 56.654022216797 127 127 127
13.687500000000 11.875000000000 56.648010253906 141 141 141
13.625000000000 11.937500000000 56.689025878906 143 143 143
13.593750000000 11.937500000000 56.689025878906 145 145 145
13.546875000000 12.000000000000 56.694000244141 135 135 135
13.531250000000 12.000000000000 56.669006347656 145 145 145
13.484375000000 12.062500000000 56.696014404297 132 132 132
13.453125000000 12.062500000000 56.715026855469 145 145 145
13.437500000000 12.000000000000 56.686004638672 147 147 147
13.390625000000 12.062500000000 56.693023681641 155 155 155
13.359375000000 12.062500000000 56.698028564453 147 147 147
13.328125000000 12.125000000000 56.680023193359 133 133 133
13.312500000000 12.125000000000 56.685028076172 143 143 143
13.281250000000 12.125000000000 56.685028076172 144 144 144
13.250000000000 12.187500000000 56.670013427734 138 138 138
13.203125000000 12.187500000000 56.695007324219 135 135 135
13.171875000000 12.250000000000 56.684020996094 152 152 152
13.156250000000 12.250000000000 56.663024902344 160 160 160
13.109375000000 12.250000000000 56.712005615234 162 162 162
13.078125000000 12.250000000000 56.719024658203 166 166 166
13.046875000000 12.250000000000 56.720001220703 166 166 166
13.015625000000 12.312500000000 56.736999511719 164 164 164
18.765625000000 9.000000000000 56.921020507813 174 174 174
18.421875000000 9.187500000000 56.941009521484 172 172 172
18.171875000000 9.312500000000 56.950012207031 179 179 179
17.937500000000 9.437500000000 56.948028564453 181 181 181
17.796875000000 9.562500000000 56.916015625000 177 177 177
17.593750000000 9.625000000000 56.914001464844 168 168 168
17.453125000000 9.750000000000 56.893005371094 171 171 171
17.234375000000 9.875000000000 56.915008544922 192 192 192
17.156250000000 9.937500000000 56.872009277344 180 180 180
17.046875000000 10.000000000000 56.845001220703 182 182 182
16.921875000000 10.062500000000 56.832000732422 177 177 177
16.843750000000 10.125000000000 56.795013427734 175 175 175
16.734375000000 10.187500000000 56.779998779297 174 174 174
16.609375000000 10.312500000000 56.768005371094 160 160 160
16.500000000000 10.312500000000 56.764007568359 178 178 178
16.406250000000 10.437500000000 56.740020751953 165 165 165
16.312500000000 10.500000000000 56.728027343750 156 156 156
16.187500000000 10.500000000000 56.734008789063 149 149 149
16.062500000000 10.625000000000 56.726013183594 172 172 172
15.968750000000 10.687500000000 56.733001708984 172 172 172
15.859375000000 10.687500000000 56.739013671875 153 153 153
15.734375000000 10.750000000000 56.758026123047 163 163 163
15.640625000000 10.812500000000 56.765014648438 152 152 152
15.546875000000 10.875000000000 56.765014648438 150 150 150
15.484375000000 10.875000000000 56.759002685547 153 153 153
15.406250000000 10.937500000000 56.743011474609 169 169 169
15.328125000000 11.000000000000 56.747009277344 163 163 163
15.218750000000 11.062500000000 56.761016845703 151 151 151
15.171875000000 11.125000000000 56.734008789063 167 167 167
15.109375000000 11.125000000000 56.725006103516 151 151 151
15.046875000000 11.187500000000 56.732025146484 168 168 168
14.953125000000 11.250000000000 56.758026123047 173 173 173
14.875000000000 11.312500000000 56.763000488281 170 170 170
14.859375000000 11.312500000000 56.723022460938 175 175 175
14.828125000000 11.375000000000 56.694000244141 164 164 164
14.781250000000 11.312500000000 56.684020996094 173 173 173
14.703125000000 11.375000000000 56.687011718750 180 180 180
14.640625000000 11.437500000000 56.691009521484 170 170 170
14.609375000000 11.437500000000 56.670013427734 167 167 167
14.546875000000 11.500000000000 56.698028564453 166 166 166
14.468750000000 11.500000000000 56.717010498047 170 170 170
14.421875000000 11.562500000000 56.690002441406 184 184 184
14.390625000000 11.562500000000 56.682006835938 151 151 151
14.328125000000 11.625000000000 56.689025878906 165 165 165
14.281250000000 11.625000000000 56.694000244141 190 190 190
14.234375000000 11.687500000000 56.680999755859 184 184 184
14.203125000000 11.687500000000 56.669006347656 174 174 174
14.156250000000 11.750000000000 56.673004150391 177 177 177
14.125000000000 11.750000000000 56.672027587891 165 165 165
14.109375000000 11.750000000000 56.641998291016 155 155 155
14.078125000000 11.750000000000 56.636016845703 142 142 142
14.015625000000 11.812500000000 56.645019531250 131 131 131
13.984375000000 11.812500000000 56.633026123047 144 144 144
13.921875000000 11.875000000000 56.646026611328 137 137 137
13.906250000000 11.875000000000 56.629028320313 146 146 146
13.843750000000 11.937500000000 56.636016845703 142 142 142
13.796875000000 12.000000000000 56.640014648438 142 142 142
13.765625000000 12.000000000000 56.639007568359 151 151 151
13.703125000000 12.000000000000 56.656005859375 140 140 140
13.671875000000 12.000000000000 56.658020019531 129 129 129
13.640625000000 12.062500000000 56.667999267578 172 172 172
13.609375000000 12.062500000000 56.654998779297 133 133 133
13.562500000000 12.125000000000 56.679016113281 144 144 144
13.515625000000 12.125000000000 56.694000244141 146 146 146
13.468750000000 12.187500000000 56.717010498047 155 155 155
13.437500000000 12.187500000000 56.705017089844 158 158 158
13.421875000000 12.187500000000 56.704010009766 138 138 138
13.375000000000 12.187500000000 56.708007812500 143 143 143
13.343750000000 12.187500000000 56.714019775391 149 149 149
13.312500000000 12.250000000000 56.694000244141 139 139 139
13.296875000000 12.250000000000 56.708007812500 142 142 142
13.265625000000 12.250000000000 56.705017089844 165 165 165
13.218750000000 12.312500000000 56.726013183594 145 145 145
13.203125000000 12.312500000000 56.710021972656 176 176 176
13.171875000000 12.375000000000 56.712005615234 164 164 164
13.140625000000 12.375000000000 56.710021972656 166 166 166
13.125000000000 12.375000000000 56.718017578125 171 171 171
13.078125000000 12.437500000000 56.715026855469 169 169 169
13.062500000000 12.375000000000 56.706024169922 142 142 142
13.031250000000 12.375000000000 56.710021972656 141 141 141
18.750000000000 9.125000000000 56.924011230469 173 173 173
18.390625000000 9.312500000000 56.956024169922 185 185 185
18.250000000000 9.375000000000 56.920013427734 182 182 182
17.937500000000 9.562500000000 56.946014404297 176 176 176
17.703125000000 9.750000000000 56.945007324219 174 174 174
17.562500000000 9.812500000000 56.928009033203 175 175 175
17.328125000000 10.000000000000 56.946014404297 193 193 193
17.234375000000 10.000000000000 56.906005859375 184 184 184
17.093750000000 10.125000000000 56.899017333984 189 189 189
17.000000000000 10.187500000000 56.863006591797 172 172 172
16.984375000000 10.187500000000 56.800018310547 178 178 178
16.859375000000 10.250000000000 56.775024414063 175 175 175
16.750000000000 10.312500000000 56.758026123047 173 173 173
16.593750000000 10.437500000000 56.788024902344 175 175 175
16.546875000000 10.500000000000 56.732025146484 166 166 166
16.453125000000 10.500000000000 56.716003417969 157 157 157
16.312500000000 10.625000000000 56.720001220703 157 157 157
16.187500000000 10.625000000000 56.730010986328 162 162 162
16.093750000000 10.687500000000 56.722015380859 134 134 134
15.953125000000 10.750000000000 56.738006591797 152 152 152
15.828125000000 10.875000000000 56.745025634766 149 149 149
15.734375000000 10.875000000000 56.755004882813 156 156 156
15.656250000000 10.937500000000 56.760009765625 151 151 151
15.546875000000 11.000000000000 56.766021728516 152 152 152
15.484375000000 11.000000000000 56.750000000000 143 143 143
15.359375000000 11.125000000000 56.770019531250 171 171 171
15.328125000000 11.125000000000 56.736022949219 163 163 163
15.250000000000 11.187500000000 56.729003906250 183 183 183
15.171875000000 11.250000000000 56.752014160156 176 176 176
15.109375000000 11.250000000000 56.731018066406 170 170 170
15.046875000000 11.312500000000 56.725006103516 151 151 151
14.984375000000 11.312500000000 56.722015380859 187 187 187
14.937500000000 11.375000000000 56.720001220703 174 174 174
14.812500000000 11.500000000000 56.752014160156 173 173 173
14.765625000000 11.437500000000 56.742004394531 180 180 180
14.734375000000 11.500000000000 56.726013183594 176 176 176
14.703125000000 11.500000000000 56.710021972656 179 179 179
14.625000000000 11.562500000000 56.716003417969 196 196 196
14.562500000000 11.625000000000 56.713012695313 181 181 181
14.531250000000 11.625000000000 56.708007812500 192 192 192
14.468750000000 11.687500000000 56.709014892578 184 184 184
14.406250000000 11.687500000000 56.714019775391 175 175 175
14.328125000000 11.750000000000 56.731018066406 182 182 182
14.312500000000 11.750000000000 56.705017089844 170 170 170
14.281250000000 11.750000000000 56.688018798828 182 182 182
14.234375000000 11.812500000000 56.680023193359 181 181 181
14.203125000000 11.812500000000 56.678009033203 175 175 175
14.156250000000 11.875000000000 56.659027099609 146 146 146
14.140625000000 11.875000000000 56.654998779297 136 136 136
14.093750000000 11.875000000000 56.651000976563 156 156 156
14.062500000000 11.875000000000 56.636016845703 143 143 143
14.000000000000 11.937500000000 56.645019531250 156 156 156
13.968750000000 11.937500000000 56.644012451172 155 155 155
13.921875000000 12.000000000000 56.641021728516 133 133 133
13.875000000000 12.062500000000 56.643005371094 146 146 146
13.843750000000 12.062500000000 56.620025634766 134 134 134
13.796875000000 12.125000000000 56.650024414063 155 155 155
13.781250000000 12.125000000000 56.633026123047 141 141 141
13.703125000000 12.125000000000 56.667022705078 147 147 147
13.656250000000 12.125000000000 56.697021484375 155 155 155
13.609375000000 12.187500000000 56.704010009766 163 163 163
13.593750000000 12.187500000000 56.700012207031 157 157 157
13.546875000000 12.250000000000 56.688018798828 151 151 151
13.515625000000 12.250000000000 56.682006835938 158 158 158
13.468750000000 12.312500000000 56.696014404297 150 150 150
13.437500000000 12.312500000000 56.698028564453 151 151 151
13.406250000000 12.312500000000 56.700012207031 167 167 167
13.375000000000 12.375000000000 56.702026367188 142 142 142
13.343750000000 12.312500000000 56.706024169922 146 146 146
13.312500000000 12.375000000000 56.697021484375 136 136 136
13.296875000000 12.375000000000 56.692016601563 139 139 139
13.281250000000 12.375000000000 56.694000244141 162 162 162
13.234375000000 12.437500000000 56.714019775391 147 147 147
13.218750000000 12.437500000000 56.691009521484 162 162 162
13.171875000000 12.500000000000 56.715026855469 148 148 148
13.140625000000 12.500000000000 56.700012207031 125 125 125
13.125000000000 12.500000000000 56.697021484375 162 162 162
13.078125000000 12.562500000000 56.698028564453 169 169 169
13.062500000000 12.562500000000 56.656005859375 153 153 153
13.046875000000 12.562500000000 56.677001953125 150 150 150
19.046875000000 9.062500000000 57.024017333984 180 180 180
18.906250000000 9.125000000000 56.963012695313 185 185 185
18.656250000000 9.312500000000 56.954010009766 180 180 180
18.375000000000 9.437500000000 56.957000732422 180 180 180
18.109375000000 9.625000000000 56.968017578125 185 185 185
17.921875000000 9.750000000000 56.946014404297 176 176 176
17.734375000000 9.875000000000 56.937011718750 176 176 176
17.640625000000 9.937500000000 56.891021728516 178 178 178
17.546875000000 9.937500000000 56.846008300781 175 175 175
17.453125000000 10.000000000000 56.809020996094 177 177 177
17.250000000000 10.187500000000 56.828002929688 187 187 187
17.125000000000 10.187500000000 56.804016113281 171 171 171
17.015625000000 10.312500000000 56.776000976563 171 171 171
16.609375000000 10.562500000000 56.899017333984 205 205 205
16.640625000000 10.500000000000 56.820007324219 186 186 186
16.609375000000 10.562500000000 56.762023925781 178 178 178
16.531250000000 10.625000000000 56.736022949219 171 171 171
16.437500000000 10.625000000000 56.716003417969 159 159 159
16.312500000000 10.750000000000 56.717010498047 146 146 146
16.203125000000 10.812500000000 56.723022460938 160 160 160
16.046875000000 10.812500000000 56.738006591797 180 180 180
15.937500000000 10.875000000000 56.746002197266 166 166 166
15.812500000000 11.000000000000 56.764007568359 151 151 151
15.718750000000 11.000000000000 56.773010253906 176 176 176
15.640625000000 11.062500000000 56.758026123047 152 152 152
15.562500000000 11.125000000000 56.747009277344 154 154 154
15.500000000000 11.187500000000 56.726013183594 140 140 140
15.421875000000 11.187500000000 56.719024658203 168 168 168
15.328125000000 11.250000000000 56.740020751953 175 175 175
15.265625000000 11.312500000000 56.728027343750 168 168 168
15.203125000000 11.375000000000 56.715026855469 167 167 167
15.109375000000 11.375000000000 56.719024658203 169 169 169
15.031250000000 11.437500000000 56.725006103516 173 173 173
14.984375000000 11.437500000000 56.719024658203 178 178 178
14.906250000000 11.500000000000 56.732025146484 173 173 173
14.875000000000 11.562500000000 56.719024658203 169 169 169
14.796875000000 11.625000000000 56.719024658203 169 169 169
14.734375000000 11.625000000000 56.727020263672 193 193 193
14.640625000000 11.687500000000 56.747009277344 184 184 184
14.593750000000 11.687500000000 56.744018554688 187 187 187
14.546875000000 11.750000000000 56.739013671875 190 190 190
14.484375000000 11.812500000000 56.731018066406 182 182 182
14.437500000000 11.812500000000 56.735015869141 184 184 184
14.406250000000 11.875000000000 56.719024658203 183 183 183
14.359375000000 11.812500000000 56.712005615234 176 176 176
14.328125000000 11.875000000000 56.696014404297 172 172 172
14.281250000000 11.875000000000 56.688018798828 178 178 178
14.234375000000 11.937500000000 56.680999755859 153 153 153
14.203125000000 11.937500000000 56.676025390625 152 152 152
14.156250000000 12.000000000000 56.664001464844 143 143 143
14.093750000000 12.062500000000 56.666015625000 162 162 162
14.078125000000 12.062500000000 56.657012939453 152 152 152
14.031250000000 12.062500000000 56.656005859375 164 164 164
14.000000000000 12.062500000000 56.641021728516 139 139 139
13.968750000000 12.062500000000 56.624023437500 139 139 139
13.921875000000 12.125000000000 56.648010253906 141 141 141
13.859375000000 12.187500000000 56.676025390625 144 144 144
13.812500000000 12.187500000000 56.698028564453 148 148 148
13.765625000000 12.250000000000 56.703002929688 136 136 136
13.718750000000 12.312500000000 56.709014892578 154 154 154
13.687500000000 12.250000000000 56.694000244141 151 151 151
13.656250000000 12.250000000000 56.708007812500 145 145 145
13.593750000000 12.312500000000 56.717010498047 155 155 155
13.578125000000 12.312500000000 56.720001220703 148 148 148
13.531250000000 12.375000000000 56.713012695313 150 150 150
13.515625000000 12.375000000000 56.686004638672 141 141 141
13.484375000000 12.437500000000 56.694000244141 153 153 153
13.453125000000 12.437500000000 56.702026367188 146 146 146
13.421875000000 12.437500000000 56.703002929688 147 147 147
13.390625000000 12.500000000000 56.683013916016 146 146 146
13.359375000000 12.500000000000 56.680999755859 151 151 151
13.328125000000 12.437500000000 56.674011230469 146 146 146
13.281250000000 12.500000000000 56.685028076172 143 143 143
13.265625000000 12.500000000000 56.693023681641 141 141 141
13.234375000000 12.562500000000 56.675018310547 157 157 157
13.218750000000 12.562500000000 56.661010742188 155 155 155
13.187500000000 12.562500000000 56.656005859375 140 140 140
13.140625000000 12.625000000000 56.675018310547 145 145 145
13.125000000000 12.625000000000 56.644012451172 153 153 153
13.078125000000 12.687500000000 56.679016113281 137 137 137
13.062500000000 12.687500000000 56.671020507813 150 150 150
13.031250000000 12.687500000000 56.675018310547 150 150 150
13.015625000000 12.750000000000 56.653015136719 153 153 153
19.375000000000 9.000000000000 56.910003662109 179 179 179
18.984375000000 9.250000000000 56.938018798828 178 178 178
18.562500000000 9.437500000000 56.978027343750 183 183 183
18.375000000000 9.562500000000 56.953002929688 197 197 197
18.171875000000 9.687500000000 56.939025878906 155 155 155
17.937500000000 9.875000000000 56.939025878906 178 178 178
17.828125000000 9.875000000000 56.902008056641 170 170 170
17.781250000000 9.937500000000 56.835021972656 179 179 179
17.625000000000 10.062500000000 56.813018798828 165 165 165
17.453125000000 10.125000000000 56.800018310547 170 170 170
17.296875000000 10.250000000000 56.804016113281 179 179 179
17.125000000000 10.312500000000 56.805023193359 186 186 186
17.062500000000 10.375000000000 56.753021240234 174 174 174
16.765625000000 10.562500000000 56.826019287109 189 189 189
16.718750000000 10.562500000000 56.777008056641 172 172 172
16.656250000000 10.625000000000 56.734008789063 161 161 161
16.578125000000 10.687500000000 56.713012695313 176 176 176
16.390625000000 10.812500000000 56.747009277344 158 158 158
16.312500000000 10.812500000000 56.715026855469 149 149 149
16.187500000000 10.875000000000 56.725006103516 178 178 178
16.093750000000 10.875000000000 56.708007812500 178 178 178
15.968750000000 11.000000000000 56.723022460938 165 165 165
15.828125000000 11.125000000000 56.745025634766 146 146 146
15.734375000000 11.125000000000 56.756011962891 159 159 159
15.640625000000 11.187500000000 56.748016357422 162 162 162
15.578125000000 11.250000000000 56.731018066406 148 148 148
15.421875000000 11.312500000000 56.792999267578 168 168 168
15.390625000000 11.312500000000 56.753021240234 163 163 163
15.359375000000 11.375000000000 56.713012695313 164 164 164
15.281250000000 11.437500000000 56.709014892578 159 159 159
15.218750000000 11.437500000000 56.703002929688 166 166 166
15.109375000000 11.562500000000 56.717010498047 162 162 162
15.062500000000 11.500000000000 56.709014892578 141 141 141
15.000000000000 11.562500000000 56.709014892578 176 176 176
14.921875000000 11.625000000000 56.718017578125 186 186 186
14.859375000000 11.687500000000 56.715026855469 170 170 170
14.781250000000 11.750000000000 56.728027343750 179 179 179
14.703125000000 11.750000000000 56.742004394531 180 180 180
14.625000000000 11.812500000000 56.761016845703 166 166 166
14.562500000000 11.875000000000 56.776000976563 185 185 185
14.531250000000 11.875000000000 56.766021728516 179 179 179
14.468750000000 11.937500000000 56.771026611328 173 173 173
14.437500000000 11.937500000000 56.746002197266 159 159 159
14.375000000000 12.000000000000 56.740020751953 160 160 160
14.328125000000 12.000000000000 56.735015869141 152 152 152
14.312500000000 12.000000000000 56.706024169922 141 141 141
14.250000000000 12.062500000000 56.706024169922 167 167 167
14.218750000000 12.062500000000 56.689025878906 149 149 149
14.156250000000 12.125000000000 56.702026367188 138 138 138
14.109375000000 12.125000000000 56.719024658203 166 166 166
14.093750000000 12.187500000000 56.690002441406 138 138 138
14.078125000000 12.187500000000 56.676025390625 158 158 158
14.031250000000 12.250000000000 56.671020507813 158 158 158
13.984375000000 12.187500000000 56.690002441406 149 149 149
13.937500000000 12.250000000000 56.676025390625 144 144 144
13.906250000000 12.250000000000 56.682006835938 154 154 154
13.890625000000 12.250000000000 56.638000488281 150 150 150
13.828125000000 12.312500000000 56.666015625000 143 143 143
13.781250000000 12.375000000000 56.667999267578 150 150 150
13.734375000000 12.375000000000 56.688018798828 159 159 159
13.687500000000 12.437500000000 56.688018798828 157 157 157
13.656250000000 12.375000000000 56.676025390625 142 142 142
13.640625000000 12.437500000000 56.658020019531 157 157 157
13.609375000000 12.437500000000 56.665008544922 164 164 164
13.578125000000 12.437500000000 56.670013427734 150 150 150
13.531250000000 12.500000000000 56.665008544922 157 157 157
13.515625000000 12.500000000000 56.651000976563 155 155 155
13.453125000000 12.562500000000 56.664001464844 147 147 147
13.421875000000 12.562500000000 56.667999267578 136 136 136
13.375000000000 12.625000000000 56.677001953125 141 141 141
13.359375000000 12.625000000000 56.677001953125 157 157 157
13.343750000000 12.625000000000 56.654998779297 138 138 138
13.296875000000 12.625000000000 56.653015136719 144 144 144
13.265625000000 12.625000000000 56.679016113281 154 154 154
13.218750000000 12.687500000000 56.653015136719 149 149 149
13.218750000000 12.687500000000 56.627014160156 152 152 152
13.203125000000 12.687500000000 56.637023925781 166 166 166
13.171875000000 12.750000000000 56.628021240234 167 167 167
13.140625000000 12.750000000000 56.664001464844 156 156 156
13.109375000000 12.750000000000 56.652008056641 162 162 162
13.078125000000 12.812500000000 56.661010742188 163 163 163
13.046875000000 12.812500000000 56.662017822266 147 147 147
19.468750000000 9.062500000000 56.988006591797 190 190 190
19.250000000000 9.125000000000 56.954010009766 181 181 181
19.031250000000 9.312500000000 56.924011230469 185 185 185
18.625000000000 9.562500000000 56.958007812500 173 173 173
18.406250000000 9.687500000000 56.940002441406 183 183 183
18.109375000000 9.875000000000 56.955017089844 177 177 177
18.031250000000 9.937500000000 56.907012939453 171 171 171
17.906250000000 10.000000000000 56.871002197266 182 182 182
17.703125000000 10.125000000000 56.858001708984 179 179 179
17.578125000000 10.187500000000 56.828002929688 190 190 190
17.375000000000 10.312500000000 56.848022460938 180 180 180
17.203125000000 10.437500000000 56.843017578125 190 190 190
17.140625000000 10.437500000000 56.789001464844 174 174 174
17.171875000000 10.500000000000 56.694000244141 146 146 146
17.000000000000 10.562500000000 56.710998535156 162 162 162
16.812500000000 10.625000000000 56.723999023438 122 122 122
16.625000000000 10.750000000000 56.745025634766 179 179 179
16.578125000000 10.812500000000 56.708007812500 167 167 167
16.453125000000 10.875000000000 56.703002929688 167 167 167
16.296875000000 10.937500000000 56.722015380859 176 176 176
16.234375000000 10.937500000000 56.692016601563 151 151 151
16.140625000000 11.062500000000 56.682006835938 173 173 173
15.984375000000 11.125000000000 56.713012695313 151 151 151
15.796875000000 11.250000000000 56.764007568359 179 179 179
15.765625000000 11.250000000000 56.719024658203 151 151 151
15.671875000000 11.312500000000 56.732025146484 143 143 143
15.515625000000 11.437500000000 56.779998779297 171 171 171
15.546875000000 11.375000000000 56.706024169922 159 159 159
15.437500000000 11.500000000000 56.706024169922 162 162 162
15.375000000000 11.437500000000 56.702026367188 152 152 152
15.296875000000 11.500000000000 56.696014404297 159 159 159
15.203125000000 11.625000000000 56.707000732422 161 161 161
15.140625000000 11.625000000000 56.706024169922 171 171 171
15.078125000000 11.687500000000 56.696014404297 156 156 156
14.984375000000 11.687500000000 56.714019775391 173 173 173
14.906250000000 11.750000000000 56.720001220703 174 174 174
14.828125000000 11.812500000000 56.744018554688 187 187 187
14.750000000000 11.875000000000 56.754028320313 179 179 179
14.718750000000 11.937500000000 56.742004394531 165 165 165
14.640625000000 11.937500000000 56.752014160156 167 167 167
14.578125000000 12.000000000000 56.759002685547 168 168 168
14.531250000000 12.000000000000 56.757019042969 163 163 163
14.468750000000 12.062500000000 56.754028320313 158 158 158
14.437500000000 12.062500000000 56.746002197266 166 166 166
14.375000000000 12.125000000000 56.736022949219 155 155 155
14.328125000000 12.125000000000 56.732025146484 169 169 169
14.296875000000 12.125000000000 56.713012695313 145 145 145
14.265625000000 12.187500000000 56.710021972656 160 160 160
14.234375000000 12.187500000000 56.695007324219 149 149 149
14.171875000000 12.250000000000 56.704010009766 143 143 143
14.140625000000 12.250000000000 56.689025878906 162 162 162
14.093750000000 12.312500000000 56.682006835938 137 137 137
14.062500000000 12.312500000000 56.673004150391 153 153 153
14.031250000000 12.375000000000 56.660003662109 168 168 168
14.000000000000 12.375000000000 56.644012451172 149 149 149
13.984375000000 12.312500000000 56.625000000000 137 137 137
13.937500000000 12.375000000000 56.613006591797 136 136 136
13.906250000000 12.375000000000 56.592010498047 151 151 151
13.890625000000 12.375000000000 56.561004638672 147 147 147
13.812500000000 12.437500000000 56.634002685547 124 124 124
13.781250000000 12.500000000000 56.628021240234 142 142 142
13.750000000000 12.500000000000 56.613006591797 154 154 154
13.687500000000 12.562500000000 56.651000976563 167 167 167
13.656250000000 12.500000000000 56.643005371094 137 137 137
13.609375000000 12.562500000000 56.644012451172 157 157 157
13.578125000000 12.562500000000 56.641021728516 160 160 160
13.546875000000 12.625000000000 56.622009277344 139 139 139
13.500000000000 12.625000000000 56.653015136719 154 154 154
13.453125000000 12.687500000000 56.679016113281 130 130 130
13.437500000000 12.687500000000 56.652008056641 148 148 148
13.406250000000 12.687500000000 56.654022216797 140 140 140
13.359375000000 12.750000000000 56.665008544922 153 153 153
13.328125000000 12.750000000000 56.667022705078 148 148 148
13.296875000000 12.812500000000 56.672027587891 142 142 142
13.265625000000 12.750000000000 56.683013916016 132 132 132
13.250000000000 12.750000000000 56.644012451172 163 163 163
13.218750000000 12.812500000000 56.647003173828 150 150 150
13.203125000000 12.812500000000 56.659027099609 133 133 133
13.156250000000 12.875000000000 56.656005859375 149 149 149
13.109375000000 12.875000000000 56.715026855469 160 160 160
13.062500000000 12.937500000000 56.727020263672 166 166 166
13.046875000000 12.937500000000 56.721008300781 163 163 163
13.015625000000 12.937500000000 56.730010986328 162 162 162
19.625000000000 9.125000000000 56.943023681641 180 180 180
19.421875000000 9.187500000000 56.897003173828 175 175 175
19.000000000000 9.500000000000 56.933013916016 193 193 193
18.734375000000 9.625000000000 56.917999267578 166 166 166
18.281250000000 9.875000000000 56.982025146484 190 190 190
18.140625000000 9.937500000000 56.954010009766 169 169 169
18.078125000000 10.000000000000 56.889007568359 176 176 176
17.843750000000 10.187500000000 56.889007568359 182 182 182
17.703125000000 10.250000000000 56.861022949219 178 178 178
17.562500000000 10.375000000000 56.838012695313 178 178 178
17.562500000000 10.375000000000 56.754028320313 169 169 169
17.421875000000 10.375000000000 56.738006591797 172 172 172
17.343750000000 10.437500000000 56.692016601563 168 168 168
17.234375000000 10.562500000000 56.670013427734 162 162 162
16.968750000000 10.687500000000 56.720001220703 165 165 165
16.796875000000 10.812500000000 56.732025146484 177 177 177
16.750000000000 10.812500000000 56.682006835938 149 149 149
16.578125000000 10.875000000000 56.703002929688 171 171 171
16.296875000000 11.062500000000 56.799011230469 189 189 189
16.296875000000 11.062500000000 56.725006103516 174 174 174
16.109375000000 11.187500000000 56.768005371094 181 181 181
15.953125000000 11.250000000000 56.795013427734 175 175 175
15.937500000000 11.250000000000 56.741027832031 171 171 171
15.859375000000 11.312500000000 56.725006103516 146 146 146
15.765625000000 11.375000000000 56.731018066406 147 147 147
15.671875000000 11.437500000000 56.722015380859 156 156 156
15.625000000000 11.437500000000 56.713012695313 168 168 168
15.546875000000 11.500000000000 56.697021484375 158 158 158
15.468750000000 11.562500000000 56.691009521484 156 156 156
15.359375000000 11.625000000000 56.707000732422 174 174 174
15.296875000000 11.625000000000 56.700012207031 179 179 179
15.234375000000 11.687500000000 56.695007324219 172 172 172
15.156250000000 11.750000000000 56.693023681641 159 159 159
15.062500000000 11.812500000000 56.705017089844 176 176 176
15.000000000000 11.875000000000 56.696014404297 176 176 176
14.890625000000 11.875000000000 56.730010986328 165 165 165
14.812500000000 12.000000000000 56.768005371094 173 173 173
14.718750000000 12.062500000000 56.784027099609 180 180 180
14.687500000000 12.062500000000 56.766021728516 169 169 169
14.625000000000 12.062500000000 56.772003173828 181 181 181
14.562500000000 12.125000000000 56.762023925781 167 167 167
14.515625000000 12.125000000000 56.768005371094 173 173 173
14.453125000000 12.187500000000 56.768005371094 159 159 159
14.406250000000 12.250000000000 56.766021728516 164 164 164
14.390625000000 12.250000000000 56.742004394531 151 151 151
14.328125000000 12.312500000000 56.736022949219 158 158 158
14.312500000000 12.250000000000 56.713012695313 152 152 152
14.281250000000 12.250000000000 56.694000244141 152 152 152
14.234375000000 12.312500000000 56.673004150391 140 140 140
14.218750000000 12.312500000000 56.645019531250 145 145 145
14.156250000000 12.375000000000 56.662017822266 163 163 163
14.140625000000 12.375000000000 56.622009277344 164 164 164
14.093750000000 12.437500000000 56.615020751953 156 156 156
14.062500000000 12.437500000000 56.607025146484 151 151 151
14.046875000000 12.437500000000 56.573028564453 157 157 157
14.000000000000 12.500000000000 56.584014892578 152 152 152
13.968750000000 12.500000000000 56.566009521484 143 143 143
13.937500000000 12.500000000000 56.577026367188 135 135 135
13.875000000000 12.562500000000 56.590026855469 141 141 141
13.843750000000 12.562500000000 56.584014892578 147 147 147
13.765625000000 12.625000000000 56.628021240234 134 134 134
13.734375000000 12.625000000000 56.634002685547 133 133 133
13.687500000000 12.687500000000 56.635009765625 135 135 135
13.640625000000 12.687500000000 56.657012939453 140 140 140
13.593750000000 12.750000000000 56.657012939453 138 138 138
13.562500000000 12.687500000000 56.673004150391 146 146 146
13.515625000000 12.750000000000 56.678009033203 142 142 142
13.484375000000 12.750000000000 56.693023681641 156 156 156
13.453125000000 12.812500000000 56.680023193359 147 147 147
13.437500000000 12.812500000000 56.665008544922 152 152 152
13.375000000000 12.875000000000 56.706024169922 155 155 155
13.359375000000 12.875000000000 56.698028564453 155 155 155
13.312500000000 12.937500000000 56.698028564453 148 148 148
13.281250000000 12.937500000000 56.696014404297 151 151 151
13.265625000000 12.937500000000 56.693023681641 170 170 170
13.218750000000 12.937500000000 56.698028564453 169 169 169
13.187500000000 12.937500000000 56.701019287109 165 165 165
13.156250000000 13.000000000000 56.712005615234 168 168 168
13.140625000000 13.000000000000 56.713012695313 167 167 167
13.109375000000 13.000000000000 56.712005615234 166 166 166
13.093750000000 13.062500000000 56.707000732422 161 161 161
13.078125000000 13.062500000000 56.680023193359 153 153 153
13.046875000000 13.062500000000 56.680023193359 156 156 156
19.796875000000 9.125000000000 57.004028320313 189 189 189
19.500000000000 9.250000000000 56.873016357422 169 169 169
19.281250000000 9.437500000000 56.843017578125 141 141 141
18.687500000000 9.750000000000 56.941009521484 169 169 169
18.500000000000 9.875000000000 56.906005859375 159 159 159
18.265625000000 10.062500000000 56.903015136719 179 179 179
18.046875000000 10.187500000000 56.897003173828 199 199 199
17.890625000000 10.250000000000 56.869018554688 187 187 187
17.781250000000 10.312500000000 56.832000732422 159 159 159
17.625000000000 10.437500000000 56.808013916016 175 175 175
17.593750000000 10.437500000000 56.739013671875 184 184 184
17.500000000000 10.500000000000 56.704010009766 167 167 167
17.390625000000 10.562500000000 56.674011230469 175 175 175
17.281250000000 10.625000000000 56.649017333984 165 165 165
17.000000000000 10.812500000000 56.700012207031 187 187 187
16.796875000000 10.937500000000 56.736999511719 174 174 174
16.687500000000 10.937500000000 56.709014892578 172 172 172
16.593750000000 11.000000000000 56.690002441406 170 170 170
16.500000000000 11.062500000000 56.665008544922 182 182 182
16.437500000000 11.125000000000 56.653015136719 173 173 173
16.328125000000 11.125000000000 56.644012451172 166 166 166
16.109375000000 11.312500000000 56.705017089844 178 178 178
16.015625000000 11.312500000000 56.692016601563 179 179 179
15.937500000000 11.375000000000 56.688018798828 145 145 145
15.781250000000 11.500000000000 56.710998535156 154 154 154
15.703125000000 11.562500000000 56.708007812500 151 151 151
15.625000000000 11.562500000000 56.700012207031 149 149 149
15.546875000000 11.625000000000 56.697021484375 150 150 150
15.484375000000 11.687500000000 56.690002441406 155 155 155
15.406250000000 11.750000000000 56.679016113281 157 157 157
15.312500000000 11.750000000000 56.690002441406 162 162 162
15.234375000000 11.812500000000 56.691009521484 164 164 164
15.140625000000 11.875000000000 56.697021484375 172 172 172
15.078125000000 11.937500000000 56.688018798828 156 156 156
14.953125000000 12.000000000000 56.732025146484 165 165 165
14.859375000000 12.062500000000 56.756011962891 151 151 151
14.796875000000 12.125000000000 56.769012451172 175 175 175
14.750000000000 12.125000000000 56.768005371094 178 178 178
14.687500000000 12.187500000000 56.769012451172 171 171 171
14.625000000000 12.250000000000 56.763000488281 168 168 168
14.593750000000 12.187500000000 56.734008789063 163 163 163
14.578125000000 12.187500000000 56.695007324219 159 159 159
14.546875000000 12.250000000000 56.691009521484 157 157 157
14.484375000000 12.312500000000 56.692016601563 160 160 160
14.406250000000 12.375000000000 56.712005615234 174 174 174
14.375000000000 12.375000000000 56.687011718750 162 162 162
14.328125000000 12.437500000000 56.682006835938 155 155 155
14.281250000000 12.375000000000 56.676025390625 157 157 157
14.250000000000 12.437500000000 56.650024414063 166 166 166
14.218750000000 12.437500000000 56.628021240234 161 161 161
14.187500000000 12.437500000000 56.622009277344 169 169 169
14.140625000000 12.500000000000 56.618011474609 128 128 128
14.109375000000 12.500000000000 56.610015869141 143 143 143
14.062500000000 12.562500000000 56.621002197266 141 141 141
14.015625000000 12.625000000000 56.613006591797 150 150 150
13.984375000000 12.625000000000 56.640014648438 153 153 153
13.937500000000 12.625000000000 56.627014160156 153 153 153
13.906250000000 12.625000000000 56.624023437500 141 141 141
13.859375000000 12.687500000000 56.607025146484 144 144 144
13.828125000000 12.687500000000 56.597015380859 144 144 144
13.765625000000 12.750000000000 56.624023437500 154 154 154
13.734375000000 12.750000000000 56.628021240234 147 147 147
13.671875000000 12.812500000000 56.674011230469 145 145 145
13.640625000000 12.812500000000 56.649017333984 153 153 153
13.609375000000 12.875000000000 56.672027587891 177 177 177
13.546875000000 12.875000000000 56.690002441406 153 153 153
13.515625000000 12.875000000000 56.698028564453 149 149 149
13.468750000000 12.937500000000 56.714019775391 156 156 156
13.437500000000 12.937500000000 56.705017089844 151 151 151
13.421875000000 12.937500000000 56.696014404297 150 150 150
13.359375000000 13.000000000000 56.719024658203 161 161 161
13.343750000000 13.000000000000 56.691009521484 151 151 151
13.296875000000 13.062500000000 56.701019287109 158 158 158
13.281250000000 13.062500000000 56.697021484375 160 160 160
13.250000000000 13.062500000000 56.700012207031 141 141 141
13.234375000000 13.125000000000 56.691009521484 157 157 157
13.203125000000 13.062500000000 56.688018798828 156 156 156
13.187500000000 13.062500000000 56.660003662109 145 145 145
13.140625000000 13.062500000000 56.689025878906 144 144 144
13.125000000000 13.062500000000 56.686004638672 136 136 136
13.093750000000 13.125000000000 56.691009521484 148 148 148
13.062500000000 13.125000000000 56.679016113281 169 169 169
13.046875000000 13.125000000000 56.667022705078 156 156 156
19.921875000000 9.187500000000 56.966003417969 191 191 191
19.656250000000 9.312500000000 56.937011718750 174 174 174
19.359375000000 9.500000000000 56.921020507813 172 172 172
18.906250000000 9.812500000000 56.968017578125 167 167 167
18.609375000000 9.937500000000 56.967010498047 158 158 158
18.546875000000 10.000000000000 56.893005371094 163 163 163
18.421875000000 10.062500000000 56.848022460938 174 174 174
18.093750000000 10.250000000000 56.882019042969 194 194 194
18.000000000000 10.312500000000 56.835021972656 172 172 172
17.890625000000 10.437500000000 56.789001464844 172 172 172
17.718750000000 10.500000000000 56.769012451172 179 179 179
17.671875000000 10.500000000000 56.709014892578 171 171 171
17.515625000000 10.625000000000 56.697021484375 174 174 174
17.421875000000 10.625000000000 56.658020019531 169 169 169
17.312500000000 10.750000000000 56.627014160156 167 167 167
17.125000000000 10.875000000000 56.646026611328 176 176 176
16.843750000000 11.000000000000 56.710998535156 188 188 188
16.734375000000 11.062500000000 56.695007324219 169 169 169
16.593750000000 11.125000000000 56.700012207031 169 169 169
16.484375000000 11.187500000000 56.689025878906 178 178 178
16.359375000000 11.250000000000 56.693023681641 183 183 183
16.281250000000 11.312500000000 56.667022705078 174 174 174
16.171875000000 11.375000000000 56.666015625000 177 177 177
16.015625000000 11.500000000000 56.698028564453 186 186 186
15.953125000000 11.500000000000 56.673004150391 156 156 156
15.843750000000 11.562500000000 56.678009033203 159 159 159
15.703125000000 11.687500000000 56.706024169922 174 174 174
15.609375000000 11.750000000000 56.717010498047 156 156 156
15.578125000000 11.750000000000 56.683013916016 149 149 149
15.484375000000 11.812500000000 56.682006835938 158 158 158
15.406250000000 11.875000000000 56.682006835938 171 171 171
15.312500000000 11.875000000000 56.687011718750 168 168 168
15.234375000000 11.937500000000 56.689025878906 163 163 163
15.171875000000 12.000000000000 56.689025878906 152 152 152
15.093750000000 12.062500000000 56.692016601563 165 165 165
14.984375000000 12.125000000000 56.723022460938 165 165 165
14.875000000000 12.187500000000 56.742004394531 169 169 169
14.843750000000 12.187500000000 56.726013183594 168 168 168
14.812500000000 12.187500000000 56.692016601563 160 160 160
14.781250000000 12.250000000000 56.659027099609 171 171 171
14.750000000000 12.250000000000 56.657012939453 173 173 173
14.703125000000 12.312500000000 56.638000488281 166 166 166
14.640625000000 12.375000000000 56.638000488281 173 173 173
14.593750000000 12.312500000000 56.639007568359 151 151 151
14.546875000000 12.375000000000 56.616027832031 151 151 151
14.437500000000 12.437500000000 56.685028076172 166 166 166
14.375000000000 12.500000000000 56.685028076172 150 150 150
14.328125000000 12.562500000000 56.677001953125 154 154 154
14.296875000000 12.562500000000 56.667022705078 140 140 140
14.234375000000 12.562500000000 56.696014404297 113 113 113
14.203125000000 12.562500000000 56.688018798828 136 136 136
14.156250000000 12.625000000000 56.658020019531 148 148 148
14.125000000000 12.625000000000 56.646026611328 141 141 141
14.078125000000 12.687500000000 56.654022216797 171 171 171
14.031250000000 12.687500000000 56.657012939453 142 142 142
14.000000000000 12.750000000000 56.631011962891 125 125 125
13.984375000000 12.750000000000 56.591003417969 138 138 138
13.937500000000 12.812500000000 56.602020263672 141 141 141
13.906250000000 12.750000000000 56.608001708984 165 165 165
13.843750000000 12.812500000000 56.628021240234 177 177 177
13.812500000000 12.812500000000 56.620025634766 147 147 147
13.765625000000 12.875000000000 56.656005859375 142 142 142
13.734375000000 12.875000000000 56.639007568359 144 144 144
13.687500000000 12.937500000000 56.638000488281 145 145 145
13.656250000000 12.937500000000 56.660003662109 152 152 152
13.593750000000 13.000000000000 56.698028564453 145 145 145
13.546875000000 13.000000000000 56.702026367188 161 161 161
13.500000000000 13.000000000000 56.712005615234 158 158 158
13.453125000000 13.062500000000 56.734008789063 139 139 139
13.437500000000 13.062500000000 56.712005615234 134 134 134
13.406250000000 13.062500000000 56.698028564453 164 164 164
13.375000000000 13.125000000000 56.706024169922 151 151 151
13.359375000000 13.125000000000 56.693023681641 136 136 136
13.343750000000 13.125000000000 56.682006835938 142 142 142
13.281250000000 13.125000000000 56.732025146484 153 153 153
13.250000000000 13.125000000000 56.729003906250 161 161 161
13.218750000000 13.187500000000 56.696014404297 150 150 150
13.203125000000 13.187500000000 56.704010009766 155 155 155
13.171875000000 13.125000000000 56.700012207031 166 166 166
13.125000000000 13.187500000000 56.701019287109 156 156 156
13.109375000000 13.187500000000 56.686004638672 135 135 135
13.109375000000 13.187500000000 56.673004150391 136 136 136
13.062500000000 13.250000000000 56.662017822266 144 144 144
13.046875000000 13.250000000000 56.664001464844 144 144 144
20.296875000000 9.062500000000 56.978027343750 173 173 173
20.046875000000 9.187500000000 56.936004638672 175 175 175
19.640625000000 9.437500000000 56.941009521484 176 176 176
19.375000000000 9.625000000000 56.915008544922 174 174 174
19.109375000000 9.750000000000 56.902008056641 182 182 182
18.671875000000 10.062500000000 56.950012207031 169 169 169
18.609375000000 10.125000000000 56.876007080078 177 177 177
18.093750000000 10.375000000000 56.976013183594 218 218 218
18.046875000000 10.437500000000 56.903015136719 210 210 210
18.046875000000 10.437500000000 56.812011718750 177 177 177
17.921875000000 10.500000000000 56.779998779297 176 176 176
17.796875000000 10.625000000000 56.738006591797 176 176 176
17.718750000000 10.625000000000 56.694000244141 175 175 175
17.562500000000 10.750000000000 56.678009033203 165 165 165
17.453125000000 10.812500000000 56.643005371094 168 168 168
17.312500000000 10.875000000000 56.624023437500 177 177 177
17.171875000000 11.000000000000 56.621002197266 164 164 164
16.828125000000 11.125000000000 56.720001220703 180 180 180
16.828125000000 11.125000000000 56.643005371094 187 187 187
16.656250000000 11.187500000000 56.670013427734 191 191 191
16.515625000000 11.312500000000 56.671020507813 168 168 168
16.421875000000 11.375000000000 56.654022216797 168 168 168
16.343750000000 11.437500000000 56.629028320313 169 169 169
16.171875000000 11.500000000000 56.673004150391 176 176 176
16.062500000000 11.625000000000 56.663024902344 162 162 162
15.984375000000 11.687500000000 56.649017333984 178 178 178
15.812500000000 11.750000000000 56.695007324219 178 178 178
15.734375000000 11.812500000000 56.684020996094 150 150 150
15.640625000000 11.875000000000 56.688018798828 165 165 165
15.578125000000 11.875000000000 56.672027587891 159 159 159
15.500000000000 11.937500000000 56.673004150391 161 161 161
15.406250000000 12.000000000000 56.680999755859 163 163 163
15.328125000000 12.062500000000 56.686004638672 173 173 173
15.203125000000 12.125000000000 56.717010498047 165 165 165
15.140625000000 12.125000000000 56.706024169922 164 164 164
15.078125000000 12.187500000000 56.695007324219 172 172 172
15.031250000000 12.250000000000 56.678009033203 163 163 163
14.984375000000 12.250000000000 56.657012939453 157 157 157
14.953125000000 12.312500000000 56.617004394531 167 167 167
14.921875000000 12.250000000000 56.591003417969 161 161 161
14.859375000000 12.312500000000 56.606018066406 162 162 162
14.765625000000 12.375000000000 56.620025634766 164 164 164
14.687500000000 12.437500000000 56.665008544922 158 158 158
14.609375000000 12.500000000000 56.678009033203 157 157 157
14.531250000000 12.500000000000 56.700012207031 166 166 166
14.468750000000 12.562500000000 56.697021484375 155 155 155
14.421875000000 12.625000000000 56.704010009766 155 155 155
14.375000000000 12.625000000000 56.698028564453 163 163 163
14.343750000000 12.687500000000 56.676025390625 154 154 154
14.296875000000 12.687500000000 56.669006347656 146 146 146
14.250000000000 12.750000000000 56.672027587891 135 135 135
14.218750000000 12.750000000000 56.654022216797 144 144 144
14.171875000000 12.750000000000 56.644012451172 140 140 140
14.140625000000 12.750000000000 56.638000488281 145 145 145
14.078125000000 12.812500000000 56.637023925781 150 150 150
14.046875000000 12.812500000000 56.627014160156 153 153 153
14.031250000000 12.812500000000 56.604003906250 139 139 139
14.000000000000 12.875000000000 56.565002441406 137 137 137
13.953125000000 12.875000000000 56.590026855469 147 147 147
13.921875000000 12.937500000000 56.609008789063 138 138 138
13.843750000000 12.937500000000 56.641021728516 136 136 136
13.828125000000 12.937500000000 56.616027832031 141 141 141
13.781250000000 13.000000000000 56.614013671875 146 146 146
13.734375000000 13.000000000000 56.639007568359 139 139 139
13.687500000000 13.062500000000 56.634002685547 144 144 144
13.625000000000 13.125000000000 56.680999755859 148 148 148
13.609375000000 13.125000000000 56.654998779297 139 139 139
13.578125000000 13.125000000000 56.635009765625 140 140 140
13.515625000000 13.125000000000 56.720001220703 137 137 137
13.500000000000 13.125000000000 56.692016601563 144 144 144
13.453125000000 13.125000000000 56.698028564453 155 155 155
13.421875000000 13.125000000000 56.714019775391 170 170 170
13.375000000000 13.187500000000 56.706024169922 161 161 161
13.343750000000 13.187500000000 56.718017578125 157 157 157
13.312500000000 13.250000000000 56.705017089844 154 154 154
13.281250000000 13.250000000000 56.700012207031 146 146 146
13.265625000000 13.250000000000 56.680023193359 144 144 144
13.218750000000 13.312500000000 56.702026367188 138 138 138
13.203125000000 13.312500000000 56.689025878906 144 144 144
13.171875000000 13.312500000000 56.699005126953 140 140 140
13.140625000000 13.375000000000 56.669006347656 157 157 157
13.109375000000 13.312500000000 56.667999267578 167 167 167
13.078125000000 13.312500000000 56.680023193359 141 141 141
13.078125000000 13.375000000000 56.678009033203 139 139 139
13.062500000000 13.375000000000 56.654998779297 142 142 142
13.015625000000 13.437500000000 56.669006347656 138 138 138
20.093750000000 9.312500000000 56.921020507813 167 167 167
19.796875000000 9.437500000000 56.896026611328 181 181 181
18.671875000000 10.187500000000 57.136016845703 109 109 109
18.671875000000 10.187500000000 57.042999267578 176 176 176
18.671875000000 10.187500000000 56.947021484375 179 179 179
18.421875000000 10.375000000000 56.936004638672 174 174 174
18.265625000000 10.437500000000 56.909027099609 203 203 203
18.140625000000 10.500000000000 56.868011474609 183 183 183
18.031250000000 10.562500000000 56.823028564453 179 179 179
17.890625000000 10.687500000000 56.795013427734 173 173 173
17.859375000000 10.687500000000 56.725006103516 168 168 168
17.781250000000 10.750000000000 56.665008544922 170 170 170
