20.620670318604 0.106945037842 9.926986694336 113 113 113
20.618831634521 0.138141632080 9.965988159180 33 33 33
20.651866912842 0.108785629272 10.742996215820 75 75 75
20.651866912842 0.108785629272 10.811996459961 56 56 56
20.651866912842 0.108785629272 10.870986938477 96 96 96
20.618831634521 0.138141632080 10.888000488281 107 107 107
20.634428024292 0.139062881470 10.967987060547 106 106 106
20.634428024292 0.139062881470 11.041000366211 110 110 110
20.616991043091 0.169336318970 11.079986572266 67 67 67
20.550849914551 0.760217666626 8.804992675781 111 111 111
20.550849914551 0.760217666626 8.824996948242 98 98 98
20.773853302002 0.429019927979 9.614990234375 122 122 122
20.739898681641 0.473974227905 9.606994628906 132 132 132
20.721542358398 0.519849777222 9.620986938477 153 153 153
20.704105377197 0.550125122070 9.620986938477 155 155 155
20.670150756836 0.595079421997 9.621994018555 160 160 160
20.636196136475 0.640033721924 9.600997924805 144 144 144
20.602241516113 0.684988021851 9.608993530273 96 96 96
20.549011230469 0.791414260864 9.578994750977 95 95 95
20.532493591309 0.806093215942 9.615997314453 104 104 104
20.531574249268 0.821691513062 9.653991699219 97 97 97
20.531574249268 0.821691513062 9.704986572266 41 41 41
20.769256591797 0.507009506226 10.726989746094 73 73 73
20.768337249756 0.522607803345 10.757995605469 125 125 125
20.733461380005 0.583160400391 10.761993408203 145 145 145
20.700428009033 0.612516403198 10.759994506836 155 155 155
20.665552139282 0.673069000244 10.740997314453 138 138 138
20.631597518921 0.718023300171 10.733993530273 83 83 83
20.561849594116 0.839126586914 10.747985839844 40 40 40
20.561849594116 0.839126586914 10.799987792969 36 36 36
20.660919189453 1.017141342163 6.728988647461 158 158 158
20.660919189453 1.017141342163 6.756988525391 159 159 159
20.660919189453 1.017141342163 6.779998779297 160 160 160
20.660919189453 1.017141342163 6.808990478516 162 162 162
20.660919189453 1.017141342163 6.833999633789 161 161 161
20.660919189453 1.017141342163 6.858993530273 159 159 159
20.660919189453 1.017141342163 6.885986328125 160 160 160
20.660919189453 1.017141342163 6.912994384766 159 159 159
20.660919189453 1.017141342163 6.941986083984 159 159 159
20.660919189453 1.017141342163 6.968994140625 159 159 159
20.660919189453 1.017141342163 6.996994018555 165 165 165
20.660919189453 1.017141342163 7.026992797852 160 160 160
20.660919189453 1.017141342163 7.051986694336 157 157 157
20.660919189453 1.017141342163 7.076995849609 157 157 157
20.676517486572 1.018062591553 7.111999511719 157 157 157
20.693035125732 1.003383636475 7.141998291016 156 156 156
20.693035125732 1.003383636475 7.168991088867 156 156 156
20.693035125732 1.003383636475 7.197998046875 155 155 155
20.676517486572 1.018062591553 7.222991943359 158 158 158
20.693035125732 1.003383636475 7.255996704102 153 153 153
20.676517486572 1.018062591553 7.282989501953 160 160 160
20.676517486572 1.018062591553 7.309997558594 163 163 163
20.676517486572 1.018062591553 7.340988159180 160 160 160
20.676517486572 1.018062591553 7.368988037109 158 158 158
20.676517486572 1.018062591553 7.401992797852 161 161 161
20.676517486572 1.018062591553 7.431991577148 158 158 158
20.693035125732 1.003383636475 7.462997436523 159 159 159
20.693035125732 1.003383636475 7.493988037109 157 157 157
20.676517486572 1.018062591553 7.522994995117 156 156 156
20.693035125732 1.003383636475 7.555999755859 157 157 157
20.693035125732 1.003383636475 7.586990356445 156 156 156
20.693035125732 1.003383636475 7.617996215820 158 158 158
20.692113876343 1.018981933594 7.651992797852 157 157 157
20.692113876343 1.018981933594 7.682998657227 156 156 156
20.692113876343 1.018981933594 7.714996337891 158 158 158
20.692113876343 1.018981933594 7.748992919922 156 156 156
20.692113876343 1.018981933594 7.779998779297 155 155 155
20.692113876343 1.018981933594 7.813995361328 155 155 155
20.692113876343 1.018981933594 7.848999023438 152 152 152
20.692113876343 1.018981933594 7.884994506836 153 153 153
20.692113876343 1.018981933594 7.918991088867 155 155 155
20.692113876343 1.018981933594 7.941986083984 160 160 160
20.674676895142 1.049259185791 7.955993652344 170 170 170
20.658159255981 1.063936233521 7.977996826172 171 171 171
20.640722274780 1.094211578369 7.986999511719 165 165 165
20.639802932739 1.109809875488 7.996994018555 176 176 176
20.639802932739 1.109809875488 8.023986816406 183 183 183
20.622365951538 1.140087127686 8.044998168945 182 182 182
20.639802932739 1.109809875488 8.090988159180 168 168 168
20.639802932739 1.109809875488 8.149993896484 151 151 151
20.707712173462 1.019901275635 8.275985717773 145 145 145
20.723310470581 1.020820617676 8.322998046875 145 145 145
20.723310470581 1.020820617676 8.361999511719 147 147 147
20.723310470581 1.020820617676 8.394989013672 146 146 146
20.723310470581 1.020820617676 8.432998657227 149 149 149
20.723310470581 1.020820617676 8.477996826172 144 144 144
20.723310470581 1.020820617676 8.515991210938 145 145 145
20.723310470581 1.020820617676 8.551986694336 140 140 140
20.723310470581 1.020820617676 8.590988159180 138 138 138
20.723310470581 1.020820617676 8.641998291016 142 142 142
20.723310470581 1.020820617676 8.675994873047 134 134 134
20.723310470581 1.020820617676 8.722000122070 138 138 138
20.723310470581 1.020820617676 8.763000488281 143 143 143
20.739828109741 1.006141662598 8.819000244141 132 132 132
20.738908767700 1.021739959717 8.847000122070 140 140 140
20.738908767700 1.021739959717 8.894989013672 136 136 136
20.738908767700 1.021739959717 8.944000244141 126 126 126
20.738908767700 1.021739959717 8.983993530273 122 122 122
20.738908767700 1.021739959717 9.027999877930 121 121 121
20.738908767700 1.021739959717 9.076995849609 125 125 125
20.738908767700 1.021739959717 9.123992919922 128 128 128
20.738908767700 1.021739959717 9.173995971680 153 153 153
20.723310470581 1.020820617676 9.195999145508 152 152 152
20.705873489380 1.051097869873 9.211990356445 159 159 159
20.688436508179 1.081373214722 9.222000122070 165 165 165
20.670999526978 1.111650466919 9.232986450195 165 165 165
20.653560638428 1.141925811768 9.227996826172 166 166 166
20.618686676025 1.202478408813 9.215988159180 150 150 150
20.601249694824 1.232753753662 9.213989257813 125 125 125
20.602169036865 1.217157363892 9.291992187500 125 125 125
20.754505157471 1.022659301758 9.641998291016 72 72 72
20.754505157471 1.022659301758 9.692993164063 64 64 64
20.754505157471 1.022659301758 9.747985839844 54 54 54
20.754505157471 1.022659301758 9.806991577148 113 113 113
20.738908767700 1.021739959717 9.832992553711 141 141 141
20.737989425659 1.037338256836 9.884994506836 74 74 74
20.704032897949 1.082292556763 9.848999023438 92 92 92
20.669158935547 1.142847061157 9.839996337891 120 120 120
20.651721954346 1.173120498657 9.853988647461 158 158 158
20.635204315186 1.187799453735 9.883987426758 166 166 166
20.634284973145 1.203397750854 9.927993774414 135 135 135
20.634284973145 1.203397750854 9.978988647461 80 80 80
20.616847991943 1.233673095703 10.001998901367 67 67 67
20.670927047729 1.643817901611 8.315994262695 43 43 43
20.653490066528 1.674095153809 8.323989868164 134 134 134
20.636053085327 1.704370498657 8.332000732422 172 172 172
20.618616104126 1.734645843506 8.340988159180 177 177 177
20.603017807007 1.733726501465 8.357986450195 171 171 171
20.602098464966 1.749324798584 8.375000000000 152 152 152
20.703962326050 1.614461898804 9.186996459961 96 96 96
20.686525344849 1.644737243652 9.199996948242 154 154 154
20.686525344849 1.644737243652 9.223999023438 163 163 163
20.669088363647 1.675014495850 9.231994628906 162 162 162
20.635133743286 1.719968795776 9.214996337891 158 158 158
20.617696762085 1.750244140625 9.235992431641 154 154 154
20.601179122925 1.764923095703 9.240997314453 148 148 148
20.616775512695 1.765842437744 9.297988891602 139 139 139
20.601179122925 1.764923095703 9.332000732422 159 159 159
20.599338531494 1.796117782593 9.375000000000 159 159 159
20.599338531494 1.796117782593 9.426986694336 146 146 146
20.601179122925 1.764923095703 9.485000610352 143 143 143
20.615856170654 1.781438827515 9.541000366211 133 133 133
20.719560623169 1.615381240845 9.959991455078 92 92 92
20.701202392578 1.661254882813 9.960998535156 66 66 66
20.667247772217 1.706209182739 9.930999755859 112 112 112
20.649810791016 1.736486434937 9.934997558594 162 162 162
20.632373809814 1.766763687134 9.936996459961 145 145 145
20.614936828613 1.797037124634 9.954986572266 80 80 80
20.618543624878 2.266815185547 8.653991699219 119 119 119
20.618543624878 2.266815185547 8.658996582031 243 243 243
20.601106643677 2.297092437744 8.669998168945 252 252 252
20.583669662476 2.327365875244 8.687988281250 175 175 175
20.583669662476 2.327365875244 8.710998535156 87 87 87
20.666257858276 2.253974914551 9.930999755859 62 62 62
20.648820877075 2.284252166748 9.935989379883 108 108 108
20.632303237915 2.298931121826 9.936996459961 84 84 84
20.631311416626 2.846696853638 8.711990356445 82 82 82
20.599195480347 2.860456466675 8.713989257813 144 144 144
20.597356796265 2.891651153564 8.712997436523 158 158 158
20.597356796265 2.891651153564 8.726989746094 137 137 137
20.580839157104 2.906330108643 8.753997802734 52 52 52
20.614793777466 2.861375808716 8.978988647461 68 68 68
20.599195480347 2.860456466675 8.983993530273 143 143 143
20.597356796265 2.891651153564 8.995986938477 159 159 159
20.580839157104 2.906330108643 9.014999389648 159 159 159
20.564321517944 2.921009063721 9.033996582031 99 99 99
20.679944992065 2.818260192871 9.926986694336 91 91 91
20.661586761475 2.864133834839 9.921997070313 122 122 122
20.645990371704 2.863214492798 9.923995971680 88 88 88
20.630319595337 3.394462585449 8.705993652344 65 65 65
20.612882614136 3.424737930298 8.696990966797 147 147 147
20.596364974976 3.439416885376 8.694000244141 177 177 177
20.595445632935 3.455015182495 8.696990966797 160 160 160
20.578927993774 3.469694137573 8.712997436523 87 87 87
20.611043930054 3.455934524536 9.324996948242 76 76 76
20.593606948853 3.486209869385 9.345993041992 137 137 137
20.593606948853 3.486209869385 9.360000610352 142 142 142
20.560571670532 3.515567779541 9.382995605469 121 121 121
20.628410339355 3.957826614380 8.682998657227 73 73 73
20.610971450806 3.988103866577 8.591995239258 143 143 143
20.610052108765 4.003702163696 8.607986450195 174 174 174
20.593534469604 4.018379211426 8.664993286133 186 186 186
20.593534469604 4.018379211426 8.688995361328 158 158 158
20.658685684204 3.975263595581 9.916000366211 137 137 137
20.641248703003 4.005540847778 9.884994506836 60 60 60
20.608213424683 4.034896850586 9.689987182617 81 81 81
20.590776443481 4.065172195435 9.681991577148 123 123 123
20.574258804321 4.079851150513 9.705993652344 125 125 125
20.556821823120 4.110126495361 9.742996215820 70 70 70
20.690729141235 4.493675231934 9.903991699219 34 34 34
20.690729141235 4.493675231934 9.892990112305 133 133 133
20.657693862915 4.523029327393 9.898986816406 151 151 151
20.655855178833 4.554225921631 9.909988403320 94 94 94
20.643016815186 4.506511688232 8.685989379883 108 108 108
20.626499176025 4.521190643311 8.673995971680 173 173 173
20.624658584595 4.552387237549 8.672988891602 195 195 195
20.609062194824 4.551467895508 8.673995971680 194 194 194
20.607221603394 4.582662582397 8.669998168945 136 136 136
20.625577926636 4.536788940430 9.877990722656 117 117 117
20.624658584595 4.552387237549 9.888000488281 183 183 183
20.654014587402 4.585420608521 9.893997192383 147 147 147
20.653095245361 4.601018905640 9.901992797852 56 56 56
20.667810440063 4.351451873779 9.882995605469 142 142 142
20.666891098022 4.367050170898 9.870986938477 169 169 169
20.633855819702 4.396408081055 9.881988525391 170 170 170
20.633855819702 4.396408081055 8.420989990234 163 163 163
20.618257522583 4.395488739014 8.412994384766 247 247 247
20.600820541382 4.425764083862 8.461990356445 180 180 180
20.599901199341 4.441362380981 8.533996582031 176 176 176
20.583383560181 4.456041336060 8.497985839844 157 157 157
20.565946578979 4.486316680908 8.699996948242 117 117 117
20.632015228271 4.427602767944 9.936996459961 136 136 136
20.606409072876 3.800006866455 8.621994018555 58 58 58
20.588972091675 3.830284118652 8.597991943359 150 150 150
20.588972091675 3.830284118652 8.620986938477 187 187 187
20.572454452515 3.844963073730 8.668991088867 173 173 173
20.571535110474 3.860561370850 8.678985595703 94 94 94
20.672479629517 3.741294860840 9.888992309570 50 50 50
20.639444351196 3.770652770996 9.888992309570 130 130 130
20.622007369995 3.800928115845 9.768997192383 140 140 140
20.587133407593 3.861480712891 9.543991088867 125 125 125
20.569696426392 3.891756057739 9.521987915039 133 133 133
20.569696426392 3.891756057739 9.546997070313 112 112 112
20.553178787231 3.906435012817 9.582992553711 28 28 28
20.611080169678 3.189849853516 8.679992675781 76 76 76
20.594562530518 3.204528808594 8.682998657227 152 152 152
20.577125549316 3.234806060791 8.685989379883 167 167 167
20.559688568115 3.265081405640 8.696990966797 137 137 137
20.559688568115 3.265081405640 8.696990966797 41 41 41
20.594562530518 3.204528808594 9.132995605469 61 61 61
20.577125549316 3.234806060791 9.143997192383 142 142 142
20.559688568115 3.265081405640 9.155990600586 155 155 155
20.559688568115 3.265081405640 9.170989990234 114 114 114
20.660633087158 3.145816802979 9.882995605469 61 61 61
20.643196105957 3.176090240479 9.900985717773 129 129 129
20.625757217407 3.206367492676 9.897994995117 109 109 109
20.617588043213 2.548498153687 8.735000610352 58 58 58
20.598312377930 2.609970092773 8.700988769531 153 153 153
20.581794738770 2.624649047852 8.688995361328 176 176 176
20.564357757568 2.654922485352 8.694000244141 174 174 174
20.547840118408 2.669601440430 8.714996337891 159 159 159
20.580875396729 2.640245437622 8.821990966797 107 107 107
20.666221618652 2.520059585571 9.905990600586 30 30 30
20.648784637451 2.550336837769 9.916000366211 103 103 103
20.631347656250 2.580612182617 9.908996582031 104 104 104
20.613910675049 2.610889434814 9.916000366211 32 32 32
20.620418548584 1.969535827637 8.421997070313 111 111 111
20.603900909424 1.984212875366 8.437988281250 178 178 178
20.588304519653 1.983293533325 8.449996948242 188 188 188
20.586463928223 2.014488220215 8.482986450195 128 128 128
20.586463928223 2.014488220215 8.500991821289 28 28 28
20.654373168945 1.924581527710 9.920989990234 62 62 62
20.636936187744 1.954856872559 9.913986206055 117 117 117
20.619499206543 1.985134124756 9.920989990234 79 79 79
20.627847671509 1.312582015991 8.069992065430 116 116 116
20.627847671509 1.312582015991 8.095993041992 145 145 145
20.626928329468 1.328180313110 8.105987548828 159 159 159
20.593893051147 1.357538223267 8.117996215820 172 172 172
20.592973709106 1.373136520386 8.133987426758 141 141 141
20.592054367065 1.388732910156 8.158996582031 158 158 158
20.559019088745 1.418090820313 8.173995971680 150 150 150
20.797622680664 1.087810516357 9.156997680664 20 20 20
20.695756912231 1.222675323486 9.163986206055 104 104 104
20.679239273071 1.237352371216 9.166992187500 159 159 159
20.661802291870 1.267629623413 9.210998535156 164 164 164
20.644365310669 1.297904968262 9.203994750977 161 161 161
20.626928329468 1.328180313110 9.209991455078 155 155 155
20.593893051147 1.357538223267 9.194992065430 155 155 155
20.575536727905 1.403411865234 9.201995849609 134 134 134
20.557178497314 1.449287414551 9.185989379883 85 85 85
20.659963607788 1.298826217651 9.927993774414 90 90 90
20.658124923706 1.330020904541 9.927993774414 135 135 135
20.625089645386 1.359376907349 9.934997558594 145 145 145
20.607650756836 1.389652252197 9.945999145508 99 99 99
20.590213775635 1.419929504395 9.941986083984 92 92 92
20.564607620239 0.792333602905 6.726989746094 116 116 116
20.564607620239 0.792333602905 6.760986328125 123 123 123
20.564607620239 0.792333602905 6.783996582031 112 112 112
20.564607620239 0.792333602905 6.811996459961 119 119 119
20.564607620239 0.792333602905 6.840988159180 114 114 114
20.547170639038 0.822610855103 6.861999511719 116 116 116
20.564607620239 0.792333602905 6.896987915039 115 115 115
20.564607620239 0.792333602905 6.927993774414 118 118 118
20.564607620239 0.792333602905 6.950988769531 115 115 115
20.564607620239 0.792333602905 6.980987548828 122 122 122
20.564607620239 0.792333602905 7.009994506836 119 119 119
20.564607620239 0.792333602905 7.041992187500 110 110 110
20.564607620239 0.792333602905 7.066986083984 108 108 108
20.564607620239 0.792333602905 7.105987548828 104 104 104
20.564607620239 0.792333602905 7.125000000000 104 104 104
20.564607620239 0.792333602905 7.157989501953 105 105 105
20.564607620239 0.792333602905 7.186996459961 99 99 99
20.564607620239 0.792333602905 7.214996337891 101 101 101
20.564607620239 0.792333602905 7.250000000000 104 104 104
20.564607620239 0.792333602905 7.279998779297 87 87 87
20.564607620239 0.792333602905 7.307998657227 97 97 97
20.564607620239 0.792333602905 7.343994140625 96 96 96
20.564607620239 0.792333602905 7.370986938477 90 90 90
20.547170639038 0.822610855103 7.396987915039 87 87 87
20.564607620239 0.792333602905 7.429992675781 93 93 93
20.564607620239 0.792333602905 7.467987060547 85 85 85
20.564607620239 0.792333602905 7.496994018555 84 84 84
20.564607620239 0.792333602905 7.525985717773 80 80 80
20.564607620239 0.792333602905 7.565994262695 83 83 83
20.547170639038 0.822610855103 7.586990356445 82 82 82
20.564607620239 0.792333602905 7.625000000000 74 74 74
20.547170639038 0.822610855103 7.654998779297 69 69 69
20.564607620239 0.792333602905 7.692993164063 71 71 71
20.564607620239 0.792333602905 7.725997924805 65 65 65
20.564607620239 0.792333602905 7.763000488281 53 53 53
20.564607620239 0.792333602905 7.796997070313 48 48 48
20.564607620239 0.792333602905 7.827987670898 40 40 40
20.564607620239 0.792333602905 7.862991333008 36 36 36
20.564607620239 0.792333602905 7.902999877930 30 30 30
20.597642898560 0.762977600098 8.796997070313 93 93 93
20.561849594116 0.839126586914 8.771987915039 143 143 143
20.545331954956 0.853805541992 8.802993774414 125 125 125
20.733461380005 0.583160400391 9.544998168945 73 73 73
20.717864990234 0.582241058350 9.582000732422 132 132 132
20.700428009033 0.612516403198 9.601989746094 153 153 153
20.667392730713 0.641872406006 9.605987548828 155 155 155
20.632518768311 0.702425003052 9.599990844727 163 163 163
20.597642898560 0.762977600098 9.567993164063 147 147 147
20.580205917358 0.793252944946 9.591995239258 99 99 99
20.545331954956 0.853805541992 9.553985595703 131 131 131
20.545331954956 0.853805541992 9.597991943359 132 132 132
20.545331954956 0.853805541992 9.649993896484 119 119 119
20.749980926514 0.568481445313 10.707992553711 70 70 70
20.733461380005 0.583160400391 10.728988647461 125 125 125
20.698587417603 0.643712997437 10.745986938477 144 144 144
20.681150436401 0.673988342285 10.743988037109 157 157 157
20.646276473999 0.734540939331 10.722991943359 151 151 151
20.612321853638 0.779495239258 10.717987060547 106 106 106
20.560009002686 0.870323181152 10.686996459961 29 29 29
20.542572021484 0.900600433350 10.714996337891 79 79 79
20.542572021484 0.900600433350 10.789993286133 70 70 70
20.620670318604 0.106945037842 9.607986450195 43 43 43
20.636268615723 0.107866287231 9.727996826172 14 14 14
20.603233337402 0.137222290039 9.730987548828 50 50 50
20.602313995361 0.152818679810 9.778991699219 47 47 47
20.602313995361 0.152818679810 9.834991455078 48 48 48
20.602313995361 0.152818679810 9.889999389648 43 43 43
20.602313995361 0.152818679810 9.948989868164 104 104 104
20.601392745972 0.168416976929 11.079986572266 102 102 102
20.696210861206 4.666170120239 9.875991821289 104 104 104
20.697130203247 4.650573730469 9.876998901367 119 119 119
20.698970794678 4.619377136230 9.877990722656 105 105 105
20.700809478760 4.588180541992 9.864990234375 93 93 93
20.687049865723 4.556066513062 9.875000000000 85 85 85
20.688890457153 4.524869918823 9.870986938477 84 84 84
20.689809799194 4.509271621704 9.866989135742 76 76 76
20.692567825317 4.462478637695 9.882995605469 66 66 66
20.727443695068 4.401926040649 8.394989013672 220 220 220
20.698085784912 4.368890762329 9.850997924805 92 92 92
20.698085784912 4.368890762329 9.860992431641 160 160 160
20.715522766113 4.338615417480 9.873992919922 147 147 147
20.806818008423 0.931831359863 10.802993774414 60 60 60
20.824254989624 0.901556015015 10.740997314453 109 109 109
20.808656692505 0.900636672974 10.683990478516 110 110 110
20.834442138672 0.197811126709 11.104995727539 24 24 24
20.850959777832 0.183132171631 11.067993164063 108 108 108
20.826093673706 0.870359420776 9.636993408203 28 28 28
20.851879119873 0.167533874512 9.969985961914 66 66 66
20.853719711304 0.136339187622 9.951995849609 128 128 128
20.844451904297 0.824485778809 8.828994750977 87 87 87
20.846290588379 0.793289184570 8.812988281250 138 138 138
20.539312362671 4.672571182251 8.644989013672 88 88 88
20.538393020630 4.688169479370 8.643997192383 168 168 168
20.568668365479 4.705608367920 8.633987426758 209 209 209
20.568668365479 4.705608367920 8.638000488281 200 200 200
20.582427978516 4.737722396851 8.647994995117 162 162 162
20.580589294434 4.768918991089 8.657989501953 87 87 87
20.576026916504 4.580823898315 8.633987426758 96 96 96
20.605382919312 4.613859176636 8.659988403320 108 108 108
20.622819900513 4.583581924438 8.646987915039 185 185 185
20.638418197632 4.584501266479 8.649993896484 211 211 211
20.640256881714 4.553306579590 8.646987915039 159 159 159
20.656774520874 4.538627624512 8.652999877930 148 148 148
20.687049865723 4.556066513062 9.940994262695 133 133 133
20.803245544434 0.195970535278 11.080993652344 140 140 140
20.817924499512 0.212488174438 10.993988037109 86 86 86
20.817924499512 0.212488174438 10.923995971680 85 85 85
20.803245544434 0.195970535278 10.872985839844 81 81 81
20.790407180786 0.148258209229 10.848999023438 59 59 59
20.790407180786 0.148258209229 10.726989746094 30 30 30
20.821603775024 0.150096893311 9.972000122070 91 91 91
20.791219711304 0.930912017822 11.114990234375 30 30 30
20.791219711304 0.930912017822 11.053985595703 48 48 48
20.806818008423 0.931831359863 10.804992675781 46 46 46
20.793058395386 0.899717330933 10.779998779297 122 122 122
20.793058395386 0.899717330933 10.726989746094 108 108 108
20.778381347656 0.883197784424 10.677993774414 116 116 116
20.749942779541 0.834566116333 10.714996337891 145 145 145
20.706829071045 0.769414901733 10.729995727539 159 159 159
20.694910049438 0.706104278564 10.738998413086 157 157 157
20.664632797241 0.688665390015 10.733993530273 159 159 159
20.636196136475 0.640033721924 10.722000122070 141 141 141
20.638034820557 0.608837127686 10.691986083984 30 30 30
20.810497283936 0.869440078735 9.662994384766 83 83 83
20.810497283936 0.869440078735 9.620986938477 89 89 89
20.826093673706 0.870359420776 9.557998657227 91 91 91
20.755462646484 0.740978240967 9.605987548828 44 44 44
20.741703033447 0.708862304688 9.579986572266 121 121 121
20.712347030640 0.675828933716 9.583999633789 146 146 146
20.684829711914 0.611595153809 9.605987548828 156 156 156
20.656391143799 0.562963485718 9.610992431641 156 156 156
20.643552780151 0.515251159668 9.602996826172 153 153 153
20.629795074463 0.483135223389 9.583999633789 124 124 124
20.816013336182 0.775852203369 8.829986572266 107 107 107
20.712238311768 1.474079132080 9.920989990234 129 129 129
20.714998245239 1.427286148071 9.934997558594 161 161 161
20.685642242432 1.394250869751 9.923995971680 155 155 155
20.656284332275 1.361217498779 9.923995971680 142 142 142
20.658124923706 1.330020904541 9.925994873047 132 132 132
20.629688262939 1.281387329102 9.926986694336 92 92 92
20.716836929321 1.396089553833 9.222000122070 38 38 38
20.718677520752 1.364894866943 9.186996459961 116 116 116
20.688400268555 1.347457885742 9.194000244141 149 149 149
20.659963607788 1.298826217651 9.204986572266 160 160 160
20.661802291870 1.267629623413 9.199996948242 161 161 161
20.634284973145 1.203397750854 9.207000732422 161 161 161
20.604928970337 1.170362472534 9.194000244141 160 160 160
20.604928970337 1.170362472534 9.181991577148 156 156 156
20.576492309570 1.121730804443 9.177993774414 144 144 144
20.548053741455 1.073095321655 9.195999145508 129 129 129
20.548053741455 1.073095321655 9.151992797852 130 130 130
20.579250335693 1.074935913086 8.735992431641 32 32 32
20.579250335693 1.074935913086 8.701995849609 64 64 64
20.579250335693 1.074935913086 8.656997680664 78 78 78
20.579250335693 1.074935913086 8.625991821289 93 93 93
20.579250335693 1.074935913086 8.574996948242 110 110 110
20.566411972046 1.027221679688 8.571990966797 149 149 149
20.580169677734 1.059339523315 8.505996704102 125 125 125
20.580169677734 1.059339523315 8.462997436523 131 131 131
20.580169677734 1.059339523315 8.420989990234 140 140 140
20.580169677734 1.059339523315 8.382995605469 143 143 143
20.580169677734 1.059339523315 8.343994140625 149 149 149
20.580169677734 1.059339523315 8.305999755859 145 145 145
20.594848632813 1.075855255127 8.260986328125 150 150 150
20.594848632813 1.075855255127 8.225997924805 152 152 152
20.653560638428 1.141925811768 8.102996826172 165 165 165
20.651721954346 1.173120498657 8.056991577148 166 166 166
20.651721954346 1.173120498657 8.017990112305 181 181 181
20.668239593506 1.158443450928 7.987991333008 184 184 184
20.653560638428 1.141925811768 7.965988159180 185 185 185
20.638883590698 1.125408172607 7.947998046875 179 179 179
20.639802932739 1.109809875488 7.934997558594 174 174 174
20.610446929932 1.076774597168 7.925994873047 164 164 164
20.610446929932 1.076774597168 7.899993896484 156 156 156
20.610446929932 1.076774597168 7.866989135742 154 154 154
20.610446929932 1.076774597168 7.828994750977 155 155 155
20.612285614014 1.045579910278 7.799987792969 155 155 155
20.612285614014 1.045579910278 7.766998291016 154 154 154
20.610446929932 1.076774597168 7.729995727539 155 155 155
20.612285614014 1.045579910278 7.698989868164 155 155 155
20.612285614014 1.045579910278 7.666000366211 156 156 156
20.626964569092 1.062097549438 7.630996704102 155 155 155
20.626964569092 1.062097549438 7.598999023438 154 154 154
20.626964569092 1.062097549438 7.569000244141 154 154 154
20.626964569092 1.062097549438 7.535995483398 156 156 156
20.626964569092 1.062097549438 7.501998901367 155 155 155
20.626964569092 1.062097549438 7.469985961914 158 158 158
20.626964569092 1.062097549438 7.444000244141 158 158 158
20.626964569092 1.062097549438 7.411987304688 158 158 158
20.626964569092 1.062097549438 7.380996704102 157 157 157
20.641643524170 1.078613281250 7.347991943359 158 158 158
20.626964569092 1.062097549438 7.323989868164 160 160 160
20.641643524170 1.078613281250 7.291000366211 155 155 155
20.626964569092 1.062097549438 7.264999389648 155 155 155
20.641643524170 1.078613281250 7.235000610352 154 154 154
20.641643524170 1.078613281250 7.203994750977 156 156 156
20.641643524170 1.078613281250 7.175994873047 157 157 157
20.641643524170 1.078613281250 7.144989013672 156 156 156
20.641643524170 1.078613281250 7.115997314453 155 155 155
20.641643524170 1.078613281250 7.088989257813 157 157 157
20.641643524170 1.078613281250 7.063995361328 159 159 159
20.657239913940 1.079532623291 7.030990600586 158 158 158
20.659080505371 1.048337936401 7.006988525391 159 159 159
20.657239913940 1.079532623291 6.976989746094 160 160 160
20.659080505371 1.048337936401 6.953994750977 158 158 158
20.657239913940 1.079532623291 6.920989990234 161 161 161
20.658159255981 1.063936233521 6.895996093750 161 161 161
20.658159255981 1.063936233521 6.867996215820 164 164 164
20.658159255981 1.063936233521 6.840988159180 165 165 165
20.658159255981 1.063936233521 6.815994262695 162 162 162
20.658159255981 1.063936233521 6.791000366211 162 162 162
20.658159255981 1.063936233521 6.763992309570 163 163 163
20.658159255981 1.063936233521 6.736999511719 164 164 164
20.674533843994 2.113594055176 9.920989990234 39 39 39
20.660776138306 2.081480026245 9.922988891602 112 112 112
20.646097183228 2.064962387085 9.916992187500 125 125 125
20.647016525269 2.049364089966 9.916000366211 71 71 71
20.654373168945 1.924581527710 8.427993774414 49 49 49
20.654373168945 1.924581527710 8.417999267578 122 122 122
20.640615463257 1.892465591431 8.403991699219 164 164 164
20.625017166138 1.891546249390 8.379989624023 167 167 167
20.611259460449 1.859428405762 8.376998901367 146 146 146
20.597499847412 1.827314376831 8.366989135742 70 70 70
20.692783355713 2.865974426270 9.894989013672 51 51 51
20.663427352905 2.832937240601 9.909988403320 112 112 112
20.649667739868 2.800821304321 9.892990112305 127 127 127
20.635910034180 2.768707275391 9.895996093750 82 82 82
20.612070083618 2.642084121704 8.843994140625 64 64 64
20.627668380737 2.643003463745 8.811996459961 140 140 140
20.612991333008 2.626487731934 8.779998779297 176 176 176
20.613910675049 2.610889434814 8.748992919922 183 183 183
20.613910675049 2.610889434814 8.691986083984 161 161 161
20.600151062012 2.578773498535 8.703994750977 162 162 162
20.601070404053 2.563175201416 8.690994262695 155 155 155
20.681676864624 3.585315704346 9.900985717773 81 81 81
20.667917251587 3.553201675415 9.885986328125 136 136 136
20.654159545898 3.521085739136 9.890991210938 140 140 140
20.655078887939 3.505487442017 9.897994995117 85 85 85
20.614723205566 3.393543243408 9.245986938477 113 113 113
20.600963592529 3.361427307129 9.230987548828 142 142 142
20.600963592529 3.361427307129 9.219985961914 148 148 148
20.571607589722 3.328392028809 9.212997436523 126 126 126
20.572526931763 3.312795639038 9.194992065430 41 41 41
20.631240844727 3.378864288330 8.688995361328 47 47 47
20.632160186768 3.363265991211 8.676986694336 126 126 126
20.602802276611 3.330230712891 8.677993774414 156 156 156
20.603721618652 3.314634323120 8.678985595703 165 165 165
20.604642868042 3.299036026001 8.678985595703 147 147 147
20.589963912964 3.282518386841 8.671997070313 88 88 88
20.698085784912 4.368890762329 9.883987426758 123 123 123
20.699924468994 4.337696075439 9.868988037109 169 169 169
20.669649124146 4.320257186890 9.867996215820 170 170 170
20.670568466187 4.304658889771 9.875000000000 176 176 176
20.641212463379 4.271623611450 9.885986328125 138 138 138
20.627452850342 4.239509582520 9.883987426758 40 40 40
20.615533828735 4.176198959351 9.705993652344 95 95 95
20.586177825928 4.143161773682 9.687988281250 136 136 136
20.588016510010 4.111965179443 9.685989379883 135 135 135
20.574258804321 4.079851150513 9.661987304688 109 109 109
20.621051788330 4.082611083984 8.663986206055 136 136 136
20.621971130371 4.067012786865 8.642990112305 192 192 192
20.607294082642 4.050495147705 8.636993408203 195 195 195
20.608213424683 4.034896850586 8.577987670898 172 172 172
20.593534469604 4.018379211426 8.543991088867 145 145 145
20.609945297241 4.801954269409 8.638000488281 141 141 141
20.611783981323 4.770757675171 8.644989013672 188 188 188
20.612703323364 4.755159378052 8.642990112305 186 186 186
20.582427978516 4.737722396851 8.650985717773 146 146 146
20.568668365479 4.705608367920 8.660995483398 45 45 45
20.604080200195 0.653793334961 3.085998535156 164 164 164
20.604999542236 0.638195037842 3.111999511719 162 162 162
20.604080200195 0.653793334961 3.140991210938 166 166 166
20.604999542236 0.638195037842 3.168991088867 165 165 165
20.604080200195 0.653793334961 3.199996948242 166 166 166
20.604080200195 0.653793334961 3.230987548828 162 162 162
20.604080200195 0.653793334961 3.257995605469 163 163 163
20.604080200195 0.653793334961 3.283996582031 166 166 166
20.604080200195 0.653793334961 3.312988281250 165 165 165
20.604080200195 0.653793334961 3.340988159180 168 168 168
20.604080200195 0.653793334961 3.372985839844 167 167 167
20.604080200195 0.653793334961 3.398986816406 167 167 167
20.603160858154 0.669391632080 3.424987792969 166 166 166
20.533412933350 0.790494918823 3.506988525391 158 158 158
20.515975952148 0.820772171021 3.551986694336 149 149 149
20.515975952148 0.820772171021 3.578994750977 143 143 143
20.515975952148 0.820772171021 3.603988647461 143 143 143
20.515975952148 0.820772171021 3.628997802734 144 144 144
20.514135360718 0.851966857910 3.658996582031 141 141 141
20.601322174072 0.700586318970 3.625000000000 170 170 170
20.603160858154 0.669391632080 3.639999389648 168 168 168
20.603160858154 0.669391632080 3.668991088867 181 181 181
20.603160858154 0.669391632080 3.695999145508 209 209 209
20.603160858154 0.669391632080 3.722000122070 209 209 209
20.602241516113 0.684988021851 3.750000000000 209 209 209
20.618759155273 0.670310974121 3.773986816406 209 209 209
20.602241516113 0.684988021851 3.799987792969 207 207 207
20.602241516113 0.684988021851 3.827987670898 208 208 208
20.618759155273 0.670310974121 3.850997924805 210 210 210
20.618759155273 0.670310974121 3.876998901367 183 183 183
20.634357452393 0.671230316162 3.897994995117 162 162 162
20.634357452393 0.671230316162 3.921997070313 168 168 168
20.634357452393 0.671230316162 3.947998046875 166 166 166
20.618759155273 0.670310974121 3.976989746094 171 171 171
20.618759155273 0.670310974121 4.000000000000 164 164 164
20.618759155273 0.670310974121 4.025985717773 169 169 169
20.618759155273 0.670310974121 4.050994873047 164 164 164
20.618759155273 0.670310974121 4.074996948242 167 167 167
20.634357452393 0.671230316162 4.099990844727 163 163 163
20.634357452393 0.671230316162 4.125991821289 167 167 167
20.634357452393 0.671230316162 4.149993896484 170 170 170
20.634357452393 0.671230316162 4.173995971680 167 167 167
20.634357452393 0.671230316162 4.199996948242 167 167 167
20.634357452393 0.671230316162 4.222991943359 168 168 168
20.634357452393 0.671230316162 4.246994018555 165 165 165
20.634357452393 0.671230316162 4.271987915039 163 163 163
20.634357452393 0.671230316162 4.296997070313 168 168 168
20.634357452393 0.671230316162 4.321990966797 169 169 169
20.634357452393 0.671230316162 4.344985961914 168 168 168
20.634357452393 0.671230316162 4.371994018555 166 166 166
20.634357452393 0.671230316162 4.393997192383 170 170 170
20.634357452393 0.671230316162 4.418991088867 173 173 173
20.649034500122 0.687746047974 4.442993164063 169 169 169
20.665552139282 0.673069000244 4.465988159180 166 166 166
20.649034500122 0.687746047974 4.490997314453 167 167 167
20.545331954956 0.853805541992 4.541000366211 165 165 165
20.510457992554 0.914358139038 4.572998046875 143 143 143
20.510457992554 0.914358139038 4.594985961914 136 136 136
20.526054382324 0.915277481079 4.616989135742 139 139 139
20.526054382324 0.915277481079 4.639999389648 136 136 136
20.508617401123 0.945554733276 4.662994384766 136 136 136
20.526054382324 0.915277481079 4.684997558594 136 136 136
20.631597518921 0.718023300171 4.684997558594 170 170 170
20.649034500122 0.687746047974 4.704986572266 175 175 175
20.649034500122 0.687746047974 4.727996826172 174 174 174
20.663713455200 0.704263687134 4.751998901367 172 172 172
20.663713455200 0.704263687134 4.775985717773 175 175 175
20.663713455200 0.704263687134 4.798995971680 175 175 175
20.663713455200 0.704263687134 4.822998046875 174 174 174
20.663713455200 0.704263687134 4.847000122070 177 177 177
20.663713455200 0.704263687134 4.869995117188 179 179 179
20.663713455200 0.704263687134 4.892990112305 177 177 177
20.664632797241 0.688665390015 4.916992187500 172 172 172
20.663713455200 0.704263687134 4.940994262695 171 171 171
20.646276473999 0.734540939331 4.964996337891 176 176 176
20.646276473999 0.734540939331 4.987991333008 175 175 175
20.612321853638 0.779495239258 5.011993408203 175 175 175
20.610483169556 0.810691833496 5.034988403320 172 172 172
20.593963623047 0.825370788574 5.057998657227 174 174 174
20.593044281006 0.840967178345 5.079986572266 180 180 180
20.593044281006 0.840967178345 5.102996826172 175 175 175
20.593044281006 0.840967178345 5.125000000000 177 177 177
20.576526641846 0.855644226074 5.147994995117 182 182 182
20.576526641846 0.855644226074 5.169998168945 182 182 182
20.576526641846 0.855644226074 5.191986083984 175 175 175
20.576526641846 0.855644226074 5.213989257813 178 178 178
20.559089660645 0.885921478271 5.235000610352 166 166 166
20.541652679443 0.916196823120 5.254989624023 153 153 153
20.524215698242 0.946474075317 5.275985717773 146 146 146
20.522377014160 0.977670669556 5.295989990234 134 134 134
20.505859375000 0.992347717285 5.316986083984 128 128 128
20.505859375000 0.992347717285 5.337997436523 131 131 131
20.505859375000 0.992347717285 5.360000610352 132 132 132
20.505859375000 0.992347717285 5.380996704102 131 131 131
20.505859375000 0.992347717285 5.401992797852 134 134 134
20.505859375000 0.992347717285 5.424987792969 129 129 129
20.505859375000 0.992347717285 5.446990966797 125 125 125
20.505859375000 0.992347717285 5.467987060547 125 125 125
20.504940032959 1.007946014404 5.488998413086 118 118 118
20.505859375000 0.992347717285 5.510986328125 123 123 123
20.504940032959 1.007946014404 5.531997680664 124 124 124
20.504940032959 1.007946014404 5.553985595703 120 120 120
20.520538330078 1.008865356445 5.574996948242 126 126 126
20.518697738647 1.040061950684 5.594985961914 134 134 134
20.518697738647 1.040061950684 5.616989135742 143 143 143
20.518697738647 1.040061950684 5.638992309570 145 145 145
20.520538330078 1.008865356445 5.661987304688 145 145 145
20.520538330078 1.008865356445 5.683990478516 150 150 150
20.518697738647 1.040061950684 5.704986572266 147 147 147
20.520538330078 1.008865356445 5.727996826172 151 151 151
20.518697738647 1.040061950684 5.747985839844 148 148 148
20.518697738647 1.040061950684 5.768997192383 150 150 150
20.518697738647 1.040061950684 5.791992187500 156 156 156
20.520538330078 1.008865356445 5.815994262695 154 154 154
20.520538330078 1.008865356445 5.838989257813 156 156 156
20.520538330078 1.008865356445 5.860992431641 156 156 156
20.520538330078 1.008865356445 5.883987426758 159 159 159
20.518697738647 1.040061950684 5.904998779297 158 158 158
20.518697738647 1.040061950684 5.927993774414 162 162 162
20.518697738647 1.040061950684 5.948989868164 163 163 163
20.518697738647 1.040061950684 5.972991943359 159 159 159
20.518697738647 1.040061950684 5.994995117188 159 159 159
20.535215377808 1.025382995605 6.018997192383 159 159 159
20.535215377808 1.025382995605 6.043991088867 157 157 157
20.535215377808 1.025382995605 6.064987182617 159 159 159
20.535215377808 1.025382995605 6.087997436523 162 162 162
20.535215377808 1.025382995605 6.110992431641 161 161 161
20.535215377808 1.025382995605 6.133987426758 161 161 161
20.535215377808 1.025382995605 6.156997680664 163 163 163
20.535215377808 1.025382995605 6.182998657227 164 164 164
20.518697738647 1.040061950684 6.202987670898 163 163 163
20.534296035767 1.040981292725 6.228988647461 162 162 162
20.534296035767 1.040981292725 6.252990722656 162 162 162
20.551733016968 1.010704040527 6.278991699219 159 159 159
20.534296035767 1.040981292725 6.297988891602 162 162 162
20.534296035767 1.040981292725 6.324996948242 162 162 162
20.534296035767 1.040981292725 6.347000122070 162 162 162
20.534296035767 1.040981292725 6.373992919922 161 161 161
20.551733016968 1.010704040527 6.399993896484 161 161 161
20.534296035767 1.040981292725 6.421997070313 162 162 162
20.534296035767 1.040981292725 6.444992065430 160 160 160
20.534296035767 1.040981292725 6.469985961914 161 161 161
20.551733016968 1.010704040527 6.500000000000 164 164 164
20.551733016968 1.010704040527 6.522994995117 161 161 161
20.551733016968 1.010704040527 6.546997070313 166 166 166
20.566411972046 1.027221679688 6.570999145508 159 159 159
20.566411972046 1.027221679688 6.597000122070 162 162 162
20.566411972046 1.027221679688 6.621994018555 162 162 162
20.566411972046 1.027221679688 6.647994995117 155 155 155
20.566411972046 1.027221679688 6.671997070313 159 159 159
20.566411972046 1.027221679688 6.699996948242 160 160 160
20.659080505371 1.048337936401 3.094985961914 160 160 160
20.658159255981 1.063936233521 3.122985839844 160 160 160
20.658159255981 1.063936233521 3.144989013672 158 158 158
20.658159255981 1.063936233521 3.175994873047 159 159 159
20.674676895142 1.049259185791 3.196990966797 160 160 160
20.692113876343 1.018981933594 3.198989868164 152 152 152
20.742586135864 0.959348678589 3.186996459961 3 3 3
20.744426727295 0.928152084351 3.205993652344 4 4 4
20.761863708496 0.897876739502 3.208999633789 4 4 4
20.455387115479 1.051980972290 3.194992065430 163 163 163
20.484743118286 1.085016250610 3.182998657227 164 164 164
20.484743118286 1.085016250610 3.155990600586 158 158 158
20.485664367676 1.069417953491 3.122985839844 161 161 161
20.484743118286 1.085016250610 3.101989746094 158 158 158
20.534296035767 1.040981292725 6.701995849609 136 136 136
20.534296035767 1.040981292725 6.678985595703 139 139 139
20.534296035767 1.040981292725 6.650985717773 147 147 147
20.534296035767 1.040981292725 6.623992919922 151 151 151
20.534296035767 1.040981292725 6.597991943359 161 161 161
20.534296035767 1.040981292725 6.574996948242 164 164 164
20.548974990845 1.057498931885 6.545989990234 165 165 165
20.534296035767 1.040981292725 6.522994995117 169 169 169
20.534296035767 1.040981292725 6.496994018555 169 169 169
20.548974990845 1.057498931885 6.468994140625 169 169 169
20.548974990845 1.057498931885 6.444992065430 171 171 171
20.549894332886 1.041900634766 6.422988891602 167 167 167
20.548974990845 1.057498931885 6.395996093750 169 169 169
20.549894332886 1.041900634766 6.370986938477 170 170 170
20.549894332886 1.041900634766 6.347991943359 170 170 170
20.548974990845 1.057498931885 6.320999145508 172 172 172
20.549894332886 1.041900634766 6.299987792969 171 171 171
20.549894332886 1.041900634766 6.273986816406 169 169 169
20.565492630005 1.042819976807 6.247985839844 169 169 169
20.565492630005 1.042819976807 6.224990844727 170 170 170
20.565492630005 1.042819976807 6.200988769531 168 168 168
20.549894332886 1.041900634766 6.177993774414 167 167 167
20.565492630005 1.042819976807 6.151992797852 169 169 169
20.565492630005 1.042819976807 6.126998901367 167 167 167
20.565492630005 1.042819976807 6.106994628906 170 170 170
20.565492630005 1.042819976807 6.080993652344 166 166 166
20.580169677734 1.059339523315 6.054992675781 169 169 169
20.565492630005 1.042819976807 6.033996582031 164 164 164
20.565492630005 1.042819976807 6.011993408203 161 161 161
20.580169677734 1.059339523315 5.986999511719 162 162 162
20.580169677734 1.059339523315 5.963989257813 163 163 163
20.580169677734 1.059339523315 5.940994262695 167 167 167
20.580169677734 1.059339523315 5.917999267578 169 169 169
20.596687316895 1.044660568237 5.895996093750 168 168 168
20.580169677734 1.059339523315 5.870986938477 165 165 165
20.594848632813 1.075855255127 5.847000122070 166 166 166
20.596687316895 1.044660568237 5.824996948242 168 168 168
20.596687316895 1.044660568237 5.802993774414 170 170 170
20.596687316895 1.044660568237 5.779998779297 168 168 168
20.596687316895 1.044660568237 5.755996704102 169 169 169
20.596687316895 1.044660568237 5.733993530273 169 169 169
20.596687316895 1.044660568237 5.712997436523 172 172 172
20.596687316895 1.044660568237 5.687988281250 171 171 171
20.596687316895 1.044660568237 5.666992187500 168 168 168
20.596687316895 1.044660568237 5.643997192383 169 169 169
20.596687316895 1.044660568237 5.620986938477 172 172 172
20.596687316895 1.044660568237 5.598999023438 168 168 168
20.596687316895 1.044660568237 5.576995849609 169 169 169
20.596687316895 1.044660568237 5.554992675781 170 170 170
20.612285614014 1.045579910278 5.531997680664 169 169 169
20.596687316895 1.044660568237 5.510986328125 170 170 170
20.612285614014 1.045579910278 5.487991333008 170 170 170
20.612285614014 1.045579910278 5.464996337891 165 165 165
20.612285614014 1.045579910278 5.442993164063 167 167 167
20.627883911133 1.046499252319 5.421997070313 172 172 172
20.627883911133 1.046499252319 5.399993896484 169 169 169
20.627883911133 1.046499252319 5.377990722656 168 168 168
20.627883911133 1.046499252319 5.355987548828 168 168 168
20.627883911133 1.046499252319 5.332992553711 166 166 166
20.626964569092 1.062097549438 5.310989379883 163 163 163
20.643482208252 1.047418594360 5.289993286133 167 167 167
20.643482208252 1.047418594360 5.267990112305 167 167 167
20.643482208252 1.047418594360 5.245986938477 169 169 169
20.643482208252 1.047418594360 5.223999023438 168 168 168
20.643482208252 1.047418594360 5.201995849609 169 169 169
20.643482208252 1.047418594360 5.179992675781 173 173 173
20.643482208252 1.047418594360 5.158996582031 175 175 175
20.643482208252 1.047418594360 5.136993408203 174 174 174
20.643482208252 1.047418594360 5.114990234375 173 173 173
20.643482208252 1.047418594360 5.092987060547 172 172 172
20.643482208252 1.047418594360 5.070999145508 171 171 171
20.659080505371 1.048337936401 5.049987792969 172 172 172
20.659080505371 1.048337936401 5.027999877930 169 169 169
20.659080505371 1.048337936401 5.005996704102 171 171 171
20.659080505371 1.048337936401 4.985000610352 168 168 168
20.659080505371 1.048337936401 4.962997436523 170 170 170
20.659080505371 1.048337936401 4.940994262695 172 172 172
20.659080505371 1.048337936401 4.918991088867 172 172 172
20.659080505371 1.048337936401 4.896987915039 174 174 174
20.658159255981 1.063936233521 4.875991821289 168 168 168
20.659080505371 1.048337936401 4.853988647461 164 164 164
20.658159255981 1.063936233521 4.832000732422 164 164 164
20.659080505371 1.048337936401 4.809997558594 161 161 161
20.674676895142 1.049259185791 4.787994384766 162 162 162
20.659080505371 1.048337936401 4.765991210938 164 164 164
20.659080505371 1.048337936401 4.743988037109 156 156 156
20.674676895142 1.049259185791 4.722000122070 154 154 154
20.674676895142 1.049259185791 4.699996948242 153 153 153
20.659080505371 1.048337936401 4.676986694336 154 154 154
20.659080505371 1.048337936401 4.654998779297 150 150 150
20.659080505371 1.048337936401 4.632995605469 143 143 143
20.675598144531 1.033660888672 4.610000610352 138 138 138
20.675598144531 1.033660888672 4.587997436523 133 133 133
20.675598144531 1.033660888672 4.564987182617 133 133 133
20.675598144531 1.033660888672 4.543991088867 137 137 137
20.675598144531 1.033660888672 4.520996093750 135 135 135
20.660919189453 1.017141342163 4.495986938477 131 131 131
20.660919189453 1.017141342163 4.472000122070 134 134 134
20.676517486572 1.018062591553 4.450988769531 133 133 133
20.660919189453 1.017141342163 4.426986694336 136 136 136
20.660919189453 1.017141342163 4.403991699219 138 138 138
20.662757873535 0.985946655273 4.377990722656 137 137 137
20.647159576416 0.985027313232 4.352996826172 131 131 131
20.647159576416 0.985027313232 4.325988769531 141 141 141
20.648078918457 0.969429016113 4.300994873047 140 140 140
20.648078918457 0.969429016113 4.274993896484 141 141 141
20.618722915649 0.936393737793 4.245986938477 143 143 143
20.635240554810 0.921714782715 4.222000122070 141 141 141
20.635240554810 0.921714782715 4.195999145508 141 141 141
20.621482849121 0.889600753784 4.164993286133 139 139 139
20.592124938965 0.856565475464 4.132995605469 145 145 145
20.564607620239 0.792333602905 4.089996337891 142 142 142
20.535251617432 0.759298324585 4.048995971680 148 148 148
20.552688598633 0.729022979736 4.021987915039 144 144 144
20.537090301514 0.728103637695 3.993988037109 146 146 146
20.537090301514 0.728103637695 3.965988159180 149 149 149
20.523332595825 0.695987701416 3.937988281250 154 154 154
20.538009643555 0.712505340576 3.912994384766 147 147 147
20.538009643555 0.712505340576 3.888000488281 161 161 161
20.538009643555 0.712505340576 3.862991333008 224 224 224
20.538009643555 0.712505340576 3.835998535156 224 224 224
20.538009643555 0.712505340576 3.809997558594 222 222 222
20.650838851929 0.922634124756 3.861999511719 209 209 209
20.680194854736 0.955671310425 3.852996826172 194 194 194
20.680194854736 0.955671310425 3.825988769531 190 190 190
