33.968750000000 21.164062500000 59.575004577637 101 101 101
33.968750000000 21.171875000000 59.620994567871 91 91 91
33.968750000000 21.164062500000 60.043998718262 94 94 94
33.968750000000 21.468750000000 59.600990295410 149 149 149
34.000000000000 21.492187500000 60.183998107910 61 61 61
33.968750000000 21.781250000000 59.581993103027 120 120 120
33.968750000000 21.781250000000 59.631996154785 71 71 71
34.000000000000 21.796875000000 60.275001525879 54 54 54
34.000000000000 22.093750000000 59.575996398926 12 12 12
33.968750000000 22.085937500000 59.613990783691 150 150 150
33.968750000000 22.101562500000 60.411003112793 105 105 105
33.968750000000 22.406250000000 59.594001770020 128 128 128
33.968750000000 22.406250000000 59.648002624512 31 31 31
33.968750000000 22.398437500000 60.549003601074 45 45 45
33.968750000000 22.710937500000 59.616004943848 147 147 147
34.031250000000 22.726562500000 60.652000427246 74 74 74
33.968750000000 22.718750000000 60.691993713379 76 76 76
33.968750000000 23.015625000000 58.702003479004 155 155 155
33.937500000000 22.992187500000 58.734001159668 181 181 181
33.937500000000 23.000000000000 58.784004211426 179 179 179
33.937500000000 23.000000000000 58.831001281738 180 180 180
33.937500000000 22.984375000000 58.875999450684 185 185 185
33.937500000000 22.984375000000 58.924995422363 192 192 192
33.937500000000 22.992187500000 58.974998474121 163 163 163
33.937500000000 22.992187500000 59.023002624512 168 168 168
33.937500000000 22.992187500000 59.070991516113 169 169 169
33.937500000000 23.000000000000 59.120994567871 164 164 164
33.937500000000 22.992187500000 59.168998718262 167 167 167
33.937500000000 23.000000000000 59.219993591309 169 169 169
33.937500000000 22.992187500000 59.267997741699 165 165 165
33.937500000000 23.000000000000 59.318000793457 175 175 175
33.937500000000 23.000000000000 59.368003845215 182 182 182
33.937500000000 23.000000000000 59.417991638184 169 169 169
33.937500000000 23.000000000000 59.469001770020 171 171 171
33.937500000000 23.000000000000 59.517997741699 173 173 173
33.937500000000 22.984375000000 59.564994812012 174 174 174
33.937500000000 22.992187500000 59.618003845215 115 115 115
33.937500000000 22.992187500000 59.667991638184 156 156 156
33.937500000000 22.992187500000 59.721000671387 158 158 158
33.937500000000 22.992187500000 59.771003723145 157 157 157
33.937500000000 23.000000000000 59.825996398926 159 159 159
33.937500000000 23.000000000000 59.876991271973 157 157 157
33.937500000000 23.000000000000 59.928001403809 160 160 160
33.937500000000 23.000000000000 59.980995178223 171 171 171
33.937500000000 23.000000000000 60.034004211426 145 145 145
33.937500000000 22.992187500000 60.083000183105 140 140 140
33.937500000000 23.007812500000 60.142997741699 150 150 150
33.937500000000 23.007812500000 60.198997497559 149 149 149
33.937500000000 23.007812500000 60.250999450684 145 145 145
33.937500000000 23.007812500000 60.305000305176 144 144 144
33.937500000000 23.000000000000 60.355003356934 147 147 147
33.937500000000 23.000000000000 60.409996032715 135 135 135
33.937500000000 23.007812500000 60.467002868652 128 128 128
33.937500000000 23.000000000000 60.519996643066 129 129 129
33.937500000000 23.007812500000 60.577003479004 127 127 127
33.937500000000 23.007812500000 60.635002136230 105 105 105
33.937500000000 23.000000000000 60.685005187988 103 103 103
33.937500000000 23.007812500000 60.749992370605 103 103 103
33.968750000000 22.992187500000 60.808998107910 96 96 96
33.937500000000 23.000000000000 60.857002258301 112 112 112
33.937500000000 23.000000000000 60.913002014160 90 90 90
33.937500000000 23.007812500000 60.973991394043 82 82 82
33.937500000000 23.000000000000 61.030998229980 90 90 90
33.937500000000 23.000000000000 61.088005065918 65 65 65
33.937500000000 23.007812500000 61.150001525879 77 77 77
33.937500000000 23.000000000000 61.204994201660 81 81 81
33.937500000000 22.992187500000 61.260993957520 75 75 75
33.937500000000 22.992187500000 61.321998596191 56 56 56
33.937500000000 22.992187500000 61.381004333496 56 56 56
33.937500000000 23.007812500000 61.452995300293 44 44 44
33.937500000000 23.000000000000 61.510002136230 38 38 38
33.937500000000 23.007812500000 61.573997497559 26 26 26
33.937500000000 23.007812500000 61.635993957520 24 24 24
33.968750000000 22.992187500000 61.702003479004 20 20 20
33.843750000000 13.164062500000 61.411003112793 159 159 159
33.875000000000 13.156250000000 61.351997375488 196 196 196
33.875000000000 13.156250000000 61.291999816895 191 191 191
33.875000000000 13.156250000000 61.236000061035 191 191 191
33.875000000000 13.156250000000 61.178993225098 198 198 198
33.875000000000 13.156250000000 61.113990783691 197 197 197
33.875000000000 13.164062500000 61.058998107910 189 189 189
33.875000000000 13.148437500000 61.002998352051 185 185 185
33.875000000000 13.164062500000 60.939994812012 185 185 185
33.875000000000 13.164062500000 60.883995056152 190 190 190
33.875000000000 13.148437500000 60.831993103027 190 190 190
33.875000000000 13.148437500000 60.771003723145 191 191 191
33.875000000000 13.164062500000 60.708000183105 149 149 149
33.875000000000 13.164062500000 60.650001525879 153 153 153
33.875000000000 13.148437500000 60.603996276855 192 192 192
33.906250000000 13.148437500000 60.549995422363 195 195 195
33.875000000000 13.156250000000 60.491996765137 194 194 194
33.906250000000 13.148437500000 60.437995910645 194 194 194
33.906250000000 13.148437500000 60.383003234863 194 194 194
33.906250000000 13.148437500000 60.329002380371 188 188 188
33.906250000000 13.148437500000 60.277992248535 190 190 190
33.906250000000 13.148437500000 60.219993591309 187 187 187
33.906250000000 13.148437500000 60.167991638184 187 187 187
33.906250000000 13.132812500000 60.118995666504 191 191 191
33.906250000000 13.132812500000 60.062004089355 194 194 194
33.906250000000 13.132812500000 60.008995056152 193 193 193
33.906250000000 13.132812500000 59.954994201660 186 186 186
33.906250000000 13.132812500000 59.903999328613 187 187 187
33.906250000000 13.132812500000 59.853004455566 183 183 183
33.937500000000 13.125000000000 59.805000305176 180 180 180
33.906250000000 13.132812500000 59.747993469238 170 170 170
33.875000000000 13.164062500000 59.674995422363 134 134 134
33.906250000000 13.132812500000 59.639991760254 159 159 159
33.937500000000 13.132812500000 59.596000671387 169 169 169
33.906250000000 13.132812500000 59.540000915527 165 165 165
33.906250000000 13.140625000000 59.489997863770 163 163 163
33.937500000000 13.132812500000 59.439994812012 152 152 152
33.906250000000 13.132812500000 59.385002136230 159 159 159
33.937500000000 13.132812500000 59.336997985840 165 165 165
33.937500000000 13.132812500000 59.286994934082 153 153 153
33.937500000000 13.132812500000 59.236991882324 140 140 140
33.937500000000 13.132812500000 59.187995910645 124 124 124
33.937500000000 13.132812500000 59.137001037598 160 160 160
33.937500000000 13.132812500000 59.086997985840 149 149 149
33.937500000000 13.132812500000 59.036003112793 155 155 155
33.937500000000 13.132812500000 58.986991882324 140 140 140
33.937500000000 13.132812500000 58.937004089355 130 130 130
33.937500000000 13.132812500000 58.887992858887 131 131 131
33.937500000000 13.132812500000 58.840003967285 130 130 130
33.937500000000 13.132812500000 58.790000915527 142 142 142
33.937500000000 13.132812500000 58.743003845215 142 142 142
33.937500000000 13.132812500000 58.691993713379 124 124 124
33.937500000000 13.125000000000 58.646995544434 132 132 132
33.937500000000 13.140625000000 58.596992492676 137 137 137
33.937500000000 13.125000000000 58.551002502441 147 147 147
33.937500000000 13.140625000000 58.499992370605 138 138 138
33.937500000000 13.140625000000 58.452003479004 131 131 131
33.937500000000 13.125000000000 58.404991149902 139 139 139
33.937500000000 13.125000000000 58.357994079590 128 128 128
33.937500000000 13.125000000000 58.310005187988 123 123 123
33.937500000000 13.125000000000 58.262992858887 131 131 131
33.937500000000 13.125000000000 58.213996887207 120 120 120
33.937500000000 13.125000000000 58.166999816895 118 118 118
33.937500000000 13.125000000000 58.118003845215 111 111 111
33.968750000000 13.125000000000 58.071998596191 97 97 97
33.968750000000 13.117187500000 58.025993347168 76 76 76
33.968750000000 13.117187500000 57.978996276855 68 68 68
33.968750000000 13.117187500000 57.931999206543 72 72 72
33.968750000000 13.125000000000 57.883003234863 36 36 36
33.968750000000 13.117187500000 57.840003967285 24 24 24
33.968750000000 13.125000000000 57.788993835449 22 22 22
33.906250000000 13.445312500000 60.584999084473 53 53 53
33.906250000000 13.460937500000 59.657997131348 138 138 138
33.906250000000 13.765625000000 60.501991271973 44 44 44
33.906250000000 13.781250000000 59.685005187988 85 85 85
33.906250000000 13.765625000000 59.637992858887 114 114 114
33.906250000000 14.070312500000 60.368995666504 91 91 91
33.906250000000 14.070312500000 59.669990539551 121 121 121
33.906250000000 14.062500000000 59.624992370605 73 73 73
33.906250000000 14.367187500000 60.243995666504 105 105 105
33.906250000000 14.375000000000 59.653999328613 150 150 150
33.906250000000 14.671875000000 60.163993835449 8 8 8
33.937500000000 14.664062500000 60.116004943848 16 16 16
33.906250000000 14.679687500000 59.680992126465 57 57 57
33.906250000000 14.671875000000 59.629997253418 124 124 124
33.906250000000 14.992187500000 60.027992248535 98 98 98
33.906250000000 15.000000000000 59.650993347168 146 146 146
33.937500000000 14.976562500000 59.607994079590 22 22 22
33.937500000000 15.289062500000 59.894996643066 83 83 83
33.906250000000 15.320312500000 59.672996520996 29 29 29
33.906250000000 15.312500000000 59.622001647949 149 149 149
33.937500000000 15.609375000000 59.818992614746 16 16 16
33.906250000000 15.625000000000 59.650001525879 113 113 113
33.906250000000 15.617187500000 59.603004455566 123 123 123
33.937500000000 15.914062500000 59.689994812012 102 102 102
33.906250000000 15.921875000000 59.633003234863 134 134 134
33.906250000000 15.921875000000 59.583000183105 104 104 104
34.000000000000 15.875000000000 59.153999328613 116 116 116
33.906250000000 16.210937500000 59.616004943848 157 157 157
33.968750000000 16.179687500000 59.129997253418 111 111 111
33.906250000000 16.531250000000 59.639991760254 115 115 115
33.906250000000 16.523437500000 59.590995788574 122 122 122
33.968750000000 16.507812500000 59.152000427246 77 77 77
33.906250000000 16.851562500000 59.609001159668 151 151 151
33.937500000000 16.828125000000 59.571998596191 109 109 109
33.968750000000 16.820312500000 59.528999328613 83 83 83
33.968750000000 16.820312500000 59.480003356934 94 94 94
33.968750000000 16.820312500000 59.426994323730 98 98 98
33.968750000000 16.820312500000 59.374992370605 104 104 104
33.968750000000 16.820312500000 59.323997497559 105 105 105
33.968750000000 16.820312500000 59.275993347168 109 109 109
33.937500000000 16.828125000000 59.219993591309 112 112 112
33.937500000000 16.828125000000 59.170997619629 112 112 112
33.937500000000 16.828125000000 59.120994567871 121 121 121
33.906250000000 17.171875000000 59.633995056152 88 88 88
33.906250000000 17.164062500000 59.583992004395 137 137 137
33.937500000000 17.140625000000 59.142997741699 54 54 54
33.968750000000 17.140625000000 59.094993591309 24 24 24
33.906250000000 17.476562500000 59.611000061035 125 125 125
33.937500000000 17.468750000000 59.568000793457 89 89 89
33.968750000000 17.445312500000 59.322990417480 194 194 194
33.968750000000 17.445312500000 59.275001525879 212 212 212
33.968750000000 17.445312500000 59.221992492676 213 213 213
33.968750000000 17.445312500000 59.174003601074 211 211 211
33.968750000000 17.429687500000 59.125999450684 187 187 187
33.906250000000 17.757812500000 59.598991394043 153 153 153
33.937500000000 17.757812500000 59.555000305176 21 21 21
33.937500000000 17.757812500000 59.350990295410 121 121 121
33.968750000000 17.734375000000 59.306999206543 202 202 202
33.968750000000 17.734375000000 59.256996154785 170 170 170
33.937500000000 17.750000000000 59.204002380371 199 199 199
33.968750000000 17.734375000000 59.159996032715 217 217 217
33.968750000000 17.734375000000 59.105995178223 142 142 142
33.937500000000 18.054687500000 59.635993957520 42 42 42
33.906250000000 18.062500000000 59.581001281738 146 146 146
33.968750000000 18.039062500000 59.338996887207 168 168 168
33.968750000000 18.039062500000 59.290000915527 180 180 180
33.968750000000 18.039062500000 59.237998962402 190 190 190
33.968750000000 18.039062500000 59.187004089355 168 168 168
33.968750000000 18.039062500000 59.138999938965 210 210 210
33.968750000000 18.031250000000 59.092994689941 71 71 71
33.906250000000 18.390625000000 59.605003356934 130 130 130
33.906250000000 18.375000000000 59.560005187988 96 96 96
33.937500000000 18.367187500000 59.359992980957 32 32 32
33.937500000000 18.359375000000 59.316001892090 204 204 204
33.937500000000 18.359375000000 59.264991760254 217 217 217
33.968750000000 18.351562500000 59.217002868652 213 213 213
33.968750000000 18.351562500000 59.167991638184 204 204 204
33.968750000000 18.351562500000 59.116996765137 177 177 177
33.937500000000 18.695312500000 59.635993957520 16 16 16
33.906250000000 18.695312500000 59.579002380371 150 150 150
33.937500000000 18.687500000000 59.333992004395 163 163 163
33.968750000000 18.671875000000 59.290992736816 191 191 191
33.968750000000 18.671875000000 59.239997863770 184 184 184
33.968750000000 18.671875000000 59.193992614746 182 182 182
33.968750000000 18.679687500000 59.137992858887 210 210 210
33.968750000000 18.671875000000 59.090995788574 99 99 99
33.906250000000 19.007812500000 59.601997375488 140 140 140
33.937500000000 19.007812500000 59.560005187988 95 95 95
33.937500000000 18.984375000000 59.361000061035 47 47 47
33.968750000000 18.992187500000 59.314994812012 211 211 211
33.968750000000 18.992187500000 59.264991760254 189 189 189
33.968750000000 18.984375000000 59.215003967285 189 189 189
33.968750000000 18.984375000000 59.165992736816 213 213 213
33.968750000000 18.984375000000 59.116004943848 178 178 178
33.906250000000 19.320312500000 59.583000183105 155 155 155
33.968750000000 19.289062500000 59.346000671387 111 111 111
33.968750000000 19.289062500000 59.297996520996 205 205 205
33.968750000000 19.281250000000 59.250999450684 97 97 97
33.968750000000 19.281250000000 59.200004577637 137 137 137
33.968750000000 19.281250000000 59.148994445801 216 216 216
33.968750000000 19.281250000000 59.098991394043 142 142 142
33.937500000000 19.601562500000 59.626991271973 26 26 26
33.906250000000 19.617187500000 59.569999694824 141 141 141
33.968750000000 19.570312500000 59.544990539551 91 91 91
34.000000000000 19.578125000000 59.495994567871 96 96 96
34.000000000000 19.578125000000 59.443992614746 99 99 99
34.000000000000 19.578125000000 59.392997741699 99 99 99
34.000000000000 19.578125000000 59.342994689941 105 105 105
34.000000000000 19.578125000000 59.288993835449 103 103 103
34.000000000000 19.578125000000 59.241996765137 102 102 102
34.000000000000 19.578125000000 59.189994812012 103 103 103
34.000000000000 19.578125000000 59.138999938965 107 107 107
34.000000000000 19.578125000000 59.090003967285 107 107 107
33.906250000000 19.921875000000 59.605003356934 122 122 122
33.906250000000 19.921875000000 59.556999206543 124 124 124
33.968750000000 19.875000000000 59.125999450684 72 72 72
33.968750000000 19.875000000000 59.071998596191 21 21 21
33.937500000000 20.210937500000 59.646003723145 83 83 83
33.906250000000 20.226562500000 59.583992004395 159 159 159
33.937500000000 20.218750000000 59.547004699707 46 46 46
33.968750000000 20.179687500000 59.103996276855 115 115 115
33.937500000000 20.531250000000 59.769996643066 94 94 94
33.906250000000 20.554687500000 59.603004455566 131 131 131
33.937500000000 20.531250000000 59.560005187988 101 101 101
33.968750000000 20.515625000000 59.122001647949 75 75 75
33.968750000000 20.515625000000 59.071998596191 14 14 14
33.937500000000 20.843750000000 59.896995544434 103 103 103
33.906250000000 20.859375000000 59.622993469238 33 33 33
33.906250000000 20.859375000000 59.575004577637 147 147 147
34.000000000000 20.812500000000 59.096992492676 121 121 121
33.937500000000 21.148437500000 60.036003112793 36 36 36
33.937500000000 21.140625000000 59.993003845215 34 34 34
33.906250000000 21.164062500000 59.609001159668 91 91 91
33.906250000000 21.156250000000 59.562004089355 119 119 119
33.937500000000 21.453125000000 60.131004333496 87 87 87
33.937500000000 21.460937500000 59.597999572754 127 127 127
33.937500000000 21.445312500000 59.560997009277 51 51 51
33.937500000000 21.742187500000 60.228996276855 87 87 87
33.937500000000 21.750000000000 59.586997985840 141 141 141
33.937500000000 22.062500000000 60.362998962402 98 98 98
33.906250000000 22.078125000000 59.607002258301 150 150 150
33.937500000000 22.062500000000 59.564002990723 19 19 19
33.937500000000 22.375000000000 60.486991882324 102 102 102
33.906250000000 22.398437500000 59.620002746582 100 100 100
33.937500000000 22.382812500000 59.579994201660 96 96 96
33.937500000000 22.687500000000 60.631996154785 89 89 89
33.937500000000 22.695312500000 59.597999572754 148 148 148
33.875000000000 23.015625000000 61.697990417480 100 100 100
33.875000000000 23.015625000000 61.638999938965 187 187 187
33.906250000000 23.015625000000 61.581001281738 192 192 192
33.906250000000 23.015625000000 61.519004821777 190 190 190
33.906250000000 23.007812500000 61.460990905762 189 189 189
33.906250000000 23.015625000000 61.394996643066 185 185 185
33.906250000000 23.015625000000 61.333992004395 181 181 181
33.906250000000 23.007812500000 61.278999328613 186 186 186
33.906250000000 23.007812500000 61.219001770020 185 185 185
33.906250000000 23.015625000000 61.155998229980 182 182 182
33.906250000000 23.015625000000 61.096992492676 178 178 178
33.906250000000 23.007812500000 61.041999816895 184 184 184
33.906250000000 23.015625000000 60.978996276855 179 179 179
33.906250000000 23.015625000000 60.922996520996 177 177 177
33.906250000000 23.015625000000 60.861991882324 183 183 183
33.906250000000 23.015625000000 60.801994323730 189 189 189
33.906250000000 23.015625000000 60.749992370605 173 173 173
33.875000000000 23.031250000000 60.687995910645 129 129 129
33.875000000000 23.031250000000 60.631996154785 152 152 152
33.906250000000 23.015625000000 60.577995300293 172 172 172
33.906250000000 23.015625000000 60.523994445801 171 171 171
33.906250000000 23.015625000000 60.465003967285 164 164 164
33.906250000000 23.015625000000 60.411003112793 164 164 164
33.906250000000 23.015625000000 60.357002258301 172 172 172
33.906250000000 23.015625000000 60.301994323730 171 171 171
33.906250000000 23.015625000000 60.247993469238 166 166 166
33.875000000000 23.031250000000 60.193000793457 168 168 168
33.906250000000 23.015625000000 60.144004821777 168 168 168
33.906250000000 23.015625000000 60.088005065918 163 163 163
33.875000000000 23.031250000000 60.032997131348 166 166 166
33.875000000000 23.031250000000 59.980995178223 178 178 178
33.875000000000 23.031250000000 59.926002502441 178 178 178
33.875000000000 23.031250000000 59.872993469238 173 173 173
33.875000000000 23.031250000000 59.822990417480 171 171 171
33.875000000000 23.031250000000 59.766990661621 168 168 168
33.906250000000 23.015625000000 59.721000671387 173 173 173
33.875000000000 23.031250000000 59.667991638184 176 176 176
33.875000000000 23.039062500000 59.611991882324 128 128 128
33.875000000000 23.031250000000 59.562995910645 180 180 180
33.875000000000 23.031250000000 59.512992858887 181 181 181
33.875000000000 23.031250000000 59.459999084473 176 176 176
33.875000000000 23.031250000000 59.413002014160 172 172 172
33.875000000000 23.031250000000 59.361991882324 181 181 181
33.875000000000 23.031250000000 59.312995910645 192 192 192
33.875000000000 23.031250000000 59.262992858887 178 178 178
33.875000000000 23.031250000000 59.211997985840 181 181 181
33.875000000000 23.031250000000 59.163002014160 179 179 179
33.875000000000 23.031250000000 59.114997863770 176 176 176
33.875000000000 23.039062500000 59.060997009277 186 186 186
33.875000000000 23.031250000000 59.015998840332 189 189 189
33.875000000000 23.031250000000 58.965995788574 191 191 191
33.875000000000 23.031250000000 58.916999816895 203 203 203
33.875000000000 23.039062500000 58.870002746582 189 189 189
33.875000000000 23.039062500000 58.818992614746 185 185 185
33.875000000000 23.039062500000 58.773002624512 187 187 187
33.875000000000 23.039062500000 58.725990295410 190 190 190
33.875000000000 23.039062500000 58.676002502441 192 192 192
33.875000000000 23.039062500000 58.626991271973 199 199 199
33.875000000000 23.039062500000 58.581993103027 193 193 193
33.875000000000 23.039062500000 58.532005310059 196 196 196
33.875000000000 23.039062500000 58.486000061035 201 201 201
33.875000000000 23.039062500000 58.437995910645 200 200 200
33.875000000000 23.039062500000 58.387992858887 197 197 197
33.875000000000 23.046875000000 58.342002868652 203 203 203
33.875000000000 23.039062500000 58.294990539551 206 206 206
33.875000000000 23.039062500000 58.247993469238 208 208 208
33.875000000000 23.046875000000 58.202003479004 208 208 208
33.875000000000 23.046875000000 58.154991149902 204 204 204
33.875000000000 23.046875000000 58.107994079590 210 210 210
33.875000000000 23.046875000000 58.062995910645 209 209 209
33.875000000000 23.046875000000 58.014991760254 205 205 205
33.875000000000 23.046875000000 57.967994689941 205 205 205
33.875000000000 23.046875000000 57.922004699707 207 207 207
33.875000000000 23.046875000000 57.875999450684 206 206 206
33.875000000000 23.046875000000 57.829994201660 214 214 214
33.875000000000 23.046875000000 57.784004211426 212 212 212
33.875000000000 23.046875000000 57.737998962402 214 214 214
33.875000000000 23.046875000000 57.691993713379 216 216 216
33.875000000000 23.046875000000 57.646003723145 218 218 218
33.875000000000 23.046875000000 57.599998474121 222 222 222
33.875000000000 23.046875000000 57.553993225098 217 217 217
33.875000000000 23.046875000000 57.508995056152 202 202 202
33.875000000000 23.046875000000 57.463005065918 222 222 222
33.875000000000 23.046875000000 57.416999816895 225 225 225
33.875000000000 23.046875000000 57.372001647949 225 225 225
33.875000000000 23.046875000000 57.325996398926 226 226 226
33.875000000000 23.046875000000 57.280998229980 225 225 225
33.875000000000 23.046875000000 57.234992980957 229 229 229
33.875000000000 23.046875000000 57.189994812012 232 232 232
33.875000000000 23.054687500000 57.144004821777 227 227 227
33.875000000000 23.046875000000 57.098991394043 231 231 231
33.875000000000 23.046875000000 57.053001403809 230 230 230
33.875000000000 23.046875000000 57.008003234863 233 233 233
33.875000000000 23.046875000000 56.961997985840 234 234 234
33.875000000000 23.054687500000 56.916999816895 234 234 234
33.875000000000 23.054687500000 56.870994567871 233 233 233
33.875000000000 23.046875000000 56.825996398926 237 237 237
33.875000000000 23.054687500000 56.780998229980 235 235 235
33.875000000000 23.054687500000 56.734992980957 223 223 223
33.875000000000 23.054687500000 56.689994812012 227 227 227
33.875000000000 23.054687500000 56.644004821777 231 231 231
33.875000000000 23.054687500000 56.598991394043 234 234 234
33.875000000000 23.054687500000 56.553993225098 229 229 229
33.875000000000 23.062500000000 56.508003234863 217 217 217
33.875000000000 23.062500000000 56.461997985840 223 223 223
33.875000000000 23.062500000000 56.416999816895 223 223 223
33.875000000000 23.054687500000 56.372001647949 227 227 227
33.875000000000 23.054687500000 56.325004577637 222 222 222
33.875000000000 23.062500000000 56.279991149902 221 221 221
33.875000000000 23.054687500000 56.234001159668 226 226 226
33.875000000000 23.054687500000 56.187995910645 226 226 226
33.875000000000 23.054687500000 56.141990661621 221 221 221
33.875000000000 23.062500000000 56.097999572754 229 229 229
33.875000000000 23.062500000000 56.051002502441 218 218 218
33.875000000000 23.062500000000 56.006004333496 213 213 213
33.875000000000 23.062500000000 55.959999084473 219 219 219
33.875000000000 23.062500000000 55.913993835449 219 219 219
33.875000000000 23.062500000000 55.866996765137 222 222 222
33.875000000000 23.062500000000 55.821998596191 213 213 213
33.875000000000 23.062500000000 55.775001525879 211 211 211
33.875000000000 23.054687500000 55.728004455566 215 215 215
33.875000000000 23.062500000000 55.681999206543 223 223 223
33.875000000000 23.062500000000 55.637001037598 203 203 203
33.875000000000 23.062500000000 55.590003967285 209 209 209
33.875000000000 23.062500000000 55.543998718262 211 211 211
33.875000000000 23.062500000000 55.497993469238 219 219 219
33.875000000000 23.062500000000 55.450996398926 210 210 210
33.875000000000 23.062500000000 55.403999328613 205 205 205
33.875000000000 23.062500000000 55.355995178223 206 206 206
33.875000000000 23.062500000000 55.310005187988 208 208 208
33.875000000000 23.062500000000 55.262001037598 205 205 205
33.875000000000 23.062500000000 55.215003967285 199 199 199
33.875000000000 23.062500000000 55.167991638184 201 201 201
33.875000000000 23.062500000000 55.118995666504 202 202 202
33.875000000000 23.062500000000 55.070991516113 200 200 200
33.843750000000 23.078125000000 55.025001525879 196 196 196
33.875000000000 23.062500000000 54.975990295410 201 201 201
33.875000000000 23.062500000000 54.926994323730 204 204 204
33.843750000000 23.078125000000 54.881004333496 206 206 206
33.875000000000 23.062500000000 54.831993103027 200 200 200
33.875000000000 23.062500000000 54.782997131348 193 193 193
33.875000000000 23.062500000000 54.734001159668 196 196 196
33.875000000000 23.070312500000 54.683998107910 197 197 197
33.843750000000 23.078125000000 54.637001037598 201 201 201
33.843750000000 23.078125000000 54.588996887207 205 205 205
33.875000000000 23.070312500000 54.538002014160 194 194 194
33.906250000000 12.953125000000 54.557991027832 147 147 147
33.906250000000 12.953125000000 54.600990295410 163 163 163
33.906250000000 12.945312500000 54.640998840332 169 169 169
33.906250000000 12.953125000000 54.683998107910 176 176 176
33.906250000000 12.953125000000 54.725990295410 186 186 186
33.906250000000 12.945312500000 54.766990661621 173 173 173
33.937500000000 12.953125000000 54.805992126465 167 167 167
33.906250000000 12.953125000000 54.850990295410 189 189 189
33.906250000000 12.953125000000 54.894004821777 193 193 193
33.906250000000 12.953125000000 54.935997009277 197 197 197
33.906250000000 12.953125000000 54.976997375488 186 186 186
33.906250000000 12.953125000000 55.019004821777 200 200 200
33.906250000000 12.953125000000 55.058998107910 197 197 197
33.906250000000 12.945312500000 55.098991394043 196 196 196
33.906250000000 12.945312500000 55.138999938965 196 196 196
33.906250000000 12.945312500000 55.180992126465 190 190 190
33.906250000000 12.953125000000 55.221992492676 205 205 205
33.906250000000 12.953125000000 55.262992858887 198 198 198
33.906250000000 12.953125000000 55.303001403809 197 197 197
33.906250000000 12.953125000000 55.344993591309 202 202 202
33.906250000000 12.953125000000 55.383995056152 198 198 198
33.906250000000 12.953125000000 55.424003601074 197 197 197
33.906250000000 12.953125000000 55.463996887207 202 202 202
33.906250000000 12.953125000000 55.504997253418 201 201 201
33.906250000000 12.945312500000 55.544990539551 199 199 199
33.906250000000 12.953125000000 55.584999084473 201 201 201
33.906250000000 12.953125000000 55.624992370605 204 204 204
33.906250000000 12.953125000000 55.665992736816 200 200 200
33.906250000000 12.953125000000 55.706001281738 205 205 205
33.906250000000 12.953125000000 55.745002746582 207 207 207
33.906250000000 12.953125000000 55.784996032715 206 206 206
33.906250000000 12.953125000000 55.823997497559 208 208 208
33.906250000000 12.945312500000 55.863990783691 212 212 212
33.906250000000 12.953125000000 55.903999328613 212 212 212
33.906250000000 12.953125000000 55.943992614746 212 212 212
33.906250000000 12.945312500000 55.982994079590 218 218 218
33.906250000000 12.953125000000 56.021995544434 216 216 216
33.906250000000 12.945312500000 56.062004089355 212 212 212
33.906250000000 12.953125000000 56.101997375488 219 219 219
33.906250000000 12.945312500000 56.140998840332 216 216 216
33.906250000000 12.953125000000 56.180992126465 209 209 209
33.906250000000 12.953125000000 56.219993591309 209 209 209
33.906250000000 12.945312500000 56.258995056152 215 215 215
33.906250000000 12.945312500000 56.299003601074 214 214 214
33.906250000000 12.945312500000 56.338005065918 213 213 213
33.906250000000 12.953125000000 56.377998352051 212 212 212
33.906250000000 12.953125000000 56.416999816895 211 211 211
33.906250000000 12.953125000000 56.456001281738 211 211 211
33.906250000000 12.953125000000 56.495994567871 215 215 215
33.906250000000 12.953125000000 56.534996032715 213 213 213
33.906250000000 12.953125000000 56.573997497559 211 211 211
33.906250000000 12.953125000000 56.612998962402 208 208 208
33.906250000000 12.953125000000 56.652992248535 203 203 203
33.906250000000 12.953125000000 56.691993713379 202 202 202
33.906250000000 12.953125000000 56.730995178223 200 200 200
33.906250000000 12.953125000000 56.771003723145 198 198 198
33.906250000000 12.953125000000 56.810005187988 202 202 202
33.906250000000 12.953125000000 56.849998474121 190 190 190
33.906250000000 12.953125000000 56.889991760254 194 194 194
33.906250000000 12.953125000000 56.928993225098 197 197 197
33.906250000000 12.953125000000 56.967994689941 193 193 193
33.906250000000 12.953125000000 57.008003234863 193 193 193
33.906250000000 12.953125000000 57.047996520996 192 192 192
33.906250000000 12.953125000000 57.086997985840 189 189 189
33.906250000000 12.953125000000 57.126991271973 187 187 187
33.906250000000 12.945312500000 57.165992736816 187 187 187
33.906250000000 12.953125000000 57.206001281738 188 188 188
33.906250000000 12.953125000000 57.247001647949 186 186 186
33.906250000000 12.945312500000 57.288002014160 187 187 187
33.906250000000 12.953125000000 57.325996398926 184 184 184
33.906250000000 12.953125000000 57.366996765137 180 180 180
33.906250000000 12.945312500000 57.407005310059 185 185 185
33.906250000000 12.945312500000 57.446998596191 184 184 184
33.906250000000 12.945312500000 57.487998962402 178 178 178
33.906250000000 12.945312500000 57.527992248535 177 177 177
33.906250000000 12.945312500000 57.568000793457 182 182 182
33.906250000000 12.945312500000 57.609001159668 163 163 163
33.906250000000 12.945312500000 57.648994445801 173 173 173
33.906250000000 12.953125000000 57.689002990723 169 169 169
33.906250000000 12.953125000000 57.728996276855 163 163 163
33.906250000000 12.945312500000 57.771995544434 166 166 166
33.906250000000 12.945312500000 57.812004089355 171 171 171
33.906250000000 12.945312500000 57.853004455566 172 172 172
33.906250000000 12.945312500000 57.894004821777 167 167 167
33.906250000000 12.945312500000 57.935997009277 156 156 156
33.906250000000 12.945312500000 57.976997375488 163 163 163
33.906250000000 12.945312500000 58.019004821777 166 166 166
33.906250000000 12.945312500000 58.060997009277 159 159 159
33.906250000000 12.945312500000 58.099998474121 153 153 153
33.906250000000 12.945312500000 58.142997741699 152 152 152
33.906250000000 12.945312500000 58.185005187988 159 159 159
33.906250000000 12.945312500000 58.226997375488 150 150 150
33.906250000000 12.945312500000 58.269004821777 142 142 142
33.906250000000 12.945312500000 58.312004089355 148 148 148
33.906250000000 12.945312500000 58.353004455566 148 148 148
33.906250000000 12.945312500000 58.396995544434 148 148 148
33.906250000000 12.945312500000 58.439994812012 145 145 145
33.906250000000 12.945312500000 58.484001159668 140 140 140
33.937500000000 12.953125000000 58.527992248535 148 148 148
33.937500000000 12.953125000000 58.570991516113 144 144 144
33.906250000000 12.945312500000 58.612998962402 154 154 154
33.906250000000 12.945312500000 58.652992248535 120 120 120
33.906250000000 12.945312500000 58.698997497559 130 130 130
33.937500000000 12.937500000000 58.747001647949 123 123 123
33.937500000000 12.953125000000 58.788002014160 126 126 126
33.906250000000 12.945312500000 58.829994201660 116 116 116
33.937500000000 12.937500000000 58.878990173340 111 111 111
33.937500000000 12.953125000000 58.922004699707 118 118 118
33.937500000000 12.953125000000 58.965995788574 112 112 112
33.937500000000 12.953125000000 59.010993957520 113 113 113
33.906250000000 12.945312500000 59.055000305176 105 105 105
33.937500000000 12.953125000000 59.100990295410 99 99 99
33.937500000000 12.937500000000 59.148994445801 98 98 98
33.906250000000 12.945312500000 59.189994812012 94 94 94
33.937500000000 12.937500000000 59.239997863770 97 97 97
33.937500000000 12.937500000000 59.286994934082 86 86 86
33.937500000000 12.937500000000 59.334999084473 75 75 75
33.937500000000 12.953125000000 59.377998352051 67 67 67
33.937500000000 12.937500000000 59.426994323730 67 67 67
33.937500000000 12.953125000000 59.471000671387 62 62 62
33.937500000000 12.953125000000 59.519996643066 53 53 53
33.937500000000 12.937500000000 59.568992614746 50 50 50
33.937500000000 12.945312500000 59.620994567871 28 28 28
33.906250000000 12.945312500000 59.655998229980 16 16 16
33.937500000000 12.937500000000 59.713996887207 16 16 16
33.968750000000 13.242187500000 59.609001159668 56 56 56
33.937500000000 13.242187500000 59.650001525879 157 157 157
33.968750000000 13.242187500000 60.590995788574 67 67 67
33.937500000000 13.242187500000 60.616996765137 98 98 98
33.937500000000 13.554687500000 59.624992370605 160 160 160
33.937500000000 13.554687500000 59.672996520996 20 20 20
33.968750000000 13.546875000000 60.497001647949 61 61 61
33.968750000000 13.546875000000 60.545997619629 12 12 12
33.968750000000 13.867187500000 59.607994079590 64 64 64
33.937500000000 13.867187500000 59.640998840332 153 153 153
33.937500000000 13.867187500000 60.398994445801 99 99 99
33.937500000000 14.187500000000 59.618995666504 167 167 167
33.937500000000 14.179687500000 60.269996643066 114 114 114
33.937500000000 14.484375000000 59.607002258301 151 151 151
33.906250000000 14.484375000000 59.648002624512 65 65 65
33.968750000000 14.476562500000 60.159004211426 111 111 111
33.937500000000 14.781250000000 59.599998474121 153 153 153
33.937500000000 14.773437500000 59.637001037598 70 70 70
33.937500000000 14.781250000000 60.044990539551 109 109 109
33.937500000000 15.085937500000 59.586997985840 120 120 120
33.937500000000 15.085937500000 59.625999450684 124 124 124
33.937500000000 15.085937500000 59.928001403809 99 99 99
33.968750000000 15.390625000000 59.570991516113 40 40 40
33.906250000000 15.390625000000 59.601997375488 168 168 168
33.968750000000 15.390625000000 59.818000793457 36 36 36
33.937500000000 15.710937500000 59.581993103027 158 158 158
33.937500000000 15.703125000000 59.624000549316 107 107 107
33.937500000000 15.703125000000 59.730003356934 100 100 100
34.000000000000 16.023437500000 59.124992370605 133 133 133
33.937500000000 16.007812500000 59.568000793457 116 116 116
33.937500000000 16.015625000000 59.605003356934 155 155 155
34.000000000000 16.312500000000 59.103004455566 128 128 128
33.968750000000 16.320312500000 59.551994323730 58 58 58
33.937500000000 16.335937500000 59.592002868652 173 173 173
34.000000000000 16.625000000000 59.092994689941 112 112 112
33.937500000000 16.625000000000 59.579994201660 170 170 170
33.937500000000 16.625000000000 59.627998352051 33 33 33
34.000000000000 16.929687500000 59.077995300293 63 63 63
34.000000000000 16.921875000000 59.114997863770 72 72 72
33.937500000000 16.929687500000 59.564002990723 154 154 154
33.937500000000 16.929687500000 59.609001159668 85 85 85
33.968750000000 17.234375000000 59.096000671387 122 122 122
33.937500000000 17.242187500000 59.547004699707 117 117 117
33.937500000000 17.234375000000 59.586997985840 144 144 144
34.000000000000 17.554687500000 59.075996398926 113 113 113
34.000000000000 17.554687500000 59.120994567871 209 209 209
34.000000000000 17.546875000000 59.163002014160 192 192 192
34.000000000000 17.546875000000 59.210990905762 187 187 187
33.968750000000 17.546875000000 59.251991271973 184 184 184
33.968750000000 17.546875000000 59.297004699707 206 206 206
33.937500000000 17.554687500000 59.334999084473 71 71 71
33.937500000000 17.554687500000 59.566001892090 161 161 161
33.937500000000 17.546875000000 59.611000061035 40 40 40
33.968750000000 17.867187500000 59.096000671387 184 184 184
34.000000000000 17.859375000000 59.141990661621 211 211 211
33.968750000000 17.867187500000 59.185005187988 194 194 194
33.968750000000 17.867187500000 59.232002258301 206 206 206
33.968750000000 17.859375000000 59.273994445801 211 211 211
33.968750000000 17.859375000000 59.319999694824 156 156 156
33.968750000000 17.867187500000 59.547996520996 133 133 133
33.937500000000 17.867187500000 59.583992004395 134 134 134
34.000000000000 18.164062500000 59.081001281738 146 146 146
34.000000000000 18.164062500000 59.124000549316 212 212 212
33.968750000000 18.171875000000 59.166999816895 195 195 195
33.968750000000 18.171875000000 59.213005065918 182 182 182
33.968750000000 18.171875000000 59.258003234863 137 137 137
33.968750000000 18.171875000000 59.301002502441 186 186 186
33.937500000000 18.171875000000 59.527000427246 71 71 71
33.937500000000 18.164062500000 59.568992614746 161 161 161
33.968750000000 18.468750000000 59.064002990723 111 111 111
33.968750000000 18.468750000000 59.109001159668 207 207 207
33.968750000000 18.468750000000 59.153999328613 142 142 142
33.968750000000 18.468750000000 59.197990417480 201 201 201
33.968750000000 18.468750000000 59.245994567871 159 159 159
33.968750000000 18.476562500000 59.286994934082 200 200 200
33.968750000000 18.476562500000 59.333000183105 52 52 52
33.968750000000 18.468750000000 59.523002624512 14 14 14
33.937500000000 18.468750000000 59.556999206543 166 166 166
33.937500000000 18.460937500000 59.596992492676 17 17 17
34.000000000000 18.773437500000 59.096000671387 189 189 189
34.000000000000 18.773437500000 59.138999938965 199 199 199
34.000000000000 18.773437500000 59.183998107910 144 144 144
34.000000000000 18.773437500000 59.232002258301 150 150 150
34.000000000000 18.773437500000 59.275993347168 195 195 195
33.968750000000 18.781250000000 59.314002990723 129 129 129
33.968750000000 18.773437500000 59.538993835449 141 141 141
33.937500000000 18.773437500000 59.581993103027 117 117 117
34.000000000000 19.078125000000 59.075004577637 133 133 133
34.000000000000 19.078125000000 59.120002746582 212 212 212
34.000000000000 19.078125000000 59.165000915527 128 128 128
34.000000000000 19.078125000000 59.210990905762 122 122 122
34.000000000000 19.078125000000 59.256004333496 164 164 164
34.000000000000 19.085937500000 59.299003601074 199 199 199
33.968750000000 19.078125000000 59.340003967285 17 17 17
33.968750000000 19.078125000000 59.525001525879 35 35 35
33.937500000000 19.085937500000 59.558998107910 166 166 166
34.031250000000 19.406250000000 59.056999206543 40 40 40
34.031250000000 19.406250000000 59.099998474121 193 193 193
34.000000000000 19.398437500000 59.140998840332 200 200 200
34.000000000000 19.398437500000 59.187995910645 155 155 155
34.000000000000 19.398437500000 59.234992980957 190 190 190
34.000000000000 19.398437500000 59.275993347168 212 212 212
34.000000000000 19.398437500000 59.320991516113 138 138 138
33.937500000000 19.398437500000 59.536003112793 130 130 130
33.937500000000 19.390625000000 59.575004577637 130 130 130
34.000000000000 19.710937500000 59.070991516113 125 125 125
33.968750000000 19.710937500000 59.521003723145 24 24 24
33.968750000000 19.710937500000 59.553993225098 167 167 167
34.031250000000 20.007812500000 59.060997009277 76 76 76
34.000000000000 20.015625000000 59.097999572754 116 116 116
34.000000000000 20.015625000000 59.141990661621 106 106 106
34.000000000000 20.015625000000 59.187995910645 105 105 105
34.000000000000 20.015625000000 59.236991882324 113 113 113
34.000000000000 20.023437500000 59.277992248535 110 110 110
34.000000000000 20.015625000000 59.327995300293 114 114 114
34.000000000000 20.015625000000 59.374000549316 122 122 122
34.000000000000 20.015625000000 59.418998718262 115 115 115
34.000000000000 20.015625000000 59.465995788574 119 119 119
34.000000000000 20.015625000000 59.513999938965 111 111 111
33.937500000000 20.015625000000 59.534996032715 142 142 142
33.937500000000 20.015625000000 59.577003479004 128 128 128
34.031250000000 20.312500000000 59.088996887207 115 115 115
33.968750000000 20.320312500000 59.527992248535 103 103 103
33.937500000000 20.320312500000 59.564994812012 163 163 163
33.968750000000 20.320312500000 59.667991638184 97 97 97
34.031250000000 20.617187500000 59.066993713379 129 129 129
33.968750000000 20.625000000000 59.551002502441 163 163 163
33.968750000000 20.617187500000 59.594001770020 74 74 74
33.968750000000 20.617187500000 59.792991638184 102 102 102
34.031250000000 20.929687500000 59.090995788574 122 122 122
33.968750000000 20.929687500000 59.530998229980 59 59 59
33.937500000000 20.929687500000 59.562004089355 169 169 169
33.968750000000 20.929687500000 59.911994934082 107 107 107
33.968750000000 21.242187500000 59.541999816895 112 112 112
33.937500000000 21.242187500000 59.581993103027 124 124 124
33.968750000000 21.250000000000 60.027000427246 84 84 84
33.937500000000 21.562500000000 59.560997009277 168 168 168
33.968750000000 21.554687500000 60.150993347168 93 93 93
33.968750000000 21.859375000000 59.551002502441 139 139 139
33.937500000000 21.867187500000 59.590995788574 91 91 91
34.000000000000 21.867187500000 60.250999450684 17 17 17
33.968750000000 21.859375000000 60.284996032715 80 80 80
33.968750000000 22.156250000000 59.540000915527 54 54 54
33.937500000000 22.164062500000 59.577003479004 155 155 155
33.968750000000 22.148437500000 60.375999450684 88 88 88
33.968750000000 22.468750000000 59.562004089355 153 153 153
33.968750000000 22.460937500000 59.605995178223 65 65 65
33.968750000000 22.468750000000 60.516990661621 84 84 84
34.031250000000 22.781250000000 59.562004089355 41 41 41
33.937500000000 22.789062500000 59.577003479004 166 166 166
34.000000000000 22.773437500000 60.603004455566 67 67 67
33.968750000000 22.781250000000 60.633995056152 103 103 103
33.937500000000 23.093750000000 54.521995544434 183 183 183
33.937500000000 23.101562500000 55.146003723145 160 160 160
33.937500000000 23.101562500000 55.189994812012 185 185 185
33.937500000000 23.101562500000 55.230003356934 187 187 187
33.937500000000 23.093750000000 55.271995544434 183 183 183
33.937500000000 23.101562500000 55.312004089355 182 182 182
33.937500000000 23.101562500000 55.353004455566 179 179 179
33.937500000000 23.101562500000 55.390998840332 180 180 180
33.937500000000 23.101562500000 55.432991027832 177 177 177
33.937500000000 23.093750000000 55.474998474121 178 178 178
33.937500000000 23.101562500000 55.512001037598 183 183 183
33.937500000000 23.101562500000 55.553001403809 183 183 183
33.937500000000 23.101562500000 55.594001770020 179 179 179
33.937500000000 23.101562500000 55.635002136230 186 186 186
33.937500000000 23.101562500000 55.674995422363 185 185 185
33.937500000000 23.101562500000 55.713005065918 185 185 185
33.937500000000 23.101562500000 55.753990173340 183 183 183
33.937500000000 23.101562500000 55.793998718262 189 189 189
33.937500000000 23.101562500000 55.833992004395 188 188 188
33.937500000000 23.101562500000 55.872001647949 187 187 187
33.937500000000 23.101562500000 55.913002014160 187 187 187
33.937500000000 23.101562500000 55.952003479004 187 187 187
33.937500000000 23.101562500000 55.991996765137 189 189 189
33.937500000000 23.101562500000 56.032005310059 189 189 189
33.937500000000 23.101562500000 56.070991516113 192 192 192
33.937500000000 23.101562500000 56.111000061035 189 189 189
33.937500000000 23.101562500000 56.150001525879 189 189 189
33.937500000000 23.101562500000 56.189002990723 194 194 194
33.937500000000 23.101562500000 56.228996276855 200 200 200
33.937500000000 23.101562500000 56.267997741699 194 194 194
33.937500000000 23.101562500000 56.307991027832 195 195 195
33.937500000000 23.101562500000 56.346992492676 197 197 197
33.937500000000 23.101562500000 56.387001037598 198 198 198
33.937500000000 23.101562500000 56.426002502441 193 193 193
33.937500000000 23.101562500000 56.465003967285 197 197 197
33.937500000000 23.101562500000 56.503990173340 193 193 193
33.937500000000 23.101562500000 56.543998718262 195 195 195
33.937500000000 23.101562500000 56.583000183105 190 190 190
33.937500000000 23.101562500000 56.622001647949 190 190 190
33.937500000000 23.101562500000 56.661994934082 188 188 188
33.937500000000 23.101562500000 56.700996398926 191 191 191
33.937500000000 23.101562500000 56.739997863770 190 190 190
33.937500000000 23.101562500000 56.779991149902 190 190 190
33.937500000000 23.101562500000 56.818992614746 186 186 186
33.937500000000 23.101562500000 56.859001159668 183 183 183
33.937500000000 23.101562500000 56.898002624512 184 184 184
33.937500000000 23.101562500000 56.937995910645 184 184 184
33.937500000000 23.101562500000 56.976997375488 188 188 188
33.937500000000 23.101562500000 57.015998840332 181 181 181
33.937500000000 23.101562500000 57.055992126465 182 182 182
33.937500000000 23.101562500000 57.096000671387 181 181 181
33.968750000000 23.109375000000 57.135993957520 179 179 179
33.937500000000 23.101562500000 57.174995422363 178 178 178
33.937500000000 23.101562500000 57.213996887207 176 176 176
33.937500000000 23.101562500000 57.253990173340 171 171 171
33.968750000000 23.109375000000 57.294990539551 170 170 170
33.968750000000 23.109375000000 57.334999084473 171 171 171
33.937500000000 23.101562500000 57.374000549316 160 160 160
33.968750000000 23.109375000000 57.415000915527 161 161 161
33.968750000000 23.093750000000 57.456001281738 163 163 163
33.968750000000 23.109375000000 57.495002746582 163 163 163
33.968750000000 23.109375000000 57.534996032715 156 156 156
33.968750000000 23.109375000000 57.575996398926 159 159 159
33.968750000000 23.109375000000 57.616004943848 157 157 157
33.968750000000 23.109375000000 57.657005310059 154 154 154
33.968750000000 23.093750000000 57.697990417480 148 148 148
33.968750000000 23.109375000000 57.737998962402 146 146 146
33.968750000000 23.093750000000 57.778999328613 137 137 137
33.968750000000 23.093750000000 57.819999694824 134 134 134
33.968750000000 23.093750000000 57.861991882324 135 135 135
33.968750000000 23.109375000000 57.900001525879 123 123 123
33.968750000000 23.109375000000 57.941001892090 121 121 121
33.968750000000 23.093750000000 57.984001159668 122 122 122
33.968750000000 23.109375000000 58.023002624512 115 115 115
33.968750000000 23.109375000000 58.064994812012 103 103 103
33.968750000000 23.093750000000 58.107002258301 102 102 102
33.968750000000 23.093750000000 58.150001525879 103 103 103
33.968750000000 23.093750000000 58.191001892090 101 101 101
33.968750000000 23.101562500000 58.234992980957 91 91 91
33.968750000000 23.101562500000 58.278999328613 78 78 78
33.968750000000 23.093750000000 58.318000793457 83 83 83
33.968750000000 23.101562500000 58.361991882324 93 93 93
33.968750000000 23.109375000000 58.398994445801 77 77 77
33.968750000000 23.093750000000 58.443992614746 73 73 73
33.968750000000 23.101562500000 58.488990783691 83 83 83
33.968750000000 23.093750000000 58.529991149902 68 68 68
33.968750000000 23.101562500000 58.575996398926 67 67 67
33.968750000000 23.101562500000 58.616996765137 56 56 56
33.968750000000 23.093750000000 58.657997131348 51 51 51
33.968750000000 23.101562500000 58.704002380371 44 44 44
33.968750000000 23.101562500000 58.749000549316 31 31 31
34.000000000000 23.101562500000 58.794990539551 22 22 22
