32.874752044678 16.416330337524 59.458000183105 51 51 51
32.874752044678 16.416330337524 59.506996154785 70 70 70
32.859127044678 16.416698455811 59.555992126465 75 75 75
32.874752044678 16.416330337524 59.607994079590 97 97 97
32.858760833740 16.401077270508 59.655006408691 75 75 75
32.874752044678 16.416330337524 59.708000183105 71 71 71
32.858760833740 16.401077270508 59.756004333496 69 69 69
32.874752044678 16.416330337524 59.810997009277 80 80 80
32.874752044678 16.416330337524 59.859992980957 83 83 83
32.874752044678 16.416330337524 59.911994934082 101 101 101
32.874752044678 16.416330337524 59.963005065918 93 93 93
32.858760833740 16.401077270508 60.012992858887 96 96 96
32.858760833740 16.401077270508 60.064002990723 115 115 115
32.858760833740 16.401077270508 60.114006042480 92 92 92
32.858760833740 16.401077270508 60.168006896973 113 113 113
32.858760833740 16.401077270508 60.219001770020 102 102 102
32.858760833740 16.401077270508 60.271995544434 113 113 113
32.858760833740 16.401077270508 60.325004577637 118 118 118
32.874752044678 16.416330337524 60.379997253418 118 118 118
32.858760833740 16.401077270508 60.431999206543 118 118 118
32.858760833740 16.401077270508 60.484001159668 113 113 113
32.874752044678 16.416330337524 60.540992736816 125 125 125
32.874752044678 16.416330337524 60.594001770020 126 126 126
32.874752044678 16.416330337524 60.648994445801 135 135 135
32.874752044678 16.416330337524 60.704994201660 141 141 141
32.858760833740 16.401077270508 60.756004333496 149 149 149
32.858760833740 16.401077270508 60.808006286621 134 134 134
32.858760833740 16.401077270508 60.864997863770 133 133 133
32.858760833740 16.401077270508 60.920005798340 147 147 147
32.858760833740 16.401077270508 60.974006652832 147 147 147
32.858760833740 16.401077270508 61.030998229980 139 139 139
32.858760833740 16.401077270508 61.086997985840 133 133 133
32.858760833740 16.401077270508 61.140007019043 134 134 134
32.858760833740 16.401077270508 61.196998596191 131 131 131
32.843139648438 16.401449203491 61.249992370605 138 138 138
32.858760833740 16.401077270508 61.314002990723 141 141 141
32.843139648438 16.401449203491 61.364997863770 141 141 141
32.858760833740 16.401077270508 61.428993225098 137 137 137
32.858760833740 16.401077270508 61.482994079590 100 100 100
32.858760833740 16.401077270508 61.545005798340 159 159 159
32.827518463135 16.401817321777 61.596000671387 140 140 140
32.858760833740 16.401077270508 61.661003112793 152 152 152
32.858760833740 16.401077270508 61.721000671387 150 150 150
32.858760833740 16.401077270508 61.777992248535 166 166 166
32.858760833740 16.401077270508 61.838996887207 185 185 185
32.827518463135 16.401817321777 61.892005920410 97 97 97
32.419567108154 26.914390563965 55.043998718262 177 177 177
32.434818267822 26.898403167725 55.086006164551 176 176 176
32.434818267822 26.898403167725 55.125999450684 177 177 177
32.434818267822 26.898403167725 55.168998718262 179 179 179
32.434818267822 26.898403167725 55.208992004395 179 179 179
32.434818267822 26.898403167725 55.250999450684 181 181 181
32.450439453125 26.898031234741 55.290000915527 179 179 179
32.450439453125 26.898031234741 55.653999328613 181 181 181
32.450439453125 26.898031234741 55.694999694824 183 183 183
32.466056823730 26.897663116455 55.969993591309 185 185 185
32.450439453125 26.898031234741 56.012001037598 193 193 193
32.450439453125 26.898031234741 56.049995422363 196 196 196
32.466056823730 26.897663116455 56.088005065918 198 198 198
32.466056823730 26.897663116455 56.127998352051 198 198 198
32.450439453125 26.898031234741 56.168006896973 195 195 195
32.466056823730 26.897663116455 56.206001281738 195 195 195
32.466056823730 26.897663116455 56.243995666504 195 195 195
32.450439453125 26.898031234741 56.284996032715 199 199 199
32.466056823730 26.897663116455 56.321998596191 203 203 203
32.466056823730 26.897663116455 56.361000061035 206 206 206
32.481311798096 26.881671905518 56.398994445801 209 209 209
32.466056823730 26.897663116455 56.437995910645 206 206 206
32.481681823730 26.897293090820 56.474998474121 214 214 214
32.481311798096 26.881671905518 56.513999938965 212 212 212
32.481681823730 26.897293090820 56.551994323730 217 217 217
32.481681823730 26.897293090820 56.590995788574 214 214 214
32.481311798096 26.881671905518 56.629005432129 212 212 212
32.481311798096 26.881671905518 56.668006896973 214 214 214
32.481311798096 26.881671905518 56.706001281738 218 218 218
32.481311798096 26.881671905518 56.743995666504 218 218 218
32.481681823730 26.897293090820 56.782005310059 223 223 223
32.481311798096 26.881671905518 56.818992614746 222 222 222
32.481681823730 26.897293090820 56.857994079590 223 223 223
32.481311798096 26.881671905518 56.894996643066 226 226 226
32.481311798096 26.881671905518 56.933006286621 227 227 227
32.481311798096 26.881671905518 56.971000671387 226 226 226
32.481311798096 26.881671905518 57.008995056152 225 225 225
32.481311798096 26.881671905518 57.047004699707 220 220 220
32.481311798096 26.881671905518 57.084999084473 226 226 226
32.481311798096 26.881671905518 57.122993469238 225 225 225
32.481311798096 26.881671905518 57.161003112793 226 226 226
32.481311798096 26.881671905518 57.198997497559 224 224 224
32.481311798096 26.881671905518 57.236991882324 223 223 223
32.481311798096 26.881671905518 57.273994445801 225 225 225
32.481311798096 26.881671905518 57.312004089355 224 224 224
32.481311798096 26.881671905518 57.349998474121 220 220 220
32.496929168701 26.881303787231 57.387992858887 217 217 217
32.496929168701 26.881303787231 57.426002502441 218 218 218
32.496929168701 26.881303787231 57.463996887207 220 220 220
32.496929168701 26.881303787231 57.502006530762 220 220 220
32.496929168701 26.881303787231 57.540000915527 217 217 217
32.496929168701 26.881303787231 57.577995300293 215 215 215
32.496929168701 26.881303787231 57.616004943848 212 212 212
32.496929168701 26.881303787231 57.653999328613 209 209 209
32.512924194336 26.896556854248 57.691993713379 211 211 211
32.512554168701 26.880935668945 57.730003356934 205 205 205
32.512924194336 26.896556854248 57.769004821777 202 202 202
32.512554168701 26.880935668945 57.805992126465 201 201 201
32.512554168701 26.880935668945 57.844993591309 204 204 204
32.512554168701 26.880935668945 57.883003234863 201 201 201
32.512924194336 26.896556854248 57.922004699707 205 205 205
32.512924194336 26.896556854248 57.959999084473 201 201 201
32.512924194336 26.896556854248 57.997993469238 199 199 199
32.528175354004 26.880565643311 58.036994934082 196 196 196
32.528175354004 26.880565643311 58.075996398926 193 193 193
32.528175354004 26.880565643311 58.114006042480 197 197 197
32.528175354004 26.880565643311 58.152992248535 192 192 192
32.528175354004 26.880565643311 58.191993713379 191 191 191
32.528175354004 26.880565643311 58.230003356934 191 191 191
32.528175354004 26.880565643311 58.269996643066 192 192 192
32.528175354004 26.880565643311 58.308998107910 192 192 192
32.528175354004 26.880565643311 58.347999572754 191 191 191
32.528175354004 26.880565643311 58.387001037598 188 188 188
32.528175354004 26.880565643311 58.426002502441 187 187 187
32.528175354004 26.880565643311 58.463996887207 186 186 186
32.528175354004 26.880565643311 58.504997253418 189 189 189
32.528175354004 26.880565643311 58.543006896973 185 185 185
32.528175354004 26.880565643311 58.581993103027 190 190 190
32.528175354004 26.880565643311 58.622993469238 185 185 185
32.528175354004 26.880565643311 58.661003112793 187 187 187
32.543792724609 26.880195617676 58.704002380371 181 181 181
32.543792724609 26.880195617676 58.743003845215 182 182 182
32.543792724609 26.880195617676 58.784004211426 181 181 181
32.543792724609 26.880195617676 58.821998596191 180 180 180
32.543792724609 26.880195617676 58.864006042480 180 180 180
32.543792724609 26.880195617676 58.903999328613 176 176 176
32.543792724609 26.880195617676 58.943992614746 178 178 178
32.543792724609 26.880195617676 58.986000061035 175 175 175
32.543792724609 26.880195617676 59.027000427246 176 176 176
32.543792724609 26.880195617676 59.066001892090 172 172 172
32.543792724609 26.880195617676 59.109001159668 178 178 178
32.543792724609 26.880195617676 59.150001525879 179 179 179
32.559413909912 26.879825592041 59.193000793457 180 180 180
32.559413909912 26.879825592041 59.234992980957 180 180 180
32.559413909912 26.879825592041 59.275001525879 180 180 180
32.559413909912 26.879825592041 59.318000793457 179 179 179
32.543792724609 26.880195617676 59.357002258301 179 179 179
32.559413909912 26.879825592041 59.402000427246 182 182 182
32.559413909912 26.879825592041 59.444999694824 182 182 182
32.559413909912 26.879825592041 59.487998962402 181 181 181
32.575031280518 26.879457473755 59.530998229980 181 181 181
32.559413909912 26.879825592041 59.571998596191 183 183 183
32.575031280518 26.879457473755 59.616996765137 183 183 183
32.559413909912 26.879825592041 59.659004211426 182 182 182
32.575031280518 26.879457473755 59.704002380371 183 183 183
32.575031280518 26.879457473755 59.749000549316 184 184 184
32.575031280518 26.879457473755 59.791999816895 183 183 183
32.575031280518 26.879457473755 59.833000183105 186 186 186
32.575031280518 26.879457473755 59.879005432129 185 185 185
32.575031280518 26.879457473755 59.924003601074 179 179 179
32.575031280518 26.879457473755 59.965995788574 181 181 181
32.575031280518 26.879457473755 60.012992858887 181 181 181
32.575031280518 26.879457473755 60.058998107910 181 181 181
32.575031280518 26.879457473755 60.101005554199 181 181 181
32.590656280518 26.879089355469 60.152000427246 179 179 179
32.575031280518 26.879457473755 60.194999694824 178 178 178
32.590656280518 26.879089355469 60.241004943848 180 180 180
32.590656280518 26.879089355469 60.290000915527 180 180 180
32.575031280518 26.879457473755 60.331001281738 125 125 125
32.606273651123 26.878719329834 60.385993957520 176 176 176
32.590656280518 26.879089355469 60.430000305176 181 181 181
32.590656280518 26.879089355469 60.476997375488 180 180 180
32.606273651123 26.878719329834 60.530006408691 179 179 179
32.606273651123 26.878719329834 60.575996398926 175 175 175
32.606273651123 26.878719329834 60.625999450684 179 179 179
32.606273651123 26.878719329834 60.672996520996 176 176 176
32.606273651123 26.878719329834 60.721000671387 172 172 172
32.621524810791 26.862731933594 60.775001525879 171 171 171
32.606273651123 26.878719329834 60.821998596191 170 170 170
32.621524810791 26.862731933594 60.872993469238 168 168 168
32.621524810791 26.862731933594 60.924995422363 165 165 165
32.621524810791 26.862731933594 60.974998474121 161 161 161
32.621524810791 26.862731933594 61.025001525879 161 161 161
32.637516021729 26.877979278564 61.081993103027 159 159 159
32.637516021729 26.877979278564 61.133003234863 159 159 159
32.637516021729 26.877979278564 61.187995910645 152 152 152
32.637516021729 26.877979278564 61.239997863770 143 143 143
32.637516021729 26.877979278564 61.293006896973 143 143 143
32.637145996094 26.862360000610 61.346000671387 127 127 127
32.653137207031 26.877611160278 61.402992248535 131 131 131
32.668388366699 26.861623764038 61.458000183105 123 123 123
32.668388366699 26.861623764038 61.512001037598 115 115 115
32.668388366699 26.861623764038 61.573005676270 96 96 96
32.668388366699 26.861623764038 61.627998352051 139 139 139
32.668388366699 26.861623764038 61.687004089355 135 135 135
32.668388366699 26.861623764038 61.741996765137 139 139 139
32.684379577637 26.876873016357 61.801002502441 136 136 136
32.684379577637 26.876873016357 61.857994079590 137 137 137
32.684379577637 26.876873016357 61.916999816895 143 143 143
32.513290405273 26.912176132202 55.314994812012 101 101 101
32.660636901855 26.533588409424 60.288002014160 128 128 128
32.661003112793 26.549211502075 60.329002380371 107 107 107
32.707500457764 26.532480239868 61.508003234863 56 56 56
32.691879272461 26.532850265503 61.549003601074 18 18 18
32.668872833252 26.220806121826 60.305000305176 163 163 163
32.715732574463 26.219697952271 61.316001892090 49 49 49
32.700119018555 26.220066070557 61.359992980957 60 60 60
32.676368713379 25.876783370972 60.284996032715 133 133 133
32.676368713379 25.876783370972 60.327003479004 106 106 106
32.707607269287 25.876045227051 61.180000305176 73 73 73
32.699485778809 25.532390594482 60.275001525879 94 94 94
32.668617248535 25.548748016357 60.312004089355 136 136 136
32.699485778809 25.532390594482 61.012001037598 94 94 94
32.722972869873 25.203619003296 60.267997741699 41 41 41
32.691734313965 25.204357147217 60.305000305176 157 157 157
32.722606658936 25.187999725342 60.849998474121 100 100 100
32.714851379395 24.859964370728 60.286994934082 155 155 155
32.699234008789 24.860334396362 60.329994201660 41 41 41
32.714481353760 24.844343185425 60.724006652832 88 88 88
32.738338470459 24.531192779541 59.995002746582 103 103 103
32.707096099854 24.531930923462 60.267997741699 76 76 76
32.691478729248 24.532300949097 60.297996520996 148 148 148
32.738338470459 24.531192779541 60.556999206543 41 41 41
32.707096099854 24.531930923462 60.596000671387 15 15 15
32.762199401855 24.218044281006 59.972999572754 77 77 77
32.730583190918 24.203161239624 60.015998840332 26 26 26
32.699710845947 24.219518661499 60.277992248535 153 153 153
32.699710845947 24.219518661499 60.325004577637 81 81 81
32.730583190918 24.203161239624 60.426002502441 85 85 85
32.754077911377 23.874387741089 59.993995666504 97 97 97
32.722831726074 23.875125885010 60.254005432129 128 128 128
32.722831726074 23.875125885010 60.301994323730 119 119 119
32.745952606201 23.530735015869 59.980995178223 121 121 121
32.730331420898 23.531103134155 60.249000549316 121 121 121
32.714706420898 23.531473159790 60.291999816895 129 129 129
32.753448486328 23.186710357666 59.969001770020 161 161 161
32.753448486328 23.186710357666 60.015007019043 209 209 209
32.769069671631 23.186340332031 60.066001892090 212 212 212
32.769069671631 23.186340332031 60.112998962402 207 207 207
32.769069671631 23.186340332031 60.161003112793 204 204 204
32.784317016602 23.170351028442 60.211997985840 64 64 64
32.737831115723 23.187080383301 60.243003845215 112 112 112
32.722209930420 23.187448501587 60.280006408691 134 134 134
32.760948181152 22.842687606812 59.950004577637 107 107 107
32.760948181152 22.842687606812 59.997993469238 207 207 207
32.760948181152 22.842687606812 60.043006896973 182 182 182
32.760948181152 22.842687606812 60.092994689941 177 177 177
32.776565551758 22.842319488525 60.142997741699 177 177 177
32.760948181152 22.842687606812 60.187995910645 151 151 151
32.760948181152 22.842687606812 60.226005554199 34 34 34
32.729709625244 22.843427658081 60.262992858887 145 145 145
32.784435272217 22.513916015625 59.933006286621 24 24 24
32.784435272217 22.513916015625 59.974998474121 192 192 192
32.784435272217 22.513916015625 60.023994445801 165 165 165
32.784435272217 22.513916015625 60.071006774902 155 155 155
32.784435272217 22.513916015625 60.120002746582 161 161 161
32.784435272217 22.513916015625 60.165000915527 186 186 186
32.753196716309 22.514654159546 60.245002746582 143 143 143
32.706333160400 22.515762329102 60.277000427246 87 87 87
32.776679992676 22.185882568359 59.954002380371 164 164 164
32.776679992676 22.185882568359 59.999992370605 198 198 198
32.776679992676 22.185882568359 60.049995422363 193 193 193
32.776679992676 22.185882568359 60.094993591309 189 189 189
32.807922363281 22.185144424438 60.144004821777 193 193 193
32.807922363281 22.185144424438 60.191001892090 75 75 75
32.745441436768 22.186620712280 60.219993591309 111 111 111
32.729820251465 22.186988830566 60.258995056152 134 134 134
32.784175872803 21.841859817505 59.933998107910 99 99 99
32.768558502197 21.842227935791 59.976997375488 203 203 203
32.784175872803 21.841859817505 60.025993347168 186 186 186
32.784175872803 21.841859817505 60.071998596191 199 199 199
32.799800872803 21.841489791870 60.127006530762 185 185 185
32.784175872803 21.841859817505 60.166999816895 145 145 145
32.784175872803 21.841859817505 60.215995788574 31 31 31
32.752933502197 21.842597961426 60.245994567871 157 157 157
32.791679382324 21.497835159302 59.920997619629 101 101 101
32.791679382324 21.497835159302 59.967002868652 202 202 202
32.791679382324 21.497835159302 60.019004821777 153 153 153
32.791679382324 21.497835159302 60.064002990723 101 101 101
32.807666778564 21.513088226318 60.114997863770 164 164 164
32.791679382324 21.497835159302 60.157997131348 148 148 148
32.791679382324 21.497835159302 60.200996398926 39 39 39
32.744815826416 21.498943328857 60.230995178223 157 157 157
32.814796447754 21.153444290161 59.915000915527 87 87 87
32.799545288086 21.169433593750 59.956001281738 209 209 209
32.799545288086 21.169433593750 60.004005432129 189 189 189
32.799545288086 21.169433593750 60.049995422363 182 182 182
32.814796447754 21.153444290161 60.099998474121 181 181 181
32.814796447754 21.153444290161 60.146995544434 167 167 167
32.752681732178 21.170541763306 60.219993591309 157 157 157
32.752681732178 21.170541763306 60.263999938965 25 25 25
32.776168823242 20.841768264771 59.935005187988 107 107 107
32.775432586670 20.810527801514 60.211006164551 139 139 139
32.760177612305 20.826519012451 60.252998352051 91 91 91
32.783668518066 20.497745513916 59.913993835449 127 127 127
32.783668518066 20.497745513916 60.189994812012 110 110 110
32.768047332764 20.498113632202 60.230995178223 145 145 145
32.807155609131 20.168973922729 59.898994445801 99 99 99
32.791164398193 20.153724670410 60.172004699707 58 58 58
32.759922027588 20.154462814331 60.209999084473 153 153 153
32.814655303955 19.824951171875 59.883995056152 86 86 86
32.783782958984 19.841312408447 59.920997619629 16 16 16
32.814285278320 19.809331893921 60.161003112793 17 17 17
32.783782958984 19.841312408447 60.198997497559 164 164 164
32.837772369385 19.480558395386 60.159996032715 26 26 26
32.775287628174 19.482036590576 60.187995910645 161 161 161
32.798408508301 19.137643814087 60.178993225098 152 152 152
32.798408508301 19.137643814087 60.224006652832 41 41 41
32.829650878906 19.136903762817 60.333000183105 74 74 74
32.805908203125 18.793621063232 60.161003112793 127 127 127
32.790653228760 18.809610366821 60.202003479004 91 91 91
32.821895599365 18.808870315552 60.458000183105 71 71 71
32.813774108887 18.465217590332 60.137992858887 71 71 71
32.813774108887 18.465217590332 60.181999206543 139 139 139
32.813774108887 18.465217590332 60.624000549316 102 102 102
32.822006225586 18.152435302734 60.111991882324 16 16 16
32.822006225586 18.152435302734 60.161003112793 154 154 154
32.852878570557 18.136077880859 60.758003234863 99 99 99
32.845127105713 17.808044433594 60.107994079590 14 14 14
32.829509735107 17.808412551880 60.142005920410 154 154 154
32.845127105713 17.808044433594 60.890998840332 68 68 68
32.821384429932 17.464757919312 60.127998352051 153 153 153
32.852626800537 17.464017868042 61.081001281738 40 40 40
32.828880310059 17.120737075806 60.114006042480 150 150 150
32.813262939453 17.121105194092 60.155006408691 30 30 30
32.860122680664 17.119997024536 61.228004455566 74 74 74
32.836750030518 16.792331695557 60.090003967285 114 114 114
32.821125030518 16.792703628540 60.129997253418 106 106 106
32.883243560791 16.775602340698 61.372001647949 77 77 77
32.642284393311 16.499971389771 55.112998962402 188 188 188
32.642284393311 16.499971389771 55.152992248535 187 187 187
32.673526763916 16.499233245850 55.191993713379 183 183 183
32.689151763916 16.498865127563 55.230003356934 184 184 184
32.689151763916 16.498865127563 55.275993347168 183 183 183
32.689151763916 16.498865127563 55.314994812012 180 180 180
32.720390319824 16.498125076294 55.351997375488 177 177 177
32.704765319824 16.498497009277 55.400001525879 174 174 174
32.704395294189 16.482873916626 55.444999694824 179 179 179
32.720390319824 16.498125076294 55.484001159668 173 173 173
32.720390319824 16.498125076294 55.527000427246 173 173 173
32.704765319824 16.498497009277 55.573005676270 173 173 173
32.704765319824 16.498497009277 55.614006042480 177 177 177
32.704765319824 16.498497009277 55.657997131348 173 173 173
32.720390319824 16.498125076294 55.698997497559 175 175 175
32.704765319824 16.498497009277 55.745002746582 175 175 175
32.704765319824 16.498497009277 55.786994934082 173 173 173
32.704765319824 16.498497009277 55.829994201660 181 181 181
32.704765319824 16.498497009277 55.870994567871 182 182 182
32.704765319824 16.498497009277 55.913993835449 174 174 174
32.720390319824 16.498125076294 55.954002380371 175 175 175
32.720390319824 16.498125076294 55.997001647949 174 174 174
32.720390319824 16.498125076294 56.038993835449 176 176 176
32.720390319824 16.498125076294 56.081001281738 177 177 177
32.704395294189 16.482873916626 56.124000549316 176 176 176
32.704765319824 16.498497009277 56.165000915527 177 177 177
32.720390319824 16.498125076294 56.204994201660 176 176 176
32.704765319824 16.498497009277 56.249000549316 190 190 190
32.704765319824 16.498497009277 56.290000915527 181 181 181
32.720390319824 16.498125076294 56.331001281738 184 184 184
32.704395294189 16.482873916626 56.372993469238 189 189 189
32.720390319824 16.498125076294 56.413002014160 193 193 193
32.720390319824 16.498125076294 56.454002380371 194 194 194
32.704395294189 16.482873916626 56.497001647949 194 194 194
32.720390319824 16.498125076294 56.536003112793 196 196 196
32.704395294189 16.482873916626 56.579002380371 195 195 195
32.720390319824 16.498125076294 56.618995666504 200 200 200
32.720390319824 16.498125076294 56.659996032715 205 205 205
32.704395294189 16.482873916626 56.700996398926 202 202 202
32.704395294189 16.482873916626 56.741996765137 205 205 205
32.704395294189 16.482873916626 56.782005310059 207 207 207
32.704395294189 16.482873916626 56.823005676270 209 209 209
32.704029083252 16.467250823975 56.862998962402 203 203 203
32.720390319824 16.498125076294 56.903999328613 207 207 207
32.720020294189 16.482503890991 56.943992614746 206 206 206
32.720390319824 16.498125076294 56.984992980957 197 197 197
32.704395294189 16.482873916626 57.025993347168 202 202 202
32.704029083252 16.467250823975 57.066001892090 206 206 206
32.720020294189 16.482503890991 57.107002258301 211 211 211
32.720390319824 16.498125076294 57.146995544434 216 216 216
32.704029083252 16.467250823975 57.187995910645 218 218 218
32.720020294189 16.482503890991 57.228004455566 219 219 219
32.704029083252 16.467250823975 57.267997741699 219 219 219
32.735637664795 16.482133865356 57.308998107910 221 221 221
32.720020294189 16.482503890991 57.349006652832 223 223 223
32.720020294189 16.482503890991 57.390007019043 219 219 219
32.704029083252 16.467250823975 57.430000305176 217 217 217
32.720020294189 16.482503890991 57.471000671387 220 220 220
32.704029083252 16.467250823975 57.510993957520 219 219 219
32.720020294189 16.482503890991 57.551994323730 220 220 220
32.704029083252 16.467250823975 57.592002868652 218 218 218
32.720020294189 16.482503890991 57.633003234863 213 213 213
32.735637664795 16.482133865356 57.672996520996 217 217 217
32.704029083252 16.467250823975 57.713005065918 210 210 210
32.735637664795 16.482133865356 57.754997253418 211 211 211
32.735637664795 16.482133865356 57.795005798340 215 215 215
32.735637664795 16.482133865356 57.836006164551 198 198 198
32.735637664795 16.482133865356 57.875999450684 206 206 206
32.735637664795 16.482133865356 57.918006896973 208 208 208
32.720020294189 16.482503890991 57.958000183105 209 209 209
32.735637664795 16.482133865356 57.999000549316 215 215 215
32.704029083252 16.467250823975 58.038993835449 210 210 210
32.735637664795 16.482133865356 58.081001281738 214 214 214
32.735271453857 16.466510772705 58.122001647949 213 213 213
32.735637664795 16.482133865356 58.163002014160 200 200 200
32.735271453857 16.466510772705 58.204994201660 194 194 194
32.735637664795 16.482133865356 58.245002746582 196 196 196
32.735271453857 16.466510772705 58.288002014160 197 197 197
32.735271453857 16.466510772705 58.327995300293 193 193 193
32.735271453857 16.466510772705 58.368995666504 197 197 197
32.735271453857 16.466510772705 58.411003112793 192 192 192
32.735271453857 16.466510772705 58.452995300293 186 186 186
32.735271453857 16.466510772705 58.495994567871 188 188 188
32.751262664795 16.481763839722 58.538002014160 188 188 188
32.735271453857 16.466510772705 58.577003479004 187 187 187
32.735271453857 16.466510772705 58.620002746582 192 192 192
32.735271453857 16.466510772705 58.661994934082 194 194 194
32.735271453857 16.466510772705 58.704994201660 193 193 193
32.735271453857 16.466510772705 58.745994567871 179 179 179
32.735271453857 16.466510772705 58.788993835449 182 182 182
32.735271453857 16.466510772705 58.831993103027 180 180 180
32.735271453857 16.466510772705 58.874000549316 181 181 181
32.766517639160 16.465774536133 58.918006896973 180 180 180
32.766517639160 16.465774536133 58.961997985840 181 181 181
32.750892639160 16.466142654419 59.002998352051 181 181 181
32.766517639160 16.465774536133 59.047004699707 184 184 184
32.766517639160 16.465774536133 59.090995788574 179 179 179
32.766517639160 16.465774536133 59.133995056152 184 184 184
32.766517639160 16.465774536133 59.178001403809 180 180 180
32.766517639160 16.465774536133 59.221992492676 180 180 180
32.766517639160 16.465774536133 59.265998840332 173 173 173
32.766517639160 16.465774536133 59.310005187988 174 174 174
32.766517639160 16.465774536133 59.355003356934 176 176 176
32.766517639160 16.465774536133 59.398994445801 180 180 180
32.766517639160 16.465774536133 59.443000793457 176 176 176
32.766517639160 16.465774536133 59.489006042480 176 176 176
32.766517639160 16.465774536133 59.534996032715 172 172 172
32.766517639160 16.465774536133 59.577995300293 172 172 172
32.766517639160 16.465774536133 59.622993469238 175 175 175
32.766517639160 16.465774536133 59.670005798340 168 168 168
32.766517639160 16.465774536133 59.713005065918 173 173 173
32.797756195068 16.465036392212 59.762001037598 174 174 174
32.766517639160 16.465774536133 59.805992126465 178 178 178
32.766517639160 16.465774536133 59.851997375488 182 182 182
32.797756195068 16.465036392212 59.900001525879 184 184 184
32.797756195068 16.465036392212 59.944999694824 175 175 175
32.797756195068 16.465036392212 59.993003845215 175 175 175
32.797756195068 16.465036392212 60.040000915527 171 171 171
32.797756195068 16.465036392212 60.086006164551 152 152 152
32.797756195068 16.465036392212 60.137001037598 167 167 167
32.797756195068 16.465036392212 60.181999206543 170 170 170
32.797756195068 16.465036392212 60.228996276855 172 172 172
32.797756195068 16.465036392212 60.280006408691 171 171 171
32.797756195068 16.465036392212 60.331001281738 171 171 171
32.797756195068 16.465036392212 60.374992370605 163 163 163
32.797756195068 16.465036392212 60.422996520996 167 167 167
32.797756195068 16.465036392212 60.471992492676 167 167 167
32.797756195068 16.465036392212 60.525001525879 167 167 167
32.797756195068 16.465036392212 60.575004577637 164 164 164
32.797756195068 16.465036392212 60.620994567871 168 168 168
32.797756195068 16.465036392212 60.674003601074 162 162 162
32.797756195068 16.465036392212 60.726005554199 169 169 169
32.828998565674 16.464296340942 60.777000427246 164 164 164
32.797756195068 16.465036392212 60.825996398926 163 163 163
32.797756195068 16.465036392212 60.877006530762 162 162 162
32.797756195068 16.465036392212 60.928001403809 166 166 166
32.828998565674 16.464296340942 60.984992980957 168 168 168
32.828998565674 16.464296340942 61.036994934082 166 166 166
32.828998565674 16.464296340942 61.088996887207 164 164 164
32.828998565674 16.464296340942 61.138999938965 164 164 164
32.813003540039 16.449048995972 61.189994812012 160 160 160
32.828998565674 16.464296340942 61.249000549316 169 169 169
32.828998565674 16.464296340942 61.299995422363 166 166 166
32.828628540039 16.448677062988 61.361000061035 167 167 167
32.797756195068 16.465036392212 61.402000427246 158 158 158
32.828998565674 16.464296340942 61.467994689941 144 144 144
32.828628540039 16.448677062988 61.525993347168 167 167 167
32.828628540039 16.448677062988 61.581001281738 166 166 166
32.828628540039 16.448677062988 61.637001037598 158 158 158
32.828258514404 16.433057785034 61.698005676270 167 167 167
32.844615936279 16.463928222656 61.756004333496 151 151 151
32.844615936279 16.463928222656 61.812995910645 147 147 147
32.828998565674 16.464296340942 61.859992980957 53 53 53
32.700736999512 26.907745361328 61.952995300293 158 158 158
32.700736999512 26.907745361328 61.898994445801 163 163 163
32.701107025146 26.923364639282 61.829994201660 159 159 159
32.700736999512 26.907745361328 61.773002624512 159 159 159
32.700736999512 26.907745361328 61.713996887207 158 158 158
32.700736999512 26.907745361328 61.657005310059 165 165 165
32.701107025146 26.923364639282 61.596992492676 106 106 106
32.701107025146 26.923364639282 61.540992736816 138 138 138
32.701107025146 26.923364639282 61.484001159668 143 143 143
32.701107025146 26.923364639282 61.424995422363 146 146 146
32.701107025146 26.923364639282 61.370002746582 154 154 154
32.685485839844 26.923732757568 61.312004089355 159 159 159
32.685485839844 26.923732757568 61.258003234863 166 166 166
32.685485839844 26.923732757568 61.202003479004 171 171 171
32.670238494873 26.939727783203 61.144004821777 177 177 177
32.670238494873 26.939727783203 61.084999084473 176 176 176
32.670238494873 26.939727783203 61.030998229980 177 177 177
32.670238494873 26.939727783203 60.978004455566 178 178 178
32.670238494873 26.939727783203 60.922996520996 182 182 182
32.654613494873 26.940095901489 60.866996765137 184 184 184
32.654613494873 26.940095901489 60.812995910645 181 181 181
32.638996124268 26.940464019775 60.754997253418 182 182 182
32.654613494873 26.940095901489 60.704994201660 177 177 177
32.654613494873 26.940095901489 60.655006408691 182 182 182
32.638996124268 26.940464019775 60.599006652832 178 178 178
32.638996124268 26.940464019775 60.549003601074 183 183 183
32.638996124268 26.940464019775 60.495994567871 187 187 187
32.638996124268 26.940464019775 60.441001892090 190 190 190
32.639362335205 26.956083297729 60.387001037598 188 188 188
32.639362335205 26.956083297729 60.338005065918 128 128 128
32.623371124268 26.940834045410 60.286994934082 157 157 157
32.623371124268 26.940834045410 60.236991882324 165 165 165
32.623371124268 26.940834045410 60.185997009277 168 168 168
32.623371124268 26.940834045410 60.137992858887 165 165 165
32.623371124268 26.940834045410 60.086997985840 165 165 165
32.623371124268 26.940834045410 60.038002014160 167 167 167
32.623371124268 26.940834045410 59.986000061035 174 174 174
32.607753753662 26.941202163696 59.935997009277 179 179 179
32.607753753662 26.941202163696 59.887001037598 181 181 181
32.623371124268 26.940834045410 59.840003967285 184 184 184
32.623371124268 26.940834045410 59.791999816895 187 187 187
32.623371124268 26.940834045410 59.743003845215 188 188 188
32.608119964600 26.956821441650 59.691001892090 187 187 187
32.608489990234 26.972442626953 59.640007019043 188 188 188
32.608119964600 26.956821441650 59.596000671387 195 195 195
32.608119964600 26.956821441650 59.545997619629 195 195 195
32.608119964600 26.956821441650 59.499000549316 198 198 198
32.608119964600 26.956821441650 59.452003479004 200 200 200
32.608119964600 26.956821441650 59.407005310059 196 196 196
32.576877593994 26.957561492920 59.355995178223 199 199 199
32.608119964600 26.956821441650 59.310997009277 200 200 200
32.576877593994 26.957561492920 59.262001037598 198 198 198
32.576877593994 26.957561492920 59.215003967285 198 198 198
32.576511383057 26.941942214966 59.170997619629 194 194 194
32.576877593994 26.957561492920 59.122993469238 200 200 200
32.577247619629 26.973180770874 59.075996398926 205 205 205
32.576877593994 26.957561492920 59.030006408691 203 203 203
32.577247619629 26.973180770874 58.982994079590 206 206 206
32.576877593994 26.957561492920 58.939002990723 208 208 208
32.577247619629 26.973180770874 58.890007019043 204 204 204
32.577247619629 26.973180770874 58.846000671387 210 210 210
32.577247619629 26.973180770874 58.799003601074 209 209 209
32.577247619629 26.973180770874 58.754005432129 212 212 212
32.577247619629 26.973180770874 58.708000183105 210 210 210
32.577247619629 26.973180770874 58.661994934082 208 208 208
32.577247619629 26.973180770874 58.616996765137 209 209 209
32.577247619629 26.973180770874 58.571998596191 206 206 206
32.577247619629 26.973180770874 58.527000427246 217 217 217
32.561630249023 26.973550796509 58.480995178223 213 213 213
32.561630249023 26.973550796509 58.435997009277 213 213 213
32.561630249023 26.973550796509 58.390998840332 212 212 212
32.561630249023 26.973550796509 58.346000671387 214 214 214
32.545635223389 26.958299636841 58.301002502441 215 215 215
32.546005249023 26.973920822144 58.256004333496 217 217 217
32.546005249023 26.973920822144 58.211006164551 217 217 217
32.545635223389 26.958299636841 58.166999816895 222 222 222
32.546005249023 26.973920822144 58.122001647949 220 220 220
32.546005249023 26.973920822144 58.077003479004 219 219 219
32.546005249023 26.973920822144 58.032997131348 220 220 220
32.546005249023 26.973920822144 57.987998962402 227 227 227
32.546005249023 26.973920822144 57.943992614746 233 233 233
32.546005249023 26.973920822144 57.898994445801 232 232 232
32.546005249023 26.973920822144 57.855003356934 227 227 227
32.546005249023 26.973920822144 57.810997009277 229 229 229
32.546005249023 26.973920822144 57.767005920410 233 233 233
32.546005249023 26.973920822144 57.721992492676 230 230 230
32.530391693115 26.974288940430 57.678001403809 232 232 232
32.530391693115 26.974288940430 57.633995056152 232 232 232
32.546005249023 26.973920822144 57.590003967285 230 230 230
32.546005249023 26.973920822144 57.545005798340 232 232 232
32.530391693115 26.974288940430 57.500999450684 222 222 222
32.514766693115 26.974658966064 57.456993103027 228 228 228
32.514766693115 26.974658966064 57.413002014160 227 227 227
32.514766693115 26.974658966064 57.368995666504 228 228 228
32.514766693115 26.974658966064 57.325004577637 228 228 228
32.514766693115 26.974658966064 57.280006408691 230 230 230
32.514766693115 26.974658966064 57.236000061035 230 230 230
32.514766693115 26.974658966064 57.193000793457 229 229 229
32.514766693115 26.974658966064 57.148002624512 228 228 228
32.514766693115 26.974658966064 57.103996276855 228 228 228
32.514766693115 26.974658966064 57.060005187988 226 226 226
32.514766693115 26.974658966064 57.015998840332 233 233 233
32.514766693115 26.974658966064 56.971000671387 224 224 224
32.514766693115 26.974658966064 56.926994323730 221 221 221
32.514766693115 26.974658966064 56.881996154785 216 216 216
32.514766693115 26.974658966064 56.838005065918 217 217 217
32.514766693115 26.974658966064 56.793998718262 216 216 216
32.499515533447 26.990648269653 56.749992370605 218 218 218
32.514766693115 26.974658966064 56.704994201660 223 223 223
32.499515533447 26.990648269653 56.661003112793 223 223 223
32.499515533447 26.990648269653 56.616996765137 212 212 212
32.484264373779 27.006635665894 56.573005676270 218 218 218
32.484264373779 27.006635665894 56.527000427246 222 222 222
32.484264373779 27.006635665894 56.482994079590 217 217 217
32.484264373779 27.006635665894 56.437995910645 208 208 208
32.499515533447 26.990648269653 56.392005920410 208 208 208
32.483524322510 26.975397109985 56.349006652832 208 208 208
32.483524322510 26.975397109985 56.303001403809 210 210 210
32.483524322510 26.975397109985 56.258003234863 208 208 208
32.483524322510 26.975397109985 56.213996887207 206 206 206
32.483894348145 26.991016387939 56.170005798340 200 200 200
32.483524322510 26.975397109985 56.122993469238 198 198 198
32.483894348145 26.991016387939 56.079002380371 202 202 202
32.483524322510 26.975397109985 56.030998229980 199 199 199
32.483894348145 26.991016387939 55.986991882324 201 201 201
32.483894348145 26.991016387939 55.941001892090 211 211 211
32.483894348145 26.991016387939 55.896003723145 199 199 199
32.483894348145 26.991016387939 55.847999572754 198 198 198
32.468643188477 27.007007598877 55.805000305176 199 199 199
32.468643188477 27.007007598877 55.758995056152 202 202 202
32.468643188477 27.007007598877 55.713005065918 200 200 200
32.468643188477 27.007007598877 55.665000915527 197 197 197
32.453025817871 27.007375717163 55.620002746582 197 197 197
32.483894348145 26.991016387939 55.569999694824 201 201 201
32.468643188477 27.007007598877 55.525001525879 196 196 196
32.468643188477 27.007007598877 55.476997375488 192 192 192
32.468643188477 27.007007598877 55.430992126465 192 192 192
32.437404632568 27.007745742798 55.385993957520 192 192 192
32.452651977539 26.991756439209 55.338005065918 192 192 192
32.437404632568 27.007745742798 55.290992736816 189 189 189
32.437404632568 27.007745742798 55.243003845215 190 190 190
32.437404632568 27.007745742798 55.194999694824 189 189 189
32.437404632568 27.007745742798 55.150001525879 189 189 189
32.437404632568 27.007745742798 55.099006652832 190 190 190
32.437404632568 27.007745742798 55.051994323730 188 188 188
32.677364349365 26.580080032349 61.564002990723 40 40 40
32.708606719971 26.579343795776 61.523994445801 75 75 75
32.662113189697 26.596073150635 60.325004577637 135 135 135
32.685230255127 26.251678466797 61.370002746582 74 74 74
32.669239044189 26.236427307129 60.349998474121 128 128 128
32.684494018555 26.220436096191 60.305992126465 62 62 62
32.707977294922 25.891666412354 61.185997009277 87 87 87
32.677108764648 25.908023834229 60.325004577637 141 141 141
32.700222015381 25.563632965088 61.053993225098 88 88 88
32.668983459473 25.564371109009 60.357002258301 89 89 89
32.668983459473 25.564371109009 60.305992126465 104 104 104
32.723342895508 25.219240188599 60.877006530762 103 103 103
32.692104339600 25.219978332520 60.340995788574 138 138 138
32.707355499268 25.203989028931 60.295997619629 55 55 55
32.715221405029 24.875587463379 60.747001647949 32 32 32
32.745723724365 24.843605041504 60.702995300293 36 36 36
32.699234008789 24.860334396362 60.323005676270 132 132 132
32.722347259521 24.515943527222 60.568000793457 85 85 85
32.675857543945 24.532669067383 60.346000671387 68 68 68
32.707096099854 24.531930923462 60.301002502441 117 117 117
32.753223419189 24.499582290649 60.015998840332 93 93 93
32.729846954346 24.171918869019 60.437004089355 78 78 78
32.698974609375 24.188278198242 60.321998596191 133 133 133
32.730216979980 24.187540054321 60.277992248535 50 50 50
32.745098114014 24.155927658081 60.034004211426 31 31 31
32.745098114014 24.155927658081 59.986000061035 16 16 16
32.691589355469 23.875862121582 60.342002868652 26 26 26
32.706474304199 23.844253540039 60.295005798340 137 137 137
32.784210205078 23.826787948608 60.010002136230 98 98 98
32.714706420898 23.531473159790 60.323997497559 97 97 97
32.714340209961 23.515851974487 60.275993347168 113 113 113
32.745216369629 23.499494552612 60.028999328613 9 9 9
32.760463714600 23.483503341675 59.986991882324 65 65 65
32.737094879150 23.155839920044 60.316993713379 110 110 110
32.737094879150 23.155839920044 60.269004821777 102 102 102
32.783210754395 23.123491287231 60.230003356934 92 92 92
32.798831939697 23.123119354248 60.183006286621 177 177 177
32.783210754395 23.123491287231 60.127998352051 206 206 206
32.783210754395 23.123491287231 60.075996398926 134 134 134
32.767593383789 23.123859405518 60.023994445801 204 204 204
32.752342224121 23.139848709106 59.967994689941 54 54 54
32.728969573975 22.812185287476 60.299003601074 138 138 138
32.744220733643 22.796195983887 60.252006530762 48 48 48
32.790710449219 22.779464721680 60.215995788574 124 124 124
32.790710449219 22.779464721680 60.163002014160 102 102 102
32.790710449219 22.779464721680 60.107994079590 134 134 134
32.759471893311 22.780204772949 60.055992126465 195 195 195
32.790710449219 22.779464721680 60.010002136230 193 193 193
32.752090454102 22.467792510986 60.329994201660 11 11 11
32.752090454102 22.467792510986 60.275001525879 132 132 132
32.798210144043 22.435443878174 60.193992614746 185 185 185
32.782588958740 22.435811996460 60.137992858887 194 194 194
32.782588958740 22.435811996460 60.088005065918 187 187 187
32.782588958740 22.435811996460 60.034004211426 194 194 194
32.782588958740 22.435811996460 59.984001159668 148 148 148
32.744705200195 22.155378341675 60.293006896973 110 110 110
32.775207519531 22.123399734497 60.249000549316 90 90 90
32.806076049805 22.107040405273 60.209999084473 86 86 86
32.806076049805 22.107040405273 60.161003112793 197 197 197
32.805706024170 22.091419219971 60.111991882324 172 172 172
32.806076049805 22.107040405273 60.058998107910 172 172 172
32.775207519531 22.123399734497 60.002006530762 202 202 202
32.806076049805 22.107040405273 59.954002380371 43 43 43
32.752197265625 21.811357498169 60.265998840332 138 138 138
32.798320770264 21.779006958008 60.180000305176 180 180 180
32.813945770264 21.778638839722 60.133995056152 97 97 97
32.797950744629 21.763385772705 60.079994201660 177 177 177
32.798320770264 21.779006958008 60.025001525879 208 208 208
32.782699584961 21.779376983643 59.972999572754 154 154 154
32.759696960449 21.467332839966 60.293998718262 53 53 53
32.759696960449 21.467332839966 60.243995666504 123 123 123
32.805824279785 21.434986114502 60.211006164551 18 18 18
32.821441650391 21.434617996216 60.163002014160 203 203 203
32.821441650391 21.434617996216 60.111000061035 202 202 202
32.821441650391 21.434617996216 60.058006286621 88 88 88
32.805824279785 21.434986114502 60.002998352051 205 205 205
32.805824279785 21.434986114502 59.952003479004 104 104 104
32.782817840576 21.122941970825 60.278999328613 103 103 103
32.782817840576 21.122941970825 60.228004455566 123 123 123
32.812950134277 21.075342178345 60.196006774902 86 86 86
32.813316345215 21.090961456299 60.140007019043 90 90 90
32.813316345215 21.090961456299 60.090003967285 88 88 88
32.813316345215 21.090961456299 60.038002014160 97 97 97
32.797698974609 21.091329574585 59.984992980957 89 89 89
32.813316345215 21.090961456299 59.935997009277 77 77 77
32.773952484131 20.748044967651 60.267005920410 109 109 109
32.773952484131 20.748044967651 60.219001770020 93 93 93
32.789577484131 20.747676849365 59.963996887207 55 55 55
32.781822204590 20.419643402100 60.241996765137 135 135 135
32.797073364258 20.403654098511 59.943000793457 104 104 104
32.774070739746 20.091609954834 60.258003234863 120 120 120
32.789318084717 20.075622558594 60.213996887207 95 95 95
32.804573059082 20.059629440308 59.963005065918 29 29 29
32.789318084717 20.075622558594 59.905006408691 14 14 14
32.781562805176 19.747589111328 60.226997375488 141 141 141
32.812438964844 19.731225967407 59.928993225098 104 104 104
32.804683685303 19.403194427490 60.262001037598 68 68 68
32.804683685303 19.403194427490 60.206993103027 129 129 129
32.835189819336 19.371213912964 60.172004699707 43 43 43
32.827064514160 19.027559280396 60.415000915527 70 70 70
32.811817169189 19.043548583984 60.247993469238 26 26 26
32.811817169189 19.043548583984 60.196998596191 112 112 112
32.834560394287 18.683538436890 60.560997009277 80 80 80
32.818943023682 18.683906555176 60.241996765137 34 34 34
32.818943023682 18.683906555176 60.183998107910 119 119 119
32.826435089111 18.339883804321 60.698005676270 22 22 22
32.811187744141 18.355873107910 60.206001281738 121 121 121
32.810817718506 18.340251922607 60.159004211426 51 51 51
32.849925994873 18.011110305786 60.883995056152 66 66 66
32.819053649902 18.027471542358 60.178001403809 139 139 139
32.857425689697 17.667085647583 61.028999328613 84 84 84
32.826553344727 17.683448791504 60.200996398926 42 42 42
32.826553344727 17.683448791504 60.150993347168 119 119 119
32.880546569824 17.322696685791 61.181999206543 83 83 83
32.833679199219 17.323802947998 60.183998107910 61 61 61
32.833679199219 17.323802947998 60.135002136230 112 112 112
32.887672424316 16.963050842285 61.349006652832 77 77 77
32.840812683105 16.964157104492 60.172996520996 51 51 51
32.840812683105 16.964157104492 60.124992370605 108 108 108
32.925670623779 16.587049484253 61.885002136230 65 65 65
32.925670623779 16.587049484253 61.827003479004 58 58 58
32.926040649414 16.602668762207 61.760002136230 63 63 63
32.925670623779 16.587049484253 61.704002380371 63 63 63
32.926040649414 16.602668762207 61.633995056152 55 55 55
32.910793304443 16.618658065796 61.571998596191 49 49 49
32.833797454834 16.667366027832 61.463005065918 129 129 129
32.926040649414 16.602668762207 61.454994201660 110 110 110
32.926040649414 16.602668762207 61.400001525879 55 55 55
32.894798278809 16.603408813477 61.334999084473 72 72 72
32.894798278809 16.603408813477 61.277992248535 66 66 66
32.894798278809 16.603408813477 61.219993591309 70 70 70
32.894798278809 16.603408813477 61.163993835449 86 86 86
32.895168304443 16.619029998779 61.103004455566 85 85 85
32.895168304443 16.619029998779 61.045997619629 93 93 93
32.895168304443 16.619029998779 60.987998962402 100 100 100
32.895168304443 16.619029998779 60.926002502441 106 106 106
32.895168304443 16.619029998779 60.877998352051 109 109 109
32.895168304443 16.619029998779 60.818992614746 99 99 99
32.895168304443 16.619029998779 60.760993957520 121 121 121
32.895168304443 16.619029998779 60.706993103027 110 110 110
32.879550933838 16.619398117065 60.648002624512 113 113 113
32.895168304443 16.619029998779 60.594001770020 105 105 105
32.863933563232 16.619768142700 60.538993835449 110 110 110
32.863933563232 16.619768142700 60.482994079590 109 109 109
32.863933563232 16.619768142700 60.430000305176 117 117 117
32.863933563232 16.619768142700 60.379005432129 125 125 125
32.848308563232 16.620136260986 60.318992614746 123 123 123
32.863933563232 16.619768142700 60.269996643066 135 135 135
32.848308563232 16.620136260986 60.213996887207 117 117 117
32.802185058594 16.652484893799 60.144004821777 116 116 116
32.848308563232 16.620136260986 60.107002258301 130 130 130
32.848308563232 16.620136260986 60.055992126465 135 135 135
32.848308563232 16.620136260986 60.004997253418 147 147 147
32.848308563232 16.620136260986 59.950996398926 159 159 159
32.848308563232 16.620136260986 59.898994445801 149 149 149
32.848308563232 16.620136260986 59.849006652832 147 147 147
32.848308563232 16.620136260986 59.797996520996 156 156 156
32.848308563232 16.620136260986 59.745002746582 160 160 160
32.832691192627 16.620504379272 59.693000793457 157 157 157
32.848308563232 16.620136260986 59.644004821777 157 157 157
32.832691192627 16.620504379272 59.590003967285 155 155 155
32.832691192627 16.620504379272 59.543006896973 177 177 177
32.832691192627 16.620504379272 59.491004943848 178 178 178
32.832691192627 16.620504379272 59.439002990723 170 170 170
32.832691192627 16.620504379272 59.388999938965 163 163 163
32.832691192627 16.620504379272 59.340995788574 161 161 161
32.832691192627 16.620504379272 59.288993835449 168 168 168
32.832691192627 16.620504379272 59.237998962402 164 164 164
32.832691192627 16.620504379272 59.189994812012 160 160 160
32.832691192627 16.620504379272 59.137992858887 167 167 167
32.832691192627 16.620504379272 59.088996887207 167 167 167
32.832691192627 16.620504379272 59.040000915527 166 166 166
32.832691192627 16.620504379272 58.991004943848 170 170 170
32.817066192627 16.620876312256 58.939994812012 171 171 171
32.832691192627 16.620504379272 58.892005920410 168 168 168
32.817066192627 16.620876312256 58.842994689941 167 167 167
32.801448822021 16.621244430542 58.793006896973 168 168 168
32.817066192627 16.620876312256 58.745994567871 174 174 174
32.863189697266 16.588527679443 58.558006286621 171 171 171
32.801448822021 16.621244430542 58.502998352051 193 193 193
32.801448822021 16.621244430542 58.454994201660 191 191 191
32.801448822021 16.621244430542 58.407005310059 197 197 197
32.801448822021 16.621244430542 58.359001159668 197 197 197
