27.012969970703 16.154767990112 6.394996643066 164 164 164
26.997346878052 16.154968261719 6.337997436523 201 201 201
26.997545242310 16.170593261719 6.280998229980 80 80 80
26.939641952515 16.530736923218 6.672996520996 80 80 80
26.939641952515 16.530736923218 6.620002746582 113 113 113
26.970890045166 16.530336380005 6.567001342773 110 110 110
27.001739501953 16.498691558838 6.527999877930 31 31 31
26.970689773560 16.514713287354 6.301002502441 82 82 82
26.944034576416 16.874460220337 6.763000488281 18 18 18
26.944034576416 16.874460220337 6.589996337891 107 107 107
27.006132125854 16.842412948608 6.557998657227 73 73 73
27.006132125854 16.842412948608 6.501998901367 23 23 23
26.974884033203 16.842811584473 6.443000793457 11 11 11
26.959260940552 16.843011856079 6.272003173828 30 30 30
26.948028564453 17.186933517456 6.898002624512 23 23 23
26.917181015015 17.218580245972 6.606002807617 14 14 14
26.917181015015 17.218580245972 6.558998107910 88 88 88
26.948228836060 17.202556610107 6.292999267578 38 38 38
26.890325546265 17.562700271606 7.015998840332 20 20 20
26.921375274658 17.546678543091 6.575996398926 96 96 96
26.921175003052 17.531053543091 6.258003234863 59 59 59
26.894718170166 17.906421661377 7.145996093750 20 20 20
26.894718170166 17.906421661377 6.587997436523 39 39 39
26.910341262817 17.906223297119 6.535003662109 83 83 83
26.868062973022 18.266168594360 6.542999267578 113 113 113
26.898912429810 18.234519958496 6.504997253418 33 33 33
26.903305053711 18.578243255615 7.374000549316 35 35 35
26.872257232666 18.594266891479 6.523002624512 117 117 117
26.876449584961 18.922365188599 7.511001586914 24 24 24
26.876449584961 18.922365188599 6.550003051758 100 100 100
26.876249313354 18.906742095947 6.502998352051 39 39 39
26.849596023560 19.266485214233 6.515998840332 122 122 122
26.853790283203 19.594583511353 7.726997375488 28 28 28
26.822542190552 19.594982147217 6.532997131348 94 94 94
26.822542190552 19.594982147217 6.484001159668 58 58 58
26.827133178711 19.954328536987 7.869003295898 22 22 22
26.827133178711 19.954328536987 6.498001098633 122 122 122
26.831525802612 20.298049926758 8.011001586914 23 23 23
26.815902709961 20.298250198364 6.517997741699 92 92 92
26.831327438354 20.282426834106 6.470001220703 53 53 53
26.804870605469 20.657796859741 8.089996337891 98 98 98
26.773624420166 20.658195495605 6.483001708984 125 125 125
26.746768951416 21.002317428589 8.459999084473 114 114 114
26.746768951416 21.002317428589 8.390998840332 120 120 120
26.746768951416 21.002317428589 8.337997436523 134 134 134
26.824489593506 20.970069885254 8.311996459961 122 122 122
26.824489593506 20.970069885254 8.253997802734 131 131 131
26.824489593506 20.970069885254 8.186996459961 121 121 121
26.840112686157 20.969869613647 8.129997253418 132 132 132
26.824489593506 20.970069885254 8.063003540039 125 125 125
26.840112686157 20.969869613647 8.012001037598 128 128 128
26.840112686157 20.969869613647 7.953002929688 129 129 129
26.840112686157 20.969869613647 7.893997192383 126 126 126
26.840112686157 20.969869613647 7.835998535156 119 119 119
26.840112686157 20.969869613647 7.774002075195 124 124 124
26.839912414551 20.954246520996 7.719001770020 123 123 123
26.840112686157 20.969869613647 7.656997680664 128 128 128
26.840112686157 20.969869613647 7.597999572754 128 128 128
26.840112686157 20.969869613647 7.539001464844 131 131 131
26.839714050293 20.938623428345 7.487998962402 131 131 131
26.840112686157 20.969869613647 7.422996520996 129 129 129
26.839912414551 20.954246520996 7.369003295898 133 133 133
26.839912414551 20.954246520996 7.309997558594 129 129 129
26.839912414551 20.954246520996 7.253997802734 124 124 124
26.839714050293 20.938623428345 7.199996948242 129 129 129
26.839912414551 20.954246520996 7.139999389648 130 130 130
26.839912414551 20.954246520996 7.083000183105 125 125 125
26.839714050293 20.938623428345 7.025001525879 137 137 137
26.715520858765 21.002716064453 6.917999267578 128 128 128
26.746768951416 21.002317428589 6.864997863770 107 107 107
26.746570587158 20.986694335938 6.822998046875 135 135 135
26.839714050293 20.938623428345 6.808998107910 135 135 135
26.839714050293 20.938623428345 6.750999450684 145 145 145
26.839714050293 20.938623428345 6.699996948242 141 141 141
26.839714050293 20.938623428345 6.645996093750 135 135 135
26.839714050293 20.938623428345 6.592002868652 148 148 148
26.839714050293 20.938623428345 6.531997680664 133 133 133
26.839714050293 20.938623428345 6.484001159668 140 140 140
26.839714050293 20.938623428345 6.429000854492 134 134 134
26.839714050293 20.938623428345 6.376998901367 141 141 141
26.839714050293 20.938623428345 6.319999694824 132 132 132
26.839714050293 20.938623428345 6.273002624512 132 132 132
26.839714050293 20.938623428345 6.220001220703 129 129 129
26.839714050293 20.938623428345 6.162002563477 130 130 130
26.839714050293 20.938623428345 6.110000610352 121 121 121
26.839714050293 20.938623428345 6.060997009277 127 127 127
26.839714050293 20.938623428345 6.003997802734 124 124 124
26.839714050293 20.938623428345 5.955001831055 124 124 124
26.839714050293 20.938623428345 5.902999877930 119 119 119
26.839714050293 20.938623428345 5.853996276855 113 113 113
26.839714050293 20.938623428345 5.801002502441 109 109 109
26.839714050293 20.938623428345 5.750999450684 101 101 101
26.839714050293 20.938623428345 5.696998596191 102 102 102
26.777618408203 20.970668792725 5.627998352051 118 118 118
26.715520858765 21.002716064453 5.566001892090 125 125 125
26.715520858765 21.002716064453 5.513999938965 112 112 112
26.746570587158 20.986694335938 5.469001770020 126 126 126
26.839714050293 20.938623428345 5.444000244141 106 106 106
26.839513778687 20.922998428345 5.395996093750 93 93 93
26.839714050293 20.938623428345 5.347000122070 93 93 93
26.839714050293 20.938623428345 5.293998718262 91 91 91
26.839714050293 20.938623428345 5.244003295898 100 100 100
26.839714050293 20.938623428345 5.194000244141 102 102 102
26.839714050293 20.938623428345 5.143997192383 91 91 91
26.839714050293 20.938623428345 5.094001770020 100 100 100
26.839513778687 20.922998428345 5.046997070313 89 89 89
26.839714050293 20.938623428345 4.995002746582 84 84 84
26.839714050293 20.938623428345 4.945999145508 94 94 94
26.839513778687 20.922998428345 4.899002075195 92 92 92
26.839714050293 20.938623428345 4.847999572754 94 94 94
26.839714050293 20.938623428345 4.797996520996 88 88 88
26.839513778687 20.922998428345 4.750999450684 92 92 92
26.839513778687 20.922998428345 4.702003479004 95 95 95
26.839714050293 20.938623428345 4.652000427246 82 82 82
26.839714050293 20.938623428345 4.601997375488 74 74 74
26.839714050293 20.938623428345 4.555000305176 65 65 65
26.839714050293 20.938623428345 4.504997253418 63 63 63
26.839513778687 20.922998428345 4.458000183105 39 39 39
26.870761871338 20.922599792480 4.411003112793 20 20 20
26.715520858765 21.002716064453 4.347999572754 120 120 120
26.715520858765 21.002716064453 4.300003051758 115 115 115
26.715520858765 21.002716064453 4.251998901367 117 117 117
26.746570587158 20.986694335938 4.207000732422 109 109 109
26.699897766113 21.002916336060 3.160003662109 125 125 125
26.699897766113 21.002916336060 3.112998962402 129 129 129
26.699897766113 21.002916336060 3.065002441406 131 131 131
26.699897766113 21.002916336060 3.016998291016 65 65 65
26.745971679688 20.939823150635 2.033996582031 149 149 149
26.684076309204 20.987491607666 2.000000000000 139 139 139
27.093780517578 9.028154373169 2.058998107910 172 172 172
27.062532424927 9.028553962708 2.106002807617 161 161 161
27.062532424927 9.028553962708 2.152000427246 153 153 153
27.062532424927 9.028553962708 2.199996948242 123 123 123
27.046909332275 9.028753280640 2.246002197266 123 123 123
27.062532424927 9.028553962708 2.289001464844 125 125 125
27.062532424927 9.028553962708 2.333000183105 131 131 131
27.062532424927 9.028553962708 2.376998901367 131 131 131
27.046909332275 9.028753280640 2.422996520996 122 122 122
27.046909332275 9.028753280640 2.468002319336 126 126 126
27.062532424927 9.028553962708 2.510002136230 127 127 127
27.046909332275 9.028753280640 2.555000305176 130 130 130
27.046909332275 9.028753280640 2.597999572754 127 127 127
27.046909332275 9.028753280640 2.642997741699 126 126 126
27.046909332275 9.028753280640 2.685997009277 128 128 128
27.046909332275 9.028753280640 2.730003356934 126 126 126
27.031482696533 9.044576644897 2.774002075195 132 132 132
27.031482696533 9.044576644897 2.819000244141 131 131 131
27.031482696533 9.044576644897 2.861999511719 133 133 133
27.031482696533 9.044576644897 2.905998229980 129 129 129
27.031482696533 9.044576644897 2.948997497559 127 127 127
27.031482696533 9.044576644897 2.991996765137 136 136 136
27.031482696533 9.044576644897 3.036003112793 140 140 140
27.062730789185 9.044177055359 3.079002380371 133 133 133
27.062931060791 9.059801101685 3.122001647949 137 137 137
27.031482696533 9.044576644897 3.166000366211 138 138 138
27.062931060791 9.059801101685 3.208999633789 148 148 148
27.031682968140 9.060200691223 3.252998352051 138 138 138
27.062931060791 9.059801101685 3.295997619629 140 140 140
27.031682968140 9.060200691223 3.338996887207 138 138 138
27.031682968140 9.060200691223 3.383003234863 135 135 135
27.031682968140 9.060200691223 3.426002502441 142 142 142
27.031682968140 9.060200691223 3.469001770020 137 137 137
27.062931060791 9.059801101685 3.512001037598 141 141 141
27.031682968140 9.060200691223 3.555999755859 138 138 138
27.062931060791 9.059801101685 3.598999023438 138 138 138
27.031682968140 9.060200691223 3.641998291016 141 141 141
27.031682968140 9.060200691223 3.684997558594 141 141 141
27.031682968140 9.060200691223 3.727996826172 142 142 142
27.062931060791 9.059801101685 3.772003173828 148 148 148
27.062931060791 9.059801101685 3.815002441406 143 143 143
27.062931060791 9.059801101685 3.859001159668 146 146 146
27.031682968140 9.060200691223 3.902000427246 145 145 145
27.031682968140 9.060200691223 3.944999694824 148 148 148
27.062931060791 9.059801101685 3.988998413086 150 150 150
27.062931060791 9.059801101685 4.031997680664 149 149 149
27.031682968140 9.060200691223 4.074996948242 146 146 146
27.062931060791 9.059801101685 4.119003295898 151 151 151
27.031682968140 9.060200691223 4.162002563477 143 143 143
27.031682968140 9.060200691223 4.206001281738 152 152 152
27.031682968140 9.060200691223 4.249000549316 152 152 152
27.031682968140 9.060200691223 4.292999267578 151 151 151
27.062931060791 9.059801101685 4.336997985840 159 159 159
27.031682968140 9.060200691223 4.379997253418 150 150 150
27.062931060791 9.059801101685 4.425003051758 152 152 152
27.047307968140 9.060000419617 4.469001770020 149 149 149
27.047307968140 9.060000419617 4.512001037598 151 151 151
27.047307968140 9.060000419617 4.556999206543 151 151 151
27.031682968140 9.060200691223 4.599998474121 151 151 151
27.031682968140 9.060200691223 4.642997741699 147 147 147
27.047307968140 9.060000419617 4.690002441406 146 146 146
27.047307968140 9.060000419617 4.733001708984 142 142 142
27.031682968140 9.060200691223 4.776000976563 148 148 148
27.047307968140 9.060000419617 4.822998046875 143 143 143
27.031883239746 9.075824737549 4.865997314453 142 142 142
27.031883239746 9.075824737549 4.911003112793 146 146 146
27.031682968140 9.060200691223 4.954002380371 146 146 146
27.031682968140 9.060200691223 4.999000549316 145 145 145
27.031883239746 9.075824737549 5.044998168945 145 145 145
27.031883239746 9.075824737549 5.092002868652 148 148 148
27.031883239746 9.075824737549 5.136001586914 148 148 148
27.031883239746 9.075824737549 5.180999755859 147 147 147
27.031883239746 9.075824737549 5.225997924805 144 144 144
27.031883239746 9.075824737549 5.272003173828 145 145 145
27.032081604004 9.091447830200 5.317001342773 151 151 151
27.032081604004 9.091447830200 5.361999511719 144 144 144
27.031883239746 9.075824737549 5.411003112793 143 143 143
27.031883239746 9.075824737549 5.453002929688 146 146 146
27.032081604004 9.091447830200 5.501998901367 151 151 151
27.032081604004 9.091447830200 5.547996520996 149 149 149
27.032081604004 9.091447830200 5.592002868652 167 167 167
27.032081604004 9.091447830200 5.639999389648 175 175 175
27.032081604004 9.091447830200 5.690002441406 149 149 149
27.032081604004 9.091447830200 5.736000061035 143 143 143
27.032081604004 9.091447830200 5.781997680664 142 142 142
27.032081604004 9.091447830200 5.827003479004 142 142 142
27.032081604004 9.091447830200 5.874000549316 134 134 134
27.032081604004 9.091447830200 5.924003601074 139 139 139
27.032081604004 9.091447830200 5.971000671387 138 138 138
27.032081604004 9.091447830200 6.020996093750 137 137 137
27.032081604004 9.091447830200 6.067001342773 133 133 133
27.032081604004 9.091447830200 6.114997863770 131 131 131
27.032081604004 9.091447830200 6.165000915527 140 140 140
27.032081604004 9.091447830200 6.213996887207 145 145 145
27.032081604004 9.091447830200 6.263000488281 139 139 139
27.032081604004 9.091447830200 6.309997558594 143 143 143
27.032081604004 9.091447830200 6.358001708984 133 133 133
27.032081604004 9.091447830200 6.406997680664 141 141 141
27.032081604004 9.091447830200 6.460998535156 135 135 135
27.032081604004 9.091447830200 6.512001037598 136 136 136
27.032081604004 9.091447830200 6.561996459961 132 132 132
27.000835418701 9.091846466064 6.603996276855 127 127 127
27.047706604004 9.091247558594 6.665000915527 135 135 135
27.032081604004 9.091447830200 6.710998535156 129 129 129
27.032081604004 9.091447830200 6.764999389648 132 132 132
27.032081604004 9.091447830200 6.815002441406 136 136 136
27.032081604004 9.091447830200 6.865997314453 131 131 131
27.032081604004 9.091447830200 6.916999816895 129 129 129
27.032081604004 9.091447830200 6.971000671387 130 130 130
27.032281875610 9.107071876526 7.019996643066 129 129 129
27.032281875610 9.107071876526 7.078002929688 132 132 132
27.032081604004 9.091447830200 7.129997253418 132 132 132
27.032281875610 9.107071876526 7.178001403809 132 132 132
27.032281875610 9.107071876526 7.238998413086 131 131 131
27.032281875610 9.107071876526 7.289001464844 130 130 130
27.032281875610 9.107071876526 7.344001770020 129 129 129
27.032281875610 9.107071876526 7.398002624512 134 134 134
27.032281875610 9.107071876526 7.452003479004 126 126 126
27.032281875610 9.107071876526 7.508003234863 125 125 125
27.032482147217 9.122695922852 7.566001892090 130 130 130
27.032281875610 9.107071876526 7.620002746582 126 126 126
27.032482147217 9.122695922852 7.680999755859 121 121 121
27.032281875610 9.107071876526 7.731002807617 126 126 126
27.016859054565 9.122895240784 7.785003662109 116 116 116
27.032281875610 9.107071876526 7.846000671387 118 118 118
27.032482147217 9.122695922852 7.906997680664 117 117 117
27.016859054565 9.122895240784 7.960998535156 118 118 118
27.032482147217 9.122695922852 8.025001525879 116 116 116
27.032482147217 9.122695922852 8.092002868652 116 116 116
27.032482147217 9.122695922852 8.147003173828 123 123 123
27.032482147217 9.122695922852 8.205001831055 121 121 121
27.016859054565 9.122895240784 8.262001037598 119 119 119
27.016859054565 9.122895240784 8.320999145508 119 119 119
27.032482147217 9.122695922852 8.387001037598 115 115 115
27.032482147217 9.122695922852 8.447998046875 118 118 118
27.032482147217 9.122695922852 8.511001586914 114 114 114
27.032482147217 9.122695922852 8.577003479004 114 114 114
27.032482147217 9.122695922852 8.635002136230 115 115 115
27.032482147217 9.122695922852 8.702003479004 117 117 117
27.032482147217 9.122695922852 8.765998840332 118 118 118
27.032482147217 9.122695922852 8.829002380371 111 111 111
27.032482147217 9.122695922852 8.892997741699 104 104 104
27.032482147217 9.122695922852 8.958999633789 112 112 112
27.032482147217 9.122695922852 9.030998229980 111 111 111
27.032482147217 9.122695922852 9.095001220703 114 114 114
27.032482147217 9.122695922852 9.166000366211 116 116 116
27.032482147217 9.122695922852 9.232002258301 106 106 106
27.032482147217 9.122695922852 9.301002502441 111 111 111
27.032482147217 9.122695922852 9.375000000000 107 107 107
27.032482147217 9.122695922852 9.438003540039 108 108 108
27.032482147217 9.122695922852 9.512001037598 110 110 110
27.032482147217 9.122695922852 9.583000183105 108 108 108
27.032482147217 9.122695922852 9.657997131348 108 108 108
27.032680511475 9.138319015503 9.728996276855 101 101 101
26.941934585571 9.373872756958 2.195999145508 170 170 170
27.004430770874 9.373073577881 2.232002258301 173 173 173
27.066925048828 9.372275352478 2.266998291016 159 159 159
27.066925048828 9.372275352478 2.311996459961 157 157 157
27.082548141479 9.372076034546 2.349998474121 164 164 164
27.066925048828 9.372275352478 2.400001525879 125 125 125
27.066925048828 9.372275352478 2.444999694824 130 130 130
27.035676956177 9.372674942017 2.489997863770 131 131 131
27.035676956177 9.372674942017 2.533996582031 131 131 131
27.066925048828 9.372275352478 2.577003479004 131 131 131
27.066925048828 9.372275352478 2.621002197266 145 145 145
27.051301956177 9.372474670410 2.665000915527 148 148 148
27.066925048828 9.372275352478 2.708000183105 149 149 149
27.066925048828 9.372275352478 2.751998901367 157 157 157
27.051301956177 9.372474670410 2.795997619629 160 160 160
27.051301956177 9.372474670410 2.838996887207 167 167 167
27.035676956177 9.372674942017 2.884002685547 168 168 168
27.051301956177 9.372474670410 2.926002502441 165 165 165
27.051301956177 9.372474670410 2.970001220703 165 165 165
27.035676956177 9.372674942017 3.013999938965 160 160 160
27.035676956177 9.372674942017 3.056999206543 161 161 161
27.051301956177 9.372474670410 3.099998474121 165 165 165
27.035875320435 9.388298988342 3.143997192383 166 166 166
27.051301956177 9.372474670410 3.186996459961 159 159 159
27.035875320435 9.388298988342 3.230003356934 155 155 155
27.051301956177 9.372474670410 3.273002624512 162 162 162
27.035875320435 9.388298988342 3.317001342773 163 163 163
27.035875320435 9.388298988342 3.360000610352 152 152 152
27.035875320435 9.388298988342 3.402999877930 143 143 143
27.035875320435 9.388298988342 3.445999145508 137 137 137
27.035875320435 9.388298988342 3.488998413086 141 141 141
27.035875320435 9.388298988342 3.532997131348 144 144 144
27.035875320435 9.388298988342 3.575996398926 136 136 136
27.036075592041 9.403923034668 3.619003295898 136 136 136
27.035875320435 9.388298988342 3.662002563477 121 121 121
27.035875320435 9.388298988342 3.705001831055 143 143 143
27.036075592041 9.403923034668 3.748001098633 126 126 126
27.036075592041 9.403923034668 3.791000366211 119 119 119
27.036075592041 9.403923034668 3.834999084473 115 115 115
27.036075592041 9.403923034668 3.877998352051 121 121 121
27.036075592041 9.403923034668 3.921997070313 116 116 116
27.004829406738 9.404321670532 3.962997436523 115 115 115
27.036075592041 9.403923034668 4.008003234863 117 117 117
27.036075592041 9.403923034668 4.051002502441 113 113 113
27.036075592041 9.403923034668 4.094001770020 116 116 116
27.036075592041 9.403923034668 4.137001037598 98 98 98
27.036075592041 9.403923034668 4.180999755859 81 81 81
27.036075592041 9.403923034668 4.227996826172 53 53 53
27.036075592041 9.403923034668 4.269996643066 22 22 22
27.098972320557 9.434370994568 6.605003356934 143 143 143
27.067722320557 9.434770584106 6.649002075195 71 71 71
27.099370956421 9.465618133545 9.447998046875 80 80 80
27.068122863770 9.466017723083 9.504997253418 16 16 16
27.071916580200 9.762868881226 6.624000549316 174 174 174
27.072515487671 9.809740066528 9.255996704102 13 13 13
27.091732025146 10.090767860413 6.602996826172 13 13 13
27.076108932495 10.090967178345 6.645996093750 159 159 159
27.076509475708 10.122214317322 8.953002929688 20 20 20
27.064878463745 10.434887886047 6.613998413086 124 124 124
27.049253463745 10.435088157654 6.661003112793 92 92 92
27.065279006958 10.466135978699 8.644996643066 23 23 23
27.084896087646 10.778410911560 6.638999938965 166 166 166
27.084896087646 10.778410911560 6.689002990723 9 9 9
27.053846359253 10.794434547424 8.367996215820 23 23 23
27.089088439941 11.106509208679 6.613998413086 21 21 21
27.057840347290 11.106908798218 6.652000427246 160 160 160
27.089288711548 11.122132301331 8.097999572754 24 24 24
27.093280792236 11.434607505798 6.633003234863 134 134 134
27.062032699585 11.435007095337 6.674003601074 74 74 74
27.062433242798 11.466254234314 7.823997497559 25 25 25
27.128921508789 11.777929306030 6.619003295898 8 8 8
27.066425323486 11.778728485107 6.648002624512 167 167 167
27.066425323486 11.778728485107 7.557998657227 11 11 11
27.070419311523 12.091202735901 6.625999450684 122 122 122
27.070619583130 12.106826782227 6.671997070313 88 88 88
27.074811935425 12.434925079346 6.603996276855 80 80 80
27.043565750122 12.435323715210 6.630996704102 182 182 182
27.043565750122 12.435323715210 6.678001403809 39 39 39
27.075012207031 12.450549125671 7.014999389648 26 26 26
27.079204559326 12.778647422791 6.322998046875 67 67 67
27.047958374023 12.779046058655 6.609001159668 124 124 124
27.016710281372 12.779445648193 6.652000427246 148 148 148
27.079204559326 12.778647422791 6.714996337891 79 79 79
27.047958374023 12.779046058655 6.761001586914 100 100 100
27.083597183228 13.122368812561 6.342002868652 96 96 96
27.021102905273 13.123167037964 6.620002746582 209 209 209
27.087791442871 13.450467109680 6.318000793457 58 58 58
27.056545257568 13.450865745544 6.362998962402 21 21 21
27.056745529175 13.466489791870 6.601997375488 82 82 82
27.009674072266 13.451465606689 6.638000488281 136 136 136
27.029291152954 13.763739585876 6.328002929688 81 81 81
27.060737609863 13.778964042664 6.583000183105 19 19 19
26.998241424561 13.779763221741 6.616996765137 209 209 209
27.033683776855 14.107461929321 6.301002502441 118 118 118
27.033683776855 14.107461929321 6.348999023438 12 12 12
27.033683776855 14.107461929321 6.501998901367 12 12 12
27.049306869507 14.107262611389 6.559997558594 15 15 15
27.002435684204 14.107861518860 6.585998535156 165 165 165
27.002634048462 14.123485565186 6.631996154785 52 52 52
27.037876129150 14.435560226440 6.272003173828 37 37 37
27.037876129150 14.435560226440 6.320999145508 190 190 190
27.037876129150 14.435560226440 6.373001098633 195 195 195
27.069124221802 14.435160636902 6.428001403809 135 135 135
27.069124221802 14.435160636902 6.473999023438 182 182 182
27.037876129150 14.435560226440 6.523002624512 169 169 169
26.975381851196 14.436359405518 6.598999023438 195 195 195
27.042268753052 14.779281616211 6.287002563477 142 142 142
27.011020660400 14.779681205750 6.334999084473 202 202 202
27.042268753052 14.779281616211 6.388000488281 178 178 178
27.042268753052 14.779281616211 6.440002441406 203 203 203
27.042268753052 14.779281616211 6.488998413086 200 200 200
27.026645660400 14.779481887817 6.536003112793 77 77 77
26.979774475098 14.780080795288 6.571998596191 130 130 130
26.979774475098 14.780080795288 6.621002197266 100 100 100
27.015014648438 15.092156410217 6.260002136230 22 22 22
27.015214920044 15.107779502869 6.302001953125 184 184 184
27.015214920044 15.107779502869 6.351997375488 147 147 147
27.015214920044 15.107779502869 6.406997680664 206 206 206
27.015214920044 15.107779502869 6.456001281738 207 207 207
27.015214920044 15.107779502869 6.505996704102 169 169 169
26.984167098999 15.123803138733 6.583999633789 198 198 198
26.988161087036 15.436277389526 6.277999877930 157 157 157
27.019407272339 15.435877799988 6.329002380371 205 205 205
27.019407272339 15.435877799988 6.380996704102 181 181 181
27.019407272339 15.435877799988 6.430000305176 180 180 180
27.019407272339 15.435877799988 6.478996276855 196 196 196
26.988161087036 15.436277389526 6.524002075195 51 51 51
26.972536087036 15.436476707458 6.563003540039 165 165 165
26.956912994385 15.436676025391 6.611000061035 70 70 70
27.007976531982 15.764175415039 6.250000000000 78 78 78
26.992353439331 15.764375686646 6.296997070313 197 197 197
26.992553710938 15.779999732971 6.347000122070 195 195 195
27.007976531982 15.764175415039 6.401000976563 191 191 191
27.007976531982 15.764175415039 6.449996948242 203 203 203
27.007976531982 15.764175415039 6.501998901367 140 140 140
26.992353439331 15.764375686646 6.543998718262 31 31 31
26.945682525635 15.780598640442 6.579002380371 180 180 180
26.996547698975 16.092473983765 6.268997192383 148 148 148
26.981122970581 16.108297348022 6.313003540039 204 204 204
26.981122970581 16.108297348022 6.366996765137 182 182 182
26.996747970581 16.108097076416 6.420997619629 177 177 177
26.996747970581 16.108097076416 6.471000671387 199 199 199
26.996747970581 16.108097076416 6.519996643066 39 39 39
26.934051513672 16.093273162842 6.549003601074 144 144 144
26.934251785278 16.108896255493 6.595001220703 78 78 78
26.969692230225 16.436594009399 6.481002807617 14 14 14
26.938444137573 16.436994552612 6.515998840332 159 159 159
26.938444137573 16.436994552612 6.558998107910 173 173 173
26.938644409180 16.452619552612 6.611000061035 141 141 141
26.942836761475 16.780717849731 6.236999511719 64 64 64
26.942836761475 16.780717849731 6.288002014160 108 108 108
26.958461761475 16.780517578125 6.341003417969 90 90 90
26.958461761475 16.780517578125 6.391998291016 107 107 107
26.958461761475 16.780517578125 6.443000793457 112 112 112
26.974084854126 16.780317306519 6.498001098633 116 116 116
26.942836761475 16.780717849731 6.531997680664 138 138 138
26.895965576172 16.781316757202 6.568000793457 115 115 115
26.942836761475 16.780717849731 6.732002258301 20 20 20
26.947029113770 17.108816146851 6.256996154785 102 102 102
26.915782928467 17.109214782715 6.541999816895 191 191 191
26.915983200073 17.124837875366 6.851997375488 28 28 28
26.919977188110 17.437311172485 6.231002807617 75 75 75
26.919977188110 17.437311172485 6.517997741699 166 166 166
26.888729095459 17.437709808350 6.560997009277 93 93 93
26.904552459717 17.453136444092 6.970001220703 14 14 14
26.893121719360 17.781433105469 6.241996765137 130 130 130
26.893121719360 17.781433105469 6.292999267578 118 118 118
26.924369812012 17.781034469604 6.346000671387 115 115 115
26.924369812012 17.781034469604 6.399002075195 84 84 84
26.924369812012 17.781034469604 6.448997497559 83 83 83
26.924369812012 17.781034469604 6.500000000000 110 110 110
26.893121719360 17.781433105469 6.527999877930 176 176 176
26.897514343262 18.125154495239 6.498001098633 136 136 136
26.850643157959 18.125753402710 6.538002014160 121 121 121
26.870260238647 18.438030242920 6.513000488281 164 164 164
26.870458602905 18.453653335571 7.334999084473 13 13 13
26.874652862549 18.781751632690 6.478996276855 100 100 100
26.843406677246 18.782150268555 6.518997192383 123 123 123
26.874652862549 18.781751632690 7.410003662109 17 17 17
26.816551208496 19.126270294189 6.490997314453 164 164 164
26.847799301147 19.125871658325 7.533996582031 20 20 20
26.851793289185 19.438346862793 6.462997436523 99 99 99
26.820545196533 19.438745498657 6.501998901367 116 116 116
26.851991653442 19.453969955444 7.672996520996 18 18 18
26.809314727783 19.782667160034 6.473999023438 156 156 156
26.825336456299 19.813714981079 7.797996520996 19 19 19
26.829130172729 20.110565185547 6.446998596191 66 66 66
26.766836166382 20.126987457275 6.478996276855 133 133 133
26.798082351685 20.126588821411 7.913002014160 14 14 14
26.771028518677 20.455085754395 6.452003479004 153 153 153
26.755205154419 20.439662933350 6.492996215820 45 45 45
26.775222778320 20.783184051514 6.422996520996 27 27 27
26.775222778320 20.783184051514 6.461997985840 161 161 161
26.775621414185 20.814432144165 8.133003234863 72 72 72
26.744373321533 20.814832687378 8.160003662109 15 15 15
26.685073852539 21.065608978271 3.025001525879 147 147 147
26.685073852539 21.065608978271 3.066001892090 155 155 155
26.685073852539 21.065608978271 3.107002258301 173 173 173
26.685073852539 21.065608978271 3.148002624512 130 130 130
26.685073852539 21.065608978271 3.228996276855 25 25 25
26.685073852539 21.065608978271 3.269996643066 66 66 66
26.685073852539 21.065608978271 3.310997009277 87 87 87
26.685073852539 21.065608978271 3.351997375488 94 94 94
26.685073852539 21.065608978271 3.391998291016 97 97 97
26.685073852539 21.065608978271 3.432998657227 101 101 101
26.685073852539 21.065608978271 3.473999023438 109 109 109
26.685073852539 21.065608978271 3.514999389648 118 118 118
26.685073852539 21.065608978271 3.555000305176 114 114 114
26.685073852539 21.065608978271 3.596000671387 115 115 115
26.685073852539 21.065608978271 3.637001037598 124 124 124
26.685073852539 21.065608978271 3.678001403809 130 130 130
26.685073852539 21.065608978271 3.719001770020 130 130 130
26.685274124146 21.081233978271 3.759002685547 128 128 128
26.685073852539 21.065608978271 3.800003051758 129 129 129
26.685274124146 21.081233978271 3.841003417969 129 129 129
26.685073852539 21.065608978271 3.881996154785 137 137 137
26.685274124146 21.081233978271 3.922996520996 135 135 135
26.685073852539 21.065608978271 3.964996337891 136 136 136
26.685274124146 21.081233978271 4.004997253418 141 141 141
26.685274124146 21.081233978271 4.046997070313 146 146 146
26.685274124146 21.081233978271 4.087997436523 147 147 147
26.685274124146 21.081233978271 4.127998352051 156 156 156
26.685472488403 21.096857070923 4.168998718262 164 164 164
26.685472488403 21.096857070923 4.210998535156 164 164 164
26.685274124146 21.081233978271 4.251998901367 164 164 164
26.685472488403 21.096857070923 4.292999267578 166 166 166
26.685274124146 21.081233978271 4.334999084473 164 164 164
26.685274124146 21.081233978271 4.376998901367 165 165 165
26.685472488403 21.096857070923 4.417999267578 163 163 163
26.685274124146 21.081233978271 4.460998535156 156 156 156
26.685472488403 21.096857070923 4.500999450684 163 163 163
26.685472488403 21.096857070923 4.542999267578 165 165 165
26.685472488403 21.096857070923 4.585998535156 164 164 164
26.685472488403 21.096857070923 4.627998352051 162 162 162
26.716718673706 21.096458435059 4.670997619629 157 157 157
26.716718673706 21.096458435059 4.711997985840 155 155 155
26.685472488403 21.096857070923 4.752998352051 160 160 160
26.716718673706 21.096458435059 4.796997070313 155 155 155
26.685472488403 21.096857070923 4.837997436523 152 152 152
26.685472488403 21.096857070923 4.879997253418 147 147 147
26.716718673706 21.096458435059 4.922996520996 146 146 146
26.716718673706 21.096458435059 4.968002319336 141 141 141
26.716718673706 21.096458435059 5.010002136230 136 136 136
26.685472488403 21.096857070923 5.051002502441 133 133 133
26.716718673706 21.096458435059 5.096000671387 145 145 145
26.716718673706 21.096458435059 5.138999938965 126 126 126
26.701095581055 21.096658706665 5.180999755859 124 124 124
26.701095581055 21.096658706665 5.223999023438 117 117 117
26.716718673706 21.096458435059 5.268997192383 122 122 122
26.685472488403 21.096857070923 5.309997558594 109 109 109
26.701095581055 21.096658706665 5.355003356934 111 111 111
26.716718673706 21.096458435059 5.402999877930 104 104 104
26.701095581055 21.096658706665 5.445999145508 102 102 102
26.701095581055 21.096658706665 5.486999511719 104 104 104
26.701095581055 21.096658706665 5.533996582031 103 103 103
26.701095581055 21.096658706665 5.579002380371 89 89 89
26.716918945313 21.112081527710 5.624000549316 80 80 80
26.716918945313 21.112081527710 5.669998168945 74 74 74
26.716918945313 21.112081527710 5.716003417969 65 65 65
26.716918945313 21.112081527710 5.759002685547 46 46 46
26.716918945313 21.112081527710 5.805999755859 20 20 20
26.810062408447 21.064012527466 8.508003234863 33 33 33
26.810262680054 21.079637527466 8.436996459961 72 72 72
26.810262680054 21.079637527466 8.372001647949 75 75 75
26.810262680054 21.079637527466 8.305000305176 82 82 82
26.810262680054 21.079637527466 8.240997314453 88 88 88
26.810262680054 21.079637527466 8.183998107910 88 88 88
26.810262680054 21.079637527466 8.117996215820 89 89 89
26.810262680054 21.079637527466 8.059997558594 93 93 93
26.778816223145 21.064411163330 7.992996215820 98 98 98
26.778816223145 21.064411163330 7.930999755859 98 98 98
26.778816223145 21.064411163330 7.872001647949 96 96 96
26.778816223145 21.064411163330 7.809997558594 99 99 99
26.779016494751 21.080036163330 7.747001647949 100 100 100
26.778816223145 21.064411163330 7.689002990723 106 106 106
26.779016494751 21.080036163330 7.628997802734 100 100 100
26.779016494751 21.080036163330 7.569000244141 104 104 104
26.778816223145 21.064411163330 7.506996154785 107 107 107
26.779016494751 21.080036163330 7.452003479004 102 102 102
26.778816223145 21.064411163330 7.391998291016 112 112 112
26.778816223145 21.064411163330 7.336997985840 118 118 118
26.778816223145 21.064411163330 7.276000976563 110 110 110
26.763391494751 21.080236434937 7.214996337891 106 106 106
26.763391494751 21.080236434937 7.158996582031 117 117 117
26.747966766357 21.096059799194 7.098999023438 111 111 111
26.747966766357 21.096059799194 7.043998718262 106 106 106
26.747768402100 21.080436706543 6.986000061035 107 107 107
26.747966766357 21.096059799194 6.930000305176 108 108 108
26.747966766357 21.096059799194 6.872001647949 103 103 103
26.747768402100 21.080436706543 6.820999145508 114 114 114
26.747966766357 21.096059799194 6.764999389648 105 105 105
26.747966766357 21.096059799194 6.708999633789 110 110 110
26.747966766357 21.096059799194 6.652999877930 109 109 109
26.747966766357 21.096059799194 6.598999023438 111 111 111
26.732343673706 21.096258163452 6.539001464844 104 104 104
26.747768402100 21.080436706543 6.487998962402 110 110 110
26.747768402100 21.080436706543 6.436996459961 116 116 116
26.732343673706 21.096258163452 6.379997253418 120 120 120
26.732343673706 21.096258163452 6.327003479004 113 113 113
26.747768402100 21.080436706543 6.275001525879 108 108 108
26.716718673706 21.096458435059 6.219001770020 112 112 112
26.716718673706 21.096458435059 6.166999816895 120 120 120
26.716718673706 21.096458435059 6.115997314453 115 115 115
26.716718673706 21.096458435059 6.060997009277 119 119 119
26.732343673706 21.096258163452 6.013000488281 122 122 122
26.716520309448 21.080835342407 5.959999084473 119 119 119
26.716520309448 21.080835342407 5.908996582031 119 119 119
26.716718673706 21.096458435059 5.855003356934 124 124 124
26.716718673706 21.096458435059 5.804000854492 115 115 115
26.716718673706 21.096458435059 5.751998901367 124 124 124
26.716520309448 21.080835342407 5.704002380371 118 118 118
26.716718673706 21.096458435059 5.652999877930 118 118 118
26.716718673706 21.096458435059 5.601997375488 123 123 123
26.685274124146 21.081233978271 5.551002502441 123 123 123
26.716520309448 21.080835342407 5.501998901367 126 126 126
26.716718673706 21.096458435059 5.452003479004 131 131 131
26.716520309448 21.080835342407 5.402999877930 123 123 123
26.685472488403 21.096857070923 5.350997924805 130 130 130
26.685073852539 21.065608978271 5.303001403809 132 132 132
26.685472488403 21.096857070923 5.251998901367 127 127 127
26.685472488403 21.096857070923 5.202003479004 133 133 133
26.685472488403 21.096857070923 5.152000427246 129 129 129
26.685274124146 21.081233978271 5.105003356934 136 136 136
26.685274124146 21.081233978271 5.056999206543 135 135 135
26.685274124146 21.081233978271 5.006996154785 133 133 133
26.685274124146 21.081233978271 4.958999633789 135 135 135
26.685274124146 21.081233978271 4.910003662109 144 144 144
26.685274124146 21.081233978271 4.861000061035 139 139 139
26.685073852539 21.065608978271 4.813003540039 142 142 142
26.685274124146 21.081233978271 4.763999938965 135 135 135
26.685274124146 21.081233978271 4.716003417969 132 132 132
26.685073852539 21.065608978271 4.668998718262 137 137 137
26.685073852539 21.065608978271 4.619003295898 133 133 133
26.685073852539 21.065608978271 4.570999145508 138 138 138
26.685073852539 21.065608978271 4.523002624512 137 137 137
26.685073852539 21.065608978271 4.474998474121 130 130 130
26.685073852539 21.065608978271 4.428001403809 149 149 149
26.685073852539 21.065608978271 4.379997253418 138 138 138
26.685073852539 21.065608978271 4.333000183105 141 141 141
26.685073852539 21.065608978271 4.283996582031 136 136 136
26.685073852539 21.065608978271 4.236999511719 145 145 145
26.685073852539 21.065608978271 4.189002990723 145 145 145
26.685073852539 21.065608978271 4.140998840332 137 137 137
26.685073852539 21.065608978271 4.093002319336 134 134 134
26.685073852539 21.065608978271 4.044998168945 130 130 130
26.685073852539 21.065608978271 3.998001098633 131 131 131
26.685274124146 21.081233978271 3.949996948242 120 120 120
26.653825759888 21.066009521484 3.902999877930 128 128 128
26.685073852539 21.065608978271 3.855003356934 118 118 118
26.685073852539 21.065608978271 3.807998657227 118 118 118
26.685073852539 21.065608978271 3.761001586914 123 123 123
26.685073852539 21.065608978271 3.712997436523 116 116 116
26.653825759888 21.066009521484 3.666000366211 117 117 117
26.685073852539 21.065608978271 3.617996215820 116 116 116
26.653825759888 21.066009521484 3.570999145508 114 114 114
26.653825759888 21.066009521484 3.523002624512 107 107 107
26.685073852539 21.065608978271 3.475997924805 107 107 107
26.653825759888 21.066009521484 3.428001403809 106 106 106
26.653825759888 21.066009521484 3.380996704102 110 110 110
26.653825759888 21.066009521484 3.333999633789 113 113 113
26.653825759888 21.066009521484 3.285003662109 110 110 110
26.653825759888 21.066009521484 3.237998962402 100 100 100
26.685073852539 21.065608978271 3.189002990723 127 127 127
26.653825759888 21.066009521484 3.142997741699 145 145 145
26.653825759888 21.066009521484 3.095001220703 134 134 134
26.653825759888 21.066009521484 3.047996520996 127 127 127
26.653825759888 21.066009521484 3.000000000000 100 100 100
26.653825759888 21.066009521484 2.952003479004 96 96 96
26.669448852539 21.065809249878 2.902999877930 90 90 90
26.653825759888 21.066009521484 2.856002807617 95 95 95
26.653825759888 21.066009521484 2.807998657227 84 84 84
26.669448852539 21.065809249878 2.759002685547 80 80 80
26.669448852539 21.065809249878 2.710998535156 68 68 68
26.669448852539 21.065809249878 2.663002014160 55 55 55
26.653625488281 21.050386428833 2.615997314453 44 44 44
26.669448852539 21.065809249878 2.566001892090 27 27 27
26.653625488281 21.050386428833 2.519996643066 15 15 15
26.775621414185 20.814432144165 8.239997863770 13 13 13
26.806667327881 20.798410415649 8.197998046875 69 69 69
26.651229858398 20.862901687622 6.527999877930 72 72 72
26.681879043579 20.815629959106 6.491996765137 131 131 131
26.775222778320 20.783184051514 6.466003417969 17 17 17
26.650232315063 20.784782409668 3.068000793457 12 12 12
26.681480407715 20.784381866455 3.018997192383 17 17 17
26.650232315063 20.784782409668 2.972000122070 19 19 19
26.650232315063 20.784782409668 2.924003601074 28 28 28
26.681280136108 20.768758773804 2.874000549316 37 37 37
26.681280136108 20.768758773804 2.825996398926 41 41 41
26.681079864502 20.753135681152 2.776000976563 50 50 50
26.681480407715 20.784381866455 2.730003356934 57 57 57
26.681280136108 20.768758773804 2.681999206543 62 62 62
26.681280136108 20.768758773804 2.634002685547 70 70 70
26.681280136108 20.768758773804 2.584999084473 75 75 75
26.681079864502 20.753135681152 2.535003662109 77 77 77
26.681280136108 20.768758773804 2.486999511719 80 80 80
26.681280136108 20.768758773804 2.439002990723 84 84 84
26.665655136108 20.768959045410 2.391998291016 85 85 85
26.712326049805 20.752737045288 2.338996887207 114 114 114
26.712127685547 20.737112045288 2.285003662109 147 147 147
26.681079864502 20.753135681152 2.142997741699 202 202 202
26.771827697754 20.517581939697 8.094001770020 18 18 18
26.771627426147 20.501956939697 6.543998718262 27 27 27
26.771627426147 20.501956939697 6.494003295898 104 104 104
26.799280166626 20.220331192017 8.013000488281 2 2 2
26.799079895020 20.204708099365 6.523002624512 119 119 119
26.826534271240 19.907457351685 7.880996704102 19 19 19
26.795286178589 19.907857894897 6.558998107910 11 11 11
26.795286178589 19.907857894897 6.509002685547 117 117 117
26.822940826416 19.626230239868 7.791999816895 11 11 11
26.807117462158 19.610805511475 6.542999267578 114 114 114
26.822542190552 19.594982147217 6.496002197266 24 24 24
26.834569931030 19.313556671143 7.657997131348 25 25 25
26.834569931030 19.313556671143 6.524002075195 114 114 114
26.846601486206 19.032129287720 7.566001892090 25 25 25
26.846401214600 19.016506195068 6.549003601074 123 123 123
26.843008041382 18.750902175903 7.472000122070 20 20 20
26.842807769775 18.735279083252 6.575996398926 78 78 78
26.842607498169 18.719655990601 6.526000976563 72 72 72
26.870260238647 18.438030242920 7.339996337891 18 18 18
26.870260238647 18.438030242920 6.553001403809 127 127 127
26.866664886475 18.156803131104 7.254997253418 11 11 11
26.866266250610 18.125555038452 6.591003417969 58 58 58
26.897514343262 18.125154495239 6.542999267578 77 77 77
26.893920898438 17.843927383423 7.138000488281 23 23 23
26.862472534180 17.828704833984 6.573997497559 122 122 122
26.924570083618 17.796657562256 6.539001464844 64 64 64
26.924570083618 17.796657562256 6.486999511719 33 33 33
26.924768447876 17.812280654907 6.427001953125 38 38 38
26.893520355225 17.812679290771 6.369003295898 24 24 24
26.890325546265 17.562700271606 7.041000366211 21 21 21
26.889926910400 17.531452178955 6.606002807617 67 67 67
26.921175003052 17.531053543091 6.554000854492 38 38 38
26.921175003052 17.531053543091 6.287002563477 79 79 79
26.886732101440 17.281473159790 6.625000000000 8 8 8
26.886333465576 17.250225067139 6.578002929688 98 98 98
26.917581558228 17.249826431274 6.315002441406 26 26 26
26.913986206055 16.968601226807 6.832000732422 21 21 21
26.882738113403 16.968999862671 6.599998474121 106 106 106
26.913787841797 16.952976226807 6.286003112793 25 25 25
26.941438674927 16.671350479126 6.753997802734 42 42 42
26.941240310669 16.655727386475 6.704002380371 6 6 6
26.910392761230 16.687374114990 6.630996704102 24 24 24
26.941638946533 16.686975479126 6.585998535156 81 81 81
26.941240310669 16.655727386475 6.316001892090 67 67 67
26.937644958496 16.374500274658 6.617996215820 86 86 86
26.999742507935 16.342453002930 6.589996337891 67 67 67
26.999542236328 16.326829910278 6.537002563477 48 48 48
26.968494415283 16.342851638794 6.474998474121 33 33 33
26.968494415283 16.342851638794 6.419998168945 24 24 24
26.968494415283 16.342851638794 6.365997314453 39 39 39
26.968494415283 16.342851638794 6.306999206543 101 101 101
26.933851242065 16.077650070190 6.605003356934 93 93 93
26.995748519897 16.029979705811 6.517997741699 192 192 192
26.980323791504 16.045803070068 6.459999084473 132 132 132
26.995748519897 16.029979705811 6.407997131348 157 157 157
26.964899063110 16.061624526978 6.347999572754 201 201 201
26.964899063110 16.061624526978 6.294998168945 43 43 43
26.930057525635 15.780797958374 6.638999938965 68 68 68
26.930057525635 15.780797958374 6.585998535156 11 11 11
26.992155075073 15.748751640320 6.547996520996 131 131 131
26.992155075073 15.748751640320 6.495002746582 180 180 180
26.992155075073 15.748751640320 6.436996459961 186 186 186
26.992155075073 15.748751640320 6.381996154785 204 204 204
26.992155075073 15.748751640320 6.329002380371 144 144 144
26.926464080811 15.499570846558 6.660003662109 7 7 7
26.957712173462 15.499171257019 6.611999511719 93 93 93
26.988559722900 15.467524528503 6.574996948242 31 31 31
27.019805908203 15.467124938965 6.524002075195 195 195 195
27.004182815552 15.467324256897 6.467002868652 172 172 172
26.988559722900 15.467524528503 6.408996582031 131 131 131
26.988559722900 15.467524528503 6.352996826172 194 194 194
27.004182815552 15.467324256897 6.301002502441 10 10 10
26.954116821289 15.217944145203 6.636001586914 86 86 86
27.016012191772 15.170274734497 6.551002502441 162 162 162
27.015813827515 15.154650688171 6.498001098633 169 169 169
27.016012191772 15.170274734497 6.440002441406 169 169 169
27.016012191772 15.170274734497 6.384002685547 198 198 198
26.984966278076 15.186298370361 6.324996948242 100 100 100
26.981372833252 14.905071258545 6.622001647949 87 87 87
27.012418746948 14.889047622681 6.584999084473 22 22 22
27.027843475342 14.873224258423 6.532997131348 201 201 201
27.043466567993 14.873023986816 6.478996276855 187 187 187
27.027843475342 14.873224258423 6.421997070313 161 161 161
27.012218475342 14.873423576355 6.363998413086 197 197 197
27.012418746948 14.889047622681 6.306999206543 14 14 14
26.977579116821 14.608220100403 6.668998718262 48 48 48
26.993001937866 14.592395782471 6.620002746582 31 31 31
27.023851394653 14.560750007629 6.575996398926 114 114 114
27.039672851563 14.576173782349 6.525001525879 166 166 166
27.008424758911 14.576573371887 6.463996887207 138 138 138
27.008625030518 14.592196464539 6.405998229980 148 148 148
27.008424758911 14.576573371887 6.353996276855 167 167 167
26.973785400391 14.311368942261 6.649002075195 102 102 102
27.035879135132 14.279322624207 6.558998107910 189 189 189
27.035879135132 14.279322624207 6.501998901367 182 182 182
27.035879135132 14.279322624207 6.445999145508 173 173 173
27.035879135132 14.279322624207 6.391998291016 202 202 202
27.035879135132 14.279322624207 6.333000183105 87 87 87
27.001237869263 14.014119148254 6.681999206543 80 80 80
27.001237869263 14.014119148254 6.628997802734 20 20 20
27.032285690308 13.998095512390 6.359001159668 63 63 63
27.028692245483 13.716868400574 6.710998535156 13 13 13
27.013267517090 13.732692718506 6.651000976563 79 79 79
27.059740066528 13.700845718384 6.617996215820 75 75 75
27.059539794922 13.685221672058 6.564002990723 65 65 65
27.059740066528 13.700845718384 6.505996704102 54 54 54
27.059539794922 13.685221672058 6.454002380371 27 27 27
27.028491973877 13.701245307922 6.391998291016 56 56 56
27.009674072266 13.451465606689 6.680000305176 84 84 84
27.055946350098 13.403994560242 6.367996215820 72 72 72
27.021503448486 13.154414176941 6.668998718262 84 84 84
27.052350997925 13.122767448425 6.405998229980 8 8 8
27.048757553101 12.841540336609 6.767997741699 98 98 98
27.017908096313 12.873188018799 6.700996398926 126 126 126
27.048957824707 12.857164382935 6.652999877930 140 140 140
27.048757553101 12.841540336609 6.606002807617 18 18 18
27.079803466797 12.825518608093 6.389999389648 82 82 82
27.013916015625 12.560712814331 6.677001953125 112 112 112
27.072616577148 12.263064384460 7.236000061035 10 10 10
27.041568756104 12.279086112976 6.708999633789 95 95 95
27.041170120239 12.247838973999 6.661003112793 40 40 40
27.069221496582 11.997460365295 7.436996459961 16 16 16
27.053398132324 11.982036590576 6.684997558594 123 123 123
27.033981323242 11.685384750366 6.714996337891 90 90 90
27.065227508545 11.684986114502 6.669998168945 55 55 55
27.092882156372 11.403359413147 7.944000244141 12 12 12
27.061634063721 11.403759002686 6.697998046875 127 127 127
27.058040618896 11.122531890869 8.160003662109 13 13 13
27.057640075684 11.091284751892 6.731002807617 14 14 14
27.088888168335 11.090885162354 6.681999206543 110 110 110
27.054046630859 10.810057640076 6.706001281738 120 120 120
27.081701278687 10.528430938721 6.678001403809 114 114 114
27.078105926514 10.247203826904 6.708000183105 88 88 88
27.077907562256 10.231580734253 6.654998779297 55 55 55
27.074312210083 9.950353622437 6.680000305176 129 129 129
27.070518493652 9.653502464294 6.657997131348 122 122 122
27.067523956299 9.419146537781 9.664001464844 79 79 79
27.036476135254 9.435170173645 9.569999694824 57 57 57
27.160068511963 9.324206352234 7.664001464844 4 4 4
27.129018783569 9.340229034424 7.583999633789 13 13 13
27.129018783569 9.340229034424 7.529998779297 18 18 18
27.129018783569 9.340229034424 7.473999023438 25 25 25
27.129018783569 9.340229034424 7.403999328613 21 21 21
27.129018783569 9.340229034424 7.344001770020 25 25 25
27.129018783569 9.340229034424 7.287002563477 29 29 29
27.129018783569 9.340229034424 7.227996826172 28 28 28
27.129018783569 9.340229034424 7.174003601074 29 29 29
27.129018783569 9.340229034424 7.110000610352 31 31 31
