10.500000000000 8.687500000000 0.453002929688 159 159 159
10.515625000000 8.687500000000 0.449996948242 159 159 159
10.546875000000 8.687500000000 0.445999145508 162 162 162
10.578125000000 8.687500000000 0.455001831055 159 159 159
10.593750000000 8.687500000000 0.448997497559 158 158 158
10.625000000000 8.687500000000 0.449996948242 158 158 158
10.656250000000 8.687500000000 0.449996948242 156 156 156
10.671875000000 8.687500000000 0.450996398926 161 161 161
10.703125000000 8.687500000000 0.447998046875 162 162 162
10.734375000000 8.687500000000 0.450996398926 157 157 157
10.750000000000 8.687500000000 0.450996398926 161 161 161
10.765625000000 8.687500000000 0.447998046875 163 163 163
10.796875000000 8.687500000000 0.447998046875 165 165 165
10.828125000000 8.687500000000 0.446998596191 167 167 167
10.843750000000 8.687500000000 0.444999694824 160 160 160
10.859375000000 8.687500000000 0.443000793457 130 130 130
10.890625000000 8.687500000000 0.453002929688 129 129 129
10.921875000000 8.687500000000 0.455001831055 135 135 135
10.937500000000 8.687500000000 0.455001831055 121 121 121
10.953125000000 8.687500000000 0.450996398926 121 121 121
10.984375000000 8.687500000000 0.447998046875 116 116 116
11.000000000000 8.687500000000 0.453002929688 124 124 124
11.031250000000 8.687500000000 0.456001281738 146 146 146
11.046875000000 8.687500000000 0.452003479004 161 161 161
11.062500000000 8.687500000000 0.450996398926 156 156 156
11.093750000000 8.695312500000 0.452003479004 157 157 157
11.109375000000 8.695312500000 0.456001281738 156 156 156
11.140625000000 8.695312500000 0.460998535156 155 155 155
11.156250000000 8.695312500000 0.459999084473 155 155 155
11.171875000000 8.695312500000 0.458000183105 158 158 158
11.203125000000 8.695312500000 0.460998535156 157 157 157
11.218750000000 8.695312500000 0.458000183105 161 161 161
11.234375000000 8.695312500000 0.461997985840 153 153 153
11.265625000000 8.695312500000 0.469001770020 158 158 158
11.281250000000 8.695312500000 0.460998535156 158 158 158
11.296875000000 8.695312500000 0.466003417969 156 156 156
11.328125000000 8.695312500000 0.470001220703 156 156 156
11.343750000000 8.695312500000 0.470001220703 154 154 154
11.359375000000 8.695312500000 0.481002807617 155 155 155
11.375000000000 8.695312500000 0.474998474121 151 151 151
11.390625000000 8.695312500000 0.470001220703 152 152 152
11.421875000000 8.695312500000 0.482002258301 151 151 151
11.437500000000 8.695312500000 0.478996276855 152 152 152
11.453125000000 8.695312500000 0.477996826172 153 153 153
11.468750000000 8.695312500000 0.476997375488 157 157 157
11.484375000000 8.695312500000 0.481002807617 147 147 147
11.515625000000 8.695312500000 0.486000061035 127 127 127
11.531250000000 8.695312500000 0.482002258301 119 119 119
11.531250000000 8.695312500000 0.469001770020 121 121 121
11.546875000000 8.695312500000 0.473999023438 146 146 146
6.968750000000 8.992187500000 1.544998168945 173 173 173
6.953125000000 8.992187500000 1.221000671387 42 42 42
6.968750000000 8.992187500000 1.188003540039 178 178 178
5.265625000000 9.015625000000 0.686996459961 116 116 116
5.421875000000 9.015625000000 0.679000854492 123 123 123
5.546875000000 9.015625000000 0.666000366211 123 123 123
5.671875000000 9.015625000000 0.655998229980 136 136 136
5.828125000000 9.015625000000 0.652999877930 130 130 130
5.953125000000 9.015625000000 0.643997192383 117 117 117
6.093750000000 9.007812500000 0.641998291016 119 119 119
6.218750000000 9.007812500000 0.638000488281 116 116 116
6.343750000000 9.007812500000 0.633003234863 118 118 118
6.437500000000 9.007812500000 0.621002197266 134 134 134
6.562500000000 9.007812500000 0.616996765137 124 124 124
6.671875000000 9.007812500000 0.614997863770 128 128 128
6.765625000000 9.007812500000 0.606002807617 138 138 138
6.875000000000 9.007812500000 0.598999023438 131 131 131
6.953125000000 9.007812500000 0.589996337891 142 142 142
7.078125000000 9.000000000000 0.592002868652 148 148 148
7.187500000000 9.000000000000 0.592002868652 133 133 133
7.265625000000 9.000000000000 0.583999633789 132 132 132
7.328125000000 9.000000000000 0.573997497559 133 133 133
7.390625000000 9.000000000000 0.559997558594 142 142 142
7.484375000000 9.000000000000 0.555999755859 141 141 141
7.546875000000 9.000000000000 0.550003051758 133 133 133
7.734375000000 9.000000000000 0.584999084473 127 127 127
7.921875000000 9.000000000000 0.625999450684 188 188 188
7.968750000000 9.000000000000 0.609001159668 181 181 181
7.906250000000 9.000000000000 0.554000854492 175 175 175
7.953125000000 9.000000000000 0.538002014160 153 153 153
8.000000000000 9.000000000000 0.527999877930 146 146 146
8.078125000000 9.000000000000 0.524002075195 148 148 148
8.140625000000 9.000000000000 0.523002624512 150 150 150
8.218750000000 9.000000000000 0.521003723145 150 150 150
8.281250000000 9.000000000000 0.522003173828 152 152 152
8.359375000000 9.000000000000 0.519996643066 147 147 147
8.421875000000 9.000000000000 0.517997741699 155 155 155
8.468750000000 9.000000000000 0.513000488281 151 151 151
8.531250000000 9.000000000000 0.509002685547 149 149 149
8.593750000000 8.992187500000 0.508003234863 153 153 153
9.046875000000 8.992187500000 0.707000732422 188 188 188
9.078125000000 8.992187500000 0.696998596191 191 191 191
9.140625000000 8.992187500000 0.666000366211 190 190 190
9.015625000000 8.992187500000 0.579002380371 163 163 163
8.953125000000 8.992187500000 0.512001037598 141 141 141
9.000000000000 8.992187500000 0.512001037598 148 148 148
9.156250000000 8.992187500000 0.571998596191 113 113 113
9.265625000000 8.992187500000 0.599998474121 149 149 149
9.250000000000 8.992187500000 0.565002441406 138 138 138
9.203125000000 8.992187500000 0.510002136230 104 104 104
9.234375000000 8.992187500000 0.496002197266 111 111 111
9.281250000000 8.992187500000 0.496002197266 117 117 117
9.312500000000 8.992187500000 0.488998413086 134 134 134
9.359375000000 8.992187500000 0.486000061035 114 114 114
9.406250000000 8.992187500000 0.487998962402 115 115 115
9.437500000000 8.992187500000 0.480003356934 136 136 136
9.468750000000 8.992187500000 0.474998474121 151 151 151
9.515625000000 8.992187500000 0.477996826172 151 151 151
9.546875000000 8.992187500000 0.472999572754 152 152 152
9.609375000000 8.992187500000 0.480003356934 152 152 152
9.640625000000 8.992187500000 0.477996826172 163 163 163
9.671875000000 8.992187500000 0.474998474121 150 150 150
9.718750000000 8.992187500000 0.475997924805 150 150 150
9.750000000000 8.992187500000 0.472999572754 150 150 150
9.781250000000 8.992187500000 0.469001770020 156 156 156
9.828125000000 8.992187500000 0.472999572754 162 162 162
9.859375000000 8.992187500000 0.472999572754 162 162 162
9.906250000000 8.992187500000 0.477996826172 197 197 197
9.937500000000 8.992187500000 0.472999572754 168 168 168
9.968750000000 8.992187500000 0.470001220703 152 152 152
10.000000000000 8.992187500000 0.472999572754 157 157 157
10.031250000000 8.992187500000 0.468002319336 151 151 151
10.062500000000 8.992187500000 0.464996337891 154 154 154
10.109375000000 8.992187500000 0.471000671387 154 154 154
10.125000000000 8.992187500000 0.466003417969 156 156 156
10.171875000000 8.992187500000 0.468002319336 155 155 155
10.187500000000 8.992187500000 0.459999084473 156 156 156
10.218750000000 8.992187500000 0.464996337891 154 154 154
10.250000000000 8.992187500000 0.458000183105 151 151 151
10.281250000000 8.992187500000 0.458999633789 152 152 152
10.312500000000 8.992187500000 0.458999633789 152 152 152
10.328125000000 8.992187500000 0.456001281738 154 154 154
10.359375000000 8.992187500000 0.457000732422 157 157 157
10.390625000000 8.992187500000 0.457000732422 153 153 153
10.421875000000 8.992187500000 0.454002380371 154 154 154
10.453125000000 8.992187500000 0.458999633789 154 154 154
10.468750000000 8.992187500000 0.452003479004 155 155 155
10.500000000000 8.992187500000 0.444999694824 153 153 153
10.531250000000 8.992187500000 0.450996398926 155 155 155
10.546875000000 8.992187500000 0.452003479004 157 157 157
10.578125000000 8.992187500000 0.455001831055 151 151 151
10.609375000000 8.992187500000 0.455001831055 158 158 158
10.625000000000 8.992187500000 0.449996948242 154 154 154
10.656250000000 8.992187500000 0.450996398926 150 150 150
10.671875000000 8.992187500000 0.446998596191 148 148 148
10.703125000000 8.992187500000 0.444999694824 136 136 136
10.734375000000 8.992187500000 0.445999145508 130 130 130
10.750000000000 8.992187500000 0.438003540039 132 132 132
10.781250000000 8.992187500000 0.446998596191 147 147 147
10.796875000000 8.992187500000 0.444999694824 127 127 127
10.812500000000 8.992187500000 0.441001892090 130 130 130
10.843750000000 8.992187500000 0.444999694824 127 127 127
10.859375000000 8.992187500000 0.443000793457 125 125 125
10.890625000000 8.992187500000 0.443000793457 130 130 130
10.906250000000 8.992187500000 0.441001892090 130 130 130
10.937500000000 8.992187500000 0.448997497559 126 126 126
10.953125000000 8.992187500000 0.443000793457 144 144 144
10.984375000000 8.992187500000 0.444000244141 125 125 125
11.000000000000 8.992187500000 0.444999694824 138 138 138
11.031250000000 8.992187500000 0.445999145508 155 155 155
11.046875000000 8.992187500000 0.446998596191 123 123 123
11.062500000000 8.992187500000 0.448997497559 132 132 132
11.093750000000 8.992187500000 0.456001281738 150 150 150
11.125000000000 8.992187500000 0.459999084473 156 156 156
11.140625000000 8.992187500000 0.457000732422 154 154 154
11.171875000000 8.992187500000 0.469001770020 155 155 155
11.187500000000 8.992187500000 0.459999084473 156 156 156
11.203125000000 8.992187500000 0.472000122070 156 156 156
11.218750000000 8.992187500000 0.463996887207 154 154 154
11.250000000000 8.992187500000 0.469001770020 152 152 152
11.265625000000 8.992187500000 0.467002868652 157 157 157
11.296875000000 8.992187500000 0.476997375488 155 155 155
11.312500000000 8.992187500000 0.476997375488 154 154 154
11.328125000000 8.992187500000 0.481002807617 155 155 155
11.359375000000 8.992187500000 0.487998962402 152 152 152
11.359375000000 8.992187500000 0.477996826172 154 154 154
11.375000000000 8.992187500000 0.475997924805 152 152 152
11.406250000000 8.992187500000 0.480003356934 154 154 154
11.406250000000 8.992187500000 0.467002868652 146 146 146
11.437500000000 8.992187500000 0.475997924805 120 120 120
11.453125000000 8.992187500000 0.473999023438 127 127 127
11.468750000000 8.992187500000 0.485000610352 112 112 112
11.484375000000 8.992187500000 0.476997375488 113 113 113
11.515625000000 8.992187500000 0.486000061035 109 109 109
11.531250000000 8.992187500000 0.485000610352 116 116 116
11.546875000000 8.992187500000 0.476997375488 116 116 116
11.562500000000 8.992187500000 0.489997863770 163 163 163
11.578125000000 8.992187500000 0.495002746582 170 170 170
11.593750000000 8.992187500000 0.492996215820 164 164 164
11.609375000000 8.992187500000 0.494003295898 160 160 160
11.625000000000 8.992187500000 0.490997314453 168 168 168
11.656250000000 8.992187500000 0.497001647949 165 165 165
11.671875000000 8.992187500000 0.496002197266 167 167 167
11.687500000000 8.992187500000 0.499000549316 174 174 174
11.703125000000 8.992187500000 0.501998901367 193 193 193
11.718750000000 8.992187500000 0.508003234863 194 194 194
11.734375000000 8.992187500000 0.504997253418 192 192 192
11.750000000000 8.992187500000 0.504997253418 193 193 193
11.765625000000 8.992187500000 0.511001586914 194 194 194
11.781250000000 8.992187500000 0.506996154785 192 192 192
11.796875000000 8.992187500000 0.513000488281 189 189 189
11.812500000000 8.992187500000 0.502998352051 189 189 189
11.828125000000 8.992187500000 0.516998291016 189 189 189
11.843750000000 9.000000000000 0.511001586914 194 194 194
11.859375000000 9.000000000000 0.511001586914 196 196 196
11.875000000000 9.000000000000 0.508003234863 192 192 192
11.890625000000 9.000000000000 0.513999938965 191 191 191
11.906250000000 9.000000000000 0.513999938965 193 193 193
11.921875000000 9.000000000000 0.516998291016 188 188 188
6.875000000000 9.289062500000 1.584999084473 227 227 227
6.953125000000 9.289062500000 1.560997009277 19 19 19
6.953125000000 9.289062500000 1.525001525879 19 19 19
6.937500000000 9.289062500000 1.487998962402 28 28 28
6.937500000000 9.296875000000 1.202003479004 175 175 175
5.296875000000 9.312500000000 0.672996520996 131 131 131
5.437500000000 9.312500000000 0.663002014160 131 131 131
5.562500000000 9.312500000000 0.652999877930 114 114 114
5.718750000000 9.312500000000 0.650001525879 99 99 99
5.843750000000 9.312500000000 0.639999389648 135 135 135
6.000000000000 9.312500000000 0.638999938965 120 120 120
6.140625000000 9.312500000000 0.639999389648 129 129 129
6.265625000000 9.304687500000 0.635002136230 111 111 111
6.390625000000 9.304687500000 0.629997253418 134 134 134
6.515625000000 9.304687500000 0.625999450684 144 144 144
6.609375000000 9.304687500000 0.614997863770 103 103 103
6.703125000000 9.304687500000 0.605003356934 121 121 121
6.796875000000 9.304687500000 0.600997924805 127 127 127
6.906250000000 9.304687500000 0.598999023438 128 128 128
7.031250000000 9.304687500000 0.599998474121 132 132 132
7.125000000000 9.304687500000 0.595001220703 131 131 131
7.203125000000 9.304687500000 0.587997436523 132 132 132
7.281250000000 9.304687500000 0.581001281738 135 135 135
7.375000000000 9.304687500000 0.573997497559 134 134 134
7.453125000000 9.304687500000 0.568000793457 133 133 133
7.515625000000 9.304687500000 0.559997558594 136 136 136
7.593750000000 9.304687500000 0.554000854492 139 139 139
7.671875000000 9.304687500000 0.546997070313 141 141 141
7.750000000000 9.296875000000 0.545997619629 142 142 142
7.828125000000 9.296875000000 0.541999816895 148 148 148
7.906250000000 9.296875000000 0.541000366211 150 150 150
7.921875000000 9.296875000000 0.512001037598 132 132 132
8.031250000000 9.296875000000 0.527999877930 138 138 138
8.062500000000 9.296875000000 0.510002136230 129 129 129
9.203125000000 9.281250000000 0.980003356934 133 133 133
9.187500000000 9.289062500000 0.953002929688 158 158 158
9.156250000000 9.289062500000 0.906997680664 178 178 178
9.171875000000 9.289062500000 0.888000488281 185 185 185
9.187500000000 9.289062500000 0.870002746582 187 187 187
9.171875000000 9.289062500000 0.837997436523 188 188 188
9.218750000000 9.289062500000 0.832000732422 186 186 186
9.234375000000 9.289062500000 0.818000793457 188 188 188
9.312500000000 9.289062500000 0.830001831055 184 184 184
9.296875000000 9.289062500000 0.792999267578 193 193 193
9.359375000000 9.289062500000 0.801002502441 196 196 196
9.375000000000 9.289062500000 0.788002014160 193 193 193
9.359375000000 9.289062500000 0.755996704102 193 193 193
9.328125000000 9.289062500000 0.712997436523 187 187 187
9.281250000000 9.289062500000 0.654998779297 188 188 188
9.328125000000 9.289062500000 0.660003662109 188 188 188
9.390625000000 9.289062500000 0.666000366211 191 191 191
9.421875000000 9.289062500000 0.653999328613 195 195 195
9.468750000000 9.289062500000 0.656997680664 192 192 192
9.515625000000 9.289062500000 0.662002563477 198 198 198
9.500000000000 9.289062500000 0.625999450684 189 189 189
9.640625000000 9.289062500000 0.682998657227 190 190 190
9.625000000000 9.289062500000 0.646003723145 200 200 200
9.531250000000 9.289062500000 0.560997009277 186 186 186
9.671875000000 9.289062500000 0.620002746582 190 190 190
9.687500000000 9.289062500000 0.605003356934 194 194 194
9.593750000000 9.289062500000 0.523002624512 166 166 166
9.593750000000 9.289062500000 0.494003295898 154 154 154
9.640625000000 9.289062500000 0.498001098633 165 165 165
9.671875000000 9.289062500000 0.490997314453 164 164 164
9.703125000000 9.289062500000 0.485000610352 171 171 171
9.734375000000 9.289062500000 0.486999511719 159 159 159
9.765625000000 9.289062500000 0.483001708984 161 161 161
9.812500000000 9.289062500000 0.483001708984 150 150 150
9.843750000000 9.289062500000 0.481002807617 150 150 150
9.875000000000 9.289062500000 0.476997375488 155 155 155
9.921875000000 9.289062500000 0.484001159668 148 148 148
9.953125000000 9.289062500000 0.475997924805 149 149 149
9.984375000000 9.289062500000 0.473999023438 157 157 157
10.015625000000 9.289062500000 0.477996826172 149 149 149
10.046875000000 9.289062500000 0.472000122070 148 148 148
10.078125000000 9.289062500000 0.476997375488 147 147 147
10.109375000000 9.289062500000 0.472000122070 156 156 156
10.140625000000 9.289062500000 0.472000122070 152 152 152
10.171875000000 9.289062500000 0.468002319336 157 157 157
10.203125000000 9.289062500000 0.467002868652 157 157 157
10.234375000000 9.289062500000 0.464996337891 153 153 153
10.265625000000 9.289062500000 0.470001220703 159 159 159
10.296875000000 9.289062500000 0.472000122070 154 154 154
10.328125000000 9.289062500000 0.468002319336 159 159 159
10.343750000000 9.289062500000 0.464996337891 161 161 161
10.375000000000 9.289062500000 0.462997436523 160 160 160
10.406250000000 9.289062500000 0.460998535156 156 156 156
10.421875000000 9.289062500000 0.459999084473 161 161 161
10.468750000000 9.289062500000 0.467002868652 158 158 158
10.500000000000 9.289062500000 0.469001770020 153 153 153
10.515625000000 9.289062500000 0.461997985840 164 164 164
10.546875000000 9.289062500000 0.461997985840 158 158 158
10.578125000000 9.289062500000 0.466003417969 162 162 162
10.593750000000 9.289062500000 0.457000732422 154 154 154
10.609375000000 9.289062500000 0.457000732422 152 152 152
10.640625000000 9.289062500000 0.458000183105 152 152 152
10.656250000000 9.289062500000 0.454002380371 155 155 155
10.687500000000 9.296875000000 0.457000732422 155 155 155
10.718750000000 9.296875000000 0.454002380371 155 155 155
10.734375000000 9.296875000000 0.455001831055 153 153 153
10.765625000000 9.296875000000 0.453002929688 155 155 155
10.781250000000 9.296875000000 0.450996398926 158 158 158
10.812500000000 9.296875000000 0.456001281738 156 156 156
10.828125000000 9.296875000000 0.446998596191 155 155 155
10.859375000000 9.296875000000 0.452003479004 155 155 155
10.875000000000 9.296875000000 0.446998596191 161 161 161
10.890625000000 9.296875000000 0.449996948242 154 154 154
10.921875000000 9.296875000000 0.447998046875 156 156 156
10.937500000000 9.296875000000 0.447998046875 156 156 156
10.953125000000 9.296875000000 0.444000244141 157 157 157
10.984375000000 9.296875000000 0.456001281738 157 157 157
11.000000000000 9.296875000000 0.448997497559 158 158 158
11.031250000000 9.296875000000 0.448997497559 154 154 154
11.046875000000 9.296875000000 0.449996948242 157 157 157
11.062500000000 9.296875000000 0.446998596191 150 150 150
11.093750000000 9.296875000000 0.447998046875 146 146 146
11.125000000000 9.296875000000 0.459999084473 149 149 149
11.140625000000 9.296875000000 0.461997985840 148 148 148
11.156250000000 9.296875000000 0.463996887207 139 139 139
11.187500000000 9.296875000000 0.469001770020 146 146 146
11.203125000000 9.296875000000 0.471000671387 150 150 150
11.234375000000 9.296875000000 0.472999572754 148 148 148
11.250000000000 9.296875000000 0.470001220703 150 150 150
11.265625000000 9.296875000000 0.464996337891 150 150 150
11.281250000000 9.296875000000 0.471000671387 149 149 149
11.312500000000 9.296875000000 0.472999572754 149 149 149
11.328125000000 9.296875000000 0.472000122070 149 149 149
11.343750000000 9.296875000000 0.467002868652 150 150 150
11.359375000000 9.296875000000 0.471000671387 143 143 143
11.375000000000 9.296875000000 0.475997924805 137 137 137
11.406250000000 9.296875000000 0.475997924805 109 109 109
11.421875000000 9.296875000000 0.473999023438 101 101 101
11.437500000000 9.296875000000 0.478996276855 97 97 97
11.453125000000 9.296875000000 0.486000061035 108 108 108
11.484375000000 9.296875000000 0.488998413086 108 108 108
11.500000000000 9.296875000000 0.489997863770 106 106 106
11.515625000000 9.296875000000 0.498001098633 103 103 103
11.531250000000 9.296875000000 0.496002197266 108 108 108
11.546875000000 9.296875000000 0.484001159668 144 144 144
11.562500000000 9.296875000000 0.496002197266 170 170 170
11.578125000000 9.296875000000 0.492996215820 170 170 170
11.593750000000 9.296875000000 0.489997863770 170 170 170
11.609375000000 9.296875000000 0.496002197266 168 168 168
11.640625000000 9.296875000000 0.496002197266 163 163 163
11.656250000000 9.296875000000 0.498001098633 169 169 169
11.671875000000 9.296875000000 0.500999450684 171 171 171
11.687500000000 9.296875000000 0.510002136230 187 187 187
11.703125000000 9.296875000000 0.512001037598 183 183 183
11.718750000000 9.296875000000 0.511001586914 186 186 186
11.734375000000 9.296875000000 0.513000488281 189 189 189
11.750000000000 9.296875000000 0.521003723145 192 192 192
11.765625000000 9.296875000000 0.513999938965 192 192 192
11.781250000000 9.296875000000 0.513999938965 194 194 194
11.796875000000 9.296875000000 0.511001586914 192 192 192
11.812500000000 9.296875000000 0.518997192383 189 189 189
11.828125000000 9.296875000000 0.521003723145 193 193 193
11.843750000000 9.296875000000 0.525001525879 189 189 189
11.859375000000 9.296875000000 0.518997192383 190 190 190
11.875000000000 9.296875000000 0.526000976563 190 190 190
11.890625000000 9.296875000000 0.521003723145 191 191 191
11.906250000000 9.296875000000 0.526000976563 193 193 193
11.921875000000 9.296875000000 0.523002624512 184 184 184
8.156250000000 9.296875000000 0.516998291016 130 130 130
6.859375000000 9.585937500000 1.600997924805 220 220 220
6.890625000000 9.585937500000 1.571998596191 19 19 19
6.906250000000 9.585937500000 1.539001464844 19 19 19
6.734375000000 9.593750000000 1.470001220703 13 13 13
6.890625000000 9.593750000000 1.210998535156 176 176 176
5.328125000000 9.609375000000 0.662002563477 115 115 115
5.484375000000 9.609375000000 0.655998229980 115 115 115
5.625000000000 9.609375000000 0.648002624512 137 137 137
5.765625000000 9.609375000000 0.641998291016 115 115 115
5.921875000000 9.609375000000 0.642997741699 116 116 116
6.062500000000 9.609375000000 0.638999938965 110 110 110
6.187500000000 9.609375000000 0.634002685547 114 114 114
6.312500000000 9.609375000000 0.627998352051 109 109 109
6.515625000000 9.601562500000 0.652999877930 136 136 136
6.609375000000 9.601562500000 0.642997741699 183 183 183
6.656250000000 9.601562500000 0.617996215820 179 179 179
6.781250000000 9.601562500000 0.619003295898 162 162 162
6.828125000000 9.601562500000 0.594001770020 161 161 161
6.921875000000 9.601562500000 0.585998535156 133 133 133
7.015625000000 9.601562500000 0.583000183105 126 126 126
7.125000000000 9.601562500000 0.582000732422 130 130 130
7.218750000000 9.601562500000 0.581001281738 124 124 124
7.312500000000 9.601562500000 0.574996948242 131 131 131
7.406250000000 9.601562500000 0.573997497559 130 130 130
7.484375000000 9.601562500000 0.567001342773 133 133 133
7.562500000000 9.601562500000 0.563003540039 132 132 132
7.656250000000 9.601562500000 0.560997009277 138 138 138
7.718750000000 9.601562500000 0.556999206543 140 140 140
7.796875000000 9.601562500000 0.553001403809 139 139 139
7.875000000000 9.601562500000 0.547996520996 142 142 142
7.953125000000 9.593750000000 0.547996520996 143 143 143
8.015625000000 9.601562500000 0.543998718262 144 144 144
8.093750000000 9.593750000000 0.540000915527 142 142 142
8.156250000000 9.593750000000 0.537002563477 143 143 143
8.234375000000 9.593750000000 0.538002014160 141 141 141
8.234375000000 9.593750000000 0.510002136230 130 130 130
8.296875000000 9.593750000000 0.502998352051 137 137 137
8.359375000000 9.593750000000 0.504997253418 135 135 135
8.859375000000 9.593750000000 0.709999084473 200 200 200
8.953125000000 9.593750000000 0.727996826172 196 196 196
8.953125000000 9.593750000000 0.694999694824 193 193 193
9.296875000000 9.585937500000 0.842002868652 203 203 203
9.187500000000 9.585937500000 0.762001037598 205 205 205
9.500000000000 9.585937500000 0.888999938965 209 209 209
9.531250000000 9.585937500000 0.883003234863 196 196 196
9.421875000000 9.585937500000 0.801002502441 196 196 196
9.328125000000 9.593750000000 0.725997924805 193 193 193
9.312500000000 9.593750000000 0.693000793457 181 181 181
9.359375000000 9.593750000000 0.694999694824 182 182 182
9.296875000000 9.593750000000 0.633003234863 187 187 187
9.343750000000 9.593750000000 0.633003234863 189 189 189
9.656250000000 9.585937500000 0.779998779297 203 203 203
9.593750000000 9.585937500000 0.721000671387 195 195 195
9.500000000000 9.593750000000 0.642997741699 191 191 191
9.703125000000 9.585937500000 0.732002258301 180 180 180
9.750000000000 9.585937500000 0.740997314453 185 185 185
9.734375000000 9.585937500000 0.700996398926 184 184 184
9.765625000000 9.585937500000 0.700996398926 187 187 187
9.765625000000 9.585937500000 0.680000305176 195 195 195
9.750000000000 9.593750000000 0.636001586914 186 186 186
9.687500000000 9.593750000000 0.571998596191 173 173 173
9.734375000000 9.593750000000 0.575996398926 184 184 184
9.703125000000 9.593750000000 0.538002014160 179 179 179
9.718750000000 9.593750000000 0.516998291016 173 173 173
9.750000000000 9.593750000000 0.514999389648 188 188 188
9.765625000000 9.593750000000 0.499000549316 183 183 183
9.812500000000 9.593750000000 0.500999450684 178 178 178
9.843750000000 9.593750000000 0.496002197266 177 177 177
9.875000000000 9.593750000000 0.489997863770 175 175 175
9.906250000000 9.593750000000 0.490997314453 172 172 172
9.921875000000 9.593750000000 0.475997924805 173 173 173
9.953125000000 9.593750000000 0.470001220703 164 164 164
9.984375000000 9.593750000000 0.473999023438 164 164 164
10.015625000000 9.593750000000 0.472000122070 158 158 158
10.046875000000 9.593750000000 0.472000122070 163 163 163
10.078125000000 9.593750000000 0.472000122070 158 158 158
10.125000000000 9.593750000000 0.478996276855 160 160 160
10.140625000000 9.593750000000 0.470001220703 167 167 167
10.187500000000 9.593750000000 0.472000122070 176 176 176
10.187500000000 9.593750000000 0.457000732422 161 161 161
10.234375000000 9.593750000000 0.459999084473 168 168 168
10.250000000000 9.593750000000 0.458000183105 160 160 160
10.281250000000 9.593750000000 0.458000183105 155 155 155
10.328125000000 9.593750000000 0.466003417969 166 166 166
10.359375000000 9.593750000000 0.469001770020 164 164 164
10.390625000000 9.593750000000 0.470001220703 164 164 164
10.421875000000 9.593750000000 0.469001770020 154 154 154
10.453125000000 9.593750000000 0.472999572754 150 150 150
10.468750000000 9.593750000000 0.464996337891 157 157 157
10.500000000000 9.593750000000 0.472999572754 155 155 155
10.531250000000 9.593750000000 0.467002868652 162 162 162
10.546875000000 9.593750000000 0.469001770020 153 153 153
10.578125000000 9.593750000000 0.466003417969 152 152 152
10.609375000000 9.593750000000 0.468002319336 150 150 150
10.625000000000 9.593750000000 0.461997985840 151 151 151
10.640625000000 9.593750000000 0.458999633789 155 155 155
10.671875000000 9.593750000000 0.460998535156 144 144 144
10.703125000000 9.593750000000 0.467002868652 146 146 146
10.734375000000 9.593750000000 0.464996337891 151 151 151
10.750000000000 9.593750000000 0.459999084473 146 146 146
10.765625000000 9.593750000000 0.462997436523 145 145 145
10.796875000000 9.593750000000 0.458999633789 152 152 152
10.828125000000 9.593750000000 0.462997436523 149 149 149
10.843750000000 9.593750000000 0.459999084473 145 145 145
10.859375000000 9.593750000000 0.452003479004 146 146 146
10.875000000000 9.593750000000 0.450996398926 152 152 152
10.906250000000 9.593750000000 0.450996398926 151 151 151
10.921875000000 9.593750000000 0.450996398926 152 152 152
10.953125000000 9.593750000000 0.452003479004 157 157 157
10.968750000000 9.593750000000 0.453002929688 152 152 152
11.000000000000 9.593750000000 0.456001281738 164 164 164
11.015625000000 9.593750000000 0.456001281738 155 155 155
11.031250000000 9.593750000000 0.456001281738 153 153 153
11.046875000000 9.593750000000 0.443000793457 151 151 151
11.078125000000 9.593750000000 0.450996398926 147 147 147
11.093750000000 9.593750000000 0.445999145508 150 150 150
11.109375000000 9.593750000000 0.449996948242 144 144 144
11.140625000000 9.593750000000 0.452003479004 145 145 145
11.156250000000 9.593750000000 0.457000732422 150 150 150
11.187500000000 9.593750000000 0.458000183105 144 144 144
11.203125000000 9.593750000000 0.460998535156 142 142 142
11.218750000000 9.593750000000 0.463996887207 140 140 140
11.250000000000 9.593750000000 0.472000122070 149 149 149
11.265625000000 9.593750000000 0.472999572754 145 145 145
11.281250000000 9.593750000000 0.470001220703 144 144 144
11.312500000000 9.593750000000 0.470001220703 144 144 144
11.328125000000 9.593750000000 0.473999023438 146 146 146
11.343750000000 9.593750000000 0.464996337891 143 143 143
11.359375000000 9.593750000000 0.458999633789 130 130 130
11.375000000000 9.593750000000 0.466003417969 122 122 122
11.390625000000 9.593750000000 0.468002319336 106 106 106
11.421875000000 9.593750000000 0.474998474121 107 107 107
11.437500000000 9.593750000000 0.482002258301 107 107 107
11.453125000000 9.593750000000 0.483001708984 106 106 106
11.484375000000 9.601562500000 0.486999511719 103 103 103
11.484375000000 9.601562500000 0.475997924805 106 106 106
11.515625000000 9.601562500000 0.487998962402 107 107 107
11.531250000000 9.601562500000 0.486999511719 133 133 133
11.546875000000 9.601562500000 0.498001098633 157 157 157
11.562500000000 9.601562500000 0.496002197266 157 157 157
11.593750000000 9.601562500000 0.500000000000 155 155 155
11.609375000000 9.601562500000 0.498001098633 149 149 149
11.625000000000 9.601562500000 0.502998352051 158 158 158
11.640625000000 9.601562500000 0.502998352051 153 153 153
11.656250000000 9.601562500000 0.500999450684 154 154 154
11.671875000000 9.601562500000 0.511001586914 177 177 177
11.687500000000 9.601562500000 0.517997741699 186 186 186
11.703125000000 9.601562500000 0.521003723145 187 187 187
11.718750000000 9.601562500000 0.519996643066 185 185 185
11.734375000000 9.601562500000 0.513000488281 188 188 188
11.750000000000 9.601562500000 0.518997192383 196 196 196
11.765625000000 9.601562500000 0.514999389648 195 195 195
11.781250000000 9.601562500000 0.519996643066 192 192 192
11.796875000000 9.601562500000 0.518997192383 187 187 187
11.812500000000 9.601562500000 0.524002075195 183 183 183
11.828125000000 9.601562500000 0.522003173828 190 190 190
11.843750000000 9.601562500000 0.525001525879 186 186 186
11.859375000000 9.601562500000 0.526000976563 188 188 188
11.875000000000 9.601562500000 0.529998779297 192 192 192
11.890625000000 9.601562500000 0.525001525879 189 189 189
11.906250000000 9.601562500000 0.531997680664 186 186 186
11.921875000000 9.601562500000 0.525001525879 184 184 184
6.843750000000 9.890625000000 1.582000732422 154 154 154
6.828125000000 9.890625000000 1.543998718262 134 134 134
6.828125000000 9.890625000000 1.508003234863 97 97 97
6.859375000000 9.890625000000 1.477996826172 27 27 27
6.859375000000 9.890625000000 1.222999572754 173 173 173
6.546875000000 9.898437500000 0.843002319336 122 122 122
7.203125000000 9.890625000000 0.987998962402 210 210 210
7.156250000000 9.898437500000 0.940002441406 121 121 121
6.406250000000 9.906250000000 0.678001403809 157 157 157
6.500000000000 9.898437500000 0.669998168945 178 178 178
7.296875000000 9.890625000000 0.875000000000 164 164 164
6.625000000000 9.898437500000 0.628997802734 151 151 151
6.734375000000 9.898437500000 0.621002197266 181 181 181
6.906250000000 9.898437500000 0.641998291016 184 184 184
7.203125000000 9.898437500000 0.704002380371 193 193 193
7.187500000000 9.898437500000 0.661003112793 169 169 169
7.078125000000 9.898437500000 0.586997985840 143 143 143
7.171875000000 9.898437500000 0.581001281738 140 140 140
7.265625000000 9.898437500000 0.579002380371 143 143 143
7.343750000000 9.898437500000 0.569000244141 119 119 119
7.406250000000 9.898437500000 0.559997558594 119 119 119
7.500000000000 9.898437500000 0.558998107910 111 111 111
7.578125000000 9.898437500000 0.555000305176 127 127 127
7.656250000000 9.898437500000 0.546997070313 137 137 137
7.750000000000 9.898437500000 0.551002502441 132 132 132
7.828125000000 9.898437500000 0.546997070313 134 134 134
7.953125000000 9.898437500000 0.566001892090 158 158 158
8.015625000000 9.898437500000 0.556999206543 164 164 164
8.046875000000 9.898437500000 0.539001464844 136 136 136
8.125000000000 9.898437500000 0.541000366211 133 133 133
8.140625000000 9.898437500000 0.518997192383 131 131 131
9.125000000000 9.882812500000 0.931999206543 169 169 169
9.125000000000 9.882812500000 0.902999877930 116 116 116
8.328125000000 9.898437500000 0.505996704102 129 129 129
8.515625000000 9.890625000000 0.557998657227 141 141 141
8.453125000000 9.898437500000 0.503997802734 132 132 132
8.609375000000 9.890625000000 0.545997619629 137 137 137
8.609375000000 9.890625000000 0.518997192383 132 132 132
8.671875000000 9.890625000000 0.516998291016 130 130 130
8.734375000000 9.890625000000 0.522003173828 122 122 122
8.906250000000 9.890625000000 0.579002380371 188 188 188
8.953125000000 9.890625000000 0.569999694824 186 186 186
8.968750000000 9.890625000000 0.555999755859 174 174 174
9.062500000000 9.890625000000 0.577003479004 179 179 179
9.500000000000 9.890625000000 0.782997131348 211 211 211
9.515625000000 9.890625000000 0.771003723145 204 204 204
9.609375000000 9.890625000000 0.800003051758 199 199 199
9.671875000000 9.882812500000 0.810997009277 206 206 206
9.703125000000 9.882812500000 0.799003601074 203 203 203
9.671875000000 9.890625000000 0.756996154785 196 196 196
9.656250000000 9.890625000000 0.727996826172 196 196 196
9.687500000000 9.890625000000 0.714996337891 195 195 195
9.703125000000 9.890625000000 0.702003479004 192 192 192
9.703125000000 9.890625000000 0.680000305176 193 193 193
9.687500000000 9.890625000000 0.640998840332 198 198 198
9.718750000000 9.890625000000 0.637001037598 186 186 186
9.625000000000 9.890625000000 0.546997070313 187 187 187
9.859375000000 9.890625000000 0.680000305176 201 201 201
9.984375000000 9.890625000000 0.736999511719 200 200 200
9.875000000000 9.890625000000 0.640998840332 198 198 198
9.984375000000 9.890625000000 0.693000793457 202 202 202
10.015625000000 9.890625000000 0.690002441406 198 198 198
10.015625000000 9.890625000000 0.655998229980 186 186 186
9.953125000000 9.890625000000 0.587997436523 194 194 194
9.953125000000 9.890625000000 0.565002441406 196 196 196
9.984375000000 9.890625000000 0.565002441406 181 181 181
10.015625000000 9.890625000000 0.558998107910 186 186 186
10.062500000000 9.890625000000 0.578002929688 188 188 188
10.093750000000 9.890625000000 0.569000244141 194 194 194
10.171875000000 9.890625000000 0.605003356934 197 197 197
10.187500000000 9.890625000000 0.597999572754 198 198 198
10.187500000000 9.890625000000 0.572998046875 197 197 197
10.187500000000 9.890625000000 0.542999267578 186 186 186
10.156250000000 9.890625000000 0.500000000000 178 178 178
10.250000000000 9.890625000000 0.547996520996 196 196 196
10.296875000000 9.890625000000 0.554000854492 193 193 193
10.281250000000 9.890625000000 0.527000427246 189 189 189
10.328125000000 9.890625000000 0.536003112793 190 190 190
10.390625000000 9.890625000000 0.568000793457 195 195 195
10.453125000000 9.890625000000 0.587997436523 199 199 199
10.468750000000 9.890625000000 0.582000732422 197 197 197
10.468750000000 9.890625000000 0.563003540039 198 198 198
10.484375000000 9.890625000000 0.546997070313 189 189 189
10.500000000000 9.890625000000 0.539001464844 189 189 189
10.500000000000 9.890625000000 0.509002685547 200 200 200
10.500000000000 9.890625000000 0.482002258301 190 190 190
10.484375000000 9.890625000000 0.449996948242 177 177 177
10.500000000000 9.890625000000 0.444000244141 160 160 160
10.562500000000 9.890625000000 0.474998474121 181 181 181
10.562500000000 9.890625000000 0.448997497559 173 173 173
10.578125000000 9.898437500000 0.439002990723 170 170 170
10.609375000000 9.898437500000 0.443000793457 177 177 177
10.625000000000 9.898437500000 0.432998657227 166 166 166
10.640625000000 9.898437500000 0.427001953125 162 162 162
10.671875000000 9.898437500000 0.427001953125 164 164 164
10.703125000000 9.898437500000 0.427001953125 158 158 158
10.718750000000 9.898437500000 0.422996520996 161 161 161
10.750000000000 9.898437500000 0.431999206543 157 157 157
10.890625000000 9.890625000000 0.559997558594 183 183 183
10.906250000000 9.890625000000 0.551002502441 177 177 177
10.921875000000 9.890625000000 0.549003601074 173 173 173
10.953125000000 9.890625000000 0.550003051758 184 184 184
10.968750000000 9.890625000000 0.539001464844 175 175 175
10.937500000000 9.898437500000 0.486999511719 168 168 168
10.921875000000 9.898437500000 0.438003540039 160 160 160
10.937500000000 9.898437500000 0.443000793457 158 158 158
10.968750000000 9.898437500000 0.447998046875 158 158 158
11.000000000000 9.898437500000 0.454002380371 170 170 170
11.015625000000 9.898437500000 0.442001342773 159 159 159
11.031250000000 9.898437500000 0.442001342773 150 150 150
11.046875000000 9.898437500000 0.434997558594 146 146 146
11.062500000000 9.898437500000 0.425003051758 148 148 148
11.078125000000 9.898437500000 0.420997619629 139 139 139
11.093750000000 9.898437500000 0.426002502441 138 138 138
11.125000000000 9.898437500000 0.432998657227 154 154 154
11.156250000000 9.898437500000 0.438003540039 153 153 153
11.156250000000 9.898437500000 0.428001403809 153 153 153
11.171875000000 9.898437500000 0.424003601074 137 137 137
11.203125000000 9.898437500000 0.424003601074 126 126 126
11.218750000000 9.898437500000 0.424003601074 129 129 129
11.250000000000 9.898437500000 0.430999755859 123 123 123
11.250000000000 9.898437500000 0.419998168945 141 141 141
11.281250000000 9.898437500000 0.428001403809 127 127 127
11.296875000000 9.898437500000 0.426002502441 124 124 124
11.312500000000 9.898437500000 0.431999206543 119 119 119
11.343750000000 9.898437500000 0.432998657227 130 130 130
11.359375000000 9.898437500000 0.441001892090 123 123 123
11.390625000000 9.898437500000 0.446998596191 120 120 120
11.406250000000 9.898437500000 0.443000793457 119 119 119
11.421875000000 9.898437500000 0.444999694824 114 114 114
11.453125000000 9.898437500000 0.458999633789 114 114 114
11.468750000000 9.898437500000 0.469001770020 113 113 113
11.484375000000 9.898437500000 0.460998535156 111 111 111
11.500000000000 9.898437500000 0.452003479004 108 108 108
11.546875000000 9.898437500000 0.500999450684 144 144 144
11.562500000000 9.898437500000 0.499000549316 147 147 147
11.578125000000 9.898437500000 0.501998901367 148 148 148
11.593750000000 9.898437500000 0.508003234863 149 149 149
11.609375000000 9.898437500000 0.505996704102 160 160 160
11.625000000000 9.898437500000 0.510002136230 162 162 162
11.640625000000 9.898437500000 0.504997253418 141 141 141
11.656250000000 9.898437500000 0.504997253418 160 160 160
11.687500000000 9.898437500000 0.522003173828 179 179 179
11.687500000000 9.898437500000 0.515998840332 187 187 187
11.718750000000 9.898437500000 0.524002075195 185 185 185
11.734375000000 9.898437500000 0.519996643066 185 185 185
11.750000000000 9.898437500000 0.530998229980 188 188 188
11.765625000000 9.898437500000 0.524002075195 196 196 196
11.765625000000 9.898437500000 0.517997741699 196 196 196
11.781250000000 9.898437500000 0.518997192383 180 180 180
11.812500000000 9.898437500000 0.524002075195 183 183 183
11.828125000000 9.898437500000 0.535003662109 185 185 185
11.843750000000 9.898437500000 0.528999328613 181 181 181
11.859375000000 9.898437500000 0.527999877930 181 181 181
11.875000000000 9.898437500000 0.537002563477 186 186 186
11.890625000000 9.898437500000 0.537002563477 190 190 190
11.906250000000 9.898437500000 0.541000366211 186 186 186
11.906250000000 9.898437500000 0.528999328613 180 180 180
11.921875000000 9.898437500000 0.519996643066 180 180 180
5.828125000000 9.906250000000 0.638999938965 146 146 146
6.140625000000 9.906250000000 0.642997741699 135 135 135
8.250000000000 9.898437500000 0.501998901367 121 121 121
6.828125000000 10.187500000000 1.596000671387 56 56 56
6.812500000000 10.187500000000 1.557998657227 103 103 103
6.828125000000 10.187500000000 1.524002075195 74 74 74
6.828125000000 10.187500000000 1.487998962402 57 57 57
6.828125000000 10.187500000000 1.453002929688 75 75 75
6.828125000000 10.187500000000 1.416999816895 70 70 70
6.812500000000 10.187500000000 1.378997802734 57 57 57
6.828125000000 10.187500000000 1.344001770020 49 49 49
6.828125000000 10.195312500000 1.308998107910 51 51 51
6.828125000000 10.195312500000 1.272003173828 55 55 55
6.828125000000 10.195312500000 1.235000610352 42 42 42
6.828125000000 10.195312500000 1.196998596191 46 46 46
6.843750000000 10.195312500000 1.092002868652 218 218 218
6.812500000000 10.195312500000 1.047996520996 197 197 197
6.656250000000 10.195312500000 0.968002319336 184 184 184
6.937500000000 10.195312500000 1.006996154785 162 162 162
6.875000000000 10.195312500000 0.949996948242 117 117 117
6.875000000000 10.195312500000 0.914001464844 162 162 162
6.750000000000 10.195312500000 0.839996337891 193 193 193
6.656250000000 10.203125000000 0.774002075195 166 166 166
6.984375000000 10.195312500000 0.833999633789 161 161 161
6.937500000000 10.195312500000 0.785003662109 174 174 174
7.156250000000 10.195312500000 0.814002990723 173 173 173
7.046875000000 10.195312500000 0.742996215820 193 193 193
6.968750000000 10.203125000000 0.679000854492 169 169 169
7.046875000000 10.195312500000 0.669998168945 199 199 199
7.187500000000 10.195312500000 0.677001953125 179 179 179
7.218750000000 10.195312500000 0.652999877930 182 182 182
7.703125000000 10.195312500000 0.789001464844 211 211 211
7.765625000000 10.195312500000 0.777000427246 193 193 193
7.437500000000 10.195312500000 0.625000000000 184 184 184
7.500000000000 10.195312500000 0.611999511719 176 176 176
7.562500000000 10.195312500000 0.600997924805 174 174 174
7.609375000000 10.195312500000 0.583999633789 173 173 173
7.765625000000 10.195312500000 0.609001159668 160 160 160
7.843750000000 10.195312500000 0.607002258301 188 188 188
7.859375000000 10.195312500000 0.582000732422 168 168 168
7.890625000000 10.195312500000 0.556999206543 139 139 139
7.984375000000 10.195312500000 0.569000244141 158 158 158
8.015625000000 10.195312500000 0.546997070313 152 152 152
8.093750000000 10.195312500000 0.543998718262 147 147 147
8.171875000000 10.195312500000 0.545997619629 133 133 133
8.218750000000 10.195312500000 0.541000366211 91 91 91
8.281250000000 10.195312500000 0.536003112793 125 125 125
8.328125000000 10.195312500000 0.521003723145 142 142 142
8.437500000000 10.195312500000 0.542999267578 135 135 135
8.484375000000 10.195312500000 0.535003662109 161 161 161
9.593750000000 10.179687500000 1.043998718262 150 150 150
9.609375000000 10.179687500000 1.027999877930 171 171 171
9.609375000000 10.187500000000 1.000999450684 198 198 198
9.609375000000 10.187500000000 0.978996276855 189 189 189
9.609375000000 10.187500000000 0.958999633789 182 182 182
9.593750000000 10.187500000000 0.928001403809 178 178 178
9.609375000000 10.187500000000 0.904998779297 165 165 165
9.640625000000 10.187500000000 0.903999328613 190 190 190
9.640625000000 10.187500000000 0.875000000000 181 181 181
9.531250000000 10.187500000000 0.796997070313 203 203 203
9.453125000000 10.187500000000 0.722000122070 202 202 202
9.468750000000 10.187500000000 0.707000732422 196 196 196
9.468750000000 10.187500000000 0.680000305176 193 193 193
9.453125000000 10.187500000000 0.650001525879 198 198 198
9.609375000000 10.187500000000 0.713996887207 191 191 191
9.625000000000 10.187500000000 0.696998596191 199 199 199
9.671875000000 10.187500000000 0.696998596191 192 192 192
9.656250000000 10.187500000000 0.663002014160 192 192 192
9.750000000000 10.187500000000 0.700996398926 192 192 192
9.796875000000 10.187500000000 0.702003479004 197 197 197
9.796875000000 10.187500000000 0.681999206543 200 200 200
9.796875000000 10.187500000000 0.652999877930 208 208 208
9.828125000000 10.187500000000 0.644996643066 185 185 185
9.796875000000 10.187500000000 0.607002258301 193 193 193
9.812500000000 10.195312500000 0.592002868652 188 188 188
9.812500000000 10.195312500000 0.567001342773 187 187 187
9.828125000000 10.195312500000 0.549003601074 179 179 179
9.859375000000 10.195312500000 0.542999267578 185 185 185
9.843750000000 10.195312500000 0.509002685547 178 178 178
9.921875000000 10.195312500000 0.541999816895 183 183 183
10.156250000000 10.187500000000 0.679000854492 199 199 199
10.187500000000 10.187500000000 0.684997558594 199 199 199
10.265625000000 10.187500000000 0.717002868652 189 189 189
10.250000000000 10.187500000000 0.680999755859 188 188 188
10.156250000000 10.187500000000 0.585998535156 188 188 188
10.156250000000 10.195312500000 0.563003540039 176 176 176
10.187500000000 10.195312500000 0.561996459961 186 186 186
10.171875000000 10.195312500000 0.524002075195 176 176 176
10.187500000000 10.195312500000 0.510002136230 174 174 174
10.203125000000 10.195312500000 0.500999450684 182 182 182
10.218750000000 10.195312500000 0.486999511719 178 178 178
10.343750000000 10.195312500000 0.565002441406 190 190 190
10.421875000000 10.187500000000 0.605003356934 198 198 198
10.406250000000 10.195312500000 0.572998046875 197 197 197
10.453125000000 10.195312500000 0.583999633789 197 197 197
10.468750000000 10.195312500000 0.569000244141 190 190 190
10.515625000000 10.195312500000 0.584999084473 200 200 200
10.515625000000 10.195312500000 0.570999145508 185 185 185
10.531250000000 10.195312500000 0.555999755859 193 193 193
10.562500000000 10.195312500000 0.560997009277 199 199 199
10.593750000000 10.195312500000 0.570999145508 192 192 192
10.640625000000 10.195312500000 0.593002319336 193 193 193
10.640625000000 10.195312500000 0.564002990723 198 198 198
10.640625000000 10.195312500000 0.531997680664 177 177 177
10.687500000000 10.195312500000 0.567001342773 189 189 189
10.703125000000 10.195312500000 0.555000305176 202 202 202
10.703125000000 10.195312500000 0.522003173828 192 192 192
10.703125000000 10.195312500000 0.500999450684 190 190 190
10.671875000000 10.195312500000 0.441001892090 183 183 183
10.687500000000 10.195312500000 0.436996459961 184 184 184
10.703125000000 10.195312500000 0.430999755859 175 175 175
10.796875000000 10.195312500000 0.503997802734 182 182 182
10.843750000000 10.195312500000 0.525001525879 188 188 188
10.796875000000 10.195312500000 0.448997497559 180 180 180
10.812500000000 10.195312500000 0.445999145508 167 167 167
10.828125000000 10.195312500000 0.442001342773 182 182 182
10.859375000000 10.195312500000 0.438003540039 198 198 198
10.890625000000 10.195312500000 0.456001281738 175 175 175
10.906250000000 10.195312500000 0.445999145508 175 175 175
10.921875000000 10.195312500000 0.439002990723 181 181 181
10.953125000000 10.195312500000 0.446998596191 169 169 169
10.968750000000 10.195312500000 0.435997009277 175 175 175
10.984375000000 10.195312500000 0.435997009277 182 182 182
11.062500000000 10.195312500000 0.496002197266 182 182 182
11.046875000000 10.195312500000 0.466003417969 178 178 178
11.078125000000 10.195312500000 0.463996887207 175 175 175
11.078125000000 10.195312500000 0.436996459961 172 172 172
11.078125000000 10.195312500000 0.418998718262 167 167 167
11.093750000000 10.195312500000 0.408996582031 175 175 175
11.171875000000 10.195312500000 0.483001708984 175 175 175
11.156250000000 10.195312500000 0.438003540039 166 166 166
11.156250000000 10.195312500000 0.417999267578 168 168 168
11.171875000000 10.195312500000 0.405998229980 158 158 158
11.187500000000 10.195312500000 0.397003173828 164 164 164
11.203125000000 10.195312500000 0.388999938965 154 154 154
11.203125000000 10.195312500000 0.375999450684 145 145 145
11.218750000000 10.195312500000 0.372001647949 140 140 140
11.250000000000 10.195312500000 0.375000000000 141 141 141
11.265625000000 10.203125000000 0.366996765137 150 150 150
