10.859375000000 20.312500000000 4.061996459961 32 32 32
9.921875000000 20.843750000000 5.852996826172 56 56 56
9.953125000000 20.843750000000 5.785003662109 87 87 87
9.921875000000 20.859375000000 5.591003417969 148 148 148
9.015625000000 21.375000000000 5.694000244141 48 48 48
9.484375000000 21.093750000000 4.652999877930 114 114 114
9.453125000000 21.109375000000 4.119003295898 113 113 113
9.484375000000 21.093750000000 4.051002502441 26 26 26
10.234375000000 21.000000000000 6.862998962402 42 42 42
10.203125000000 21.031250000000 6.805999755859 133 133 133
10.203125000000 21.031250000000 6.744003295898 202 202 202
10.140625000000 21.078125000000 6.702003479004 133 133 133
9.968750000000 21.156250000000 6.681999206543 229 229 229
10.078125000000 21.093750000000 6.581001281738 95 95 95
10.328125000000 20.937500000000 6.436996459961 144 144 144
10.203125000000 21.031250000000 6.414001464844 163 163 163
10.109375000000 21.078125000000 6.367996215820 185 185 185
9.390625000000 21.500000000000 6.501998901367 185 185 185
10.328125000000 20.953125000000 6.116996765137 87 87 87
9.265625000000 21.562500000000 6.316001892090 168 168 168
9.421875000000 21.500000000000 6.214996337891 207 207 207
9.375000000000 21.500000000000 6.152000427246 249 249 249
11.453125000000 20.312500000000 5.594001770020 173 173 173
11.484375000000 20.281250000000 5.530998229980 135 135 135
10.796875000000 20.687500000000 5.208000183105 248 248 248
11.015625000000 20.562500000000 5.111000061035 251 251 251
11.015625000000 20.531250000000 4.424003601074 171 171 171
11.109375000000 20.500000000000 4.360000610352 10 10 10
10.421875000000 20.875000000000 4.290000915527 97 97 97
10.453125000000 20.843750000000 4.227996826172 135 135 135
11.265625000000 20.406250000000 4.016998291016 186 186 186
10.796875000000 20.656250000000 3.917999267578 174 174 174
10.671875000000 20.750000000000 3.862998962402 171 171 171
9.828125000000 21.218750000000 3.811996459961 157 157 157
9.796875000000 21.250000000000 3.748001098633 238 238 238
9.828125000000 21.218750000000 3.682998657227 223 223 223
11.515625000000 20.281250000000 5.471000671387 11 11 11
10.718750000000 20.718750000000 5.279998779297 145 145 145
11.265625000000 20.406250000000 4.458999633789 111 111 111
9.703125000000 21.312500000000 4.469001770020 53 53 53
10.171875000000 21.375000000000 6.850997924805 130 130 130
10.140625000000 21.390625000000 6.794998168945 170 170 170
10.453125000000 21.218750000000 6.494003295898 169 169 169
10.453125000000 21.218750000000 6.432998657227 179 179 179
10.734375000000 21.062500000000 6.225997924805 133 133 133
10.609375000000 21.125000000000 6.196998596191 113 113 113
10.546875000000 21.156250000000 6.151000976563 73 73 73
10.609375000000 21.125000000000 6.069999694824 89 89 89
9.171875000000 21.953125000000 6.305000305176 160 160 160
9.390625000000 21.828125000000 6.182998657227 215 215 215
10.703125000000 21.062500000000 5.800003051758 182 182 182
10.703125000000 21.062500000000 5.738998413086 129 129 129
10.171875000000 21.375000000000 5.539001464844 191 191 191
10.015625000000 21.468750000000 5.502998352051 15 15 15
9.593750000000 21.703125000000 5.514999389648 13 13 13
11.078125000000 20.843750000000 5.183998107910 18 18 18
11.234375000000 20.765625000000 5.106002807617 186 186 186
11.234375000000 20.750000000000 5.042999267578 206 206 206
9.796875000000 21.593750000000 5.214996337891 17 17 17
11.078125000000 20.843750000000 4.841003417969 50 50 50
11.109375000000 20.812500000000 4.779998779297 176 176 176
11.046875000000 20.875000000000 4.733001708984 232 232 232
11.046875000000 20.875000000000 4.678001403809 6 6 6
11.109375000000 20.828125000000 4.612998962402 173 173 173
11.078125000000 20.828125000000 4.557998657227 173 173 173
11.109375000000 20.812500000000 4.499000549316 178 178 178
11.390625000000 20.656250000000 4.417999267578 190 190 190
11.453125000000 20.625000000000 4.360000610352 167 167 167
11.515625000000 20.578125000000 4.300003051758 173 173 173
11.515625000000 20.593750000000 4.247001647949 172 172 172
10.718750000000 21.031250000000 4.241996765137 88 88 88
10.546875000000 21.125000000000 4.133003234863 36 36 36
10.515625000000 21.156250000000 4.073997497559 203 203 203
10.734375000000 21.031250000000 4.006996154785 246 246 246
10.859375000000 20.968750000000 3.944999694824 154 154 154
10.828125000000 20.984375000000 3.888000488281 180 180 180
10.796875000000 21.000000000000 3.831001281738 196 196 196
9.562500000000 21.718750000000 5.454002380371 146 146 146
10.703125000000 21.406250000000 6.573997497559 130 130 130
10.703125000000 21.406250000000 6.517997741699 175 175 175
10.640625000000 21.437500000000 6.470001220703 125 125 125
10.578125000000 21.468750000000 6.421997070313 28 28 28
10.609375000000 21.437500000000 6.347999572754 49 49 49
10.671875000000 21.437500000000 6.275001525879 173 173 173
10.640625000000 21.437500000000 6.221000671387 158 158 158
10.578125000000 21.468750000000 6.170997619629 104 104 104
10.546875000000 21.500000000000 6.116996765137 154 154 154
10.343750000000 21.593750000000 6.109001159668 65 65 65
10.921875000000 21.250000000000 5.712997436523 170 170 170
10.921875000000 21.250000000000 5.653999328613 137 137 137
10.078125000000 21.750000000000 5.265998840332 198 198 198
10.109375000000 21.734375000000 5.196998596191 66 66 66
11.078125000000 21.171875000000 4.814002990723 10 10 10
10.984375000000 21.218750000000 4.767997741699 28 28 28
11.046875000000 21.187500000000 4.703002929688 93 93 93
10.171875000000 21.687500000000 4.745002746582 53 53 53
10.203125000000 21.671875000000 4.678001403809 168 168 168
11.265625000000 21.062500000000 4.513999938965 218 218 218
11.265625000000 21.062500000000 4.457000732422 154 154 154
10.671875000000 21.406250000000 4.452003479004 100 100 100
10.703125000000 21.406250000000 4.391998291016 168 168 168
10.656250000000 21.406250000000 4.334999084473 134 134 134
9.859375000000 21.875000000000 4.134002685547 142 142 142
9.890625000000 21.875000000000 4.069000244141 159 159 159
9.796875000000 21.906250000000 4.005996704102 74 74 74
10.546875000000 21.468750000000 3.864997863770 170 170 170
10.828125000000 21.671875000000 6.380996704102 138 138 138
10.796875000000 21.687500000000 6.329002380371 113 113 113
10.578125000000 21.796875000000 6.138000488281 13 13 13
10.562500000000 21.812500000000 6.082000732422 127 127 127
10.531250000000 21.828125000000 6.027000427246 50 50 50
10.203125000000 22.000000000000 4.644996643066 178 178 178
10.234375000000 22.000000000000 4.580001831055 191 191 191
10.796875000000 21.656250000000 4.352996826172 147 147 147
10.734375000000 21.687500000000 4.299003601074 11 11 11
10.593750000000 21.781250000000 3.892997741699 103 103 103
10.234375000000 17.468750000000 5.573997497559 76 76 76
10.265625000000 17.500000000000 5.631996154785 182 182 182
10.250000000000 17.500000000000 5.694999694824 140 140 140
10.171875000000 17.468750000000 6.552001953125 167 167 167
10.234375000000 17.500000000000 6.599998474121 127 127 127
10.453125000000 17.640625000000 6.594001770020 122 122 122
10.453125000000 17.625000000000 6.660003662109 97 97 97
9.890625000000 17.609375000000 5.020996093750 32 32 32
10.296875000000 17.875000000000 5.268997192383 186 186 186
10.140625000000 17.781250000000 5.361000061035 172 172 172
10.078125000000 17.718750000000 5.441001892090 108 108 108
10.109375000000 17.750000000000 5.625999450684 162 162 162
9.734375000000 17.531250000000 5.836997985840 139 139 139
9.484375000000 17.406250000000 6.448997497559 51 51 51
9.546875000000 17.437500000000 6.502998352051 147 147 147
9.515625000000 17.437500000000 6.578002929688 33 33 33
10.109375000000 17.781250000000 6.467002868652 117 117 117
9.640625000000 17.500000000000 7.033996582031 156 156 156
9.890625000000 17.656250000000 7.652999877930 60 60 60
9.625000000000 17.500000000000 6.968002319336 131 131 131
9.656250000000 17.500000000000 7.102996826172 26 26 26
9.609375000000 17.781250000000 4.890998840332 40 40 40
8.859375000000 17.375000000000 5.266998291016 148 148 148
9.078125000000 17.500000000000 5.305000305176 163 163 163
9.109375000000 17.500000000000 5.371002197266 101 101 101
8.703125000000 17.281250000000 5.509002685547 131 131 131
8.750000000000 17.312500000000 5.574996948242 92 92 92
9.265625000000 17.625000000000 5.619003295898 90 90 90
10.421875000000 18.281250000000 5.772003173828 177 177 177
10.453125000000 18.312500000000 5.822998046875 178 178 178
10.359375000000 18.250000000000 5.911003112793 152 152 152
10.421875000000 18.281250000000 5.954002380371 18 18 18
9.265625000000 17.625000000000 6.322998046875 96 96 96
9.515625000000 17.765625000000 6.328002929688 152 152 152
9.515625000000 17.750000000000 6.402999877930 62 62 62
10.484375000000 18.312500000000 6.453002929688 119 119 119
10.359375000000 18.250000000000 6.621002197266 142 142 142
10.453125000000 18.312500000000 6.653999328613 134 134 134
10.265625000000 18.203125000000 6.977996826172 186 186 186
10.234375000000 18.187500000000 7.058998107910 172 172 172
9.625000000000 17.843750000000 7.352996826172 89 89 89
9.656250000000 17.859375000000 7.418998718262 68 68 68
9.625000000000 17.843750000000 7.499000549316 33 33 33
9.640625000000 17.812500000000 4.950996398926 155 155 155
8.859375000000 17.359375000000 5.195999145508 21 21 21
10.203125000000 18.781250000000 3.831001281738 92 92 92
10.234375000000 18.812500000000 4.940002441406 165 165 165
10.312500000000 18.875000000000 4.989997863770 178 178 178
7.828125000000 17.421875000000 5.506996154785 117 117 117
9.046875000000 18.140625000000 5.384002685547 195 195 195
8.890625000000 18.046875000000 5.482002258301 130 130 130
10.390625000000 18.906250000000 5.288002014160 177 177 177
10.515625000000 18.968750000000 5.322998046875 177 177 177
10.296875000000 18.875000000000 5.612998962402 166 166 166
10.359375000000 18.906250000000 5.666999816895 185 185 185
10.421875000000 18.937500000000 5.711997985840 199 199 199
10.515625000000 19.000000000000 6.064002990723 203 203 203
10.484375000000 18.984375000000 6.133003234863 192 192 192
9.859375000000 18.625000000000 6.580001831055 102 102 102
9.828125000000 18.593750000000 6.661003112793 147 147 147
9.921875000000 18.671875000000 6.690002441406 146 146 146
9.921875000000 18.656250000000 6.766998291016 150 150 150
9.640625000000 18.500000000000 6.925003051758 131 131 131
9.484375000000 18.421875000000 7.047996520996 158 158 158
8.828125000000 18.031250000000 7.358001708984 130 130 130
8.859375000000 18.062500000000 7.413002014160 98 98 98
9.546875000000 18.468750000000 7.463996887207 125 125 125
10.109375000000 18.781250000000 7.318000793457 180 180 180
10.296875000000 18.890625000000 7.305999755859 175 175 175
10.359375000000 18.921875000000 7.357002258301 159 159 159
10.234375000000 18.859375000000 7.467002868652 170 170 170
10.234375000000 18.843750000000 7.542999267578 10 10 10
7.953125000000 17.500000000000 4.944000244141 46 46 46
7.953125000000 17.500000000000 5.020996093750 38 38 38
8.671875000000 17.921875000000 6.188003540039 82 82 82
10.203125000000 19.093750000000 3.865997314453 175 175 175
10.546875000000 19.312500000000 4.334999084473 163 163 163
10.140625000000 19.093750000000 4.550003051758 63 63 63
10.515625000000 19.296875000000 4.574996948242 47 47 47
8.062500000000 17.890625000000 5.128997802734 149 149 149
7.859375000000 17.781250000000 5.232002258301 114 114 114
9.546875000000 18.750000000000 5.069999694824 228 228 228
9.734375000000 18.875000000000 5.108001708984 179 179 179
8.546875000000 18.187500000000 5.358001708984 166 166 166
9.765625000000 18.875000000000 5.236999511719 198 198 198
9.859375000000 18.937500000000 5.289001464844 11 11 11
9.109375000000 18.500000000000 5.484001159668 137 137 137
10.234375000000 19.140625000000 5.350997924805 165 165 165
10.484375000000 19.296875000000 5.367996215820 197 197 197
10.296875000000 19.187500000000 5.463996887207 62 62 62
9.531250000000 18.765625000000 6.295997619629 118 118 118
9.046875000000 18.468750000000 6.505996704102 24 24 24
9.796875000000 18.921875000000 6.497001647949 116 116 116
9.828125000000 18.937500000000 6.563003540039 178 178 178
9.703125000000 18.875000000000 6.662002563477 149 149 149
9.421875000000 18.718750000000 6.822998046875 139 139 139
9.515625000000 18.781250000000 6.860000610352 171 171 171
9.609375000000 18.843750000000 6.899002075195 163 163 163
8.734375000000 18.312500000000 7.266998291016 93 93 93
9.953125000000 19.031250000000 6.922996520996 46 46 46
10.015625000000 19.046875000000 6.977996826172 139 139 139
10.015625000000 19.062500000000 7.043998718262 182 182 182
9.125000000000 18.546875000000 7.442001342773 130 130 130
10.453125000000 19.312500000000 7.219001770020 157 157 157
10.484375000000 19.328125000000 7.277000427246 149 149 149
8.078125000000 17.906250000000 5.047996520996 120 120 120
8.671875000000 18.250000000000 5.488998413086 99 99 99
10.390625000000 19.562500000000 4.010002136230 106 106 106
10.234375000000 19.468750000000 4.138000488281 127 127 127
10.171875000000 19.437500000000 4.203002929688 174 174 174
10.171875000000 19.421875000000 4.265998840332 67 67 67
9.890625000000 19.281250000000 4.539001464844 86 86 86
10.421875000000 19.562500000000 4.552001953125 65 65 65
10.453125000000 19.593750000000 4.609001159668 172 172 172
10.359375000000 19.531250000000 4.680000305176 168 168 168
10.515625000000 19.625000000000 4.722000122070 170 170 170
8.984375000000 18.765625000000 5.183998107910 190 190 190
9.046875000000 18.796875000000 5.246002197266 155 155 155
9.562500000000 19.093750000000 5.232002258301 215 215 215
9.828125000000 19.250000000000 5.254997253418 171 171 171
9.953125000000 19.312500000000 5.301002502441 240 240 240
10.046875000000 19.375000000000 5.349998474121 195 195 195
10.140625000000 19.437500000000 5.391998291016 181 181 181
11.421875000000 20.187500000000 5.211997985840 190 190 190
11.453125000000 20.187500000000 5.536003112793 174 174 174
11.500000000000 20.218750000000 5.578002929688 178 178 178
11.500000000000 20.218750000000 5.635002136230 52 52 52
9.953125000000 19.343750000000 6.279998779297 207 207 207
10.140625000000 19.453125000000 6.295997619629 172 172 172
10.171875000000 19.468750000000 6.348999023438 152 152 152
10.234375000000 19.500000000000 6.401000976563 162 162 162
9.640625000000 19.171875000000 6.641998291016 105 105 105
9.640625000000 19.156250000000 6.714996337891 108 108 108
9.546875000000 19.125000000000 6.811996459961 171 171 171
10.515625000000 19.671875000000 6.571998596191 14 14 14
9.015625000000 18.812500000000 7.134002685547 128 128 128
9.359375000000 19.015625000000 7.093002319336 92 92 92
9.328125000000 19.000000000000 7.175003051758 130 130 130
9.328125000000 19.000000000000 7.250999450684 25 25 25
10.265625000000 19.531250000000 7.051002502441 79 79 79
10.265625000000 19.546875000000 7.180999755859 20 20 20
10.078125000000 19.437500000000 7.612998962402 39 39 39
10.109375000000 19.468750000000 7.661003112793 156 156 156
10.109375000000 19.453125000000 7.736000061035 171 171 171
10.234375000000 19.531250000000 7.752998352051 166 166 166
10.265625000000 19.562500000000 7.799003601074 171 171 171
10.265625000000 19.546875000000 7.880996704102 167 167 167
10.359375000000 19.593750000000 7.908996582031 165 165 165
10.390625000000 19.625000000000 7.958999633789 50 50 50
8.671875000000 18.562500000000 3.498001098633 139 139 139
7.203125000000 17.718750000000 4.125000000000 17 17 17
7.921875000000 18.156250000000 5.101997375488 15 15 15
7.515625000000 17.906250000000 5.313003540039 24 24 24
7.921875000000 18.156250000000 6.523002624512 66 66 66
7.953125000000 18.187500000000 6.592002868652 14 14 14
8.734375000000 18.921875000000 3.597999572754 127 127 127
9.359375000000 19.281250000000 3.669998168945 163 163 163
8.828125000000 18.984375000000 3.881996154785 140 140 140
11.234375000000 20.390625000000 4.000000000000 176 176 176
7.671875000000 18.312500000000 4.218002319336 41 41 41
11.046875000000 20.265625000000 4.120002746582 177 177 177
11.046875000000 20.265625000000 4.177001953125 150 150 150
11.625000000000 20.625000000000 4.194000244141 70 70 70
11.609375000000 20.609375000000 4.246002197266 188 188 188
11.421875000000 20.500000000000 4.313003540039 175 175 175
11.500000000000 20.546875000000 4.360000610352 192 192 192
11.203125000000 20.375000000000 4.442001342773 213 213 213
11.296875000000 20.437500000000 4.486000061035 180 180 180
11.296875000000 20.421875000000 4.542999267578 121 121 121
10.109375000000 19.734375000000 4.733001708984 116 116 116
8.015625000000 18.531250000000 5.043998718262 91 91 91
10.390625000000 19.906250000000 4.821998596191 220 220 220
10.484375000000 19.968750000000 4.870002746582 183 183 183
8.437500000000 18.781250000000 5.216003417969 128 128 128
8.453125000000 18.781250000000 5.288002014160 154 154 154
8.796875000000 19.000000000000 5.308998107910 172 172 172
8.953125000000 19.093750000000 5.353996276855 131 131 131
10.390625000000 19.921875000000 5.188003540039 126 126 126
10.390625000000 19.906250000000 5.250999450684 174 174 174
11.125000000000 20.343750000000 5.177001953125 173 173 173
11.062500000000 20.312500000000 5.245002746582 170 170 170
7.234375000000 18.093750000000 6.051002502441 27 27 27
10.015625000000 19.687500000000 5.572998046875 152 152 152
10.484375000000 19.968750000000 5.541999816895 190 190 190
10.640625000000 20.062500000000 5.567001342773 164 164 164
10.671875000000 20.093750000000 5.616996765137 192 192 192
10.734375000000 20.125000000000 5.665000915527 176 176 176
10.734375000000 20.125000000000 5.727996826172 182 182 182
10.984375000000 20.265625000000 5.726997375488 185 185 185
10.984375000000 20.281250000000 5.780998229980 198 198 198
8.125000000000 18.625000000000 6.577003479004 100 100 100
8.046875000000 18.593750000000 6.676002502441 33 33 33
10.171875000000 19.812500000000 6.179000854492 189 189 189
10.203125000000 19.843750000000 6.232002258301 189 189 189
10.203125000000 19.812500000000 6.305000305176 217 217 217
9.015625000000 19.156250000000 6.710998535156 159 159 159
9.484375000000 19.421875000000 6.645996093750 172 172 172
9.515625000000 19.437500000000 6.710998535156 181 181 181
9.312500000000 19.328125000000 6.842002868652 41 41 41
9.640625000000 19.500000000000 6.815002441406 136 136 136
9.296875000000 19.312500000000 6.990997314453 201 201 201
9.421875000000 19.375000000000 7.027999877930 165 165 165
9.765625000000 19.593750000000 6.976997375488 79 79 79
9.906250000000 19.656250000000 7.004997253418 124 124 124
10.015625000000 19.718750000000 7.036003112793 139 139 139
10.156250000000 19.812500000000 7.046997070313 170 170 170
10.265625000000 19.875000000000 7.078002929688 162 162 162
10.328125000000 19.906250000000 7.123001098633 170 170 170
10.296875000000 19.906250000000 7.196998596191 166 166 166
10.265625000000 19.875000000000 7.281997680664 186 186 186
9.671875000000 19.531250000000 7.585998535156 174 174 174
9.296875000000 19.343750000000 7.804000854492 155 155 155
9.640625000000 19.531250000000 7.747001647949 77 77 77
9.796875000000 19.609375000000 7.751998901367 111 111 111
9.828125000000 19.640625000000 7.808998107910 132 132 132
9.859375000000 19.656250000000 7.866996765137 59 59 59
8.609375000000 18.859375000000 3.525001525879 119 119 119
7.734375000000 18.375000000000 4.291999816895 10 10 10
7.546875000000 18.281250000000 6.069999694824 89 89 89
10.734375000000 20.437500000000 3.813003540039 202 202 202
10.515625000000 20.312500000000 3.875000000000 59 59 59
10.984375000000 20.593750000000 3.920997619629 167 167 167
10.953125000000 20.562500000000 3.978996276855 129 129 129
8.546875000000 19.171875000000 4.136001586914 158 158 158
10.078125000000 20.062500000000 4.134002685547 117 117 117
10.203125000000 20.140625000000 4.189002990723 159 159 159
10.078125000000 20.046875000000 4.260002136230 150 150 150
7.921875000000 18.812500000000 4.469001770020 149 149 149
10.734375000000 20.437500000000 4.334999084473 42 42 42
10.703125000000 20.406250000000 4.395996093750 178 178 178
10.921875000000 20.546875000000 4.434997558594 179 179 179
10.921875000000 20.546875000000 4.491996765137 180 180 180
10.890625000000 20.531250000000 4.552001953125 178 178 178
10.859375000000 20.515625000000 4.611999511719 159 159 159
6.953125000000 18.250000000000 5.124000549316 21 21 21
9.750000000000 19.875000000000 4.863998413086 240 240 240
9.828125000000 19.937500000000 4.918998718262 187 187 187
10.296875000000 20.203125000000 4.917999267578 197 197 197
10.390625000000 20.250000000000 4.968002319336 177 177 177
10.718750000000 20.437500000000 4.980003356934 184 184 184
6.984375000000 18.281250000000 5.624000549316 64 64 64
10.453125000000 20.281250000000 5.141998291016 9 9 9
11.046875000000 20.625000000000 5.100997924805 28 28 28
11.046875000000 20.625000000000 5.157997131348 166 166 166
7.140625000000 18.390625000000 5.932998657227 30 30 30
7.890625000000 18.812500000000 5.876998901367 190 190 190
8.890625000000 19.406250000000 5.755996704102 250 250 250
10.140625000000 20.125000000000 5.574996948242 119 119 119
10.453125000000 20.281250000000 5.571998596191 50 50 50
10.421875000000 20.281250000000 5.638000488281 178 178 178
10.390625000000 20.265625000000 5.707000732422 112 112 112
10.359375000000 20.250000000000 5.777000427246 78 78 78
10.296875000000 20.203125000000 5.858001708984 203 203 203
10.328125000000 20.234375000000 5.908996582031 167 167 167
10.140625000000 20.125000000000 6.023002624512 23 23 23
10.250000000000 20.187500000000 6.055999755859 126 126 126
10.046875000000 20.078125000000 6.178001403809 168 168 168
9.953125000000 20.031250000000 6.265998840332 196 196 196
9.406250000000 19.703125000000 6.489997863770 129 129 129
9.546875000000 19.781250000000 6.516998291016 143 143 143
8.984375000000 19.468750000000 6.751998901367 106 106 106
9.328125000000 19.656250000000 6.726997375488 106 106 106
10.234375000000 20.203125000000 6.512001037598 161 161 161
10.328125000000 20.234375000000 6.554000854492 167 167 167
10.328125000000 20.250000000000 6.623001098633 118 118 118
8.937500000000 19.437500000000 7.144996643066 105 105 105
8.953125000000 19.468750000000 7.211997985840 89 89 89
9.015625000000 19.500000000000 7.266998291016 7 7 7
9.000000000000 19.484375000000 7.349998474121 55 55 55
8.796875000000 19.375000000000 7.574996948242 18 18 18
8.828125000000 19.390625000000 7.641998291016 136 136 136
8.765625000000 19.359375000000 7.740997314453 105 105 105
9.640625000000 19.875000000000 7.921997070313 143 143 143
9.609375000000 19.843750000000 8.014999389648 170 170 170
9.406250000000 19.734375000000 8.180999755859 114 114 114
8.500000000000 19.140625000000 4.065002441406 108 108 108
6.828125000000 18.187500000000 4.291000366211 61 61 61
6.984375000000 18.265625000000 4.450996398926 61 61 61
7.890625000000 18.796875000000 4.549003601074 166 166 166
8.109375000000 18.953125000000 5.522003173828 143 143 143
6.953125000000 18.281250000000 6.230003356934 63 63 63
8.109375000000 18.937500000000 6.069000244141 187 187 187
7.546875000000 18.640625000000 6.263999938965 10 10 10
7.843750000000 18.812500000000 6.282997131348 110 110 110
7.781250000000 18.750000000000 6.377998352051 112 112 112
6.828125000000 18.218750000000 6.688003540039 16 16 16
7.921875000000 18.843750000000 6.501998901367 18 18 18
8.671875000000 19.562500000000 3.380996704102 174 174 174
10.750000000000 20.781250000000 3.844001770020 210 210 210
10.921875000000 20.875000000000 3.898002624512 171 171 171
10.390625000000 20.562500000000 3.971000671387 167 167 167
10.390625000000 20.562500000000 4.031997680664 41 41 41
9.812500000000 20.234375000000 4.117996215820 64 64 64
9.234375000000 19.906250000000 4.212997436523 20 20 20
7.640625000000 18.968750000000 4.375000000000 116 116 116
10.359375000000 20.562500000000 4.275001525879 177 177 177
10.234375000000 20.468750000000 4.345001220703 154 154 154
10.234375000000 20.484375000000 4.405998229980 208 208 208
10.671875000000 20.734375000000 4.430000305176 202 202 202
11.234375000000 21.062500000000 4.438003540039 150 150 150
11.328125000000 21.109375000000 4.483001708984 189 189 189
10.234375000000 20.468750000000 4.653999328613 69 69 69
10.546875000000 20.671875000000 4.678001403809 176 176 176
10.859375000000 20.843750000000 4.702003479004 182 182 182
10.921875000000 20.890625000000 4.750000000000 180 180 180
10.859375000000 20.843750000000 4.817001342773 134 134 134
6.937500000000 18.593750000000 5.422996520996 27 27 27
9.984375000000 20.359375000000 5.057998657227 155 155 155
10.046875000000 20.406250000000 5.114997863770 196 196 196
9.015625000000 19.781250000000 5.347000122070 158 158 158
11.078125000000 21.000000000000 5.066001892090 204 204 204
11.078125000000 21.000000000000 5.123001098633 186 186 186
10.890625000000 20.875000000000 5.218002319336 56 56 56
10.765625000000 20.812500000000 5.296997070313 233 233 233
9.640625000000 20.156250000000 5.580001831055 195 195 195
9.640625000000 20.156250000000 5.647003173828 43 43 43
9.718750000000 20.203125000000 5.695999145508 15 15 15
9.828125000000 20.250000000000 5.744003295898 170 170 170
8.296875000000 19.390625000000 6.142997741699 136 136 136
10.796875000000 20.812500000000 5.652000427246 247 247 247
10.828125000000 20.843750000000 5.698997497559 184 184 184
10.796875000000 20.812500000000 5.770996093750 148 148 148
9.703125000000 20.187500000000 6.105003356934 166 166 166
9.671875000000 20.187500000000 6.176002502441 173 173 173
8.296875000000 19.406250000000 6.689002990723 162 162 162
9.265625000000 19.968750000000 6.495002746582 6 6 6
9.328125000000 20.000000000000 6.555999755859 212 212 212
9.125000000000 19.875000000000 6.682998657227 169 169 169
9.046875000000 19.828125000000 6.780998229980 191 191 191
10.875000000000 20.890625000000 6.291999816895 58 58 58
11.203125000000 21.078125000000 6.251998901367 176 176 176
11.171875000000 21.062500000000 6.321998596191 180 180 180
11.046875000000 20.984375000000 6.414001464844 201 201 201
8.015625000000 19.250000000000 7.491996765137 83 83 83
7.984375000000 19.234375000000 7.589996337891 115 115 115
8.703125000000 19.625000000000 7.424003601074 116 116 116
8.703125000000 19.656250000000 7.495002746582 27 27 27
8.703125000000 19.656250000000 7.574996948242 84 84 84
8.703125000000 19.640625000000 7.655998229980 126 126 126
8.671875000000 19.625000000000 7.749000549316 148 148 148
8.359375000000 19.437500000000 7.954002380371 60 60 60
8.734375000000 19.687500000000 7.873001098633 112 112 112
8.734375000000 19.687500000000 8.033996582031 130 130 130
8.828125000000 19.734375000000 8.081001281738 156 156 156
8.578125000000 19.593750000000 8.269996643066 140 140 140
8.578125000000 19.593750000000 8.350997924805 163 163 163
8.796875000000 19.718750000000 8.332000732422 152 152 152
8.859375000000 19.750000000000 8.387001037598 117 117 117
8.890625000000 19.781250000000 8.444999694824 27 27 27
8.609375000000 19.531250000000 3.811996459961 101 101 101
7.046875000000 18.640625000000 4.161003112793 87 87 87
7.640625000000 18.968750000000 4.295997619629 25 25 25
6.562500000000 18.359375000000 4.695999145508 10 10 10
7.546875000000 18.921875000000 4.779998779297 136 136 136
7.453125000000 18.906250000000 4.945999145508 67 67 67
8.296875000000 19.375000000000 5.157997131348 24 24 24
6.921875000000 18.593750000000 5.509002685547 40 40 40
6.921875000000 18.593750000000 6.362998962402 13 13 13
7.515625000000 18.937500000000 6.567001342773 34 34 34
9.828125000000 20.562500000000 3.705001831055 120 120 120
10.859375000000 21.156250000000 3.874000549316 158 158 158
10.859375000000 21.156250000000 3.931999206543 183 183 183
10.578125000000 21.015625000000 4.056999206543 212 212 212
10.015625000000 20.671875000000 4.144996643066 105 105 105
10.281250000000 20.843750000000 4.193000793457 143 143 143
10.609375000000 21.031250000000 4.232002258301 179 179 179
10.578125000000 21.000000000000 4.294998168945 176 176 176
10.437500000000 20.937500000000 4.363998413086 227 227 227
7.296875000000 19.125000000000 4.683998107910 179 179 179
10.734375000000 21.093750000000 4.458000183105 164 164 164
10.703125000000 21.093750000000 4.517997741699 153 153 153
10.328125000000 20.875000000000 4.614997863770 181 181 181
10.296875000000 20.859375000000 4.678001403809 168 168 168
10.109375000000 20.734375000000 4.763999938965 185 185 185
10.046875000000 20.718750000000 4.833999633789 169 169 169
10.046875000000 20.718750000000 4.894996643066 99 99 99
7.125000000000 19.031250000000 5.361000061035 87 87 87
7.171875000000 19.062500000000 5.438003540039 124 124 124
8.203125000000 19.640625000000 5.367996215820 170 170 170
8.234375000000 19.656250000000 5.439002990723 171 171 171
8.296875000000 19.718750000000 5.500999450684 165 165 165
8.234375000000 19.656250000000 5.593002319336 121 121 121
7.453125000000 19.218750000000 5.807998657227 66 66 66
9.328125000000 20.312500000000 5.539001464844 17 17 17
8.578125000000 19.875000000000 5.829002380371 164 164 164
7.796875000000 19.437500000000 6.060997009277 86 86 86
9.328125000000 20.312500000000 5.814002990723 26 26 26
7.578125000000 19.312500000000 6.266998291016 107 107 107
9.703125000000 20.531250000000 5.870002746582 36 36 36
11.078125000000 21.328125000000 5.617996215820 196 196 196
11.062500000000 21.312500000000 5.679000854492 183 183 183
10.859375000000 21.187500000000 5.787002563477 174 174 174
10.484375000000 20.984375000000 5.942001342773 171 171 171
10.265625000000 20.859375000000 6.060997009277 157 157 157
10.281250000000 20.875000000000 6.122001647949 184 184 184
10.859375000000 21.203125000000 6.019996643066 173 173 173
10.765625000000 21.156250000000 6.114997863770 165 165 165
10.671875000000 21.093750000000 6.197998046875 166 166 166
10.796875000000 21.171875000000 6.223999023438 170 170 170
10.546875000000 21.015625000000 6.367996215820 190 190 190
10.546875000000 21.015625000000 6.430999755859 168 168 168
10.531250000000 21.031250000000 6.495002746582 146 146 146
9.296875000000 20.312500000000 6.955001831055 145 145 145
9.296875000000 20.312500000000 7.039001464844 132 132 132
7.984375000000 19.562500000000 7.555000305176 105 105 105
8.031250000000 19.593750000000 7.620002746582 136 136 136
8.140625000000 19.656250000000 7.666000366211 113 113 113
8.062500000000 19.609375000000 7.776000976563 140 140 140
7.984375000000 19.562500000000 7.886001586914 46 46 46
8.578125000000 19.906250000000 7.986000061035 15 15 15
8.828125000000 20.062500000000 7.959999084473 32 32 32
8.859375000000 20.078125000000 8.035003662109 167 167 167
8.828125000000 20.062500000000 8.123001098633 146 146 146
8.609375000000 19.937500000000 8.297996520996 126 126 126
8.703125000000 19.968750000000 8.347999572754 82 82 82
8.765625000000 20.015625000000 8.397003173828 142 142 142
8.765625000000 20.031250000000 8.473999023438 137 137 137
8.828125000000 20.062500000000 8.537002563477 151 151 151
8.828125000000 20.062500000000 8.603996276855 140 140 140
8.890625000000 20.093750000000 8.668998718262 8 8 8
6.453125000000 18.625000000000 4.666999816895 71 71 71
6.703125000000 18.765625000000 4.819000244141 11 11 11
7.140625000000 19.015625000000 4.863998413086 17 17 17
7.140625000000 19.031250000000 5.193000793457 14 14 14
7.125000000000 19.031250000000 5.279998779297 37 37 37
7.343750000000 19.156250000000 5.905998229980 116 116 116
8.390625000000 20.062500000000 3.376998901367 19 19 19
8.359375000000 20.062500000000 3.524002075195 39 39 39
9.890625000000 20.937500000000 3.610000610352 121 121 121
8.234375000000 19.968750000000 3.671997070313 50 50 50
9.859375000000 20.921875000000 3.736999511719 161 161 161
10.593750000000 21.343750000000 3.791999816895 198 198 198
10.640625000000 21.375000000000 3.849998474121 185 185 185
10.593750000000 21.343750000000 3.908996582031 166 166 166
9.046875000000 20.453125000000 4.018997192383 90 90 90
9.296875000000 20.593750000000 4.144996643066 34 34 34
9.296875000000 20.593750000000 4.213996887207 42 42 42
9.359375000000 20.625000000000 4.277999877930 172 172 172
9.265625000000 20.562500000000 4.351997375488 165 165 165
10.703125000000 21.406250000000 4.313003540039 144 144 144
10.718750000000 21.421875000000 4.371002197266 172 172 172
10.703125000000 21.406250000000 4.430999755859 176 176 176
10.171875000000 21.125000000000 4.538002014160 176 176 176
10.421875000000 21.265625000000 4.574996948242 10 10 10
10.453125000000 21.281250000000 4.631996154785 184 184 184
10.421875000000 21.250000000000 4.697998046875 218 218 218
9.921875000000 20.968750000000 4.816001892090 208 208 208
8.921875000000 20.406250000000 5.005996704102 148 148 148
8.890625000000 20.375000000000 5.083000183105 165 165 165
9.703125000000 20.843750000000 5.039001464844 209 209 209
9.078125000000 20.500000000000 5.196998596191 140 140 140
9.859375000000 20.937500000000 5.145996093750 167 167 167
9.828125000000 20.921875000000 5.217002868652 69 69 69
7.484375000000 19.578125000000 5.674003601074 82 82 82
8.984375000000 20.437500000000 5.499000549316 187 187 187
7.265625000000 19.453125000000 5.875999450684 84 84 84
9.171875000000 20.546875000000 5.672996520996 145 145 145
10.140625000000 21.109375000000 5.549003601074 188 188 188
8.484375000000 20.156250000000 5.956001281738 20 20 20
9.203125000000 20.562500000000 5.877998352051 39 39 39
9.234375000000 20.593750000000 5.936996459961 203 203 203
9.140625000000 20.531250000000 6.032997131348 227 227 227
6.953125000000 19.281250000000 6.623001098633 69 69 69
8.671875000000 20.265625000000 6.291000366211 150 150 150
9.453125000000 20.718750000000 6.166999816895 172 172 172
9.453125000000 20.718750000000 6.234001159668 103 103 103
9.171875000000 20.562500000000 6.379997253418 124 124 124
7.703125000000 19.718750000000 6.855003356934 116 116 116
7.484375000000 19.593750000000 7.000000000000 70 70 70
10.421875000000 21.281250000000 6.241996765137 240 240 240
10.671875000000 21.437500000000 6.227996826172 182 182 182
10.671875000000 21.437500000000 6.287002563477 173 173 173
10.671875000000 21.437500000000 6.348999023438 202 202 202
10.578125000000 21.390625000000 6.440002441406 174 174 174
10.609375000000 21.406250000000 6.500999450684 161 161 161
10.671875000000 21.437500000000 6.535003662109 173 173 173
10.765625000000 21.500000000000 6.572998046875 195 195 195
9.187500000000 20.578125000000 7.178001403809 147 147 147
9.218750000000 20.593750000000 7.247001647949 32 32 32
8.046875000000 19.937500000000 7.736999511719 152 152 152
7.921875000000 19.859375000000 7.871002197266 74 74 74
7.750000000000 19.765625000000 8.016998291016 156 156 156
7.718750000000 19.750000000000 8.114997863770 106 106 106
8.390625000000 20.125000000000 8.098999023438 168 168 168
8.421875000000 20.156250000000 8.166000366211 130 130 130
8.906250000000 20.437500000000 8.290000915527 97 97 97
8.953125000000 20.468750000000 8.351997375488 146 146 146
8.984375000000 20.484375000000 8.416000366211 130 130 130
7.640625000000 19.640625000000 4.538002014160 14 14 14
8.859375000000 20.343750000000 4.731002807617 131 131 131
7.265625000000 19.453125000000 6.295997619629 118 118 118
8.015625000000 19.906250000000 7.668998718262 39 39 39
6.140625000000 18.781250000000 5.001998901367 18 18 18
9.015625000000 20.750000000000 3.488998413086 192 192 192
8.921875000000 20.703125000000 3.556999206543 221 221 221
9.921875000000 21.312500000000 3.633003234863 158 158 158
9.859375000000 21.250000000000 3.695999145508 226 226 226
10.640625000000 21.703125000000 3.753997802734 237 237 237
10.703125000000 21.750000000000 3.810997009277 175 175 175
10.640625000000 21.718750000000 3.870002746582 171 171 171
10.578125000000 21.687500000000 3.930999755859 188 188 188
9.796875000000 21.218750000000 4.016998291016 171 171 171
9.859375000000 21.250000000000 4.079002380371 174 174 174
9.546875000000 21.062500000000 4.157997131348 181 181 181
9.234375000000 20.906250000000 4.240997314453 88 88 88
9.203125000000 20.890625000000 4.377998352051 61 61 61
9.296875000000 20.937500000000 4.440002441406 56 56 56
9.734375000000 21.187500000000 4.471000671387 161 161 161
9.828125000000 21.250000000000 4.528999328613 166 166 166
9.578125000000 21.093750000000 4.616996765137 171 171 171
9.546875000000 21.078125000000 4.686996459961 174 174 174
10.171875000000 21.453125000000 4.683998107910 205 205 205
10.203125000000 21.468750000000 4.741996765137 175 175 175
9.953125000000 21.328125000000 4.835998535156 175 175 175
9.734375000000 21.187500000000 4.929000854492 188 188 188
9.453125000000 21.031250000000 5.030998229980 168 168 168
9.484375000000 21.062500000000 5.095001220703 180 180 180
9.453125000000 21.031250000000 5.167999267578 5 5 5
9.546875000000 21.093750000000 5.218002319336 6 6 6
9.671875000000 21.171875000000 5.265998840332 158 158 158
7.453125000000 19.890625000000 5.708000183105 98 98 98
9.671875000000 21.171875000000 5.398002624512 167 167 167
9.078125000000 20.843750000000 5.572998046875 251 251 251
8.109375000000 20.281250000000 5.829002380371 124 124 124
9.015625000000 20.796875000000 5.728996276855 196 196 196
8.921875000000 20.750000000000 5.818000793457 196 196 196
6.484375000000 19.343750000000 6.406997680664 81 81 81
9.109375000000 20.875000000000 5.917999267578 148 148 148
9.078125000000 20.843750000000 6.000000000000 151 151 151
6.765625000000 19.500000000000 6.611999511719 157 157 157
9.406250000000 21.031250000000 6.064002990723 254 254 254
9.390625000000 21.031250000000 6.138999938965 231 231 231
9.421875000000 21.062500000000 6.196998596191 55 55 55
10.500000000000 21.656250000000 6.051002502441 210 210 210
10.562500000000 21.703125000000 6.094001770020 180 180 180
10.578125000000 21.718750000000 6.153999328613 182 182 182
9.453125000000 21.062500000000 6.540000915527 233 233 233
10.296875000000 21.562500000000 6.358001708984 83 83 83
10.265625000000 21.531250000000 6.432998657227 202 202 202
10.796875000000 21.843750000000 6.333999633789 17 17 17
10.859375000000 21.875000000000 6.379997253418 155 155 155
10.781250000000 21.843750000000 6.463996887207 224 224 224
10.046875000000 21.406250000000 6.774002075195 162 162 162
10.203125000000 21.500000000000 6.789001464844 154 154 154
10.265625000000 21.531250000000 6.834999084473 179 179 179
10.296875000000 21.562500000000 6.881996154785 173 173 173
10.359375000000 21.593750000000 6.935997009277 129 129 129
6.765625000000 19.500000000000 5.742996215820 17 17 17
6.515625000000 19.375000000000 6.488998413086 35 35 35
6.687500000000 19.468750000000 6.541000366211 87 87 87
7.734375000000 20.093750000000 7.116996765137 77 77 77
8.984375000000 20.781250000000 6.900001525879 137 137 137
8.421875000000 20.468750000000 7.152999877930 75 75 75
8.578125000000 20.843750000000 3.364997863770 179 179 179
8.218750000000 20.656250000000 3.430000305176 153 153 153
8.218750000000 20.640625000000 3.503997802734 176 176 176
8.296875000000 20.687500000000 3.580001831055 176 176 176
8.296875000000 20.687500000000 3.653999328613 195 195 195
7.343750000000 20.140625000000 3.732002258301 137 137 137
8.609375000000 20.875000000000 3.799003601074 204 204 204
9.671875000000 21.484375000000 3.851997375488 191 191 191
9.640625000000 21.468750000000 3.917999267578 237 237 237
9.921875000000 21.640625000000 3.973999023438 8 8 8
9.921875000000 21.625000000000 4.038002014160 155 155 155
10.015625000000 21.703125000000 4.096000671387 145 145 145
9.078125000000 21.156250000000 4.208000183105 127 127 127
8.953125000000 21.078125000000 4.285003662109 124 124 124
8.578125000000 20.859375000000 4.378997802734 172 172 172
9.015625000000 21.125000000000 4.419998168945 156 156 156
9.078125000000 21.156250000000 4.484001159668 185 185 185
9.015625000000 21.125000000000 4.558998107910 192 192 192
8.625000000000 20.890625000000 4.665000915527 153 153 153
10.250000000000 21.828125000000 4.575996398926 186 186 186
10.234375000000 21.828125000000 4.638999938965 182 182 182
10.140625000000 21.781250000000 4.710998535156 199 199 199
9.578125000000 21.437500000000 4.841003417969 158 158 158
9.578125000000 21.437500000000 4.907997131348 156 156 156
8.421875000000 20.796875000000 5.125999450684 222 222 222
7.890625000000 20.500000000000 5.273002624512 155 155 155
7.968750000000 20.531250000000 5.341003417969 172 172 172
7.984375000000 20.531250000000 5.417999267578 152 152 152
7.796875000000 20.437500000000 5.524002075195 88 88 88
10.109375000000 21.765625000000 5.218002319336 210 210 210
10.140625000000 21.781250000000 5.274002075195 180 180 180
9.703125000000 21.531250000000 5.418998718262 181 181 181
8.890625000000 21.062500000000 5.635002136230 187 187 187
7.609375000000 20.328125000000 5.958999633789 65 65 65
8.890625000000 21.062500000000 5.777999877930 159 159 159
8.921875000000 21.093750000000 5.841003417969 177 177 177
8.921875000000 21.093750000000 5.920997619629 159 159 159
8.859375000000 21.062500000000 6.003997802734 167 167 167
8.203125000000 20.671875000000 6.231002807617 223 223 223
6.546875000000 19.718750000000 6.698997497559 110 110 110
8.296875000000 20.734375000000 6.360000610352 138 138 138
9.546875000000 21.437500000000 6.130996704102 17 17 17
9.406250000000 21.375000000000 6.228996276855 158 158 158
9.343750000000 21.343750000000 6.319000244141 118 118 118
9.015625000000 21.156250000000 6.474998474121 116 116 116
9.046875000000 21.171875000000 6.542999267578 168 168 168
9.468750000000 21.421875000000 6.492996215820 164 164 164
9.468750000000 21.406250000000 6.565002441406 169 169 169
9.671875000000 21.531250000000 6.573997497559 49 49 49
9.671875000000 21.531250000000 6.642997741699 175 175 175
9.046875000000 21.171875000000 6.911003112793 167 167 167
9.140625000000 21.218750000000 6.953002929688 140 140 140
8.203125000000 20.687500000000 7.337997436523 27 27 27
8.234375000000 20.718750000000 7.403999328613 97 97 97
8.765625000000 20.953125000000 3.300003051758 159 159 159
7.671875000000 20.343750000000 4.044998168945 41 41 41
6.515625000000 19.687500000000 5.291999816895 58 58 58
8.296875000000 20.734375000000 6.439002990723 53 53 53
9.421875000000 21.687500000000 3.758003234863 236 236 236
9.453125000000 21.703125000000 3.823997497559 210 210 210
9.515625000000 21.734375000000 3.888999938965 217 217 217
9.484375000000 21.718750000000 3.956001281738 182 182 182
9.812500000000 21.906250000000 4.010002136230 33 33 33
9.953125000000 22.000000000000 4.069000244141 153 153 153
9.937500000000 21.984375000000 4.133003234863 106 106 106
8.937500000000 21.406250000000 4.250999450684 28 28 28
8.828125000000 21.359375000000 4.540000915527 20 20 20
9.359375000000 21.656250000000 4.564002990723 82 82 82
9.390625000000 21.687500000000 4.628997802734 167 167 167
9.296875000000 21.609375000000 4.708000183105 126 126 126
9.062500000000 21.500000000000 4.799003601074 89 89 89
8.578125000000 21.218750000000 4.925003051758 47 47 47
5.703125000000 19.562500000000 5.440002441406 24 24 24
9.265625000000 21.625000000000 5.462997436523 121 121 121
9.640625000000 21.843750000000 5.462997436523 156 156 156
9.453125000000 21.718750000000 5.565002441406 73 73 73
9.046875000000 21.500000000000 5.714996337891 246 246 246
5.468750000000 19.437500000000 6.519996643066 21 21 21
8.765625000000 21.343750000000 5.915000915527 174 174 174
8.671875000000 21.281250000000 6.008003234863 136 136 136
9.421875000000 21.718750000000 6.124000549316 144 144 144
9.453125000000 21.750000000000 6.180999755859 169 169 169
9.328125000000 21.656250000000 6.288002014160 193 193 193
9.328125000000 21.656250000000 6.357002258301 141 141 141
8.828125000000 21.375000000000 6.561996459961 141 141 141
8.859375000000 21.406250000000 6.631996154785 152 152 152
6.765625000000 20.156250000000 4.116996765137 27 27 27
6.796875000000 20.156250000000 4.283996582031 21 21 21
6.390625000000 19.937500000000 5.002998352051 43 43 43
6.421875000000 19.968750000000 5.084999084473 79 79 79
5.796875000000 19.609375000000 6.082000732422 80 80 80
5.640625000000 19.531250000000 6.676002502441 84 84 84
9.546875000000 22.078125000000 3.725997924805 195 195 195
9.546875000000 22.093750000000 3.791999816895 162 162 162
9.453125000000 22.031250000000 3.859001159668 85 85 85
9.421875000000 22.000000000000 3.927001953125 0 0 0
8.890625000000 21.687500000000 4.222000122070 163 163 163
6.156250000000 20.125000000000 4.986999511719 63 63 63
9.171875000000 21.875000000000 5.379997253418 162 162 162
9.234375000000 21.937500000000 5.435997009277 167 167 167
9.234375000000 21.937500000000 5.506996154785 46 46 46
9.031250000000 21.812500000000 5.683998107910 176 176 176
9.000000000000 21.781250000000 5.764999389648 172 172 172
9.109375000000 21.875000000000 6.311996459961 17 17 17
9.234375000000 21.937500000000 6.348999023438 159 159 159
9.484375000000 22.171875000000 3.781997680664 183 183 183
9.421875000000 22.140625000000 3.848999023438 157 157 157
9.359375000000 22.109375000000 3.916999816895 125 125 125
9.437500000000 21.843750000000 3.748001098633 251 251 251
9.421875000000 21.843750000000 3.815002441406 183 183 183
9.328125000000 21.796875000000 3.883003234863 226 226 226
9.328125000000 21.796875000000 3.949996948242 146 146 146
9.859375000000 22.109375000000 4.061996459961 162 162 162
9.890625000000 22.125000000000 4.125999450684 150 150 150
6.796875000000 20.343750000000 4.352996826172 119 119 119
8.859375000000 21.531250000000 4.313003540039 13 13 13
9.328125000000 21.796875000000 4.622001647949 174 174 174
9.296875000000 21.781250000000 4.691001892090 153 153 153
9.140625000000 21.687500000000 4.776000976563 80 80 80
8.984375000000 21.609375000000 4.862998962402 100 100 100
5.515625000000 19.625000000000 5.724998474121 51 51 51
9.078125000000 21.671875000000 5.477996826172 8 8 8
9.203125000000 21.718750000000 5.527999877930 118 118 118
9.421875000000 21.859375000000 5.553001403809 212 212 212
8.921875000000 21.593750000000 5.789001464844 20 20 20
5.406250000000 19.562500000000 6.985000610352 128 128 128
9.265625000000 21.781250000000 6.138000488281 68 68 68
9.359375000000 21.828125000000 6.189002990723 156 156 156
9.328125000000 21.812500000000 6.264999389648 163 163 163
9.203125000000 21.750000000000 6.366996765137 152 152 152
8.796875000000 21.515625000000 6.549003601074 17 17 17
6.671875000000 20.281250000000 4.189002990723 19 19 19
6.703125000000 20.281250000000 4.272003173828 44 44 44
6.453125000000 20.156250000000 5.064002990723 74 74 74
6.359375000000 20.093750000000 5.160003662109 64 64 64
5.343750000000 19.531250000000 6.710998535156 68 68 68
5.312500000000 19.515625000000 6.813003540039 27 27 27
5.421875000000 19.593750000000 7.078002929688 97 97 97
5.437500000000 19.593750000000 7.168998718262 8 8 8
8.390625000000 20.968750000000 3.716003417969 170 170 170
8.421875000000 21.000000000000 3.789001464844 174 174 174
8.687500000000 21.156250000000 3.858001708984 195 195 195
9.515625000000 21.625000000000 3.911003112793 158 158 158
9.390625000000 21.546875000000 3.980003356934 43 43 43
9.796875000000 21.781250000000 4.031997680664 178 178 178
9.859375000000 21.812500000000 4.093002319336 164 164 164
9.015625000000 21.328125000000 4.198997497559 46 46 46
9.046875000000 21.359375000000 4.264999389648 171 171 171
8.484375000000 21.031250000000 4.370002746582 20 20 20
8.734375000000 21.187500000000 4.496002197266 98 98 98
8.859375000000 21.250000000000 4.557998657227 138 138 138
8.609375000000 21.125000000000 4.649002075195 141 141 141
8.640625000000 21.140625000000 4.717002868652 118 118 118
10.203125000000 22.031250000000 4.629997253418 174 174 174
10.109375000000 21.968750000000 4.699996948242 174 174 174
9.421875000000 21.578125000000 4.844001770020 186 186 186
9.421875000000 21.578125000000 4.911003112793 191 191 191
6.484375000000 19.906250000000 5.360000610352 120 120 120
8.390625000000 21.000000000000 5.259002685547 172 172 172
10.015625000000 21.921875000000 5.282997131348 85 85 85
10.000000000000 21.906250000000 5.347000122070 180 180 180
9.484375000000 21.625000000000 5.506996154785 211 211 211
9.281250000000 21.515625000000 5.611999511719 9 9 9
8.953125000000 21.312500000000 5.746002197266 158 158 158
8.796875000000 21.218750000000 5.850997924805 126 126 126
