21.312500000000 6.703125000000 3.359001159668 237 237 237
21.156250000000 6.609375000000 3.402000427246 166 166 166
21.140625000000 6.601562500000 3.456001281738 177 177 177
21.109375000000 6.585937500000 3.509002685547 179 179 179
22.812500000000 7.593750000000 3.727996826172 152 152 152
22.578125000000 7.460937500000 3.771003723145 151 151 151
23.390625000000 7.945312500000 3.926002502441 159 159 159
23.296875000000 7.890625000000 3.985000610352 134 134 134
23.109375000000 7.781250000000 4.031997680664 159 159 159
23.093750000000 7.773437500000 4.097999572754 168 168 168
22.937500000000 7.679687500000 4.146003723145 178 178 178
22.906250000000 7.664062500000 4.209999084473 158 158 158
22.171875000000 7.242187500000 4.167999267578 226 226 226
23.250000000000 7.875000000000 4.401000976563 141 141 141
22.531250000000 7.453125000000 4.350997924805 162 162 162
23.875000000000 8.257812500000 4.651000976563 110 110 110
21.703125000000 6.968750000000 4.335998535156 190 190 190
21.328125000000 6.742187500000 4.324996948242 185 185 185
21.218750000000 6.679687500000 4.361000061035 174 174 174
21.250000000000 6.703125000000 4.425003051758 181 181 181
21.328125000000 6.757812500000 4.500000000000 222 222 222
22.031250000000 7.179687500000 4.708999633789 172 172 172
21.984375000000 7.148437500000 4.760002136230 153 153 153
22.703125000000 7.578125000000 4.986999511719 169 169 169
21.734375000000 7.007812500000 4.829002380371 139 139 139
20.906250000000 6.515625000000 4.688003540039 167 167 167
20.906250000000 6.515625000000 4.745002746582 167 167 167
20.906250000000 6.515625000000 4.801002502441 172 172 172
20.890625000000 6.507812500000 4.850997924805 141 141 141
23.078125000000 7.812500000000 5.499000549316 85 85 85
23.031250000000 7.789062500000 5.557998657227 143 143 143
21.937500000000 7.140625000000 5.320999145508 178 178 178
20.984375000000 6.570312500000 5.103996276855 245 245 245
20.937500000000 6.546875000000 5.149002075195 210 210 210
21.203125000000 6.703125000000 5.286003112793 174 174 174
21.421875000000 6.843750000000 5.475997924805 178 178 178
21.234375000000 6.726562500000 5.474998474121 162 162 162
20.890625000000 6.531250000000 5.424003601074 164 164 164
20.906250000000 6.539062500000 5.484001159668 174 174 174
21.046875000000 6.625000000000 5.591003417969 54 54 54
21.656250000000 7.000000000000 5.872001647949 159 159 159
20.578125000000 6.351562500000 5.539001464844 168 168 168
20.562500000000 6.343750000000 5.591003417969 172 172 172
20.562500000000 6.343750000000 5.644996643066 185 185 185
20.640625000000 6.398437500000 5.736999511719 1 1 1
22.000000000000 7.218750000000 6.333999633789 171 171 171
22.000000000000 7.218750000000 6.401000976563 162 162 162
21.937500000000 7.179687500000 6.441001892090 158 158 158
21.828125000000 7.125000000000 6.468002319336 181 181 181
21.828125000000 7.117187500000 6.529998779297 188 188 188
21.828125000000 7.125000000000 6.603996276855 182 182 182
21.875000000000 7.156250000000 6.690002441406 178 178 178
21.796875000000 7.109375000000 6.726997375488 175 175 175
21.828125000000 7.132812500000 6.810997009277 118 118 118
22.343750000000 7.539062500000 1.888000488281 116 116 116
21.406250000000 7.000000000000 2.035003662109 184 184 184
21.375000000000 6.984375000000 2.094001770020 165 165 165
21.406250000000 7.000000000000 2.148002624512 162 162 162
21.515625000000 7.070312500000 2.195999145508 166 166 166
21.359375000000 6.976562500000 2.263999938965 167 167 167
21.359375000000 6.984375000000 2.319000244141 172 172 172
21.468750000000 7.046875000000 2.371002197266 193 193 193
22.296875000000 7.531250000000 2.392997741699 129 129 129
22.265625000000 7.515625000000 2.456001281738 78 78 78
22.265625000000 7.523437500000 2.517997741699 86 86 86
22.328125000000 7.554687500000 2.579002380371 102 102 102
22.359375000000 7.578125000000 2.640998840332 145 145 145
22.390625000000 7.601562500000 2.704002380371 152 152 152
22.359375000000 7.578125000000 2.766998291016 147 147 147
22.296875000000 7.546875000000 2.830001831055 136 136 136
22.328125000000 7.570312500000 2.891998291016 154 154 154
22.109375000000 7.445312500000 2.950996398926 165 165 165
22.125000000000 7.460937500000 3.013000488281 162 162 162
22.312500000000 7.570312500000 3.080001831055 216 216 216
22.375000000000 7.609375000000 3.144996643066 180 180 180
22.265625000000 7.539062500000 3.203002929688 182 182 182
22.296875000000 7.570312500000 3.267997741699 189 189 189
21.703125000000 7.218750000000 3.294998168945 232 232 232
20.781250000000 6.679687500000 3.292999267578 222 222 222
20.750000000000 6.656250000000 3.343002319336 187 187 187
20.750000000000 6.656250000000 3.394996643066 173 173 173
20.781250000000 6.679687500000 3.449996948242 187 187 187
22.296875000000 7.578125000000 3.643997192383 134 134 134
21.140625000000 6.898437500000 3.592002868652 222 222 222
21.062500000000 6.859375000000 3.639999389648 248 248 248
20.984375000000 6.804687500000 3.683998107910 193 193 193
20.703125000000 6.648437500000 3.706001281738 172 172 172
20.593750000000 6.585937500000 3.744003295898 178 178 178
20.546875000000 6.562500000000 3.790000915527 177 177 177
20.625000000000 6.601562500000 3.850997924805 174 174 174
20.484375000000 6.523437500000 3.883003234863 166 166 166
20.281250000000 6.406250000000 3.902999877930 173 173 173
20.281250000000 6.406250000000 3.954002380371 174 174 174
20.296875000000 6.421875000000 4.006996154785 178 178 178
20.296875000000 6.421875000000 4.056999206543 185 185 185
21.265625000000 7.000000000000 4.282997131348 179 179 179
21.156250000000 6.937500000000 4.320999145508 180 180 180
21.312500000000 7.031250000000 4.406997680664 201 201 201
22.046875000000 7.468750000000 4.613998413086 208 208 208
21.625000000000 7.218750000000 4.586997985840 183 183 183
21.500000000000 7.148437500000 4.621002197266 179 179 179
21.531250000000 7.164062500000 4.685997009277 153 153 153
21.562500000000 7.187500000000 4.754997253418 168 168 168
22.390625000000 7.687500000000 5.013000488281 64 64 64
22.046875000000 7.484375000000 5.056999206543 8 8 8
21.234375000000 7.007812500000 4.913002014160 115 115 115
21.156250000000 6.960937500000 4.948997497559 155 155 155
21.078125000000 6.914062500000 4.986999511719 169 169 169
21.062500000000 6.906250000000 5.039001464844 159 159 159
21.093750000000 6.929687500000 5.106002807617 27 27 27
21.140625000000 6.953125000000 5.176002502441 151 151 151
21.062500000000 6.914062500000 5.211997985840 158 158 158
20.625000000000 6.656250000000 5.137001037598 216 216 216
20.562500000000 6.625000000000 5.174003601074 175 175 175
20.593750000000 6.640625000000 5.236000061035 171 171 171
20.531250000000 6.601562500000 5.268997192383 177 177 177
20.515625000000 6.593750000000 5.319999694824 173 173 173
20.562500000000 6.625000000000 5.392997741699 180 180 180
20.562500000000 6.625000000000 5.446998596191 176 176 176
20.500000000000 6.593750000000 5.485000610352 188 188 188
20.687500000000 6.710937500000 5.608001708984 185 185 185
22.359375000000 7.710937500000 6.295997619629 170 170 170
21.359375000000 7.109375000000 5.978996276855 12 12 12
21.296875000000 7.078125000000 6.017997741699 178 178 178
21.281250000000 7.078125000000 6.079002380371 178 178 178
21.281250000000 7.078125000000 6.140998840332 171 171 171
21.250000000000 7.062500000000 6.190002441406 170 170 170
21.328125000000 7.109375000000 6.286003112793 175 175 175
21.437500000000 7.171875000000 6.393997192383 176 176 176
21.328125000000 7.117187500000 6.415000915527 188 188 188
21.328125000000 7.117187500000 6.477996826172 176 176 176
21.296875000000 7.093750000000 6.528999328613 174 174 174
21.328125000000 7.117187500000 6.609001159668 162 162 162
21.593750000000 7.281250000000 6.800003051758 167 167 167
22.531250000000 7.812500000000 6.430000305176 153 153 153
21.218750000000 7.179687500000 2.025001525879 114 114 114
21.265625000000 7.218750000000 2.075996398926 157 157 157
21.406250000000 7.296875000000 2.121002197266 177 177 177
21.359375000000 7.265625000000 2.181999206543 168 168 168
21.281250000000 7.226562500000 2.242996215820 174 174 174
21.390625000000 7.296875000000 2.291000366211 183 183 183
21.984375000000 7.648437500000 2.317001342773 62 62 62
21.859375000000 7.585937500000 2.560997009277 65 65 65
21.859375000000 7.585937500000 2.621002197266 99 99 99
22.031250000000 7.687500000000 2.679000854492 151 151 151
22.031250000000 7.687500000000 2.738998413086 135 135 135
22.187500000000 7.781250000000 2.924003601074 152 152 152
22.484375000000 7.960937500000 2.991996765137 142 142 142
22.531250000000 7.992187500000 3.056999206543 168 168 168
22.515625000000 7.984375000000 3.120002746582 149 149 149
22.578125000000 8.023437500000 3.186996459961 162 162 162
22.656250000000 8.078125000000 3.255996704102 155 155 155
22.734375000000 8.125000000000 3.324996948242 166 166 166
23.062500000000 8.320312500000 3.411003112793 134 134 134
23.921875000000 8.828125000000 3.538002014160 87 87 87
24.109375000000 8.945312500000 3.626998901367 18 18 18
21.609375000000 7.460937500000 3.495002746582 186 186 186
21.671875000000 7.507812500000 3.558998107910 151 151 151
20.421875000000 6.765625000000 3.498001098633 167 167 167
20.359375000000 6.734375000000 3.541999816895 174 174 174
20.343750000000 6.734375000000 3.589996337891 176 176 176
20.359375000000 6.734375000000 3.640998840332 173 173 173
20.343750000000 6.726562500000 3.689002990723 180 180 180
20.343750000000 6.734375000000 3.739997863770 183 183 183
20.406250000000 6.773437500000 3.799003601074 184 184 184
20.265625000000 6.687500000000 3.829002380371 183 183 183
20.609375000000 6.898437500000 3.930000305176 213 213 213
20.593750000000 6.890625000000 3.980003356934 197 197 197
20.312500000000 6.726562500000 3.986000061035 169 169 169
20.343750000000 6.742187500000 4.041999816895 166 166 166
20.234375000000 6.679687500000 4.072998046875 145 145 145
20.421875000000 6.796875000000 4.157997131348 44 44 44
20.218750000000 6.679687500000 4.170997619629 175 175 175
20.250000000000 6.695312500000 4.225997924805 227 227 227
20.203125000000 6.671875000000 4.267997741699 219 219 219
20.140625000000 6.632812500000 4.303001403809 188 188 188
20.234375000000 6.695312500000 4.375999450684 246 246 246
20.781250000000 7.015625000000 4.550003051758 152 152 152
20.796875000000 7.031250000000 4.607002258301 73 73 73
20.750000000000 7.007812500000 4.652000427246 131 131 131
21.093750000000 7.210937500000 4.791000366211 150 150 150
21.140625000000 7.242187500000 4.861999511719 160 160 160
21.031250000000 7.179687500000 4.890998840332 172 172 172
20.578125000000 6.906250000000 4.822998046875 187 187 187
20.796875000000 7.039062500000 4.938003540039 8 8 8
20.796875000000 7.046875000000 4.997001647949 174 174 174
20.828125000000 7.062500000000 5.059997558594 165 165 165
20.750000000000 7.015625000000 5.092002868652 208 208 208
20.859375000000 7.085937500000 5.182998657227 224 224 224
20.578125000000 6.921875000000 5.150001525879 196 196 196
20.562500000000 6.914062500000 5.202003479004 180 180 180
20.578125000000 6.929687500000 5.263999938965 171 171 171
20.562500000000 6.914062500000 5.310997009277 182 182 182
20.375000000000 6.804687500000 5.303001403809 181 181 181
20.281250000000 6.750000000000 5.323997497559 180 180 180
20.218750000000 6.718750000000 5.357002258301 186 186 186
20.734375000000 7.031250000000 5.598999023438 174 174 174
20.781250000000 7.062500000000 5.678001403809 172 172 172
21.109375000000 7.265625000000 5.861000061035 174 174 174
21.218750000000 7.328125000000 5.959999084473 185 185 185
21.125000000000 7.281250000000 5.987998962402 166 166 166
20.875000000000 7.132812500000 5.948997497559 168 168 168
20.890625000000 7.132812500000 6.012001037598 173 173 173
20.859375000000 7.125000000000 6.063003540039 176 176 176
20.953125000000 7.179687500000 6.158996582031 199 199 199
21.093750000000 7.273437500000 6.287002563477 168 168 168
20.968750000000 7.195312500000 6.294998168945 168 168 168
20.796875000000 7.093750000000 6.278999328613 175 175 175
20.875000000000 7.140625000000 6.374000549316 175 175 175
20.906250000000 7.164062500000 6.452003479004 55 55 55
21.484375000000 7.515625000000 6.853996276855 18 18 18
21.515625000000 7.539062500000 6.939002990723 145 145 145
21.468750000000 7.515625000000 6.981002807617 168 168 168
21.453125000000 7.500000000000 7.041000366211 175 175 175
21.437500000000 7.492187500000 7.100997924805 148 148 148
22.828125000000 8.218750000000 4.536003112793 53 53 53
21.734375000000 7.796875000000 2.068000793457 74 74 74
21.609375000000 7.726562500000 2.137001037598 169 169 169
21.390625000000 7.593750000000 2.210998535156 171 171 171
21.437500000000 7.625000000000 2.263999938965 166 166 166
21.640625000000 7.750000000000 2.308998107910 140 140 140
21.468750000000 7.640625000000 2.375999450684 165 165 165
21.890625000000 7.898437500000 2.415000915527 52 52 52
21.703125000000 7.789062500000 2.540000915527 32 32 32
21.703125000000 7.796875000000 2.597999572754 151 151 151
21.750000000000 7.828125000000 2.655998229980 174 174 174
21.765625000000 7.835937500000 2.714996337891 158 158 158
21.828125000000 7.875000000000 2.774002075195 77 77 77
21.843750000000 7.890625000000 2.952003479004 60 60 60
21.812500000000 7.867187500000 3.011001586914 171 171 171
21.812500000000 7.875000000000 3.069999694824 171 171 171
21.890625000000 7.929687500000 3.133003234863 152 152 152
23.109375000000 8.648437500000 3.248001098633 86 86 86
22.828125000000 8.484375000000 3.302001953125 175 175 175
22.750000000000 8.437500000000 3.362998962402 176 176 176
22.656250000000 8.382812500000 3.422996520996 163 163 163
22.703125000000 8.414062500000 3.491996765137 117 117 117
22.875000000000 8.515625000000 3.570999145508 167 167 167
20.953125000000 7.382812500000 3.472000122070 124 124 124
20.984375000000 7.406250000000 3.528999328613 179 179 179
21.156250000000 7.515625000000 3.600997924805 155 155 155
21.218750000000 7.546875000000 3.662002563477 185 185 185
20.453125000000 7.093750000000 3.630996704102 189 189 189
20.453125000000 7.093750000000 3.681999206543 188 188 188
20.421875000000 7.078125000000 3.727996826172 189 189 189
20.468750000000 7.109375000000 3.785003662109 182 182 182
20.593750000000 7.179687500000 3.853996276855 221 221 221
20.406250000000 7.078125000000 3.879997253418 208 208 208
20.437500000000 7.101562500000 3.934997558594 226 226 226
20.546875000000 7.164062500000 4.002998352051 45 45 45
20.546875000000 7.164062500000 4.055999755859 45 45 45
20.515625000000 7.148437500000 4.101997375488 178 178 178
20.843750000000 7.343750000000 4.213996887207 241 241 241
20.984375000000 7.429687500000 4.293998718262 19 19 19
21.015625000000 7.460937500000 4.358001708984 230 230 230
20.156250000000 6.945312500000 4.237998962402 165 165 165
20.078125000000 6.898437500000 4.269996643066 181 181 181
20.609375000000 7.218750000000 4.436996459961 175 175 175
20.531250000000 7.171875000000 4.472000122070 157 157 157
20.640625000000 7.234375000000 4.549003601074 203 203 203
20.718750000000 7.289062500000 4.624000549316 126 126 126
20.328125000000 7.062500000000 4.581001281738 187 187 187
20.265625000000 7.023437500000 4.615997314453 189 189 189
20.234375000000 7.007812500000 4.661003112793 170 170 170
20.250000000000 7.023437500000 4.718002319336 166 166 166
20.250000000000 7.023437500000 4.768997192383 166 166 166
20.359375000000 7.085937500000 4.850997924805 178 178 178
20.437500000000 7.140625000000 4.927001953125 184 184 184
20.328125000000 7.070312500000 4.946998596191 194 194 194
20.656250000000 7.265625000000 5.097999572754 142 142 142
20.625000000000 7.257812500000 5.146003723145 176 176 176
20.609375000000 7.242187500000 5.194000244141 180 180 180
20.484375000000 7.171875000000 5.208999633789 179 179 179
20.312500000000 7.078125000000 5.209999084473 172 172 172
20.343750000000 7.093750000000 5.274002075195 177 177 177
20.390625000000 7.125000000000 5.343002319336 195 195 195
20.421875000000 7.148437500000 5.411003112793 236 236 236
20.375000000000 7.117187500000 5.447998046875 228 228 228
20.375000000000 7.117187500000 5.500000000000 222 222 222
21.421875000000 7.757812500000 5.954002380371 197 197 197
20.843750000000 7.406250000000 5.793998718262 172 172 172
20.718750000000 7.328125000000 5.802001953125 172 172 172
20.718750000000 7.335937500000 5.860000610352 187 187 187
20.890625000000 7.437500000000 5.987998962402 226 226 226
20.640625000000 7.289062500000 5.946998596191 210 210 210
20.609375000000 7.281250000000 5.994003295898 206 206 206
20.640625000000 7.296875000000 6.064002990723 170 170 170
20.578125000000 7.257812500000 6.095001220703 174 174 174
20.578125000000 7.265625000000 6.155998229980 171 171 171
20.625000000000 7.289062500000 6.234001159668 180 180 180
20.640625000000 7.312500000000 6.305000305176 179 179 179
20.687500000000 7.335937500000 6.381996154785 183 183 183
20.640625000000 7.312500000000 6.421997070313 179 179 179
20.578125000000 7.273437500000 6.455001831055 146 146 146
23.187500000000 8.703125000000 3.665000915527 89 89 89
22.531250000000 8.359375000000 4.589996337891 147 147 147
21.203125000000 7.789062500000 2.147003173828 125 125 125
21.140625000000 7.750000000000 2.208000183105 174 174 174
21.062500000000 7.710937500000 2.267997741699 168 168 168
21.093750000000 7.726562500000 2.319999694824 185 185 185
21.265625000000 7.835937500000 2.364997863770 164 164 164
21.343750000000 7.875000000000 2.417999267578 147 147 147
21.390625000000 7.914062500000 2.472000122070 178 178 178
21.406250000000 7.921875000000 2.527999877930 184 184 184
21.421875000000 7.929687500000 2.583999633789 143 143 143
21.437500000000 7.953125000000 2.639999389648 166 166 166
21.546875000000 8.015625000000 2.695999145508 128 128 128
21.562500000000 8.023437500000 2.752998352051 17 17 17
21.703125000000 8.117187500000 3.103996276855 121 121 121
23.328125000000 9.085937500000 3.302001953125 84 84 84
21.671875000000 8.101562500000 3.277999877930 126 126 126
23.218750000000 9.031250000000 3.434997558594 98 98 98
22.984375000000 8.890625000000 3.487998962402 161 161 161
22.718750000000 8.734375000000 3.535003662109 172 172 172
22.718750000000 8.734375000000 3.599998474121 154 154 154
22.781250000000 8.773437500000 3.671997070313 147 147 147
22.453125000000 8.585937500000 3.708000183105 137 137 137
20.828125000000 7.617187500000 3.601997375488 118 118 118
20.796875000000 7.609375000000 3.652999877930 181 181 181
20.812500000000 7.617187500000 3.707000732422 168 168 168
21.046875000000 7.757812500000 3.790000915527 178 178 178
20.671875000000 7.539062500000 3.795997619629 180 180 180
20.609375000000 7.500000000000 3.838996887207 177 177 177
20.609375000000 7.507812500000 3.891998291016 174 174 174
22.218750000000 8.460937500000 4.188003540039 167 167 167
22.156250000000 8.429687500000 4.242996215820 143 143 143
22.703125000000 8.765625000000 4.397003173828 77 77 77
22.390625000000 8.578125000000 4.408996582031 149 149 149
20.781250000000 7.617187500000 4.183998107910 2 2 2
20.671875000000 7.554687500000 4.218002319336 186 186 186
20.656250000000 7.539062500000 4.266998291016 172 172 172
20.578125000000 7.500000000000 4.305000305176 184 184 184
20.546875000000 7.484375000000 4.353996276855 174 174 174
20.625000000000 7.539062500000 4.422996520996 166 166 166
20.515625000000 7.468750000000 4.449996948242 178 178 178
20.468750000000 7.445312500000 4.492996215820 167 167 167
20.453125000000 7.437500000000 4.542999267578 206 206 206
20.343750000000 7.367187500000 4.567001342773 181 181 181
20.296875000000 7.343750000000 4.608001708984 178 178 178
20.328125000000 7.359375000000 4.666000366211 160 160 160
20.250000000000 7.320312500000 4.699996948242 198 198 198
19.921875000000 7.132812500000 4.663002014160 174 174 174
19.921875000000 7.125000000000 4.709999084473 176 176 176
19.937500000000 7.140625000000 4.763999938965 177 177 177
20.000000000000 7.179687500000 4.833999633789 175 175 175
20.109375000000 7.242187500000 4.915000915527 197 197 197
20.953125000000 7.757812500000 5.226997375488 203 203 203
20.062500000000 7.226562500000 5.005996704102 189 189 189
21.640625000000 8.179687500000 5.566001892090 189 189 189
22.531250000000 8.710937500000 5.922996520996 144 144 144
20.156250000000 7.289062500000 5.194000244141 96 96 96
20.156250000000 7.289062500000 5.246002197266 195 195 195
20.109375000000 7.257812500000 5.280998229980 182 182 182
21.296875000000 7.984375000000 5.762001037598 158 158 158
21.187500000000 7.921875000000 5.785003662109 170 170 170
21.406250000000 8.054687500000 5.928001403809 129 129 129
21.281250000000 7.976562500000 5.942001342773 155 155 155
21.234375000000 7.953125000000 5.986000061035 168 168 168
21.203125000000 7.937500000000 6.038002014160 182 182 182
21.171875000000 7.921875000000 6.087997436523 204 204 204
21.093750000000 7.867187500000 6.114997863770 7 7 7
21.937500000000 8.390625000000 6.533996582031 159 159 159
20.671875000000 7.625000000000 6.061996459961 175 175 175
20.734375000000 7.664062500000 6.146003723145 162 162 162
20.515625000000 7.531250000000 6.110000610352 165 165 165
20.515625000000 7.531250000000 6.164001464844 170 170 170
20.500000000000 7.531250000000 6.222000122070 179 179 179
20.531250000000 7.554687500000 6.295997619629 199 199 199
20.843750000000 7.742187500000 6.503997802734 152 152 152
20.875000000000 7.757812500000 6.578002929688 181 181 181
21.125000000000 7.914062500000 6.762001037598 162 162 162
22.250000000000 8.468750000000 3.750999450684 128 128 128
22.437500000000 8.664062500000 5.963996887207 128 128 128
22.203125000000 8.539062500000 6.572998046875 171 171 171
21.265625000000 8.125000000000 2.063003540039 123 123 123
21.265625000000 8.125000000000 2.120002746582 159 159 159
21.265625000000 8.125000000000 2.175003051758 157 157 157
21.265625000000 8.132812500000 2.231002807617 184 184 184
21.296875000000 8.156250000000 2.285003662109 161 161 161
21.375000000000 8.203125000000 2.335998535156 171 171 171
21.609375000000 8.343750000000 2.380996704102 66 66 66
21.156250000000 8.093750000000 2.898002624512 186 186 186
21.156250000000 8.093750000000 2.953002929688 159 159 159
21.187500000000 8.117187500000 3.008003234863 160 160 160
21.156250000000 8.101562500000 3.063003540039 178 178 178
21.156250000000 8.101562500000 3.116996765137 186 186 186
21.187500000000 8.125000000000 3.174003601074 179 179 179
21.218750000000 8.148437500000 3.231002807617 182 182 182
21.265625000000 8.164062500000 3.289001464844 214 214 214
21.843750000000 8.523437500000 3.384002685547 180 180 180
22.953125000000 9.179687500000 3.525001525879 155 155 155
22.609375000000 8.976562500000 3.565002441406 151 151 151
22.500000000000 8.914062500000 3.621002197266 145 145 145
22.062500000000 8.656250000000 3.643997192383 198 198 198
21.250000000000 8.179687500000 3.625000000000 229 229 229
21.265625000000 8.195312500000 3.682998657227 170 170 170
20.546875000000 7.765625000000 3.656997680664 211 211 211
20.406250000000 7.679687500000 3.690002441406 195 195 195
20.515625000000 7.742187500000 3.753997802734 232 232 232
20.625000000000 7.812500000000 3.820999145508 175 175 175
20.531250000000 7.757812500000 3.860000610352 174 174 174
20.437500000000 7.710937500000 3.899002075195 186 186 186
20.375000000000 7.664062500000 3.939002990723 187 187 187
20.375000000000 7.671875000000 3.989997863770 184 184 184
20.515625000000 7.757812500000 4.064002990723 183 183 183
21.093750000000 8.109375000000 4.220001220703 186 186 186
21.093750000000 8.109375000000 4.276000976563 177 177 177
21.078125000000 8.093750000000 4.327003479004 181 181 181
21.046875000000 8.085937500000 4.379997253418 59 59 59
20.453125000000 7.734375000000 4.365997314453 156 156 156
20.437500000000 7.726562500000 4.413002014160 173 173 173
20.421875000000 7.718750000000 4.462997436523 184 184 184
20.390625000000 7.703125000000 4.509002685547 178 178 178
20.468750000000 7.750000000000 4.580001831055 190 190 190
21.015625000000 8.078125000000 4.766998291016 169 169 169
21.031250000000 8.093750000000 4.827003479004 154 154 154
21.093750000000 8.125000000000 4.899002075195 173 173 173
22.125000000000 8.750000000000 5.235000610352 134 134 134
21.296875000000 8.257812500000 5.070999145508 184 184 184
21.265625000000 8.242187500000 5.123001098633 179 179 179
21.218750000000 8.210937500000 5.167999267578 194 194 194
19.968750000000 7.468750000000 4.857002258301 203 203 203
19.875000000000 7.406250000000 4.877998352051 181 181 181
19.890625000000 7.421875000000 4.933998107910 176 176 176
19.859375000000 7.406250000000 4.974998474121 185 185 185
19.875000000000 7.414062500000 5.029998779297 173 173 173
19.828125000000 7.390625000000 5.063003540039 199 199 199
19.812500000000 7.382812500000 5.110000610352 15 15 15
21.312500000000 8.289062500000 5.682998657227 158 158 158
21.578125000000 8.453125000000 5.838996887207 170 170 170
21.765625000000 8.570312500000 5.971000671387 163 163 163
21.421875000000 8.359375000000 5.907997131348 174 174 174
21.453125000000 8.382812500000 5.984001159668 150 150 150
21.468750000000 8.390625000000 6.052001953125 177 177 177
21.546875000000 8.445312500000 6.149002075195 185 185 185
21.593750000000 8.476562500000 6.234001159668 172 172 172
21.500000000000 8.414062500000 6.255996704102 190 190 190
21.578125000000 8.468750000000 6.357002258301 204 204 204
20.656250000000 7.914062500000 6.030998229980 120 120 120
21.343750000000 8.335937500000 6.388999938965 166 166 166
20.828125000000 8.023437500000 6.224998474121 197 197 197
20.671875000000 7.929687500000 6.218002319336 184 184 184
20.671875000000 7.929687500000 6.276000976563 168 168 168
21.375000000000 8.359375000000 6.663002014160 145 145 145
21.015625000000 8.148437500000 6.561996459961 156 156 156
20.937500000000 8.101562500000 6.583000183105 171 171 171
20.796875000000 8.023437500000 6.583000183105 170 170 170
20.750000000000 7.992187500000 6.617996215820 174 174 174
20.718750000000 7.976562500000 6.667999267578 168 168 168
20.906250000000 8.093750000000 6.829002380371 78 78 78
21.296875000000 8.281250000000 5.614997863770 181 181 181
21.656250000000 8.523437500000 6.456001281738 149 149 149
21.390625000000 8.507812500000 2.083000183105 120 120 120
21.328125000000 8.476562500000 2.200996398926 113 113 113
21.359375000000 8.484375000000 2.254997253418 34 34 34
21.062500000000 8.335937500000 2.981002807617 136 136 136
21.031250000000 8.328125000000 3.033996582031 169 169 169
21.140625000000 8.398437500000 3.093002319336 174 174 174
21.046875000000 8.335937500000 3.142997741699 181 181 181
20.984375000000 8.296875000000 3.194000244141 182 182 182
21.031250000000 8.335937500000 3.251998901367 175 175 175
21.109375000000 8.390625000000 3.310997009277 19 19 19
23.078125000000 9.554687500000 3.503997802734 133 133 133
23.109375000000 9.578125000000 3.574996948242 159 159 159
23.125000000000 9.585937500000 3.643997192383 151 151 151
21.906250000000 8.867187500000 3.602996826172 203 203 203
21.937500000000 8.882812500000 3.666000366211 175 175 175
21.828125000000 8.820312500000 3.716003417969 172 172 172
21.687500000000 8.742187500000 3.761001586914 173 173 173
20.968750000000 8.312500000000 3.735000610352 181 181 181
21.000000000000 8.343750000000 3.793998718262 177 177 177
21.046875000000 8.367187500000 3.855003356934 183 183 183
20.296875000000 7.914062500000 3.805000305176 183 183 183
20.312500000000 7.937500000000 3.859001159668 181 181 181
20.312500000000 7.929687500000 3.907997131348 184 184 184
20.343750000000 7.953125000000 3.962997436523 180 180 180
20.250000000000 7.898437500000 3.997001647949 183 183 183
20.281250000000 7.921875000000 4.055000305176 169 169 169
20.437500000000 8.015625000000 4.131996154785 230 230 230
21.687500000000 8.765625000000 4.417999267578 165 165 165
21.734375000000 8.804687500000 4.488998413086 179 179 179
21.968750000000 8.937500000000 4.594001770020 153 153 153
21.171875000000 8.460937500000 4.606002807617 168 168 168
21.078125000000 8.414062500000 4.644996643066 150 150 150
20.703125000000 8.187500000000 4.610000610352 183 183 183
20.671875000000 8.171875000000 4.658996582031 182 182 182
20.703125000000 8.195312500000 4.721000671387 169 169 169
20.734375000000 8.218750000000 4.782997131348 184 184 184
20.734375000000 8.218750000000 4.836997985840 177 177 177
21.812500000000 8.867187500000 5.184997558594 145 145 145
21.171875000000 8.484375000000 5.069999694824 187 187 187
21.078125000000 8.429687500000 5.102996826172 5 5 5
20.796875000000 8.265625000000 5.080001831055 204 204 204
20.781250000000 8.257812500000 5.130996704102 174 174 174
20.593750000000 8.148437500000 5.129997253418 171 171 171
20.578125000000 8.140625000000 5.180000305176 180 180 180
20.593750000000 8.148437500000 5.237998962402 187 187 187
20.625000000000 8.171875000000 5.305000305176 180 180 180
20.750000000000 8.250000000000 5.403999328613 193 193 193
20.953125000000 8.375000000000 5.530998229980 163 163 163
20.937500000000 8.359375000000 5.583000183105 178 178 178
21.125000000000 8.476562500000 5.710998535156 176 176 176
21.187500000000 8.523437500000 5.794998168945 168 168 168
21.265625000000 8.570312500000 5.887001037598 167 167 167
21.703125000000 8.835937500000 6.114997863770 149 149 149
21.390625000000 8.656250000000 6.061996459961 151 151 151
21.078125000000 8.468750000000 6.063003540039 148 148 148
21.031250000000 8.445312500000 6.106002807617 170 170 170
21.078125000000 8.468750000000 6.183998107910 171 171 171
21.218750000000 8.554687500000 6.305000305176 180 180 180
21.203125000000 8.554687500000 6.364997863770 167 167 167
21.187500000000 8.539062500000 6.416999816895 179 179 179
21.421875000000 8.687500000000 6.587997436523 188 188 188
21.312500000000 8.625000000000 6.608001708984 206 206 206
21.093750000000 8.500000000000 6.571998596191 155 155 155
21.109375000000 8.507812500000 6.643997192383 165 165 165
21.046875000000 8.468750000000 6.675003051758 73 73 73
21.031250000000 8.468750000000 6.735000610352 141 141 141
21.031250000000 8.468750000000 6.796997070313 175 175 175
21.000000000000 8.453125000000 6.847000122070 14 14 14
23.015625000000 9.515625000000 3.431999206543 140 140 140
22.015625000000 8.992187500000 5.372001647949 118 118 118
21.531250000000 8.921875000000 2.904998779297 58 58 58
21.421875000000 8.859375000000 2.960998535156 18 18 18
21.093750000000 8.664062500000 3.009002685547 6 6 6
20.953125000000 8.578125000000 3.058998107910 177 177 177
20.859375000000 8.523437500000 3.109001159668 177 177 177
20.734375000000 8.445312500000 3.155998229980 176 176 176
20.765625000000 8.468750000000 3.209999084473 137 137 137
20.734375000000 8.460937500000 3.261001586914 148 148 148
20.781250000000 8.484375000000 3.316001892090 124 124 124
20.765625000000 8.476562500000 3.367996215820 173 173 173
20.796875000000 8.500000000000 3.422996520996 240 240 240
22.234375000000 9.359375000000 3.600997924805 170 170 170
22.218750000000 9.351562500000 3.662002563477 178 178 178
21.921875000000 9.171875000000 3.694000244141 163 163 163
21.937500000000 9.187500000000 3.758003234863 164 164 164
21.046875000000 8.656250000000 3.716003417969 181 181 181
21.125000000000 8.710937500000 3.781997680664 181 181 181
20.843750000000 8.539062500000 3.801002502441 186 186 186
20.750000000000 8.484375000000 3.842002868652 173 173 173
20.328125000000 8.242187500000 3.836997985840 182 182 182
20.281250000000 8.210937500000 3.879997253418 222 222 222
20.156250000000 8.140625000000 3.910003662109 186 186 186
20.203125000000 8.164062500000 3.967002868652 188 188 188
20.203125000000 8.171875000000 4.016998291016 183 183 183
21.921875000000 9.203125000000 4.369003295898 151 151 151
21.828125000000 9.148437500000 4.413002014160 183 183 183
21.578125000000 9.000000000000 4.427001953125 167 167 167
21.640625000000 9.039062500000 4.500000000000 164 164 164
21.109375000000 8.718750000000 4.450996398926 186 186 186
21.640625000000 9.039062500000 4.620002746582 19 19 19
20.703125000000 8.492187500000 4.694000244141 91 91 91
20.687500000000 8.484375000000 4.745002746582 228 228 228
20.578125000000 8.421875000000 4.772003173828 237 237 237
20.531250000000 8.398437500000 4.811996459961 175 175 175
20.531250000000 8.398437500000 4.865997314453 178 178 178
20.671875000000 8.484375000000 4.959999084473 175 175 175
20.875000000000 8.609375000000 5.075996398926 177 177 177
20.468750000000 8.359375000000 5.010002136230 169 169 169
20.484375000000 8.375000000000 5.067001342773 172 172 172
20.984375000000 8.687500000000 5.280998229980 172 172 172
21.796875000000 9.171875000000 5.595001220703 58 58 58
21.843750000000 9.203125000000 5.675003051758 152 152 152
20.703125000000 8.515625000000 5.359001159668 210 210 210
20.437500000000 8.359375000000 5.330001831055 183 183 183
20.328125000000 8.296875000000 5.344001770020 184 184 184
20.328125000000 8.296875000000 5.400001525879 181 181 181
20.359375000000 8.320312500000 5.466003417969 185 185 185
20.500000000000 8.406250000000 5.570999145508 176 176 176
20.875000000000 8.632812500000 5.769996643066 173 173 173
21.828125000000 9.210937500000 6.194999694824 156 156 156
21.718750000000 9.148437500000 6.219001770020 161 161 161
21.687500000000 9.132812500000 6.277000427246 141 141 141
21.078125000000 8.773437500000 6.095001220703 7 7 7
21.062500000000 8.757812500000 6.149002075195 110 110 110
21.046875000000 8.750000000000 6.200996398926 80 80 80
21.140625000000 8.820312500000 6.371002197266 142 142 142
20.984375000000 8.726562500000 6.486999511719 121 121 121
20.968750000000 8.718750000000 6.543998718262 176 176 176
20.984375000000 8.734375000000 6.617996215820 184 184 184
21.046875000000 8.773437500000 6.710998535156 182 182 182
21.015625000000 8.750000000000 6.756996154785 177 177 177
20.968750000000 8.734375000000 6.802001953125 156 156 156
20.937500000000 8.710937500000 6.847000122070 45 45 45
21.000000000000 8.937500000000 3.796997070313 95 95 95
21.046875000000 8.968750000000 3.858001708984 161 161 161
21.453125000000 9.203125000000 3.967002868652 174 174 174
21.484375000000 9.226562500000 4.029998779297 164 164 164
21.515625000000 9.250000000000 4.094001770020 158 158 158
21.562500000000 9.281250000000 4.158996582031 123 123 123
21.609375000000 9.312500000000 4.226997375488 49 49 49
21.453125000000 9.226562500000 4.377998352051 139 139 139
21.437500000000 9.218750000000 4.433998107910 177 177 177
21.515625000000 9.265625000000 4.508003234863 172 172 172
21.593750000000 9.312500000000 4.582000732422 130 130 130
21.546875000000 9.289062500000 4.634002685547 101 101 101
20.984375000000 8.976562500000 5.194000244141 231 231 231
20.812500000000 8.875000000000 5.202003479004 178 178 178
20.843750000000 8.898437500000 5.266998291016 179 179 179
20.718750000000 8.820312500000 5.283996582031 177 177 177
20.703125000000 8.812500000000 5.333999633789 182 182 182
20.703125000000 8.812500000000 5.390998840332 169 169 169
20.750000000000 8.851562500000 5.467002868652 187 187 187
20.906250000000 8.945312500000 5.581001281738 167 167 167
20.328125000000 8.601562500000 5.486000061035 189 189 189
20.312500000000 8.593750000000 5.536003112793 172 172 172
20.328125000000 8.601562500000 5.593002319336 184 184 184
20.296875000000 8.578125000000 5.635002136230 189 189 189
20.218750000000 8.539062500000 5.658996582031 178 178 178
20.203125000000 8.531250000000 5.708000183105 153 153 153
20.171875000000 8.515625000000 5.752998352051 171 171 171
20.140625000000 8.500000000000 5.795997619629 126 126 126
20.828125000000 9.187500000000 5.240997314453 186 186 186
20.843750000000 9.203125000000 5.306999206543 179 179 179
20.828125000000 9.187500000000 5.356002807617 176 176 176
20.843750000000 9.203125000000 5.420997619629 164 164 164
20.765625000000 9.164062500000 5.453002929688 177 177 177
20.734375000000 9.140625000000 5.496002197266 178 178 178
20.484375000000 8.984375000000 5.463996887207 143 143 143
20.531250000000 9.023437500000 5.540000915527 169 169 169
20.468750000000 8.984375000000 5.573997497559 177 177 177
20.484375000000 9.000000000000 5.636001586914 167 167 167
20.593750000000 9.070312500000 5.736000061035 170 170 170
20.531250000000 9.031250000000 5.768997192383 185 185 185
20.156250000000 8.804687500000 5.671997070313 172 172 172
20.093750000000 8.773437500000 5.703002929688 30 30 30
21.140625000000 5.507812500000 4.984001159668 127 127 127
21.093750000000 5.546875000000 4.913002014160 175 175 175
21.140625000000 5.523437500000 4.696998596191 49 49 49
20.671875000000 5.812500000000 4.428001403809 134 134 134
20.687500000000 5.812500000000 4.375999450684 198 198 198
20.703125000000 5.804687500000 4.325996398926 188 188 188
20.734375000000 5.789062500000 4.277999877930 186 186 186
20.937500000000 5.671875000000 4.260002136230 171 171 171
20.609375000000 5.875000000000 3.991996765137 130 130 130
20.625000000000 5.875000000000 3.941001892090 181 181 181
20.656250000000 5.851562500000 3.894996643066 157 157 157
20.859375000000 5.742187500000 3.866996765137 193 193 193
20.812500000000 5.765625000000 3.807998657227 190 190 190
20.718750000000 5.828125000000 3.742996215820 191 191 191
20.750000000000 5.804687500000 3.694999694824 172 172 172
20.734375000000 5.820312500000 3.639999389648 69 69 69
20.890625000000 5.968750000000 4.836997985840 123 123 123
20.906250000000 5.968750000000 4.785003662109 184 184 184
20.937500000000 5.953125000000 4.735000610352 169 169 169
21.062500000000 5.875000000000 4.708999633789 186 186 186
21.171875000000 5.820312500000 4.676002502441 159 159 159
21.234375000000 5.781250000000 4.634002685547 152 152 152
21.312500000000 5.742187500000 4.591003417969 121 121 121
20.937500000000 5.968750000000 4.457000732422 173 173 173
20.921875000000 5.976562500000 4.399002075195 183 183 183
20.968750000000 5.953125000000 4.351997375488 175 175 175
20.968750000000 5.953125000000 4.297996520996 186 186 186
21.000000000000 5.945312500000 4.246002197266 152 152 152
21.375000000000 5.726562500000 4.253997802734 169 169 169
21.390625000000 5.718750000000 4.199996948242 180 180 180
21.453125000000 5.687500000000 4.149002075195 172 172 172
21.343750000000 5.757812500000 4.074996948242 166 166 166
21.031250000000 5.937500000000 3.975997924805 193 193 193
20.859375000000 6.046875000000 3.897003173828 179 179 179
20.859375000000 6.046875000000 3.844001770020 190 190 190
20.828125000000 6.070312500000 3.785003662109 185 185 185
21.093750000000 5.914062500000 3.763000488281 172 172 172
20.656250000000 6.351562500000 5.884002685547 50 50 50
20.718750000000 6.320312500000 5.847000122070 92 92 92
20.656250000000 6.351562500000 5.768997192383 128 128 128
20.562500000000 6.421875000000 5.670997619629 153 153 153
20.531250000000 6.429687500000 5.608001708984 168 168 168
20.562500000000 6.421875000000 5.560997009277 159 159 159
20.562500000000 6.421875000000 5.504997253418 115 115 115
21.390625000000 5.976562500000 5.115997314453 89 89 89
21.078125000000 6.164062500000 4.973999023438 173 173 173
21.000000000000 6.210937500000 4.898002624512 182 182 182
20.937500000000 6.250000000000 4.825996398926 182 182 182
20.953125000000 6.250000000000 4.772003173828 184 184 184
21.093750000000 6.164062500000 4.748001098633 183 183 183
21.140625000000 6.140625000000 4.704002380371 189 189 189
21.328125000000 6.031250000000 4.685997009277 179 179 179
21.453125000000 5.960937500000 4.655998229980 152 152 152
21.484375000000 5.945312500000 4.601997375488 106 106 106
20.234375000000 6.687500000000 4.294998168945 174 174 174
20.250000000000 6.687500000000 4.246002197266 146 146 146
21.296875000000 6.070312500000 4.389999389648 148 148 148
21.218750000000 6.117187500000 4.319000244141 182 182 182
21.281250000000 6.085937500000 4.272003173828 183 183 183
20.390625000000 6.609375000000 4.069999694824 187 187 187
20.406250000000 6.609375000000 4.018997192383 189 189 189
20.421875000000 6.601562500000 3.971000671387 187 187 187
20.437500000000 6.593750000000 3.921997070313 175 175 175
20.328125000000 6.664062500000 3.855003356934 197 197 197
20.359375000000 6.648437500000 3.809997558594 177 177 177
20.375000000000 6.632812500000 3.762001037598 179 179 179
20.562500000000 6.531250000000 3.733001708984 192 192 192
20.406250000000 6.625000000000 3.665000915527 206 206 206
20.406250000000 6.632812500000 3.612998962402 237 237 237
21.359375000000 6.078125000000 3.652999877930 184 184 184
21.406250000000 6.054687500000 3.600997924805 190 190 190
21.390625000000 6.062500000000 3.542999267578 97 97 97
20.859375000000 6.531250000000 5.885002136230 134 134 134
20.890625000000 6.523437500000 5.834999084473 182 182 182
20.828125000000 6.554687500000 5.754997253418 181 181 181
20.703125000000 6.640625000000 5.649002075195 178 178 178
20.312500000000 6.875000000000 5.454002380371 180 180 180
20.281250000000 6.898437500000 5.388999938965 187 187 187
20.265625000000 6.906250000000 5.331001281738 195 195 195
20.312500000000 6.890625000000 5.289001464844 175 175 175
20.312500000000 6.890625000000 5.235000610352 178 178 178
20.578125000000 6.734375000000 5.268997192383 124 124 124
20.609375000000 6.718750000000 5.221000671387 183 183 183
20.640625000000 6.710937500000 5.172996520996 181 181 181
20.687500000000 6.679687500000 5.130996704102 176 176 176
20.937500000000 6.531250000000 5.149002075195 174 174 174
20.984375000000 6.507812500000 5.107002258301 181 181 181
21.015625000000 6.492187500000 5.057998657227 169 169 169
21.062500000000 6.468750000000 5.010002136230 172 172 172
21.109375000000 6.453125000000 4.962997436523 193 193 193
21.156250000000 6.421875000000 4.919998168945 101 101 101
21.093750000000 6.468750000000 4.786003112793 177 177 177
20.968750000000 6.546875000000 4.700996398926 180 180 180
20.968750000000 6.546875000000 4.644996643066 180 180 180
21.031250000000 6.507812500000 4.603996276855 184 184 184
21.062500000000 6.500000000000 4.552001953125 175 175 175
21.515625000000 6.234375000000 4.586997985840 116 116 116
20.171875000000 7.023437500000 4.266998291016 187 187 187
20.171875000000 7.031250000000 4.214996337891 178 178 178
20.218750000000 7.000000000000 4.175003051758 184 184 184
20.375000000000 6.914062500000 4.152000427246 203 203 203
20.375000000000 6.921875000000 4.099998474121 189 189 189
20.343750000000 6.937500000000 4.044998168945 184 184 184
20.421875000000 6.898437500000 4.004997253418 188 188 188
20.593750000000 6.804687500000 3.978996276855 234 234 234
20.703125000000 6.734375000000 3.943000793457 207 207 207
20.531250000000 6.843750000000 3.865997314453 168 168 168
20.453125000000 6.890625000000 3.805000305176 193 193 193
20.437500000000 6.898437500000 3.752998352051 194 194 194
20.562500000000 6.835937500000 3.716003417969 182 182 182
20.640625000000 6.789062500000 3.671997070313 179 179 179
20.468750000000 6.890625000000 3.602996826172 177 177 177
20.406250000000 6.937500000000 3.545997619629 185 185 185
20.421875000000 6.929687500000 3.497001647949 189 189 189
20.437500000000 6.921875000000 3.447998046875 188 188 188
20.437500000000 6.929687500000 3.397003173828 190 190 190
20.593750000000 6.835937500000 3.357002258301 203 203 203
20.781250000000 6.734375000000 3.316001892090 176 176 176
20.796875000000 6.726562500000 3.264999389648 109 109 109
21.421875000000 6.500000000000 6.078002929688 183 183 183
21.406250000000 6.515625000000 6.003997802734 178 178 178
21.437500000000 6.492187500000 5.956001281738 184 184 184
21.390625000000 6.531250000000 5.872001647949 169 169 169
20.718750000000 6.937500000000 5.574996948242 189 189 189
20.671875000000 6.968750000000 5.501998901367 180 180 180
20.734375000000 6.929687500000 5.466003417969 189 189 189
20.656250000000 6.984375000000 5.381996154785 167 167 167
20.687500000000 6.968750000000 5.336997985840 181 181 181
20.718750000000 6.953125000000 5.291999816895 134 134 134
20.625000000000 7.015625000000 5.204002380371 178 178 178
20.625000000000 7.007812500000 5.151000976563 185 185 185
20.843750000000 6.890625000000 5.157997131348 183 183 183
20.781250000000 6.929687500000 5.082000732422 203 203 203
20.015625000000 7.382812500000 4.817001342773 211 211 211
19.968750000000 7.414062500000 4.750999450684 179 179 179
19.953125000000 7.429687500000 4.695999145508 177 177 177
19.984375000000 7.406250000000 4.656997680664 184 184 184
20.234375000000 7.265625000000 4.668998718262 191 191 191
20.250000000000 7.257812500000 4.620002746582 188 188 188
20.265625000000 7.250000000000 4.572998046875 111 111 111
21.562500000000 6.492187500000 4.816001892090 110 110 110
21.578125000000 6.484375000000 4.758003234863 141 141 141
21.609375000000 6.476562500000 4.703002929688 174 174 174
21.500000000000 6.539062500000 4.622001647949 130 130 130
21.640625000000 6.468750000000 4.587997436523 166 166 166
21.312500000000 6.656250000000 4.467002868652 190 190 190
21.171875000000 6.750000000000 4.380996704102 167 167 167
21.187500000000 6.734375000000 4.329002380371 185 185 185
21.156250000000 6.757812500000 4.265998840332 174 174 174
20.500000000000 7.148437500000 4.100997924805 189 189 189
20.484375000000 7.156250000000 4.047996520996 186 186 186
20.500000000000 7.156250000000 3.997001647949 191 191 191
20.515625000000 7.148437500000 3.946998596191 190 190 190
20.515625000000 7.156250000000 3.896003723145 208 208 208
20.484375000000 7.179687500000 3.839996337891 178 178 178
20.828125000000 6.976562500000 3.831001281738 172 172 172
20.515625000000 7.164062500000 3.741996765137 196 196 196
20.515625000000 7.164062500000 3.690002441406 196 196 196
20.515625000000 7.164062500000 3.638999938965 193 193 193
20.515625000000 7.171875000000 3.586997985840 187 187 187
20.750000000000 7.039062500000 3.556999206543 194 194 194
20.781250000000 7.023437500000 3.506996154785 195 195 195
20.765625000000 7.039062500000 3.452003479004 211 211 211
21.312500000000 6.718750000000 3.438003540039 167 167 167
21.296875000000 6.726562500000 3.380996704102 168 168 168
21.406250000000 6.671875000000 3.330001831055 187 187 187
21.250000000000 6.765625000000 3.265998840332 169 169 169
21.171875000000 6.812500000000 3.207000732422 192 192 192
21.265625000000 6.765625000000 3.154998779297 181 181 181
21.234375000000 6.781250000000 3.097999572754 166 166 166
21.234375000000 6.796875000000 3.041999816895 18 18 18
21.375000000000 6.734375000000 2.650001525879 24 24 24
21.328125000000 6.765625000000 2.596000671387 185 185 185
21.296875000000 6.781250000000 2.541000366211 192 192 192
21.281250000000 6.796875000000 2.486000061035 201 201 201
21.265625000000 6.812500000000 2.430999755859 197 197 197
21.281250000000 6.804687500000 2.374000549316 191 191 191
21.390625000000 6.742187500000 2.309997558594 167 167 167
21.921875000000 6.476562500000 6.716003417969 142 142 142
21.953125000000 6.460937500000 6.662002563477 166 166 166
21.906250000000 6.492187500000 6.572998046875 153 153 153
21.875000000000 6.515625000000 6.490997314453 186 186 186
21.859375000000 6.531250000000 6.416999816895 137 137 137
22.078125000000 6.398437500000 6.435997009277 111 111 111
22.093750000000 6.398437500000 6.372001647949 174 174 174
22.109375000000 6.390625000000 6.309997558594 133 133 133
20.781250000000 7.187500000000 5.636001586914 180 180 180
20.640625000000 7.281250000000 5.525001525879 183 183 183
20.578125000000 7.320312500000 5.449996948242 192 192 192
20.421875000000 7.421875000000 5.338996887207 185 185 185
20.531250000000 7.359375000000 5.319000244141 192 192 192
20.531250000000 7.359375000000 5.263999938965 171 171 171
20.000000000000 7.679687500000 5.044998168945 205 205 205
19.968750000000 7.703125000000 4.983001708984 184 184 184
19.968750000000 7.703125000000 4.934997558594 187 187 187
19.984375000000 7.695312500000 4.888999938965 193 193 193
19.937500000000 7.726562500000 4.825996398926 182 182 182
20.359375000000 7.484375000000 4.888999938965 174 174 174
20.265625000000 7.539062500000 4.809997558594 215 215 215
20.296875000000 7.523437500000 4.766998291016 191 191 191
20.468750000000 7.429687500000 4.758003234863 181 181 181
20.406250000000 7.468750000000 4.689002990723 186 186 186
20.390625000000 7.484375000000 4.630996704102 177 177 177
20.390625000000 7.476562500000 4.582000732422 177 177 177
