28.281250000000 1.242187500000 1.474990844727 71 71 71
29.953125000000 1.218750000000 9.875991821289 10 10 10
30.125000000000 1.210937500000 8.904998779297 19 19 19
28.312500000000 1.234375000000 6.860000610352 122 122 122
28.375000000000 1.234375000000 6.048995971680 112 112 112
28.375000000000 1.234375000000 5.530990600586 151 151 151
28.343750000000 1.234375000000 4.945999145508 128 128 128
28.343750000000 1.234375000000 4.296997070313 141 141 141
28.375000000000 1.234375000000 4.225997924805 105 105 105
30.156250000000 1.218750000000 3.613998413086 8 8 8
27.593750000000 0.843750000000 10.957992553711 19 19 19
27.625000000000 0.843750000000 10.886993408203 120 120 120
26.734375000000 0.843750000000 10.263000488281 182 182 182
26.750000000000 0.843750000000 10.184997558594 165 165 165
26.781250000000 0.843750000000 10.117996215820 159 159 159
26.875000000000 0.843750000000 10.087997436523 159 159 159
26.875000000000 0.851562500000 10.013992309570 174 174 174
26.953125000000 0.843750000000 9.970001220703 160 160 160
26.968750000000 0.843750000000 9.895996093750 132 132 132
27.000000000000 0.851562500000 9.826995849609 151 151 151
26.968750000000 0.843750000000 9.733993530273 152 152 152
27.187500000000 0.859375000000 9.768997192383 126 126 126
27.281250000000 0.859375000000 9.725997924805 179 179 179
27.093750000000 0.843750000000 9.542999267578 163 163 163
27.031250000000 0.843750000000 9.434997558594 159 159 159
27.093750000000 0.843750000000 9.384994506836 152 152 152
27.187500000000 0.851562500000 9.354995727539 152 152 152
27.281250000000 0.843750000000 9.319992065430 140 140 140
27.187500000000 0.843750000000 9.187988281250 157 157 157
26.937500000000 0.859375000000 8.994995117188 154 154 154
26.031250000000 0.859375000000 8.502990722656 233 233 233
26.015625000000 0.843750000000 8.422988891602 176 176 176
26.031250000000 0.851562500000 8.360000610352 169 169 169
26.031250000000 0.859375000000 8.291000366211 164 164 164
26.000000000000 0.859375000000 8.203994750977 165 165 165
26.000000000000 0.859375000000 8.139999389648 165 165 165
26.125000000000 0.843750000000 8.125000000000 160 160 160
26.218750000000 0.859375000000 8.095001220703 168 168 168
26.312500000000 0.843750000000 8.065002441406 176 176 176
26.468750000000 0.843750000000 8.054000854492 172 172 172
26.593750000000 0.843750000000 8.035995483398 170 170 170
26.625000000000 0.859375000000 7.970001220703 174 174 174
26.531250000000 0.851562500000 7.867996215820 163 163 163
26.531250000000 0.859375000000 7.800003051758 237 237 237
27.000000000000 0.859375000000 7.901000976563 212 212 212
26.750000000000 0.851562500000 7.740997314453 173 173 173
26.781250000000 0.843750000000 7.677993774414 154 154 154
26.812500000000 0.843750000000 7.619995117188 156 156 156
26.937500000000 0.843750000000 7.593002319336 193 193 193
26.984375000000 0.843750000000 7.537002563477 117 117 117
27.000000000000 0.851562500000 7.466995239258 150 150 150
27.421875000000 0.851562500000 7.532989501953 99 99 99
27.828125000000 0.843750000000 7.586990356445 233 233 233
28.218750000000 0.859375000000 7.630996704102 213 213 213
30.250000000000 0.843750000000 8.157989501953 45 45 45
28.359375000000 0.851562500000 7.516998291016 81 81 81
27.046875000000 0.859375000000 7.061996459961 4 4 4
26.890625000000 0.859375000000 6.951995849609 175 175 175
27.062500000000 0.843750000000 6.927001953125 211 211 211
26.968750000000 0.851562500000 6.830001831055 156 156 156
27.281250000000 0.859375000000 6.847991943359 200 200 200
27.500000000000 0.843750000000 6.830993652344 145 145 145
29.343750000000 0.843750000000 7.220993041992 82 82 82
28.015625000000 0.859375000000 6.595001220703 28 28 28
30.593750000000 0.843750000000 7.083999633789 14 14 14
27.515625000000 0.859375000000 6.340988159180 98 98 98
28.234375000000 0.843750000000 6.420989990234 32 32 32
28.406250000000 0.843750000000 6.229995727539 25 25 25
26.750000000000 0.843750000000 5.852996826172 9 9 9
26.796875000000 0.843750000000 5.796997070313 159 159 159
26.750000000000 0.851562500000 5.725997924805 179 179 179
26.906250000000 0.867187500000 5.687988281250 187 187 187
28.078125000000 0.843750000000 5.807998657227 79 79 79
27.187500000000 0.851562500000 5.399002075195 92 92 92
27.109375000000 0.851562500000 5.322998046875 156 156 156
27.062500000000 0.843750000000 5.250991821289 183 183 183
27.656250000000 0.859375000000 5.256988525391 23 23 23
29.328125000000 0.851562500000 5.373001098633 70 70 70
29.328125000000 0.851562500000 5.293991088867 56 56 56
25.281250000000 0.875000000000 4.815002441406 70 70 70
25.281250000000 0.875000000000 4.761001586914 166 166 166
25.312500000000 0.859375000000 4.707992553711 182 182 182
25.265625000000 0.859375000000 4.649993896484 154 154 154
25.406250000000 0.851562500000 4.606002807617 158 158 158
25.406250000000 0.859375000000 4.552001953125 162 162 162
25.406250000000 0.851562500000 4.496002197266 165 165 165
25.531250000000 0.843750000000 4.448989868164 163 163 163
25.843750000000 0.843750000000 4.409988403320 160 160 160
25.750000000000 0.843750000000 4.347000122070 160 160 160
25.781250000000 0.851562500000 4.291992187500 180 180 180
27.093750000000 0.843750000000 4.215988159180 45 45 45
28.687500000000 0.843750000000 4.041000366211 7 7 7
28.531250000000 0.859375000000 3.965988159180 143 143 143
27.625000000000 0.859375000000 3.892990112305 18 18 18
28.250000000000 0.859375000000 3.821990966797 103 103 103
27.218750000000 0.859375000000 3.761993408203 156 156 156
27.156250000000 0.851562500000 3.697998046875 19 19 19
28.312500000000 0.851562500000 3.606002807617 49 49 49
26.843750000000 0.843750000000 3.576995849609 162 162 162
26.968750000000 0.859375000000 3.509002685547 87 87 87
26.656250000000 0.859375000000 3.457992553711 71 71 71
26.750000000000 0.851562500000 3.391998291016 77 77 77
28.328125000000 0.859375000000 3.246002197266 15 15 15
27.187500000000 0.859375000000 3.240997314453 141 141 141
27.156250000000 0.859375000000 3.177993774414 143 143 143
27.046875000000 0.859375000000 3.119995117188 103 103 103
26.796875000000 0.843750000000 3.074996948242 147 147 147
26.812500000000 0.843750000000 3.009002685547 95 95 95
26.625000000000 0.859375000000 2.962997436523 144 144 144
26.781250000000 0.859375000000 2.886993408203 105 105 105
27.562500000000 0.859375000000 2.744995117188 38 38 38
27.234375000000 0.859375000000 2.710998535156 171 171 171
26.953125000000 0.867187500000 2.677001953125 154 154 154
28.281250000000 0.859375000000 2.236999511719 55 55 55
28.296875000000 0.859375000000 1.942993164063 12 12 12
28.125000000000 0.859375000000 1.680999755859 49 49 49
30.078125000000 0.835937500000 8.559997558594 69 69 69
29.781250000000 0.843750000000 8.287994384766 41 41 41
30.250000000000 0.835937500000 7.095001220703 187 187 187
28.312500000000 0.851562500000 6.140991210938 91 91 91
29.312500000000 0.843750000000 5.450988769531 44 44 44
30.187500000000 0.859375000000 4.306991577148 24 24 24
29.781250000000 0.843750000000 4.054000854492 17 17 17
30.187500000000 0.859375000000 3.893997192383 52 52 52
30.343750000000 0.859375000000 3.224990844727 16 16 16
30.218750000000 0.867187500000 1.978988647461 16 16 16
27.468750000000 0.476562500000 10.194992065430 147 147 147
27.437500000000 0.468750000000 10.095993041992 151 151 151
27.531250000000 0.460937500000 10.065994262695 146 146 146
27.578125000000 0.460937500000 10.002990722656 132 132 132
27.593750000000 0.468750000000 9.927993774414 131 131 131
27.734375000000 0.476562500000 9.906997680664 89 89 89
27.843750000000 0.468750000000 9.876998901367 68 68 68
27.765625000000 0.468750000000 9.753997802734 128 128 128
27.906250000000 0.468750000000 9.741989135742 170 170 170
26.593750000000 0.484375000000 9.021987915039 130 130 130
26.593750000000 0.476562500000 8.940994262695 162 162 162
26.562500000000 0.468750000000 8.847000122070 168 168 168
26.593750000000 0.476562500000 8.791992187500 160 160 160
26.703125000000 0.468750000000 8.763000488281 164 164 164
26.796875000000 0.476562500000 8.733993530273 128 128 128
26.843750000000 0.476562500000 8.671997070313 148 148 148
27.000000000000 0.476562500000 8.667999267578 123 123 123
27.000000000000 0.476562500000 8.590988159180 177 177 177
26.531250000000 0.476562500000 8.320999145508 215 215 215
26.296875000000 0.484375000000 8.151992797852 173 173 173
26.390625000000 0.468750000000 8.121002197266 217 217 217
26.906250000000 0.468750000000 8.253997802734 156 156 156
27.000000000000 0.468750000000 8.220993041992 162 162 162
27.125000000000 0.484375000000 8.194000244141 132 132 132
26.843750000000 0.484375000000 8.016998291016 171 171 171
26.812500000000 0.484375000000 7.930999755859 153 153 153
27.000000000000 0.484375000000 7.927001953125 159 159 159
29.718750000000 0.476562500000 8.834991455078 37 37 37
27.062500000000 0.468750000000 7.800003051758 116 116 116
26.937500000000 0.468750000000 7.688995361328 40 40 40
27.015625000000 0.468750000000 7.644989013672 195 195 195
27.250000000000 0.468750000000 7.652999877930 150 150 150
27.562500000000 0.468750000000 7.682998657227 198 198 198
27.625000000000 0.484375000000 7.626998901367 120 120 120
27.812500000000 0.484375000000 7.610992431641 146 146 146
27.875000000000 0.468750000000 7.552001953125 113 113 113
28.015625000000 0.468750000000 7.522994995117 52 52 52
27.640625000000 0.468750000000 7.334991455078 106 106 106
27.578125000000 0.484375000000 7.244995117188 140 140 140
27.765625000000 0.468750000000 7.222991943359 140 140 140
28.078125000000 0.476562500000 7.235992431641 19 19 19
28.125000000000 0.476562500000 7.171997070313 108 108 108
29.250000000000 0.468750000000 7.396987915039 58 58 58
27.312500000000 0.484375000000 6.812988281250 174 174 174
27.453125000000 0.492187500000 6.778991699219 175 175 175
27.500000000000 0.476562500000 6.718002319336 144 144 144
27.500000000000 0.476562500000 6.649002075195 103 103 103
27.593750000000 0.484375000000 6.598999023438 64 64 64
28.093750000000 0.484375000000 6.640991210938 57 57 57
27.937500000000 0.484375000000 6.532989501953 60 60 60
27.562500000000 0.476562500000 6.384002685547 103 103 103
26.468750000000 0.484375000000 6.078994750977 5 5 5
26.500000000000 0.484375000000 6.024002075195 168 168 168
26.578125000000 0.484375000000 5.974990844727 153 153 153
26.687500000000 0.484375000000 5.933990478516 157 157 157
26.562500000000 0.484375000000 5.845993041992 153 153 153
26.531250000000 0.484375000000 5.776992797852 164 164 164
26.500000000000 0.484375000000 5.708999633789 140 140 140
26.562500000000 0.484375000000 5.656997680664 161 161 161
27.843750000000 0.484375000000 5.800003051758 127 127 127
27.968750000000 0.476562500000 5.746002197266 140 140 140
27.296875000000 0.476562500000 5.575988769531 62 62 62
27.718750000000 0.476562500000 5.569000244141 26 26 26
27.656250000000 0.476562500000 5.489990234375 93 93 93
28.000000000000 0.476562500000 5.466995239258 76 76 76
27.406250000000 0.468750000000 4.918991088867 107 107 107
26.968750000000 0.484375000000 4.815994262695 157 157 157
27.250000000000 0.484375000000 4.771987915039 155 155 155
27.375000000000 0.468750000000 4.715988159180 135 135 135
27.203125000000 0.484375000000 4.638000488281 38 38 38
26.937500000000 0.492187500000 4.556991577148 131 131 131
26.906250000000 0.492187500000 4.490997314453 141 141 141
26.500000000000 0.492187500000 4.407989501953 183 183 183
26.562500000000 0.492187500000 4.348999023438 152 152 152
26.562500000000 0.500000000000 4.287002563477 162 162 162
26.750000000000 0.476562500000 4.231994628906 170 170 170
26.531250000000 0.500000000000 4.162994384766 143 143 143
28.843750000000 0.484375000000 4.147994995117 78 78 78
28.750000000000 0.484375000000 4.071990966797 23 23 23
28.625000000000 0.484375000000 3.996994018555 130 130 130
27.218750000000 0.492187500000 3.723999023438 12 12 12
27.156250000000 0.500000000000 3.659988403320 59 59 59
27.156250000000 0.500000000000 3.595001220703 129 129 129
27.140625000000 0.484375000000 3.530990600586 81 81 81
26.937500000000 0.492187500000 3.472991943359 107 107 107
26.906250000000 0.500000000000 3.410995483398 135 135 135
27.625000000000 0.484375000000 3.243988037109 45 45 45
27.562500000000 0.492187500000 3.179992675781 119 119 119
27.406250000000 0.484375000000 3.123992919922 64 64 64
27.062500000000 0.476562500000 3.080993652344 129 129 129
27.000000000000 0.484375000000 3.020996093750 138 138 138
27.062500000000 0.484375000000 2.951995849609 134 134 134
27.078125000000 0.484375000000 2.886001586914 118 118 118
27.187500000000 0.500000000000 2.808990478516 92 92 92
27.343750000000 0.500000000000 2.728988647461 119 119 119
27.187500000000 0.500000000000 2.677001953125 86 86 86
27.296875000000 0.492187500000 2.599990844727 108 108 108
28.031250000000 0.492187500000 2.302993774414 7 7 7
28.937500000000 0.453125000000 10.144989013672 30 30 30
29.750000000000 0.468750000000 8.753997802734 31 31 31
29.062500000000 0.468750000000 8.422988891602 106 106 106
30.062500000000 0.468750000000 8.409988403320 26 26 26
29.437500000000 0.468750000000 7.608993530273 15 15 15
27.593750000000 0.484375000000 6.315994262695 127 127 127
30.375000000000 0.468750000000 6.634994506836 20 20 20
30.312500000000 0.484375000000 4.093994140625 11 11 11
28.843750000000 0.093750000000 11.701995849609 56 56 56
28.843750000000 0.101562500000 11.606002807617 101 101 101
28.843750000000 0.093750000000 11.498992919922 121 121 121
28.843750000000 0.093750000000 11.402999877930 121 121 121
28.812500000000 0.101562500000 11.287002563477 125 125 125
28.796875000000 0.093750000000 11.177001953125 136 136 136
28.781250000000 0.109375000000 11.072998046875 146 146 146
28.750000000000 0.101562500000 10.946990966797 140 140 140
28.750000000000 0.101562500000 10.849990844727 154 154 154
28.781250000000 0.109375000000 10.776000976563 148 148 148
28.437500000000 0.109375000000 10.493988037109 154 154 154
28.437500000000 0.109375000000 10.406997680664 147 147 147
28.421875000000 0.101562500000 10.307998657227 143 143 143
28.468750000000 0.109375000000 10.246002197266 142 142 142
28.562500000000 0.093750000000 10.195999145508 126 126 126
28.671875000000 0.109375000000 10.158996582031 120 120 120
28.906250000000 0.093750000000 10.190002441406 145 145 145
28.875000000000 0.093750000000 10.072998046875 130 130 130
28.843750000000 0.101562500000 9.970001220703 119 119 119
28.875000000000 0.093750000000 9.889999389648 124 124 124
28.843750000000 0.101562500000 9.787994384766 99 99 99
28.843750000000 0.109375000000 9.703002929688 97 97 97
28.843750000000 0.109375000000 9.611999511719 108 108 108
28.843750000000 0.101562500000 9.519989013672 109 109 109
28.875000000000 0.109375000000 9.438995361328 142 142 142
28.875000000000 0.093750000000 9.351989746094 116 116 116
28.890625000000 0.101562500000 9.271987915039 101 101 101
28.906250000000 0.109375000000 9.185989379883 124 124 124
28.062500000000 0.117187500000 8.763000488281 228 228 228
28.062500000000 0.109375000000 8.677993774414 199 199 199
28.093750000000 0.109375000000 8.606994628906 146 146 146
28.921875000000 0.101562500000 8.848999023438 134 134 134
28.875000000000 0.093750000000 8.746002197266 140 140 140
28.203125000000 0.109375000000 8.410995483398 164 164 164
28.218750000000 0.101562500000 8.337997436523 170 170 170
28.656250000000 0.109375000000 8.407989501953 100 100 100
27.125000000000 0.125000000000 7.787994384766 180 180 180
27.187500000000 0.109375000000 7.743988037109 184 184 184
27.156250000000 0.109375000000 7.657989501953 158 158 158
27.500000000000 0.125000000000 7.695999145508 149 149 149
27.593750000000 0.109375000000 7.652999877930 185 185 185
28.625000000000 0.109375000000 7.908996582031 148 148 148
28.750000000000 0.109375000000 7.865997314453 133 133 133
27.265625000000 0.109375000000 7.333999633789 167 167 167
27.312500000000 0.109375000000 7.272994995117 187 187 187
27.218750000000 0.125000000000 7.177993774414 170 170 170
27.250000000000 0.117187500000 7.113998413086 156 156 156
28.109375000000 0.117187500000 7.284988403320 95 95 95
28.953125000000 0.093750000000 7.440002441406 30 30 30
27.312500000000 0.109375000000 6.922988891602 168 168 168
27.406250000000 0.117187500000 6.875000000000 161 161 161
27.390625000000 0.125000000000 6.798995971680 162 162 162
27.468750000000 0.117187500000 6.750000000000 112 112 112
27.375000000000 0.125000000000 6.654998779297 107 107 107
27.406250000000 0.117187500000 6.591995239258 116 116 116
26.359375000000 0.125000000000 6.280990600586 176 176 176
26.078125000000 0.132812500000 6.153991699219 169 169 169
26.125000000000 0.140625000000 6.102996826172 157 157 157
26.218750000000 0.125000000000 6.061996459961 195 195 195
26.218750000000 0.125000000000 6.000000000000 160 160 160
26.281250000000 0.117187500000 5.948989868164 183 183 183
26.375000000000 0.109375000000 5.905990600586 147 147 147
26.484375000000 0.125000000000 5.862991333008 176 176 176
27.250000000000 0.109375000000 5.938995361328 97 97 97
26.906250000000 0.125000000000 5.812988281250 92 92 92
27.125000000000 0.125000000000 5.782989501953 90 90 90
26.968750000000 0.109375000000 5.690994262695 167 167 167
26.734375000000 0.125000000000 5.588989257813 155 155 155
28.203125000000 0.109375000000 5.748992919922 31 31 31
27.875000000000 0.117187500000 5.627990722656 66 66 66
28.640625000000 0.109375000000 5.666000366211 42 42 42
28.640625000000 0.109375000000 5.590988159180 51 51 51
27.171875000000 0.117187500000 5.326995849609 126 126 126
27.140625000000 0.125000000000 5.257995605469 163 163 163
27.109375000000 0.125000000000 5.187988281250 32 32 32
27.218750000000 0.125000000000 5.002990722656 85 85 85
27.156250000000 0.132812500000 4.931991577148 129 129 129
27.093750000000 0.125000000000 4.858993530273 157 157 157
26.843750000000 0.125000000000 4.774993896484 151 151 151
26.906250000000 0.125000000000 4.715988159180 135 135 135
26.875000000000 0.125000000000 4.651000976563 138 138 138
27.296875000000 0.125000000000 4.612991333008 152 152 152
27.406250000000 0.125000000000 4.552993774414 130 130 130
27.437500000000 0.125000000000 4.487991333008 115 115 115
28.125000000000 0.125000000000 4.453994750977 142 142 142
26.750000000000 0.132812500000 4.326995849609 169 169 169
26.718750000000 0.125000000000 4.263992309570 155 155 155
26.781250000000 0.125000000000 4.203002929688 129 129 129
26.781250000000 0.132812500000 4.139999389648 150 150 150
26.656250000000 0.109375000000 4.075988769531 160 160 160
27.796875000000 0.125000000000 4.026992797852 51 51 51
27.625000000000 0.109375000000 3.957000732422 55 55 55
27.531250000000 0.125000000000 3.889999389648 113 113 113
27.625000000000 0.109375000000 3.821990966797 80 80 80
27.500000000000 0.125000000000 3.755996704102 138 138 138
27.312500000000 0.109375000000 3.692001342773 30 30 30
27.562500000000 0.125000000000 3.619995117188 54 54 54
28.000000000000 0.109375000000 3.470993041992 87 87 87
27.187500000000 0.132812500000 3.433990478516 102 102 102
27.125000000000 0.125000000000 3.371994018555 133 133 133
27.062500000000 0.132812500000 3.310989379883 128 128 128
28.062500000000 0.132812500000 3.116989135742 28 28 28
27.500000000000 0.125000000000 2.951995849609 116 116 116
27.062500000000 0.140625000000 2.922988891602 149 149 149
27.250000000000 0.117187500000 2.839996337891 154 154 154
27.375000000000 0.125000000000 2.761993408203 115 115 115
27.015625000000 0.125000000000 2.733001708984 145 145 145
27.250000000000 0.125000000000 2.639999389648 86 86 86
28.890625000000 0.125000000000 2.382995605469 9 9 9
28.093750000000 0.125000000000 2.405990600586 57 57 57
28.093750000000 0.132812500000 2.044998168945 5 5 5
30.000000000000 0.125000000000 4.621994018555 14 14 14
28.968750000000 0.125000000000 3.662002563477 26 26 26
30.281250000000 2.562500000000 9.951995849609 36 36 36
30.375000000000 2.578125000000 8.078994750977 62 62 62
30.468750000000 2.343750000000 4.183990478516 29 29 29
30.546875000000 2.382812500000 1.429000854492 19 19 19
30.312500000000 2.398437500000 4.858993530273 9 9 9
30.546875000000 2.375000000000 2.024993896484 11 11 11
29.109375000000 2.484375000000 10.625991821289 87 87 87
29.062500000000 2.500000000000 10.496994018555 122 122 122
29.093750000000 2.484375000000 10.414001464844 103 103 103
30.234375000000 2.093750000000 4.220993041992 79 79 79
29.000000000000 2.171875000000 10.593002319336 49 49 49
28.031250000000 2.734375000000 10.018997192383 134 134 134
28.031250000000 2.726562500000 9.927993774414 220 220 220
28.093750000000 2.703125000000 9.860000610352 194 194 194
28.953125000000 2.203125000000 10.157989501953 110 110 110
29.031250000000 2.164062500000 10.082000732422 15 15 15
28.968750000000 2.234375000000 9.358993530273 13 13 13
28.375000000000 2.718750000000 5.655990600586 61 61 61
27.875000000000 2.453125000000 9.880996704102 42 42 42
27.781250000000 2.515625000000 9.741989135742 102 102 102
27.875000000000 2.468750000000 9.690994262695 66 66 66
27.984375000000 2.406250000000 9.647994995117 181 181 181
27.843750000000 2.492187500000 9.494995117188 153 153 153
27.937500000000 2.421875000000 9.440002441406 199 199 199
28.078125000000 2.359375000000 9.403991699219 178 178 178
30.031250000000 1.226562500000 10.139999389648 70 70 70
27.625000000000 2.625000000000 9.030990600586 127 127 127
27.671875000000 2.609375000000 8.960998535156 162 162 162
27.750000000000 2.562500000000 8.899993896484 200 200 200
27.750000000000 2.562500000000 8.811996459961 154 154 154
27.906250000000 2.484375000000 8.778991699219 226 226 226
27.890625000000 2.515625000000 8.326995849609 140 140 140
27.812500000000 2.570312500000 8.207992553711 154 154 154
27.906250000000 2.507812500000 8.156997680664 182 182 182
27.593750000000 2.750000000000 6.470993041992 142 142 142
27.718750000000 2.687500000000 6.414001464844 92 92 92
30.250000000000 1.343750000000 4.373001098633 18 18 18
27.968750000000 2.632812500000 4.173995971680 10 10 10
27.937500000000 2.656250000000 4.093002319336 88 88 88
28.312500000000 2.531250000000 2.177993774414 24 24 24
28.062500000000 2.671875000000 2.054992675781 56 56 56
28.000000000000 2.718750000000 1.981994628906 18 18 18
28.375000000000 2.515625000000 1.489990234375 13 13 13
30.015625000000 1.234375000000 10.026992797852 70 70 70
28.750000000000 2.000000000000 9.004989624023 182 182 182
29.062500000000 1.812500000000 9.024002075195 134 134 134
28.812500000000 1.976562500000 8.838989257813 133 133 133
30.593750000000 0.937500000000 9.268997192383 40 40 40
27.890625000000 2.515625000000 8.061996459961 126 126 126
28.343750000000 2.296875000000 7.402999877930 22 22 22
30.156250000000 1.250000000000 7.779998779297 14 14 14
28.578125000000 2.171875000000 7.196990966797 51 51 51
28.312500000000 2.328125000000 7.042999267578 247 247 247
30.312500000000 1.195312500000 6.914001464844 114 114 114
28.953125000000 2.046875000000 4.875000000000 20 20 20
27.875000000000 2.703125000000 3.612991333008 33 33 33
27.906250000000 2.046875000000 10.739990234375 117 117 117
27.625000000000 2.226562500000 10.490997314453 152 152 152
27.734375000000 2.164062500000 10.446990966797 173 173 173
27.843750000000 2.109375000000 10.412994384766 153 153 153
28.031250000000 2.000000000000 10.401992797852 148 148 148
28.093750000000 1.968750000000 10.345001220703 98 98 98
28.218750000000 1.890625000000 10.311996459961 118 118 118
28.531250000000 1.703125000000 10.363998413086 80 80 80
28.000000000000 2.031250000000 9.996002197266 106 106 106
28.656250000000 1.648437500000 10.116989135742 136 136 136
27.765625000000 2.171875000000 9.599990844727 132 132 132
27.750000000000 2.187500000000 9.505996704102 151 151 151
27.812500000000 2.148437500000 9.442001342773 125 125 125
27.843750000000 2.156250000000 9.358001708984 171 171 171
27.875000000000 2.140625000000 9.284988403320 157 157 157
27.953125000000 2.078125000000 9.223999023438 190 190 190
27.906250000000 2.125000000000 9.108993530273 164 164 164
27.812500000000 2.171875000000 8.985992431641 146 146 146
27.875000000000 2.148437500000 8.910995483398 197 197 197
27.968750000000 2.093750000000 8.864990234375 190 190 190
27.750000000000 2.226562500000 8.683990478516 180 180 180
27.906250000000 2.140625000000 8.659988403320 200 200 200
28.093750000000 2.046875000000 8.630996704102 161 161 161
28.250000000000 1.937500000000 8.602996826172 64 64 64
28.562500000000 1.773437500000 8.617996215820 180 180 180
28.609375000000 1.742187500000 8.541000366211 215 215 215
29.937500000000 0.968750000000 8.902999877930 28 28 28
28.656250000000 1.750000000000 7.820999145508 100 100 100
28.281250000000 1.968750000000 7.618988037109 182 182 182
28.187500000000 2.015625000000 7.507995605469 103 103 103
27.062500000000 2.687500000000 6.493988037109 121 121 121
27.375000000000 2.531250000000 6.476989746094 253 253 253
27.281250000000 2.578125000000 6.379989624023 171 171 171
27.421875000000 2.515625000000 5.930999755859 77 77 77
28.453125000000 1.937500000000 6.006988525391 14 14 14
27.890625000000 2.257812500000 5.839996337891 8 8 8
28.546875000000 1.890625000000 5.847000122070 57 57 57
27.281250000000 2.671875000000 4.373992919922 27 27 27
27.750000000000 2.421875000000 4.067993164063 123 123 123
30.218750000000 1.093750000000 2.235000610352 126 126 126
30.218750000000 1.093750000000 2.138000488281 122 122 122
30.218750000000 1.093750000000 2.041992187500 126 126 126
30.218750000000 1.109375000000 1.554000854492 139 139 139
30.218750000000 1.125000000000 1.457992553711 140 140 140
30.218750000000 1.125000000000 1.261993408203 134 134 134
30.218750000000 1.125000000000 1.162994384766 131 131 131
27.812500000000 2.218750000000 8.089996337891 127 127 127
29.125000000000 1.476562500000 8.050003051758 21 21 21
30.062500000000 0.984375000000 7.125991821289 11 11 11
30.281250000000 0.898437500000 6.376998901367 24 24 24
27.500000000000 2.476562500000 5.628997802734 22 22 22
28.437500000000 2.000000000000 4.399002075195 14 14 14
28.687500000000 1.921875000000 3.208999633789 17 17 17
30.218750000000 1.078125000000 2.330001831055 85 85 85
30.218750000000 1.093750000000 1.942993164063 114 114 114
30.218750000000 1.101562500000 1.847991943359 50 50 50
30.203125000000 1.117187500000 1.750991821289 96 96 96
30.218750000000 1.109375000000 1.652999877930 88 88 88
30.234375000000 1.109375000000 1.358993530273 88 88 88
28.265625000000 1.437500000000 12.291992187500 32 32 32
28.250000000000 1.453125000000 12.173995971680 130 130 130
28.250000000000 1.468750000000 12.059997558594 80 80 80
28.250000000000 1.468750000000 11.949996948242 104 104 104
28.140625000000 1.531250000000 11.772994995117 158 158 158
28.015625000000 1.609375000000 11.593002319336 152 152 152
28.015625000000 1.625000000000 11.481002807617 158 158 158
28.531250000000 1.312500000000 11.582000732422 139 139 139
28.437500000000 1.367187500000 11.420989990234 104 104 104
28.531250000000 1.328125000000 11.363998413086 88 88 88
27.484375000000 1.953125000000 10.662002563477 130 130 130
27.421875000000 1.984375000000 10.534988403320 150 150 150
27.406250000000 1.984375000000 10.434997558594 129 129 129
27.421875000000 2.000000000000 10.339996337891 168 168 168
27.468750000000 1.976562500000 10.277999877930 177 177 177
27.687500000000 1.859375000000 10.283996582031 197 197 197
27.718750000000 1.828125000000 10.211990356445 201 201 201
27.781250000000 1.812500000000 10.145996093750 167 167 167
27.734375000000 1.828125000000 10.024002075195 157 157 157
27.781250000000 1.812500000000 9.953002929688 170 170 170
27.875000000000 1.750000000000 9.907989501953 162 162 162
28.031250000000 1.671875000000 9.884994506836 138 138 138
27.500000000000 1.984375000000 9.541000366211 149 149 149
27.500000000000 1.984375000000 9.444992065430 151 151 151
27.546875000000 1.968750000000 9.375991821289 132 132 132
27.656250000000 1.906250000000 9.339996337891 236 236 236
27.859375000000 1.796875000000 9.332000732422 230 230 230
28.000000000000 1.710937500000 9.304000854492 208 208 208
27.812500000000 1.835937500000 9.134994506836 192 192 192
27.515625000000 2.000000000000 8.916000366211 160 160 160
27.500000000000 2.007812500000 8.820999145508 150 150 150
27.625000000000 1.945312500000 8.777999877930 181 181 181
27.593750000000 1.953125000000 8.683990478516 157 157 157
27.796875000000 1.843750000000 8.671997070313 162 162 162
27.812500000000 1.835937500000 8.588989257813 174 174 174
28.187500000000 1.640625000000 8.636001586914 199 199 199
28.125000000000 1.671875000000 8.519989013672 152 152 152
28.453125000000 1.484375000000 8.544998168945 172 172 172
28.453125000000 1.484375000000 8.455993652344 137 137 137
29.015625000000 1.164062500000 8.552001953125 46 46 46
28.015625000000 1.757812500000 8.130996704102 131 131 131
28.546875000000 1.453125000000 8.116989135742 51 51 51
26.937500000000 2.390625000000 7.527999877930 211 211 211
26.937500000000 2.375000000000 7.451995849609 154 154 154
27.250000000000 2.203125000000 7.466995239258 149 149 149
27.312500000000 2.187500000000 7.397994995117 153 153 153
27.343750000000 2.156250000000 7.326995849609 158 158 158
26.562500000000 2.609375000000 7.033996582031 197 197 197
26.593750000000 2.593750000000 6.968002319336 160 160 160
26.718750000000 2.531250000000 6.771987915039 141 141 141
26.812500000000 2.484375000000 6.713989257813 208 208 208
26.468750000000 2.671875000000 6.562988281250 213 213 213
26.546875000000 2.656250000000 6.429000854492 155 155 155
26.500000000000 2.664062500000 6.347991943359 172 172 172
27.406250000000 2.171875000000 6.373992919922 166 166 166
28.500000000000 1.546875000000 6.498992919922 90 90 90
26.953125000000 2.421875000000 6.136993408203 124 124 124
26.906250000000 2.453125000000 6.052993774414 159 159 159
26.843750000000 2.484375000000 5.965988159180 171 171 171
27.156250000000 2.312500000000 5.942001342773 57 57 57
27.156250000000 2.320312500000 5.861999511719 16 16 16
28.531250000000 1.546875000000 5.988998413086 16 16 16
28.093750000000 1.835937500000 4.690002441406 14 14 14
27.109375000000 2.437500000000 3.821990966797 116 116 116
27.031250000000 2.476562500000 3.750000000000 109 109 109
26.812500000000 2.640625000000 2.880996704102 143 143 143
28.531250000000 1.718750000000 1.487991333008 90 90 90
28.500000000000 1.734375000000 1.406997680664 103 103 103
29.984375000000 0.617187500000 8.468002319336 8 8 8
30.046875000000 0.601562500000 8.281997680664 11 11 11
29.968750000000 0.664062500000 7.658996582031 11 11 11
30.328125000000 0.515625000000 6.448989868164 43 43 43
28.468750000000 1.578125000000 6.065002441406 66 66 66
28.609375000000 1.546875000000 4.968994140625 20 20 20
28.421875000000 1.687500000000 4.034988403320 20 20 20
28.468750000000 1.671875000000 3.614990234375 20 20 20
28.593750000000 1.617187500000 3.185989379883 20 20 20
28.812500000000 1.546875000000 1.780990600586 25 25 25
30.218750000000 0.671875000000 4.020996093750 30 30 30
28.031250000000 1.218750000000 12.294998168945 50 50 50
28.015625000000 1.234375000000 12.177993774414 134 134 134
28.046875000000 1.203125000000 12.083999633789 137 137 137
28.062500000000 1.203125000000 11.978988647461 135 135 135
28.000000000000 1.257812500000 11.837997436523 144 144 144
28.125000000000 1.171875000000 11.812988281250 35 35 35
28.281250000000 1.093750000000 11.797988891602 86 86 86
27.843750000000 1.343750000000 11.427993774414 127 127 127
27.937500000000 1.304687500000 11.375000000000 123 123 123
27.875000000000 1.351562500000 11.229995727539 145 145 145
27.875000000000 1.359375000000 11.134002685547 143 143 143
27.906250000000 1.328125000000 11.050003051758 127 127 127
27.968750000000 1.296875000000 10.976989746094 149 149 149
28.109375000000 1.218750000000 10.959991455078 156 156 156
28.187500000000 1.179687500000 10.903991699219 114 114 114
27.906250000000 1.359375000000 10.639999389648 146 146 146
27.781250000000 1.421875000000 10.481002807617 170 170 170
27.781250000000 1.437500000000 10.375000000000 142 142 142
27.500000000000 1.609375000000 10.131988525391 155 155 155
27.437500000000 1.640625000000 10.014999389648 173 173 173
27.500000000000 1.609375000000 9.946990966797 154 154 154
27.562500000000 1.562500000000 9.882995605469 175 175 175
27.734375000000 1.484375000000 9.875000000000 232 232 232
27.718750000000 1.484375000000 9.677001953125 184 184 184
27.828125000000 1.429687500000 9.639999389648 135 135 135
27.968750000000 1.359375000000 9.608001708984 65 65 65
28.625000000000 0.984375000000 9.707000732422 47 47 47
27.781250000000 1.484375000000 9.246994018555 190 190 190
27.562500000000 1.609375000000 9.062988281250 177 177 177
27.796875000000 1.484375000000 8.976989746094 133 133 133
29.343750000000 0.585937500000 9.507995605469 50 50 50
27.531250000000 1.640625000000 8.690994262695 156 156 156
27.781250000000 1.484375000000 8.705993652344 223 223 223
28.312500000000 1.187500000000 8.817001342773 136 136 136
28.281250000000 1.210937500000 8.714996337891 135 135 135
28.156250000000 1.296875000000 8.572998046875 160 160 160
28.250000000000 1.234375000000 8.515991210938 130 130 130
26.828125000000 2.078125000000 7.927001953125 233 233 233
26.843750000000 2.054687500000 7.856994628906 231 231 231
28.281250000000 1.242187500000 8.250000000000 196 196 196
28.250000000000 1.250000000000 8.149993896484 135 135 135
28.250000000000 1.265625000000 8.059997558594 155 155 155
26.765625000000 2.109375000000 7.511993408203 220 220 220
28.296875000000 1.250000000000 7.893997192383 134 134 134
27.093750000000 1.937500000000 7.448989868164 228 228 228
27.125000000000 1.929687500000 7.377990722656 200 200 200
27.296875000000 1.828125000000 7.347000122070 221 221 221
26.312500000000 2.390625000000 6.992996215820 254 254 254
26.375000000000 2.375000000000 6.933990478516 13 13 13
28.312500000000 1.257812500000 7.369995117188 137 137 137
26.359375000000 2.390625000000 6.784988403320 247 247 247
28.328125000000 1.250000000000 7.198989868164 126 126 126
26.312500000000 2.406250000000 6.626998901367 200 200 200
26.359375000000 2.390625000000 6.563995361328 162 162 162
26.406250000000 2.375000000000 6.500000000000 190 190 190
26.625000000000 2.234375000000 6.477996826172 252 252 252
26.578125000000 2.265625000000 6.391998291016 231 231 231
26.562500000000 2.281250000000 6.315002441406 209 209 209
26.625000000000 2.234375000000 6.253997802734 246 246 246
26.562500000000 2.296875000000 6.166000366211 29 29 29
27.250000000000 1.898437500000 6.218002319336 212 212 212
27.281250000000 1.875000000000 6.147994995117 164 164 164
26.968750000000 2.054687500000 6.015991210938 184 184 184
27.421875000000 1.796875000000 6.014999389648 208 208 208
28.328125000000 1.289062500000 6.078002929688 168 168 168
28.281250000000 1.320312500000 5.985000610352 156 156 156
28.156250000000 1.406250000000 5.881988525391 161 161 161
28.406250000000 1.265625000000 5.832992553711 142 142 142
28.375000000000 1.281250000000 5.743988037109 115 115 115
27.218750000000 1.945312500000 5.518997192383 195 195 195
27.250000000000 1.937500000000 5.444000244141 151 151 151
28.437500000000 1.250000000000 5.500000000000 90 90 90
28.406250000000 1.281250000000 5.409988403320 136 136 136
27.437500000000 1.820312500000 5.233993530273 186 186 186
27.250000000000 1.937500000000 5.138992309570 162 162 162
27.312500000000 1.906250000000 5.067001342773 169 169 169
27.218750000000 1.968750000000 4.985000610352 163 163 163
27.312500000000 1.906250000000 4.914001464844 173 173 173
26.843750000000 2.171875000000 4.808990478516 23 23 23
26.906250000000 2.140625000000 4.738998413086 157 157 157
26.656250000000 2.296875000000 4.652999877930 165 165 165
26.687500000000 2.281250000000 4.582000732422 164 164 164
26.734375000000 2.265625000000 4.511993408203 123 123 123
26.875000000000 2.164062500000 4.444000244141 107 107 107
27.671875000000 1.734375000000 4.386993408203 154 154 154
26.187500000000 2.593750000000 4.011993408203 166 166 166
28.468750000000 1.335937500000 3.231002807617 98 98 98
26.687500000000 2.343750000000 3.141998291016 162 162 162
26.312500000000 2.546875000000 3.106002807617 155 155 155
26.421875000000 2.484375000000 3.024993896484 134 134 134
26.812500000000 2.281250000000 2.912002563477 71 71 71
28.109375000000 1.546875000000 2.683990478516 115 115 115
28.125000000000 1.546875000000 2.598999023438 94 94 94
28.296875000000 1.445312500000 2.496002197266 83 83 83
27.281250000000 2.031250000000 2.554000854492 151 151 151
27.343750000000 1.984375000000 2.465988159180 152 152 152
28.437500000000 1.382812500000 2.223999023438 82 82 82
27.250000000000 2.054687500000 2.328994750977 133 133 133
28.531250000000 1.359375000000 2.041000366211 44 44 44
28.500000000000 1.250000000000 4.910995483398 104 104 104
27.531250000000 1.820312500000 4.305999755859 154 154 154
30.093750000000 0.359375000000 4.345001220703 14 14 14
28.062500000000 0.875000000000 10.845993041992 92 92 92
27.656250000000 1.125000000000 10.524993896484 113 113 113
27.687500000000 1.109375000000 10.455001831055 142 142 142
27.750000000000 1.078125000000 10.384002685547 152 152 152
27.937500000000 0.953125000000 10.386993408203 129 129 129
27.968750000000 0.945312500000 10.295989990234 133 133 133
28.000000000000 0.921875000000 10.216995239258 209 209 209
27.343750000000 1.320312500000 9.793991088867 214 214 214
27.296875000000 1.359375000000 9.682998657227 195 195 195
27.484375000000 1.250000000000 9.681991577148 194 194 194
27.625000000000 1.187500000000 9.649002075195 189 189 189
27.500000000000 1.250000000000 9.502990722656 202 202 202
27.625000000000 1.171875000000 9.477996826172 196 196 196
27.500000000000 1.265625000000 9.319992065430 180 180 180
27.656250000000 1.164062500000 9.302001953125 175 175 175
27.093750000000 1.500000000000 8.962997436523 221 221 221
27.093750000000 1.507812500000 8.876998901367 178 178 178
27.125000000000 1.500000000000 8.800994873047 134 134 134
27.171875000000 1.468750000000 8.742996215820 148 148 148
27.125000000000 1.484375000000 8.638000488281 177 177 177
27.343750000000 1.375000000000 8.634002685547 42 42 42
27.500000000000 1.281250000000 8.611999511719 224 224 224
27.500000000000 1.296875000000 8.518997192383 230 230 230
26.312500000000 1.984375000000 7.990997314453 216 216 216
26.250000000000 2.031250000000 7.899002075195 25 25 25
26.250000000000 2.023437500000 7.819000244141 171 171 171
29.250000000000 0.281250000000 8.791992187500 18 18 18
26.187500000000 2.062500000000 7.640991210938 170 170 170
26.218750000000 2.046875000000 7.580001831055 156 156 156
26.312500000000 2.000000000000 7.535995483398 220 220 220
27.656250000000 1.234375000000 7.886001586914 187 187 187
26.593750000000 1.843750000000 7.472991943359 224 224 224
26.890625000000 1.679687500000 7.486999511719 23 23 23
27.578125000000 1.281250000000 7.608001708984 201 201 201
27.718750000000 1.210937500000 7.567001342773 156 156 156
26.281250000000 2.031250000000 7.071990966797 231 231 231
26.328125000000 2.023437500000 7.011993408203 179 179 179
26.328125000000 2.023437500000 6.940002441406 173 173 173
26.656250000000 1.835937500000 6.950988769531 171 171 171
26.406250000000 1.968750000000 6.812988281250 188 188 188
26.343750000000 2.031250000000 6.720993041992 166 166 166
26.359375000000 2.015625000000 6.651992797852 159 159 159
26.500000000000 1.945312500000 6.608993530273 169 169 169
26.656250000000 1.859375000000 6.571990966797 121 121 121
26.531250000000 1.914062500000 6.470993041992 25 25 25
26.406250000000 1.992187500000 6.371994018555 158 158 158
26.531250000000 1.929687500000 6.322998046875 152 152 152
26.687500000000 1.851562500000 6.278991699219 153 153 153
26.781250000000 1.796875000000 6.222000122070 176 176 176
26.656250000000 1.875000000000 6.125991821289 126 126 126
26.781250000000 1.804687500000 6.074996948242 77 77 77
26.953125000000 1.703125000000 6.027999877930 226 226 226
26.890625000000 1.734375000000 5.940994262695 237 237 237
26.656250000000 1.875000000000 5.830001831055 158 158 158
28.593750000000 0.765625000000 6.050994873047 14 14 14
28.187500000000 1.000000000000 5.904998779297 40 40 40
28.187500000000 1.015625000000 5.819000244141 85 85 85
28.125000000000 1.046875000000 5.728988647461 24 24 24
27.000000000000 1.710937500000 5.504989624023 130 130 130
26.890625000000 1.757812500000 5.416992187500 128 128 128
26.968750000000 1.718750000000 5.278991699219 8 8 8
27.109375000000 1.640625000000 5.216995239258 9 9 9
27.281250000000 1.562500000000 5.156997680664 76 76 76
27.281250000000 1.562500000000 5.080001831055 15 15 15
27.250000000000 1.570312500000 5.000991821289 87 87 87
27.218750000000 1.593750000000 4.921997070313 156 156 156
27.375000000000 1.531250000000 4.856002807617 177 177 177
27.421875000000 1.484375000000 4.782989501953 133 133 133
27.031250000000 1.726562500000 4.684997558594 106 106 106
26.812500000000 1.828125000000 4.601989746094 143 143 143
26.781250000000 1.859375000000 4.526992797852 135 135 135
26.859375000000 1.820312500000 4.457000732422 44 44 44
26.828125000000 1.828125000000 4.382995605469 218 218 218
26.625000000000 1.960937500000 4.306991577148 210 210 210
26.468750000000 2.046875000000 4.233001708984 173 173 173
26.312500000000 2.148437500000 4.162002563477 151 151 151
26.078125000000 2.265625000000 4.093994140625 164 164 164
26.140625000000 2.242187500000 4.024993896484 169 169 169
26.218750000000 2.187500000000 3.955001831055 177 177 177
26.250000000000 2.179687500000 3.886001586914 158 158 158
26.187500000000 2.226562500000 3.819000244141 138 138 138
26.218750000000 2.203125000000 3.748992919922 110 110 110
25.843750000000 2.437500000000 3.565002441406 162 162 162
25.968750000000 2.367187500000 3.490997314453 167 167 167
25.906250000000 2.398437500000 3.427993774414 160 160 160
26.187500000000 2.234375000000 3.337997436523 192 192 192
26.250000000000 2.203125000000 3.264999389648 86 86 86
26.140625000000 2.281250000000 3.205993652344 168 168 168
26.218750000000 2.234375000000 3.127990722656 187 187 187
26.750000000000 1.937500000000 3.004989624023 171 171 171
26.515625000000 2.078125000000 2.958999633789 168 168 168
26.531250000000 2.078125000000 2.886993408203 160 160 160
28.437500000000 1.007812500000 2.578002929688 91 91 91
26.687500000000 2.000000000000 2.722991943359 44 44 44
28.437500000000 1.023437500000 2.410995483398 34 34 34
28.406250000000 1.031250000000 2.330001831055 78 78 78
28.390625000000 1.046875000000 2.248001098633 121 121 121
28.187500000000 1.171875000000 2.195999145508 120 120 120
28.312500000000 1.085937500000 2.090988159180 116 116 116
27.687500000000 1.437500000000 2.114990234375 191 191 191
27.484375000000 1.562500000000 2.071990966797 206 206 206
27.531250000000 1.539062500000 1.981994628906 198 198 198
28.437500000000 1.046875000000 1.731994628906 140 140 140
28.421875000000 1.062500000000 1.649002075195 137 137 137
28.421875000000 1.062500000000 1.562988281250 140 140 140
28.421875000000 1.062500000000 1.477996826172 150 150 150
28.937500000000 0.437500000000 9.263992309570 115 115 115
27.640625000000 1.218750000000 8.403991699219 20 20 20
28.984375000000 0.445312500000 8.600997924805 10 10 10
29.671875000000 0.101562500000 7.646987915039 15 15 15
27.625000000000 1.296875000000 6.708999633789 10 10 10
28.953125000000 0.562500000000 6.459991455078 33 33 33
28.312500000000 0.960937500000 5.414993286133 84 84 84
28.078125000000 1.156250000000 3.598999023438 27 27 27
28.375000000000 1.046875000000 2.500991821289 72 72 72
28.718750000000 0.585937500000 8.796997070313 131 131 131
27.593750000000 0.750000000000 10.927001953125 70 70 70
27.609375000000 0.750000000000 10.832000732422 161 161 161
27.656250000000 0.734375000000 10.763992309570 143 143 143
27.687500000000 0.726562500000 10.672988891602 166 166 166
27.812500000000 0.656250000000 10.645996093750 156 156 156
27.687500000000 0.734375000000 10.486999511719 154 154 154
27.718750000000 0.710937500000 10.403991699219 155 155 155
27.062500000000 1.109375000000 9.964996337891 250 250 250
27.015625000000 1.140625000000 9.843994140625 215 215 215
27.093750000000 1.093750000000 9.793991088867 177 177 177
27.203125000000 1.031250000000 9.756988525391 148 148 148
27.250000000000 1.015625000000 9.690994262695 197 197 197
27.250000000000 1.015625000000 9.598999023438 216 216 216
27.078125000000 1.125000000000 9.425994873047 182 182 182
26.968750000000 1.187500000000 9.287002563477 173 173 173
26.734375000000 1.328125000000 9.095001220703 200 200 200
26.843750000000 1.281250000000 9.054000854492 209 209 209
27.406250000000 0.953125000000 9.216995239258 181 181 181
26.968750000000 1.210937500000 8.944000244141 171 171 171
26.953125000000 1.218750000000 8.849990844727 187 187 187
27.093750000000 1.140625000000 8.828994750977 188 188 188
27.078125000000 1.148437500000 8.731994628906 189 189 189
27.187500000000 1.093750000000 8.694992065430 21 21 21
26.093750000000 1.734375000000 8.169998168945 8 8 8
25.937500000000 1.828125000000 8.033996582031 175 175 175
26.062500000000 1.750000000000 8.007995605469 173 173 173
26.015625000000 1.773437500000 7.912994384766 171 171 171
25.937500000000 1.828125000000 7.809997558594 173 173 173
26.000000000000 1.812500000000 7.750991821289 165 165 165
26.125000000000 1.734375000000 7.728988647461 178 178 178
26.562500000000 1.484375000000 7.795989990234 190 190 190
26.343750000000 1.617187500000 7.644989013672 32 32 32
28.875000000000 0.148437500000 8.403991699219 18 18 18
26.187500000000 1.718750000000 7.444000244141 162 162 162
26.250000000000 1.671875000000 7.390991210938 150 150 150
26.406250000000 1.593750000000 7.360992431641 167 167 167
26.406250000000 1.593750000000 7.291000366211 223 223 223
26.875000000000 1.320312500000 7.348999023438 211 211 211
26.906250000000 1.296875000000 7.282989501953 218 218 218
27.156250000000 1.171875000000 7.270996093750 166 166 166
26.187500000000 1.718750000000 6.929000854492 80 80 80
26.046875000000 1.804687500000 6.815994262695 135 135 135
26.156250000000 1.750000000000 6.770996093750 167 167 167
26.203125000000 1.726562500000 6.709991455078 158 158 158
26.203125000000 1.742187500000 6.638000488281 168 168 168
26.203125000000 1.742187500000 6.565002441406 173 173 173
26.156250000000 1.765625000000 6.485000610352 11 11 11
27.531250000000 0.984375000000 6.636993408203 53 53 53
26.875000000000 1.359375000000 6.422988891602 147 147 147
27.093750000000 1.250000000000 6.386001586914 162 162 162
26.562500000000 1.531250000000 6.205993652344 228 228 228
26.437500000000 1.625000000000 6.111999511719 161 161 161
26.531250000000 1.578125000000 6.052001953125 160 160 160
26.375000000000 1.671875000000 5.951995849609 180 180 180
26.406250000000 1.648437500000 5.886001586914 140 140 140
26.562500000000 1.562500000000 5.840988159180 114 114 114
26.546875000000 1.562500000000 5.764999389648 89 89 89
26.500000000000 1.601562500000 5.684997558594 198 198 198
28.015625000000 0.742187500000 5.828002929688 117 117 117
28.265625000000 0.593750000000 5.776992797852 16 16 16
28.031250000000 0.750000000000 5.582000732422 17 17 17
27.125000000000 1.265625000000 5.394989013672 125 125 125
27.125000000000 1.265625000000 5.320999145508 79 79 79
27.906250000000 0.820312500000 5.322998046875 33 33 33
27.125000000000 1.273437500000 5.093994140625 16 16 16
27.156250000000 1.265625000000 5.020996093750 110 110 110
27.281250000000 1.203125000000 4.953002929688 158 158 158
27.234375000000 1.210937500000 4.798995971680 88 88 88
26.687500000000 1.539062500000 4.694000244141 142 142 142
26.406250000000 1.703125000000 4.608993530273 179 179 179
26.171875000000 1.828125000000 4.529998779297 165 165 165
26.218750000000 1.812500000000 4.461990356445 163 163 163
26.437500000000 1.703125000000 4.399002075195 188 188 188
26.453125000000 1.671875000000 4.328994750977 140 140 140
26.968750000000 1.406250000000 4.264999389648 4 4 4
26.937500000000 1.421875000000 4.190994262695 17 17 17
28.781250000000 0.375000000000 4.115997314453 22 22 22
28.625000000000 0.468750000000 4.030990600586 21 21 21
27.734375000000 0.968750000000 3.958999633789 18 18 18
26.125000000000 1.898437500000 3.914001464844 210 210 210
25.500000000000 2.250000000000 3.670989990234 206 206 206
25.625000000000 2.187500000000 3.600997924805 206 206 206
