31.734375000000 40.531250000000 10.514999389648 92 92 92
31.765625000000 40.562500000000 10.526000976563 64 64 64
32.765625000000 41.109375000000 10.488998413086 167 167 167
31.093750000000 40.484375000000 8.789001464844 115 115 115
32.046875000000 41.015625000000 8.720001220703 92 92 92
32.046875000000 41.031250000000 8.724990844727 89 89 89
31.765625000000 40.859375000000 10.506988525391 102 102 102
32.750000000000 41.406250000000 10.477996826172 173 173 173
32.781250000000 41.437500000000 10.487991333008 26 26 26
31.109375000000 40.812500000000 8.759002685547 111 111 111
32.015625000000 41.343750000000 8.708999633789 36 36 36
32.046875000000 41.343750000000 8.722000122070 133 133 133
31.734375000000 41.187500000000 10.500991821289 118 118 118
31.078125000000 41.125000000000 8.740997314453 99 99 99
31.109375000000 41.125000000000 8.764999389648 37 37 37
32.046875000000 41.656250000000 8.700988769531 141 141 141
31.750000000000 41.484375000000 10.476989746094 56 56 56
31.765625000000 41.500000000000 10.487991333008 88 88 88
31.078125000000 41.437500000000 8.716995239258 46 46 46
31.109375000000 41.453125000000 8.728988647461 87 87 87
34.421875000000 6.453125000000 8.451995849609 113 113 113
34.390625000000 6.437500000000 8.505996704102 112 112 112
34.390625000000 6.453125000000 7.435989379883 188 188 188
34.421875000000 6.765625000000 8.453002929688 132 132 132
34.421875000000 6.781250000000 7.445999145508 146 146 146
34.390625000000 6.750000000000 7.429000854492 199 199 199
34.437500000000 7.093750000000 8.470001220703 48 48 48
34.406250000000 7.093750000000 8.458999633789 139 139 139
34.406250000000 7.093750000000 7.422988891602 196 196 196
34.390625000000 7.093750000000 7.453994750977 92 92 92
34.421875000000 7.406250000000 8.457000732422 126 126 126
34.390625000000 7.406250000000 8.468002319336 81 81 81
34.390625000000 7.406250000000 7.432998657227 181 181 181
34.421875000000 7.718750000000 8.449996948242 135 135 135
34.421875000000 7.734375000000 7.450988769531 98 98 98
34.375000000000 7.718750000000 7.435989379883 199 199 199
34.437500000000 8.062500000000 8.466995239258 97 97 97
34.390625000000 8.031250000000 8.447998046875 120 120 120
34.390625000000 8.031250000000 7.433990478516 193 193 193
34.390625000000 8.031250000000 7.431991577148 112 112 112
34.421875000000 8.375000000000 8.451995849609 131 131 131
34.390625000000 8.375000000000 7.440002441406 171 171 171
34.375000000000 8.343750000000 7.430999755859 36 36 36
34.406250000000 8.687500000000 8.444000244141 135 135 135
34.406250000000 8.687500000000 7.459991455078 78 78 78
34.390625000000 8.687500000000 7.444000244141 208 208 208
34.421875000000 9.000000000000 8.446990966797 109 109 109
34.406250000000 9.000000000000 8.445999145508 106 106 106
34.390625000000 9.015625000000 7.444000244141 208 208 208
34.390625000000 9.000000000000 7.445999145508 164 164 164
34.421875000000 9.312500000000 8.442001342773 132 132 132
34.390625000000 9.328125000000 7.447998046875 182 182 182
34.421875000000 9.640625000000 8.440002441406 100 100 100
34.421875000000 9.625000000000 8.434997558594 120 120 120
34.406250000000 9.656250000000 7.431991577148 177 177 177
34.390625000000 9.625000000000 7.434997558594 176 176 176
34.421875000000 9.953125000000 8.438003540039 131 131 131
34.390625000000 9.968750000000 7.440994262695 194 194 194
34.375000000000 9.953125000000 7.442001342773 74 74 74
34.406250000000 10.281250000000 8.438003540039 137 137 137
34.390625000000 10.281250000000 7.446990966797 187 187 187
34.421875000000 10.609375000000 8.442993164063 112 112 112
34.390625000000 10.593750000000 8.436996459961 118 118 118
34.406250000000 10.609375000000 7.447998046875 171 171 171
34.390625000000 10.609375000000 7.438003540039 190 190 190
34.421875000000 10.937500000000 8.440994262695 129 129 129
34.390625000000 10.921875000000 7.446990966797 173 173 173
34.390625000000 10.906250000000 7.450988769531 39 39 39
34.421875000000 11.250000000000 8.440994262695 92 92 92
34.390625000000 11.234375000000 8.436996459961 124 124 124
34.390625000000 11.250000000000 7.464996337891 85 85 85
34.390625000000 11.250000000000 7.438995361328 200 200 200
34.421875000000 11.562500000000 8.434997558594 132 132 132
34.390625000000 11.562500000000 7.446990966797 195 195 195
34.375000000000 11.562500000000 7.449996948242 102 102 102
34.421875000000 11.875000000000 8.410995483398 162 162 162
34.406250000000 11.875000000000 8.351989746094 136 136 136
34.390625000000 11.875000000000 7.451995849609 189 189 189
34.375000000000 11.875000000000 7.458999633789 88 88 88
34.421875000000 12.218750000000 8.445999145508 127 127 127
34.406250000000 12.187500000000 8.438003540039 103 103 103
34.390625000000 12.203125000000 7.453002929688 58 58 58
34.390625000000 12.187500000000 7.451995849609 187 187 187
34.421875000000 12.515625000000 8.440002441406 133 133 133
34.390625000000 12.515625000000 7.450988769531 176 176 176
34.375000000000 12.500000000000 7.451995849609 122 122 122
34.421875000000 12.843750000000 8.442993164063 99 99 99
34.406250000000 12.843750000000 8.436996459961 128 128 128
34.390625000000 12.828125000000 7.442001342773 160 160 160
34.406250000000 13.156250000000 8.446990966797 138 138 138
34.390625000000 13.156250000000 7.448989868164 99 99 99
34.390625000000 13.156250000000 7.444992065430 182 182 182
34.421875000000 13.500000000000 8.444992065430 50 50 50
34.390625000000 13.468750000000 8.440994262695 140 140 140
34.390625000000 13.468750000000 7.444992065430 169 169 169
34.375000000000 13.468750000000 7.436996459961 57 57 57
34.421875000000 13.812500000000 8.444992065430 133 133 133
34.390625000000 13.781250000000 8.449996948242 66 66 66
34.375000000000 13.796875000000 7.442001342773 163 163 163
34.390625000000 14.109375000000 8.448989868164 132 132 132
34.390625000000 14.109375000000 7.448989868164 177 177 177
34.421875000000 14.437500000000 8.459991455078 73 73 73
34.390625000000 14.421875000000 8.447998046875 135 135 135
34.390625000000 14.437500000000 7.450988769531 169 169 169
34.390625000000 14.406250000000 7.433990478516 126 126 126
34.421875000000 14.750000000000 8.442993164063 132 132 132
34.375000000000 14.750000000000 7.442001342773 155 155 155
34.421875000000 15.078125000000 8.474990844727 44 44 44
34.406250000000 15.078125000000 8.451995849609 138 138 138
34.390625000000 15.093750000000 7.446990966797 127 127 127
34.390625000000 15.062500000000 7.427993774414 169 169 169
34.421875000000 15.406250000000 8.453002929688 136 136 136
34.390625000000 15.375000000000 8.453994750977 72 72 72
34.390625000000 15.390625000000 7.438995361328 164 164 164
34.359375000000 15.375000000000 7.451995849609 83 83 83
34.421875000000 15.718750000000 8.450988769531 133 133 133
34.390625000000 15.703125000000 7.444000244141 155 155 155
34.406250000000 16.015625000000 8.451995849609 135 135 135
34.390625000000 16.015625000000 7.442001342773 150 150 150
34.421875000000 16.343750000000 8.455993652344 116 116 116
34.390625000000 16.343750000000 8.455001831055 101 101 101
34.390625000000 16.343750000000 7.444000244141 122 122 122
34.390625000000 16.343750000000 7.444000244141 170 170 170
34.406250000000 16.656250000000 8.466003417969 133 133 133
34.390625000000 16.656250000000 7.440002441406 160 160 160
34.375000000000 16.640625000000 7.446990966797 63 63 63
34.421875000000 16.984375000000 8.470001220703 92 92 92
34.406250000000 16.968750000000 8.445999145508 131 131 131
34.390625000000 16.968750000000 7.440994262695 158 158 158
34.421875000000 17.281250000000 8.458999633789 132 132 132
34.390625000000 17.281250000000 8.459991455078 42 42 42
34.390625000000 17.281250000000 7.459991455078 58 58 58
34.375000000000 17.281250000000 7.434997558594 174 174 174
34.406250000000 17.609375000000 8.466995239258 131 131 131
34.390625000000 17.625000000000 7.438003540039 117 117 117
34.375000000000 17.609375000000 7.432998657227 160 160 160
34.421875000000 17.937500000000 8.466995239258 140 140 140
34.390625000000 17.937500000000 7.435989379883 150 150 150
34.375000000000 17.921875000000 7.440994262695 93 93 93
34.421875000000 18.250000000000 8.466003417969 131 131 131
34.390625000000 18.250000000000 7.438995361328 141 141 141
34.406250000000 18.562500000000 8.468994140625 137 137 137
34.390625000000 18.562500000000 7.448989868164 49 49 49
34.359375000000 18.562500000000 7.434997558594 147 147 147
34.421875000000 18.890625000000 8.474990844727 114 114 114
34.390625000000 18.875000000000 8.483001708984 108 108 108
34.390625000000 18.875000000000 7.440994262695 134 134 134
34.375000000000 18.875000000000 7.434997558594 111 111 111
34.406250000000 19.218750000000 8.477996826172 132 132 132
34.390625000000 19.187500000000 7.449996948242 127 127 127
34.421875000000 19.515625000000 8.478988647461 134 134 134
34.390625000000 19.531250000000 7.442001342773 144 144 144
34.421875000000 19.843750000000 8.478988647461 71 71 71
34.390625000000 19.843750000000 8.489990234375 129 129 129
34.390625000000 19.843750000000 7.457000732422 63 63 63
34.375000000000 19.843750000000 7.442001342773 160 160 160
34.406250000000 20.156250000000 8.498992919922 129 129 129
34.390625000000 20.156250000000 7.446990966797 148 148 148
34.375000000000 20.140625000000 7.440002441406 76 76 76
34.406250000000 20.468750000000 8.483993530273 139 139 139
34.375000000000 20.468750000000 7.455001831055 141 141 141
34.421875000000 20.812500000000 8.488998413086 115 115 115
34.390625000000 20.781250000000 8.501998901367 92 92 92
34.390625000000 20.781250000000 7.460998535156 34 34 34
34.359375000000 20.781250000000 7.445999145508 150 150 150
34.421875000000 21.125000000000 8.503997802734 127 127 127
34.390625000000 21.093750000000 8.498992919922 41 41 41
34.390625000000 21.109375000000 7.446990966797 57 57 57
34.359375000000 21.093750000000 7.444992065430 149 149 149
34.390625000000 21.421875000000 8.511993408203 132 132 132
34.375000000000 21.421875000000 7.449996948242 121 121 121
34.359375000000 21.421875000000 7.451995849609 83 83 83
34.421875000000 21.750000000000 8.518997192383 107 107 107
34.406250000000 21.750000000000 8.504989624023 106 106 106
34.375000000000 21.750000000000 7.440994262695 124 124 124
34.421875000000 22.062500000000 8.513000488281 128 128 128
34.390625000000 22.078125000000 7.449996948242 77 77 77
34.375000000000 22.062500000000 7.447998046875 148 148 148
34.421875000000 22.390625000000 8.526992797852 74 74 74
34.406250000000 22.375000000000 8.526992797852 126 126 126
34.390625000000 22.390625000000 7.438995361328 119 119 119
34.359375000000 22.375000000000 7.429992675781 52 52 52
34.421875000000 22.718750000000 8.535995483398 132 132 132
34.359375000000 22.718750000000 7.438003540039 133 133 133
34.406250000000 23.015625000000 8.527999877930 130 130 130
34.359375000000 23.015625000000 7.440002441406 141 141 141
34.421875000000 23.343750000000 8.545989990234 78 78 78
34.390625000000 23.343750000000 8.537994384766 123 123 123
34.359375000000 23.343750000000 7.444000244141 107 107 107
34.359375000000 23.328125000000 7.435989379883 136 136 136
34.406250000000 23.656250000000 8.544998168945 127 127 127
34.375000000000 23.656250000000 7.442001342773 120 120 120
34.359375000000 23.656250000000 7.442001342773 45 45 45
34.421875000000 24.000000000000 8.552001953125 35 35 35
34.390625000000 23.968750000000 8.550003051758 141 141 141
34.359375000000 23.968750000000 7.449996948242 135 135 135
34.421875000000 24.312500000000 8.544998168945 122 122 122
34.390625000000 24.281250000000 8.565994262695 29 29 29
34.390625000000 24.312500000000 7.444992065430 79 79 79
34.359375000000 24.296875000000 7.442001342773 138 138 138
34.390625000000 24.609375000000 8.572998046875 129 129 129
34.375000000000 24.625000000000 7.448989868164 111 111 111
34.421875000000 24.937500000000 8.578002929688 45 45 45
34.390625000000 24.921875000000 8.565994262695 132 132 132
34.375000000000 24.937500000000 7.442993164063 103 103 103
34.421875000000 25.250000000000 8.583999633789 110 110 110
34.390625000000 25.234375000000 8.571990966797 80 80 80
34.421875000000 25.562500000000 8.570999145508 123 123 123
34.421875000000 25.890625000000 8.593994140625 62 62 62
34.390625000000 25.875000000000 8.587997436523 127 127 127
34.406250000000 26.218750000000 8.598999023438 117 117 117
34.390625000000 26.500000000000 8.601989746094 129 129 129
34.421875000000 26.843750000000 8.616989135742 54 54 54
34.390625000000 26.843750000000 8.601989746094 127 127 127
34.421875000000 27.156250000000 8.617996215820 117 117 117
34.406250000000 27.468750000000 8.619003295898 130 130 130
34.406250000000 27.796875000000 8.626998901367 105 105 105
34.390625000000 27.781250000000 8.626998901367 81 81 81
34.390625000000 28.093750000000 8.636001586914 124 124 124
34.421875000000 28.437500000000 8.649002075195 33 33 33
34.390625000000 28.421875000000 8.636001586914 131 131 131
34.421875000000 28.734375000000 8.647994995117 112 112 112
34.406250000000 29.062500000000 8.656997680664 124 124 124
34.421875000000 29.375000000000 8.666992187500 73 73 73
34.390625000000 29.375000000000 8.660003662109 117 117 117
34.406250000000 29.687500000000 8.671997070313 125 125 125
34.421875000000 30.015625000000 8.680999755859 78 78 78
34.390625000000 30.000000000000 8.680999755859 103 103 103
34.406250000000 30.328125000000 8.688003540039 121 121 121
34.390625000000 30.640625000000 8.700988769531 132 132 132
34.421875000000 30.968750000000 8.710998535156 107 107 107
34.390625000000 30.937500000000 8.711990356445 72 72 72
34.406250000000 31.281250000000 8.722000122070 125 125 125
34.421875000000 31.593750000000 8.729995727539 109 109 109
34.390625000000 31.578125000000 8.724990844727 52 52 52
34.406250000000 31.906250000000 8.725997924805 121 121 121
34.390625000000 32.218750000000 8.740997314453 132 132 132
34.421875000000 32.546875000000 8.748001098633 89 89 89
34.390625000000 32.546875000000 8.757995605469 87 87 87
34.421875000000 32.859375000000 8.765991210938 109 109 109
34.390625000000 33.187500000000 8.763992309570 128 128 128
34.421875000000 33.515625000000 8.783996582031 105 105 105
34.406250000000 33.812500000000 8.778991699219 126 126 126
34.421875000000 34.156250000000 8.800994873047 54 54 54
34.390625000000 34.125000000000 8.802993774414 114 114 114
34.390625000000 34.453125000000 8.817001342773 105 105 105
34.390625000000 34.765625000000 8.819992065430 115 115 115
34.421875000000 35.093750000000 8.845993041992 62 62 62
34.390625000000 35.078125000000 8.825988769531 108 108 108
34.406250000000 35.406250000000 8.848999023438 107 107 107
34.390625000000 35.718750000000 8.854995727539 128 128 128
34.406250000000 36.031250000000 8.867996215820 93 93 93
34.390625000000 36.031250000000 8.865997314453 50 50 50
34.390625000000 36.343750000000 8.862991333008 104 104 104
34.390625000000 36.656250000000 8.889999389648 125 125 125
34.406250000000 36.984375000000 8.899993896484 99 99 99
34.406250000000 37.281250000000 8.910995483398 125 125 125
34.421875000000 37.625000000000 8.912002563477 103 103 103
34.390625000000 37.937500000000 8.916992187500 111 111 111
34.390625000000 38.250000000000 8.942993164063 125 125 125
34.421875000000 38.562500000000 8.957000732422 101 101 101
34.390625000000 38.875000000000 8.968994140625 121 121 121
34.421875000000 39.187500000000 8.985992431641 104 104 104
34.390625000000 39.515625000000 8.994003295898 114 114 114
34.406250000000 40.156250000000 9.004989624023 106 106 106
34.421875000000 40.468750000000 9.002990722656 71 71 71
34.421875000000 40.781250000000 8.975997924805 121 121 121
34.421875000000 41.109375000000 8.975997924805 103 103 103
34.421875000000 41.406250000000 8.948989868164 122 122 122
30.546875000000 6.234375000000 7.839996337891 172 172 172
30.671875000000 6.234375000000 9.082992553711 156 156 156
31.046875000000 6.234375000000 9.733993530273 107 107 107
30.546875000000 6.546875000000 7.822998046875 155 155 155
30.578125000000 6.546875000000 7.845001220703 143 143 143
30.687500000000 6.546875000000 9.097000122070 169 169 169
31.078125000000 6.531250000000 9.750991821289 155 155 155
31.125000000000 6.546875000000 9.739990234375 121 121 121
31.734375000000 6.531250000000 9.024002075195 158 158 158
34.421875000000 6.531250000000 8.447998046875 122 122 122
34.406250000000 6.531250000000 7.435989379883 144 144 144
30.578125000000 6.875000000000 7.833999633789 171 171 171
30.671875000000 6.875000000000 9.084991455078 119 119 119
30.703125000000 6.875000000000 9.095001220703 107 107 107
31.093750000000 6.875000000000 9.750991821289 142 142 142
31.734375000000 6.875000000000 9.004989624023 169 169 169
31.765625000000 6.859375000000 9.013000488281 57 57 57
34.421875000000 6.843750000000 8.444992065430 109 109 109
34.390625000000 6.843750000000 7.423995971680 174 174 174
34.421875000000 6.843750000000 7.418991088867 104 104 104
30.546875000000 7.187500000000 7.826995849609 146 146 146
30.578125000000 7.203125000000 7.845001220703 141 141 141
30.703125000000 7.203125000000 9.093994140625 151 151 151
30.718750000000 7.203125000000 9.119995117188 55 55 55
31.109375000000 7.187500000000 9.764999389648 140 140 140
31.703125000000 7.187500000000 9.009994506836 77 77 77
31.734375000000 7.187500000000 9.002990722656 160 160 160
34.421875000000 7.171875000000 8.502990722656 143 143 143
34.390625000000 7.171875000000 7.431991577148 206 206 206
30.578125000000 7.515625000000 7.830993652344 177 177 177
30.703125000000 7.531250000000 9.111999511719 157 157 157
31.093750000000 7.515625000000 9.751998901367 21 21 21
31.140625000000 7.531250000000 9.755996704102 137 137 137
31.734375000000 7.500000000000 8.991989135742 163 163 163
34.406250000000 7.500000000000 8.448989868164 99 99 99
34.390625000000 7.500000000000 7.427001953125 160 160 160
34.406250000000 7.500000000000 7.425003051758 65 65 65
30.562500000000 7.828125000000 7.813995361328 116 116 116
30.578125000000 7.843750000000 7.841003417969 165 165 165
30.734375000000 7.843750000000 9.113998413086 166 166 166
31.140625000000 7.843750000000 9.739990234375 120 120 120
31.156250000000 7.828125000000 9.759002685547 116 116 116
31.734375000000 7.812500000000 8.977996826172 164 164 164
31.734375000000 7.828125000000 8.992996215820 117 117 117
34.406250000000 7.812500000000 8.447998046875 101 101 101
34.390625000000 7.812500000000 7.502990722656 254 254 254
34.406250000000 7.812500000000 7.419998168945 177 177 177
30.593750000000 8.156250000000 7.820999145508 176 176 176
30.703125000000 8.156250000000 9.097991943359 106 106 106
30.750000000000 8.140625000000 9.121002197266 128 128 128
31.156250000000 8.140625000000 9.742996215820 150 150 150
31.171875000000 8.156250000000 9.768997192383 53 53 53
31.703125000000 8.140625000000 8.968994140625 59 59 59
31.750000000000 8.156250000000 8.970001220703 164 164 164
34.421875000000 8.125000000000 8.487991333008 126 126 126
34.406250000000 8.140625000000 7.427001953125 198 198 198
30.562500000000 8.484375000000 7.824996948242 139 139 139
30.609375000000 8.484375000000 7.833999633789 161 161 161
30.734375000000 8.500000000000 9.119003295898 150 150 150
31.171875000000 8.468750000000 9.754989624023 136 136 136
31.750000000000 8.468750000000 8.950988769531 160 160 160
34.406250000000 8.468750000000 8.440994262695 115 115 115
34.390625000000 8.468750000000 7.421997070313 163 163 163
34.406250000000 8.468750000000 7.442001342773 64 64 64
30.578125000000 8.796875000000 7.822998046875 174 174 174
30.609375000000 8.812500000000 7.845001220703 58 58 58
30.734375000000 8.812500000000 9.132995605469 162 162 162
31.203125000000 8.812500000000 9.748001098633 146 146 146
31.734375000000 8.796875000000 8.938003540039 159 159 159
31.765625000000 8.781250000000 8.946990966797 127 127 127
34.390625000000 8.781250000000 7.442001342773 161 161 161
34.390625000000 8.781250000000 7.429992675781 217 217 217
34.421875000000 8.781250000000 8.491989135742 151 151 151
30.562500000000 9.125000000000 7.832992553711 27 27 27
30.609375000000 9.125000000000 7.828994750977 172 172 172
30.765625000000 9.125000000000 9.134002685547 175 175 175
31.218750000000 9.125000000000 9.751998901367 140 140 140
31.765625000000 9.109375000000 8.940994262695 164 164 164
34.406250000000 9.093750000000 8.457000732422 105 105 105
34.390625000000 9.093750000000 7.436996459961 167 167 167
30.593750000000 9.437500000000 7.815002441406 163 163 163
30.609375000000 9.437500000000 7.843002319336 137 137 137
30.734375000000 9.437500000000 9.140991210938 64 64 64
30.781250000000 9.437500000000 9.147003173828 159 159 159
31.203125000000 9.437500000000 9.736999511719 97 97 97
31.234375000000 9.437500000000 9.763000488281 140 140 140
31.734375000000 9.437500000000 8.929000854492 168 168 168
31.765625000000 9.437500000000 8.944000244141 81 81 81
34.406250000000 9.406250000000 8.440994262695 85 85 85
34.390625000000 9.406250000000 7.483001708984 242 242 242
34.406250000000 9.406250000000 7.433990478516 126 126 126
30.609375000000 9.750000000000 7.830993652344 175 175 175
30.765625000000 9.750000000000 9.140991210938 127 127 127
30.796875000000 9.750000000000 9.162002563477 130 130 130
31.218750000000 9.750000000000 9.748992919922 157 157 157
31.265625000000 9.750000000000 9.750000000000 109 109 109
31.734375000000 9.750000000000 8.925994873047 77 77 77
31.765625000000 9.750000000000 8.916000366211 164 164 164
34.421875000000 9.734375000000 8.505996704102 120 120 120
34.390625000000 9.750000000000 7.434997558594 196 196 196
30.593750000000 10.093750000000 7.823989868164 144 144 144
30.625000000000 10.093750000000 7.847000122070 155 155 155
30.796875000000 10.093750000000 9.145996093750 134 134 134
30.812500000000 10.093750000000 9.164993286133 22 22 22
31.250000000000 10.078125000000 9.740997314453 158 158 158
31.281250000000 10.078125000000 9.764999389648 55 55 55
31.765625000000 10.078125000000 8.901000976563 160 160 160
34.406250000000 10.062500000000 8.434997558594 111 111 111
34.390625000000 10.062500000000 7.435989379883 172 172 172
34.421875000000 10.062500000000 7.445999145508 71 71 71
30.609375000000 10.406250000000 7.830993652344 170 170 170
30.625000000000 10.406250000000 7.858993530273 22 22 22
30.796875000000 10.406250000000 9.170989990234 153 153 153
31.265625000000 10.406250000000 9.750991821289 140 140 140
31.750000000000 10.406250000000 8.886001586914 162 162 162
31.781250000000 10.406250000000 8.897003173828 102 102 102
34.375000000000 10.375000000000 7.496994018555 254 254 254
34.390625000000 10.390625000000 7.429000854492 195 195 195
30.593750000000 10.718750000000 7.832992553711 25 25 25
30.625000000000 10.718750000000 7.834991455078 177 177 177
30.812500000000 10.718750000000 9.171997070313 155 155 155
31.296875000000 10.718750000000 9.757995605469 152 152 152
31.765625000000 10.718750000000 8.895996093750 164 164 164
34.421875000000 10.703125000000 8.468994140625 119 119 119
34.390625000000 10.687500000000 7.438003540039 187 187 187
34.421875000000 10.703125000000 7.440994262695 34 34 34
30.609375000000 11.031250000000 7.828002929688 140 140 140
30.640625000000 11.046875000000 7.838989257813 163 163 163
30.796875000000 11.031250000000 9.147994995117 29 29 29
30.828125000000 11.046875000000 9.190002441406 157 157 157
31.765625000000 11.031250000000 8.869995117188 166 166 166
31.781250000000 11.031250000000 8.892990112305 116 116 116
34.390625000000 11.015625000000 7.513000488281 254 254 254
34.406250000000 11.031250000000 7.438003540039 152 152 152
31.296875000000 11.031250000000 9.791000366211 154 154 154
30.609375000000 11.375000000000 7.833999633789 179 179 179
30.812500000000 11.375000000000 9.177001953125 117 117 117
30.828125000000 11.375000000000 9.197998046875 121 121 121
31.750000000000 11.359375000000 8.861999511719 75 75 75
31.765625000000 11.359375000000 8.880996704102 159 159 159
34.375000000000 11.343750000000 7.451995849609 96 96 96
34.406250000000 11.343750000000 7.438003540039 185 185 185
34.421875000000 11.343750000000 8.472000122070 112 112 112
30.609375000000 11.687500000000 7.832000732422 82 82 82
30.640625000000 11.687500000000 7.838989257813 163 163 163
30.828125000000 11.687500000000 9.177993774414 127 127 127
30.859375000000 11.703125000000 9.218002319336 63 63 63
31.765625000000 11.687500000000 8.865997314453 166 166 166
31.328125000000 11.687500000000 9.807998657227 105 105 105
34.390625000000 11.656250000000 8.440002441406 95 95 95
34.390625000000 11.671875000000 7.503997802734 254 254 254
34.421875000000 11.671875000000 7.445999145508 75 75 75
30.640625000000 12.015625000000 7.834991455078 175 175 175
30.671875000000 12.000000000000 7.851989746094 122 122 122
30.843750000000 12.031250000000 9.203994750977 127 127 127
31.765625000000 12.000000000000 8.847991943359 141 141 141
31.796875000000 12.000000000000 8.869995117188 143 143 143
31.359375000000 12.015625000000 9.770996093750 68 68 68
34.390625000000 11.968750000000 7.491989135742 243 243 243
34.406250000000 11.984375000000 7.444000244141 144 144 144
31.312500000000 12.000000000000 9.792999267578 151 151 151
30.640625000000 12.328125000000 7.835998535156 179 179 179
30.859375000000 12.343750000000 9.209991455078 144 144 144
31.781250000000 12.328125000000 8.850997924805 158 158 158
31.359375000000 12.312500000000 9.759002685547 146 146 146
31.390625000000 12.328125000000 9.772994995117 19 19 19
34.421875000000 12.296875000000 8.491989135742 104 104 104
34.390625000000 12.312500000000 7.440002441406 185 185 185
30.640625000000 12.656250000000 7.832000732422 107 107 107
30.671875000000 12.656250000000 7.851989746094 164 164 164
30.828125000000 12.640625000000 9.207992553711 43 43 43
30.875000000000 12.640625000000 9.222991943359 159 159 159
31.765625000000 12.656250000000 8.834991455078 166 166 166
31.796875000000 12.640625000000 8.837997436523 104 104 104
31.390625000000 12.640625000000 9.754989624023 145 145 145
34.390625000000 12.625000000000 7.444992065430 165 165 165
34.406250000000 12.625000000000 7.448989868164 67 67 67
30.640625000000 12.968750000000 7.836990356445 170 170 170
30.671875000000 12.968750000000 7.852996826172 131 131 131
30.859375000000 12.968750000000 9.207000732422 72 72 72
30.890625000000 12.968750000000 9.226989746094 164 164 164
31.781250000000 12.968750000000 8.832000732422 160 160 160
31.390625000000 12.968750000000 9.766998291016 146 146 146
34.390625000000 12.968750000000 7.483001708984 137 137 137
34.390625000000 12.937500000000 7.440002441406 173 173 173
30.671875000000 13.281250000000 7.847000122070 180 180 180
30.875000000000 13.281250000000 9.214996337891 116 116 116
30.890625000000 13.281250000000 9.236999511719 136 136 136
31.765625000000 13.281250000000 8.817993164063 166 166 166
31.828125000000 13.281250000000 8.824996948242 86 86 86
31.406250000000 13.281250000000 9.768997192383 146 146 146
34.390625000000 13.281250000000 7.438003540039 171 171 171
34.390625000000 13.265625000000 7.442001342773 43 43 43
30.656250000000 13.609375000000 7.843002319336 125 125 125
30.671875000000 13.593750000000 7.862991333008 163 163 163
30.890625000000 13.593750000000 9.224990844727 134 134 134
30.921875000000 13.593750000000 9.259994506836 42 42 42
31.765625000000 13.609375000000 8.804000854492 108 108 108
31.796875000000 13.593750000000 8.823989868164 148 148 148
31.390625000000 13.609375000000 9.768997192383 37 37 37
31.453125000000 13.609375000000 9.772994995117 144 144 144
34.390625000000 13.593750000000 7.440002441406 171 171 171
34.421875000000 13.593750000000 7.453002929688 131 131 131
30.671875000000 13.937500000000 7.845001220703 179 179 179
30.687500000000 13.921875000000 7.884994506836 27 27 27
30.890625000000 13.921875000000 9.250991821289 143 143 143
31.796875000000 13.921875000000 8.807998657227 155 155 155
31.421875000000 13.921875000000 9.763992309570 156 156 156
31.453125000000 13.921875000000 9.783996582031 75 75 75
34.375000000000 13.906250000000 7.451995849609 135 135 135
34.390625000000 13.906250000000 7.436996459961 207 207 207
30.640625000000 14.250000000000 7.851989746094 73 73 73
30.703125000000 14.250000000000 7.860992431641 191 191 191
30.890625000000 14.250000000000 9.248001098633 45 45 45
30.921875000000 14.250000000000 9.267990112305 154 154 154
31.765625000000 14.250000000000 8.791000366211 166 166 166
31.796875000000 14.218750000000 8.807998657227 105 105 105
31.453125000000 14.250000000000 9.774993896484 168 168 168
31.484375000000 14.250000000000 9.787002563477 33 33 33
34.390625000000 14.218750000000 7.433990478516 196 196 196
34.421875000000 14.218750000000 7.435989379883 40 40 40
30.671875000000 14.562500000000 7.852996826172 144 144 144
30.703125000000 14.562500000000 7.869995117188 149 149 149
30.906250000000 14.578125000000 9.255996704102 71 71 71
30.937500000000 14.562500000000 9.274002075195 160 160 160
31.796875000000 14.562500000000 8.797988891602 159 159 159
31.484375000000 14.562500000000 9.767990112305 157 157 157
31.484375000000 14.562500000000 9.793991088867 30 30 30
34.375000000000 14.546875000000 7.432998657227 199 199 199
34.406250000000 14.531250000000 7.435989379883 172 172 172
30.687500000000 14.890625000000 7.856994628906 183 183 183
30.687500000000 14.890625000000 7.894989013672 45 45 45
30.921875000000 14.906250000000 9.272994995117 121 121 121
30.953125000000 14.875000000000 9.287994384766 138 138 138
31.796875000000 14.875000000000 8.781997680664 163 163 163
31.828125000000 14.875000000000 8.789001464844 79 79 79
31.484375000000 14.890625000000 9.776000976563 151 151 151
34.375000000000 14.875000000000 7.427001953125 36 36 36
34.390625000000 14.875000000000 7.433990478516 178 178 178
30.671875000000 15.203125000000 7.865997314453 72 72 72
30.703125000000 15.218750000000 7.876998901367 175 175 175
30.937500000000 15.218750000000 9.274993896484 144 144 144
30.953125000000 15.218750000000 9.304992675781 69 69 69
31.781250000000 15.203125000000 8.770996093750 122 122 122
31.828125000000 15.203125000000 8.789993286133 152 152 152
31.515625000000 15.187500000000 9.791992187500 145 145 145
34.390625000000 15.187500000000 7.425994873047 174 174 174
34.390625000000 15.187500000000 7.432998657227 63 63 63
30.687500000000 15.531250000000 7.861999511719 184 184 184
30.687500000000 15.531250000000 7.902999877930 67 67 67
30.953125000000 15.531250000000 9.302993774414 139 139 139
31.796875000000 15.531250000000 8.783996582031 155 155 155
31.484375000000 15.515625000000 9.776000976563 98 98 98
31.546875000000 15.531250000000 9.797988891602 135 135 135
34.390625000000 15.500000000000 7.429992675781 170 170 170
34.406250000000 15.500000000000 7.434997558594 132 132 132
30.671875000000 15.843750000000 7.860992431641 34 34 34
30.703125000000 15.843750000000 7.879989624023 196 196 196
30.921875000000 15.843750000000 9.295989990234 78 78 78
30.984375000000 15.843750000000 9.313995361328 161 161 161
31.796875000000 15.843750000000 8.765991210938 163 163 163
31.828125000000 15.843750000000 8.782989501953 62 62 62
31.515625000000 15.843750000000 9.772994995117 179 179 179
31.562500000000 15.843750000000 9.800003051758 77 77 77
34.359375000000 15.828125000000 7.433990478516 92 92 92
34.390625000000 15.828125000000 7.427993774414 186 186 186
30.703125000000 16.171875000000 7.871994018555 172 172 172
30.718750000000 16.187500000000 7.892990112305 153 153 153
30.953125000000 16.171875000000 9.304992675781 136 136 136
31.000000000000 16.156250000000 9.313003540039 143 143 143
31.796875000000 16.171875000000 8.759002685547 133 133 133
31.828125000000 16.156250000000 8.769989013672 150 150 150
31.546875000000 16.171875000000 9.789001464844 156 156 156
34.390625000000 16.156250000000 7.429992675781 199 199 199
34.390625000000 16.156250000000 7.422988891602 47 47 47
30.718750000000 16.500000000000 7.878997802734 191 191 191
30.718750000000 16.500000000000 7.904998779297 56 56 56
30.968750000000 16.500000000000 9.319992065430 153 153 153
31.015625000000 16.500000000000 9.337997436523 105 105 105
31.796875000000 16.484375000000 8.750991821289 152 152 152
31.828125000000 16.484375000000 8.782989501953 22 22 22
31.546875000000 16.500000000000 9.791992187500 165 165 165
34.375000000000 16.468750000000 7.431991577148 200 200 200
34.390625000000 16.468750000000 7.432998657227 169 169 169
30.718750000000 16.796875000000 7.891998291016 187 187 187
30.984375000000 16.796875000000 9.330001831055 142 142 142
31.015625000000 16.796875000000 9.348999023438 43 43 43
31.796875000000 16.796875000000 8.742996215820 144 144 144
31.828125000000 16.796875000000 8.754989624023 146 146 146
31.578125000000 16.796875000000 9.797988891602 145 145 145
34.359375000000 16.781250000000 7.429000854492 68 68 68
34.390625000000 16.781250000000 7.438003540039 178 178 178
30.703125000000 17.125000000000 7.880996704102 159 159 159
30.734375000000 17.125000000000 7.905990600586 161 161 161
30.984375000000 17.125000000000 9.347991943359 127 127 127
31.812500000000 17.125000000000 8.746994018555 162 162 162
31.593750000000 17.125000000000 9.820999145508 175 175 175
34.390625000000 17.093750000000 7.470993041992 246 246 246
34.390625000000 17.093750000000 7.513000488281 105 105 105
30.734375000000 17.453125000000 7.894989013672 182 182 182
30.984375000000 17.453125000000 9.343002319336 78 78 78
31.015625000000 17.437500000000 9.360992431641 153 153 153
31.828125000000 17.437500000000 8.723999023438 159 159 159
31.843750000000 17.437500000000 8.748992919922 65 65 65
31.609375000000 17.437500000000 9.800003051758 70 70 70
31.609375000000 17.437500000000 9.813995361328 158 158 158
34.390625000000 17.421875000000 7.432998657227 193 193 193
34.406250000000 17.437500000000 7.473999023438 161 161 161
30.703125000000 17.781250000000 7.901992797852 117 117 117
30.734375000000 17.765625000000 7.910003662109 147 147 147
31.015625000000 17.765625000000 9.361999511719 146 146 146
31.046875000000 17.781250000000 9.376998901367 120 120 120
31.796875000000 17.750000000000 8.722991943359 156 156 156
31.828125000000 17.750000000000 8.729995727539 134 134 134
31.609375000000 17.765625000000 9.805999755859 146 146 146
31.640625000000 17.765625000000 9.820999145508 29 29 29
34.359375000000 17.750000000000 7.430999755859 213 213 213
34.390625000000 17.750000000000 7.470001220703 225 225 225
30.734375000000 18.093750000000 7.907989501953 179 179 179
30.765625000000 18.093750000000 7.922988891602 94 94 94
31.015625000000 18.093750000000 9.367996215820 149 149 149
31.062500000000 18.093750000000 9.394989013672 59 59 59
31.828125000000 18.078125000000 8.720993041992 157 157 157
31.640625000000 18.078125000000 9.815994262695 162 162 162
34.359375000000 18.062500000000 7.430999755859 70 70 70
34.375000000000 18.062500000000 7.496994018555 254 254 254
30.734375000000 18.406250000000 7.919998168945 177 177 177
30.765625000000 18.406250000000 7.933990478516 42 42 42
31.046875000000 18.390625000000 9.384002685547 146 146 146
31.078125000000 18.390625000000 9.402999877930 59 59 59
31.828125000000 18.390625000000 8.712997436523 157 157 157
31.828125000000 18.406250000000 8.718002319336 161 161 161
31.640625000000 18.375000000000 9.817001342773 154 154 154
34.390625000000 18.375000000000 7.427993774414 203 203 203
34.390625000000 18.375000000000 7.434997558594 113 113 113
34.421875000000 18.375000000000 8.503997802734 123 123 123
30.765625000000 18.718750000000 7.919998168945 181 181 181
31.062500000000 18.718750000000 9.395996093750 124 124 124
31.828125000000 18.718750000000 8.711990356445 153 153 153
31.671875000000 18.703125000000 9.825988769531 161 161 161
34.359375000000 18.687500000000 7.445999145508 187 187 187
34.390625000000 18.687500000000 7.487991333008 254 254 254
34.421875000000 18.687500000000 8.468994140625 53 53 53
30.734375000000 19.046875000000 7.921997070313 159 159 159
30.765625000000 19.062500000000 7.942993164063 143 143 143
31.078125000000 19.031250000000 9.416992187500 135 135 135
31.828125000000 19.046875000000 8.703994750977 168 168 168
31.859375000000 19.031250000000 8.712997436523 121 121 121
31.687500000000 19.031250000000 9.838989257813 158 158 158
34.359375000000 19.031250000000 7.427993774414 81 81 81
34.390625000000 19.031250000000 7.445999145508 213 213 213
34.421875000000 19.000000000000 8.519989013672 136 136 136
30.750000000000 19.375000000000 7.932998657227 184 184 184
31.062500000000 19.359375000000 9.404998779297 132 132 132
31.078125000000 19.375000000000 9.421997070313 150 150 150
31.828125000000 19.343750000000 8.692001342773 123 123 123
31.843750000000 19.359375000000 8.710998535156 153 153 153
31.671875000000 19.343750000000 9.847991943359 32 32 32
31.734375000000 19.343750000000 9.839996337891 151 151 151
34.390625000000 19.343750000000 7.440002441406 201 201 201
34.421875000000 19.343750000000 8.535995483398 110 110 110
30.718750000000 19.687500000000 7.944992065430 33 33 33
30.765625000000 19.687500000000 7.947998046875 179 179 179
31.078125000000 19.687500000000 9.430999755859 148 148 148
31.109375000000 19.671875000000 9.433990478516 113 113 113
31.828125000000 19.687500000000 8.697998046875 156 156 156
31.859375000000 19.656250000000 8.714996337891 28 28 28
31.703125000000 19.687500000000 9.845993041992 92 92 92
31.734375000000 19.671875000000 9.843002319336 141 141 141
34.359375000000 19.656250000000 7.440002441406 220 220 220
34.390625000000 19.656250000000 7.513000488281 255 255 255
30.750000000000 20.000000000000 7.945999145508 116 116 116
30.765625000000 20.000000000000 7.961990356445 150 150 150
31.078125000000 20.000000000000 9.447998046875 156 156 156
31.109375000000 20.000000000000 9.466003417969 88 88 88
31.828125000000 19.984375000000 8.690002441406 120 120 120
31.843750000000 19.984375000000 8.703994750977 152 152 152
31.718750000000 20.000000000000 9.852996826172 112 112 112
31.750000000000 20.000000000000 9.856994628906 132 132 132
34.359375000000 19.984375000000 7.447998046875 78 78 78
34.375000000000 19.968750000000 7.438995361328 204 204 204
34.421875000000 19.968750000000 8.557998657227 132 132 132
30.765625000000 20.328125000000 7.948989868164 177 177 177
30.781250000000 20.312500000000 7.973999023438 66 66 66
31.109375000000 20.312500000000 9.460998535156 123 123 123
31.828125000000 20.312500000000 8.685989379883 152 152 152
31.734375000000 20.312500000000 9.850997924805 153 153 153
31.765625000000 20.312500000000 9.879989624023 63 63 63
34.390625000000 20.312500000000 7.440002441406 211 211 211
34.390625000000 20.296875000000 7.462997436523 85 85 85
34.421875000000 20.296875000000 8.539993286133 118 118 118
30.765625000000 20.625000000000 7.961990356445 181 181 181
31.109375000000 20.640625000000 9.481994628906 137 137 137
31.843750000000 20.625000000000 8.668991088867 152 152 152
31.859375000000 20.625000000000 8.683990478516 152 152 152
31.765625000000 20.625000000000 9.856994628906 166 166 166
34.375000000000 20.625000000000 7.445999145508 216 216 216
34.390625000000 20.625000000000 7.505996704102 254 254 254
34.421875000000 20.625000000000 8.487991333008 104 104 104
30.765625000000 20.968750000000 7.958999633789 119 119 119
30.796875000000 20.953125000000 7.983993530273 147 147 147
31.093750000000 20.968750000000 9.468002319336 61 61 61
31.140625000000 20.968750000000 9.485000610352 153 153 153
31.859375000000 20.953125000000 8.682998657227 162 162 162
31.765625000000 20.968750000000 9.867996215820 170 170 170
34.359375000000 20.937500000000 7.436996459961 88 88 88
34.375000000000 20.937500000000 7.453994750977 218 218 218
34.421875000000 20.937500000000 8.519989013672 124 124 124
30.781250000000 21.296875000000 7.968002319336 182 182 182
30.796875000000 21.281250000000 8.002990722656 34 34 34
31.125000000000 21.281250000000 9.486999511719 147 147 147
31.156250000000 21.281250000000 9.501998901367 126 126 126
31.843750000000 21.281250000000 8.668991088867 158 158 158
31.859375000000 21.281250000000 8.707992553711 59 59 59
31.796875000000 21.281250000000 9.882995605469 172 172 172
34.375000000000 21.250000000000 7.442001342773 172 172 172
34.406250000000 21.250000000000 8.569000244141 107 107 107
30.765625000000 21.593750000000 7.974990844727 32 32 32
30.796875000000 21.609375000000 7.987991333008 174 174 174
31.140625000000 21.593750000000 9.502990722656 143 143 143
31.171875000000 21.593750000000 9.518997192383 18 18 18
31.828125000000 21.593750000000 8.668991088867 153 153 153
31.859375000000 21.593750000000 8.675003051758 146 146 146
31.796875000000 21.593750000000 9.880996704102 43 43 43
31.828125000000 21.593750000000 9.876998901367 148 148 148
34.375000000000 21.593750000000 7.442993164063 217 217 217
34.390625000000 21.578125000000 7.448989868164 96 96 96
34.421875000000 21.593750000000 8.501998901367 76 76 76
34.406250000000 21.578125000000 8.569000244141 119 119 119
30.765625000000 21.921875000000 7.988998413086 101 101 101
30.796875000000 21.921875000000 8.007995605469 158 158 158
31.140625000000 21.937500000000 9.520996093750 138 138 138
31.859375000000 21.921875000000 8.668991088867 163 163 163
31.875000000000 21.906250000000 8.690994262695 36 36 36
31.796875000000 21.937500000000 9.892990112305 28 28 28
31.828125000000 21.906250000000 9.892990112305 175 175 175
34.359375000000 21.906250000000 7.434997558594 82 82 82
34.390625000000 21.906250000000 7.442001342773 220 220 220
34.421875000000 21.906250000000 8.547988891602 102 102 102
30.781250000000 22.250000000000 7.998001098633 158 158 158
30.812500000000 22.234375000000 8.013992309570 118 118 118
31.171875000000 22.250000000000 9.541992187500 133 133 133
31.828125000000 22.234375000000 8.660995483398 108 108 108
31.859375000000 22.250000000000 8.673995971680 159 159 159
31.828125000000 22.234375000000 9.910003662109 43 43 43
31.859375000000 22.218750000000 9.901000976563 164 164 164
34.359375000000 22.234375000000 7.432998657227 190 190 190
34.390625000000 22.218750000000 8.550003051758 114 114 114
34.421875000000 22.218750000000 8.514999389648 87 87 87
30.796875000000 22.562500000000 8.004989624023 181 181 181
31.171875000000 22.562500000000 9.552993774414 147 147 147
31.859375000000 22.562500000000 8.662002563477 153 153 153
31.843750000000 22.546875000000 9.893997192383 140 140 140
31.875000000000 22.562500000000 9.910003662109 74 74 74
34.359375000000 22.546875000000 7.438995361328 206 206 206
34.390625000000 22.531250000000 7.429992675781 203 203 203
34.406250000000 22.546875000000 8.528991699219 134 134 134
30.765625000000 22.890625000000 8.020996093750 34 34 34
30.812500000000 22.875000000000 8.029998779297 169 169 169
31.156250000000 22.875000000000 9.546997070313 96 96 96
31.203125000000 22.875000000000 9.567001342773 152 152 152
31.859375000000 22.875000000000 8.649002075195 156 156 156
31.875000000000 22.875000000000 8.666000366211 133 133 133
31.859375000000 22.875000000000 9.902999877930 157 157 157
34.359375000000 22.859375000000 7.449996948242 63 63 63
34.375000000000 22.875000000000 7.440994262695 206 206 206
34.421875000000 22.843750000000 8.569992065430 114 114 114
30.796875000000 23.187500000000 8.032989501953 161 161 161
30.828125000000 23.187500000000 8.044998168945 108 108 108
31.171875000000 23.187500000000 9.563995361328 153 153 153
31.203125000000 23.187500000000 9.588989257813 111 111 111
31.890625000000 23.187500000000 8.660995483398 156 156 156
31.890625000000 23.187500000000 9.914993286133 150 150 150
34.375000000000 23.171875000000 7.438003540039 187 187 187
34.390625000000 23.171875000000 8.600997924805 108 108 108
34.421875000000 23.187500000000 8.514999389648 109 109 109
30.796875000000 23.515625000000 8.039993286133 185 185 185
31.187500000000 23.515625000000 9.580993652344 144 144 144
31.203125000000 23.515625000000 9.617996215820 23 23 23
31.859375000000 23.515625000000 8.651000976563 165 165 165
31.890625000000 23.515625000000 8.673995971680 78 78 78
31.921875000000 23.515625000000 9.927001953125 163 163 163
34.375000000000 23.500000000000 7.442001342773 240 240 240
34.390625000000 23.500000000000 7.429992675781 123 123 123
34.406250000000 23.500000000000 8.539001464844 124 124 124
30.828125000000 23.843750000000 8.048995971680 178 178 178
31.203125000000 23.843750000000 9.603988647461 139 139 139
31.859375000000 23.843750000000 8.647003173828 59 59 59
31.875000000000 23.843750000000 8.660003662109 158 158 158
31.921875000000 23.843750000000 9.929992675781 157 157 157
34.359375000000 23.828125000000 7.422988891602 106 106 106
34.390625000000 23.828125000000 7.433990478516 241 241 241
34.406250000000 23.828125000000 8.599990844727 134 134 134
34.437500000000 23.812500000000 8.557998657227 29 29 29
30.796875000000 24.156250000000 8.052001953125 81 81 81
30.828125000000 24.156250000000 8.065002441406 167 167 167
31.234375000000 24.156250000000 9.610992431641 132 132 132
31.859375000000 24.156250000000 8.645996093750 164 164 164
31.906250000000 24.156250000000 8.652999877930 90 90 90
31.953125000000 24.156250000000 9.936996459961 174 174 174
34.359375000000 24.156250000000 7.438003540039 199 199 199
34.390625000000 24.156250000000 7.462997436523 91 91 91
34.421875000000 24.140625000000 8.544998168945 134 134 134
30.812500000000 24.468750000000 8.061996459961 154 154 154
30.843750000000 24.468750000000 8.073989868164 96 96 96
31.234375000000 24.484375000000 9.628997802734 136 136 136
31.843750000000 24.468750000000 8.652999877930 83 83 83
31.890625000000 24.468750000000 8.657989501953 161 161 161
31.953125000000 24.468750000000 9.963989257813 164 164 164
34.359375000000 24.468750000000 7.447998046875 243 243 243
34.390625000000 24.468750000000 7.435989379883 155 155 155
34.406250000000 24.468750000000 8.546997070313 114 114 114
30.828125000000 24.812500000000 8.072998046875 189 189 189
31.218750000000 24.781250000000 9.640991210938 143 143 143
31.265625000000 24.796875000000 9.645996093750 127 127 127
31.875000000000 24.812500000000 8.641998291016 181 181 181
31.953125000000 24.781250000000 9.942001342773 145 145 145
31.984375000000 24.796875000000 9.961990356445 53 53 53
34.359375000000 24.781250000000 7.445999145508 221 221 221
34.375000000000 24.781250000000 7.440002441406 254 254 254
34.390625000000 24.781250000000 8.584991455078 131 131 131
34.421875000000 24.781250000000 8.559997558594 54 54 54
30.796875000000 25.125000000000 8.091995239258 96 96 96
30.843750000000 25.125000000000 8.095001220703 164 164 164
31.234375000000 25.125000000000 9.658996582031 159 159 159
31.265625000000 25.125000000000 9.683990478516 42 42 42
31.875000000000 25.109375000000 8.636993408203 202 202 202
31.890625000000 25.109375000000 8.651992797852 147 147 147
31.984375000000 25.093750000000 9.944000244141 167 167 167
34.359375000000 25.109375000000 7.429000854492 97 97 97
34.359375000000 25.093750000000 7.444000244141 241 241 241
34.390625000000 25.093750000000 7.473999023438 91 91 91
34.421875000000 25.093750000000 8.570999145508 138 138 138
30.828125000000 25.437500000000 8.093994140625 166 166 166
30.859375000000 25.437500000000 8.101989746094 93 93 93
31.265625000000 25.437500000000 9.673995971680 145 145 145
31.890625000000 25.437500000000 8.645996093750 154 154 154
31.984375000000 25.437500000000 9.966995239258 157 157 157
34.359375000000 25.421875000000 7.431991577148 198 198 198
34.390625000000 25.406250000000 7.440994262695 105 105 105
34.390625000000 25.406250000000 8.570999145508 115 115 115
30.859375000000 25.765625000000 8.103988647461 186 186 186
30.859375000000 25.765625000000 8.138992309570 30 30 30
31.265625000000 25.750000000000 9.698989868164 159 159 159
31.859375000000 25.750000000000 8.641998291016 165 165 165
31.906250000000 25.750000000000 8.649993896484 126 126 126
32.015625000000 25.750000000000 9.983001708984 165 165 165
34.359375000000 25.750000000000 7.447998046875 254 254 254
34.390625000000 25.750000000000 7.432998657227 254 254 254
34.390625000000 25.734375000000 8.613998413086 107 107 107
34.421875000000 25.718750000000 8.569992065430 109 109 109
30.859375000000 26.062500000000 8.121994018555 187 187 187
31.296875000000 26.062500000000 9.718994140625 138 138 138
31.890625000000 26.062500000000 8.639999389648 165 165 165
32.015625000000 26.078125000000 9.985992431641 155 155 155
34.343750000000 26.062500000000 7.432998657227 118 118 118
