18.562500000000 8.046875000000 9.829986572266 132 132 132
18.546875000000 7.984375000000 8.412994384766 202 202 202
18.531250000000 7.984375000000 8.426986694336 105 105 105
22.171875000000 10.234375000000 8.764999389648 134 134 134
22.531250000000 10.484375000000 10.146987915039 123 123 123
22.343750000000 10.421875000000 11.112991333008 75 75 75
22.328125000000 10.421875000000 11.128997802734 50 50 50
21.171875000000 9.734375000000 9.559997558594 122 122 122
21.140625000000 9.718750000000 9.571990966797 81 81 81
18.562500000000 8.359375000000 9.826995849609 123 123 123
18.531250000000 8.359375000000 9.797988891602 106 106 106
18.531250000000 8.296875000000 8.407989501953 195 195 195
18.531250000000 8.296875000000 8.413986206055 89 89 89
22.187500000000 10.546875000000 8.753997802734 58 58 58
22.156250000000 10.531250000000 8.776992797852 100 100 100
22.500000000000 10.781250000000 10.155990600586 123 123 123
22.343750000000 10.718750000000 11.102996826172 89 89 89
22.312500000000 10.718750000000 11.131988525391 37 37 37
21.156250000000 10.015625000000 9.562988281250 158 158 158
18.562500000000 8.671875000000 9.810989379883 130 130 130
18.531250000000 8.656250000000 9.799987792969 71 71 71
18.546875000000 8.593750000000 8.412994384766 46 46 46
18.531250000000 8.593750000000 8.410995483398 198 198 198
18.515625000000 8.578125000000 8.405990600586 78 78 78
22.171875000000 10.859375000000 8.769989013672 117 117 117
22.484375000000 11.093750000000 10.166992187500 131 131 131
22.312500000000 11.031250000000 11.108993530273 76 76 76
22.281250000000 11.015625000000 11.138000488281 55 55 55
21.125000000000 10.328125000000 9.571990966797 159 159 159
18.562500000000 8.968750000000 9.800994873047 129 129 129
18.531250000000 8.953125000000 9.799987792969 30 30 30
18.531250000000 8.921875000000 8.414993286133 41 41 41
18.515625000000 8.906250000000 8.417999267578 188 188 188
18.500000000000 8.906250000000 8.417999267578 56 56 56
22.156250000000 11.156250000000 8.767990112305 118 118 118
22.468750000000 11.390625000000 10.178985595703 119 119 119
22.281250000000 11.328125000000 11.106994628906 82 82 82
22.250000000000 11.328125000000 11.142990112305 37 37 37
21.125000000000 10.640625000000 9.579986572266 145 145 145
18.531250000000 9.281250000000 9.791992187500 118 118 118
18.515625000000 9.203125000000 8.439987182617 100 100 100
18.500000000000 9.203125000000 8.416992187500 210 210 210
18.500000000000 9.203125000000 8.420989990234 44 44 44
22.171875000000 11.468750000000 8.768997192383 133 133 133
22.453125000000 11.703125000000 10.192993164063 118 118 118
22.281250000000 11.640625000000 11.117996215820 105 105 105
21.140625000000 10.968750000000 9.573989868164 136 136 136
21.125000000000 10.953125000000 9.579986572266 64 64 64
18.546875000000 9.578125000000 9.782989501953 57 57 57
18.531250000000 9.578125000000 9.782989501953 136 136 136
18.515625000000 9.515625000000 8.430999755859 206 206 206
18.500000000000 9.515625000000 8.422988891602 217 217 217
22.156250000000 11.781250000000 8.752990722656 31 31 31
22.140625000000 11.781250000000 8.773986816406 106 106 106
22.437500000000 11.984375000000 10.200988769531 105 105 105
22.250000000000 11.921875000000 11.126998901367 122 122 122
21.125000000000 11.265625000000 9.578994750977 162 162 162
18.531250000000 9.890625000000 9.786987304688 125 125 125
18.500000000000 9.875000000000 9.784988403320 108 108 108
18.500000000000 9.812500000000 8.436996459961 231 231 231
18.500000000000 9.812500000000 8.419998168945 198 198 198
22.156250000000 12.078125000000 8.766998291016 126 126 126
22.453125000000 12.312500000000 10.192993164063 20 20 20
22.437500000000 12.296875000000 10.219985961914 102 102 102
22.218750000000 12.234375000000 11.129989624023 134 134 134
21.093750000000 11.546875000000 9.579986572266 147 147 147
18.531250000000 10.187500000000 9.785995483398 125 125 125
18.500000000000 10.125000000000 8.430999755859 224 224 224
18.484375000000 10.125000000000 8.437988281250 118 118 118
22.156250000000 12.421875000000 8.759994506836 35 35 35
22.125000000000 12.390625000000 8.774993896484 104 104 104
22.437500000000 12.625000000000 10.215988159180 46 46 46
22.406250000000 12.593750000000 10.220993041992 86 86 86
22.203125000000 12.531250000000 11.132995605469 144 144 144
21.109375000000 11.875000000000 9.584991455078 118 118 118
21.093750000000 11.859375000000 9.594985961914 88 88 88
18.515625000000 10.500000000000 9.776992797852 128 128 128
18.515625000000 10.453125000000 8.451995849609 76 76 76
18.484375000000 10.437500000000 8.436996459961 211 211 211
18.468750000000 10.421875000000 8.432998657227 69 69 69
22.156250000000 12.718750000000 8.771987915039 105 105 105
22.125000000000 12.703125000000 8.784988403320 29 29 29
22.406250000000 12.921875000000 10.218994140625 39 39 39
22.375000000000 12.890625000000 10.229995727539 103 103 103
22.171875000000 12.828125000000 11.131988525391 127 127 127
21.093750000000 12.187500000000 9.593994140625 147 147 147
21.078125000000 12.171875000000 9.604995727539 38 38 38
18.500000000000 10.796875000000 9.787994384766 124 124 124
18.500000000000 10.750000000000 8.459991455078 102 102 102
18.468750000000 10.734375000000 8.442993164063 214 214 214
18.468750000000 10.734375000000 8.441986083984 43 43 43
22.125000000000 13.000000000000 8.780990600586 125 125 125
22.406250000000 13.234375000000 10.232986450195 47 47 47
22.375000000000 13.203125000000 10.246994018555 88 88 88
22.156250000000 13.125000000000 11.149993896484 135 135 135
21.093750000000 12.484375000000 9.593994140625 160 160 160
18.515625000000 11.109375000000 9.766998291016 84 84 84
18.500000000000 11.109375000000 9.783996582031 134 134 134
18.500000000000 11.046875000000 8.446990966797 211 211 211
18.468750000000 11.031250000000 8.434997558594 232 232 232
22.125000000000 13.328125000000 8.766998291016 111 111 111
22.125000000000 13.328125000000 8.791992187500 38 38 38
22.390625000000 13.531250000000 10.246994018555 65 65 65
22.343750000000 13.515625000000 10.255996704102 71 71 71
22.125000000000 13.421875000000 11.151992797852 145 145 145
21.093750000000 12.796875000000 9.590988159180 51 51 51
21.062500000000 12.796875000000 9.604995727539 133 133 133
18.500000000000 11.406250000000 9.770996093750 132 132 132
18.484375000000 11.390625000000 9.769989013672 70 70 70
18.500000000000 11.343750000000 8.444000244141 252 252 252
18.468750000000 11.328125000000 8.440994262695 195 195 195
22.125000000000 13.625000000000 8.778991699219 123 123 123
22.359375000000 13.812500000000 10.240997314453 75 75 75
22.343750000000 13.812500000000 10.269989013672 61 61 61
22.109375000000 13.734375000000 11.150985717773 136 136 136
21.093750000000 13.109375000000 9.602996826172 140 140 140
21.062500000000 13.093750000000 9.616989135742 61 61 61
18.484375000000 11.718750000000 9.778991699219 121 121 121
18.484375000000 11.656250000000 8.453994750977 217 217 217
18.453125000000 11.640625000000 8.449996948242 86 86 86
22.125000000000 13.937500000000 8.766998291016 111 111 111
22.109375000000 13.953125000000 8.793991088867 49 49 49
22.359375000000 14.140625000000 10.274993896484 88 88 88
22.328125000000 14.125000000000 10.300994873047 28 28 28
22.093750000000 14.015625000000 11.142990112305 129 129 129
21.062500000000 13.406250000000 9.607986450195 164 164 164
18.500000000000 12.031250000000 9.756988525391 56 56 56
18.468750000000 12.015625000000 9.761993408203 134 134 134
18.484375000000 11.968750000000 8.468994140625 104 104 104
18.468750000000 11.953125000000 8.452987670898 216 216 216
22.109375000000 14.250000000000 8.783996582031 130 130 130
22.343750000000 14.421875000000 10.273986816406 98 98 98
22.062500000000 14.328125000000 11.160995483398 126 126 126
21.093750000000 13.734375000000 9.604995727539 56 56 56
21.062500000000 13.718750000000 9.617996215820 133 133 133
18.500000000000 12.328125000000 9.765991210938 128 128 128
18.468750000000 12.328125000000 9.750991821289 103 103 103
18.468750000000 12.281250000000 8.469985961914 163 163 163
18.468750000000 12.265625000000 8.451995849609 202 202 202
22.125000000000 14.562500000000 8.770996093750 69 69 69
22.109375000000 14.546875000000 8.794998168945 88 88 88
22.312500000000 14.734375000000 10.298995971680 94 94 94
22.296875000000 14.734375000000 10.315994262695 25 25 25
22.046875000000 14.625000000000 11.166000366211 132 132 132
21.078125000000 14.015625000000 9.611999511719 110 110 110
21.046875000000 14.015625000000 9.620986938477 100 100 100
18.468750000000 12.625000000000 9.766998291016 135 135 135
18.468750000000 12.625000000000 9.760986328125 80 80 80
18.468750000000 12.578125000000 8.462997436523 184 184 184
18.453125000000 12.578125000000 8.446990966797 212 212 212
22.125000000000 14.890625000000 8.789993286133 136 136 136
22.296875000000 15.031250000000 10.298995971680 101 101 101
22.281250000000 15.015625000000 10.315994262695 17 17 17
22.031250000000 14.921875000000 11.159988403320 126 126 126
21.046875000000 14.328125000000 9.615997314453 155 155 155
18.468750000000 12.937500000000 9.764999389648 129 129 129
18.453125000000 12.890625000000 8.462997436523 227 227 227
18.437500000000 12.875000000000 8.461990356445 196 196 196
22.125000000000 15.187500000000 8.776992797852 53 53 53
22.093750000000 15.171875000000 8.791992187500 98 98 98
22.281250000000 15.343750000000 10.311996459961 116 116 116
22.000000000000 15.234375000000 11.169998168945 117 117 117
21.046875000000 14.640625000000 9.625000000000 158 158 158
18.484375000000 13.265625000000 9.764999389648 70 70 70
18.453125000000 13.234375000000 9.766998291016 140 140 140
18.437500000000 13.203125000000 8.467987060547 197 197 197
18.406250000000 13.187500000000 8.470993041992 66 66 66
22.109375000000 15.500000000000 8.793991088867 131 131 131
22.265625000000 15.640625000000 10.334991455078 116 116 116
22.000000000000 15.546875000000 11.178985595703 49 49 49
21.968750000000 15.531250000000 11.177993774414 73 73 73
21.031250000000 14.953125000000 9.626998901367 137 137 137
21.031250000000 14.953125000000 9.640991210938 58 58 58
18.453125000000 13.562500000000 9.757995605469 134 134 134
18.437500000000 13.515625000000 8.475997924805 106 106 106
18.437500000000 13.500000000000 8.458999633789 210 210 210
22.109375000000 15.796875000000 8.775985717773 88 88 88
22.093750000000 15.796875000000 8.802993774414 75 75 75
22.250000000000 15.953125000000 10.347000122070 108 108 108
22.000000000000 15.843750000000 11.180999755859 76 76 76
21.953125000000 15.828125000000 11.186996459961 31 31 31
21.031250000000 15.265625000000 9.636993408203 158 158 158
18.453125000000 13.859375000000 9.759994506836 127 127 127
18.437500000000 13.796875000000 8.480987548828 201 201 201
18.421875000000 13.796875000000 8.472991943359 214 214 214
22.093750000000 16.109375000000 8.788986206055 128 128 128
22.234375000000 16.250000000000 10.350997924805 108 108 108
21.968750000000 16.140625000000 11.182998657227 83 83 83
21.937500000000 16.125000000000 11.197998046875 38 38 38
21.015625000000 15.546875000000 9.641998291016 148 148 148
18.453125000000 14.171875000000 9.755996704102 67 67 67
18.421875000000 14.156250000000 9.739990234375 130 130 130
18.421875000000 14.093750000000 8.474990844727 216 216 216
18.406250000000 14.093750000000 8.469985961914 202 202 202
22.109375000000 16.421875000000 8.796997070313 23 23 23
22.093750000000 16.421875000000 8.804992675781 111 111 111
22.218750000000 16.562500000000 10.367996215820 101 101 101
21.937500000000 16.453125000000 11.185989379883 83 83 83
21.906250000000 16.421875000000 11.194992065430 35 35 35
21.031250000000 15.890625000000 9.639999389648 117 117 117
21.000000000000 15.859375000000 9.647994995117 90 90 90
18.453125000000 14.468750000000 9.745986938477 124 124 124
18.421875000000 14.453125000000 9.741989135742 116 116 116
18.406250000000 14.421875000000 8.470993041992 218 218 218
18.390625000000 14.406250000000 8.474990844727 191 191 191
22.093750000000 16.750000000000 8.801986694336 123 123 123
22.250000000000 16.875000000000 10.370986938477 40 40 40
22.187500000000 16.859375000000 10.376998901367 92 92 92
21.921875000000 16.734375000000 11.184997558594 89 89 89
21.906250000000 16.734375000000 11.201995849609 17 17 17
21.031250000000 16.171875000000 9.647994995117 161 161 161
18.437500000000 14.796875000000 9.746994018555 133 133 133
18.406250000000 14.703125000000 8.467987060547 213 213 213
18.390625000000 14.703125000000 8.480987548828 96 96 96
22.093750000000 17.046875000000 8.783996582031 22 22 22
22.078125000000 17.046875000000 8.808990478516 107 107 107
22.218750000000 17.187500000000 10.373992919922 76 76 76
22.187500000000 17.171875000000 10.392990112305 55 55 55
21.890625000000 17.046875000000 11.191986083984 133 133 133
21.015625000000 16.500000000000 9.644989013672 27 27 27
21.000000000000 16.484375000000 9.657989501953 142 142 142
18.406250000000 15.078125000000 9.731994628906 132 132 132
18.406250000000 15.015625000000 8.477996826172 42 42 42
18.390625000000 15.015625000000 8.474990844727 198 198 198
22.093750000000 17.343750000000 8.800994873047 133 133 133
22.187500000000 17.484375000000 10.390991210938 103 103 103
21.875000000000 17.328125000000 11.191986083984 142 142 142
21.000000000000 16.796875000000 9.656997680664 149 149 149
20.984375000000 16.796875000000 9.671997070313 31 31 31
18.421875000000 15.390625000000 9.737991333008 139 139 139
18.406250000000 15.375000000000 9.722991943359 84 84 84
18.406250000000 15.343750000000 8.464996337891 201 201 201
18.375000000000 15.328125000000 8.469985961914 201 201 201
22.093750000000 17.671875000000 8.803985595703 50 50 50
22.062500000000 17.671875000000 8.822998046875 96 96 96
22.171875000000 17.765625000000 10.405990600586 121 121 121
21.843750000000 17.625000000000 11.207992553711 137 137 137
21.000000000000 17.093750000000 9.661987304688 165 165 165
18.406250000000 15.687500000000 9.735992431641 128 128 128
18.375000000000 15.640625000000 8.472991943359 215 215 215
18.375000000000 15.625000000000 8.488998413086 121 121 121
22.062500000000 17.953125000000 8.808990478516 117 117 117
22.156250000000 18.078125000000 10.416992187500 119 119 119
21.828125000000 17.937500000000 11.209991455078 139 139 139
21.000000000000 17.421875000000 9.664993286133 60 60 60
20.968750000000 17.406250000000 9.674987792969 128 128 128
18.406250000000 16.000000000000 9.726989746094 129 129 129
18.375000000000 15.937500000000 8.477996826172 191 191 191
18.375000000000 15.937500000000 8.475997924805 55 55 55
22.062500000000 18.265625000000 8.816986083984 124 124 124
22.125000000000 18.375000000000 10.427993774414 125 125 125
21.812500000000 18.234375000000 11.217987060547 139 139 139
20.984375000000 17.718750000000 9.670989990234 135 135 135
20.953125000000 17.703125000000 9.690994262695 62 62 62
18.406250000000 16.312500000000 9.726989746094 94 94 94
18.390625000000 16.296875000000 9.714996337891 132 132 132
18.375000000000 16.265625000000 8.487991333008 39 39 39
18.375000000000 16.250000000000 8.482986450195 179 179 179
22.062500000000 18.593750000000 8.819992065430 94 94 94
22.031250000000 18.578125000000 8.838989257813 42 42 42
22.125000000000 18.687500000000 10.439987182617 116 116 116
21.796875000000 18.546875000000 11.235992431641 135 135 135
20.953125000000 18.015625000000 9.681991577148 165 165 165
18.390625000000 16.609375000000 9.716995239258 141 141 141
18.375000000000 16.593750000000 9.720993041992 44 44 44
18.375000000000 16.562500000000 8.486999511719 179 179 179
18.343750000000 16.546875000000 8.479995727539 174 174 174
22.062500000000 18.890625000000 8.829986572266 125 125 125
22.093750000000 18.984375000000 10.459991455078 105 105 105
21.796875000000 18.859375000000 11.301986694336 120 120 120
20.953125000000 18.328125000000 9.684997558594 129 129 129
18.375000000000 16.906250000000 9.718994140625 125 125 125
18.375000000000 16.859375000000 8.492996215820 175 175 175
22.046875000000 19.203125000000 8.824996948242 96 96 96
22.031250000000 19.203125000000 8.840988159180 58 58 58
22.093750000000 19.281250000000 10.475997924805 101 101 101
20.984375000000 18.640625000000 9.735000610352 195 195 195
20.937500000000 18.625000000000 9.711990356445 55 55 55
18.390625000000 17.234375000000 9.725997924805 100 100 100
18.359375000000 17.218750000000 9.704986572266 124 124 124
18.375000000000 17.171875000000 8.508987426758 97 97 97
18.343750000000 17.156250000000 8.496994018555 202 202 202
22.046875000000 19.500000000000 8.841995239258 127 127 127
22.062500000000 19.593750000000 10.492996215820 97 97 97
20.937500000000 18.937500000000 9.700988769531 163 163 163
18.375000000000 17.515625000000 9.707992553711 136 136 136
18.359375000000 17.515625000000 9.703994750977 40 40 40
18.359375000000 17.484375000000 8.500991821289 191 191 191
18.343750000000 17.468750000000 8.497985839844 123 123 123
22.062500000000 19.843750000000 8.829986572266 33 33 33
22.031250000000 19.828125000000 8.841995239258 107 107 107
22.078125000000 19.921875000000 10.490997314453 36 36 36
22.046875000000 19.906250000000 10.513992309570 94 94 94
20.937500000000 19.250000000000 9.707992553711 147 147 147
18.343750000000 17.843750000000 9.711990356445 128 128 128
18.343750000000 17.781250000000 8.504989624023 178 178 178
22.046875000000 20.140625000000 8.847000122070 108 108 108
22.015625000000 20.109375000000 8.865997314453 28 28 28
22.078125000000 20.218750000000 10.513992309570 18 18 18
22.046875000000 20.203125000000 10.519989013672 96 96 96
20.937500000000 19.578125000000 9.709991455078 103 103 103
20.937500000000 19.578125000000 9.750991821289 149 149 149
18.375000000000 18.156250000000 9.722000122070 89 89 89
18.343750000000 18.140625000000 9.705993652344 132 132 132
18.343750000000 18.093750000000 8.515991210938 139 139 139
18.328125000000 18.078125000000 8.503997802734 193 193 193
22.031250000000 20.421875000000 8.854995727539 132 132 132
22.062500000000 20.515625000000 10.511993408203 46 46 46
22.031250000000 20.500000000000 10.535995483398 89 89 89
20.937500000000 19.859375000000 9.731994628906 149 149 149
21.687500000000 20.343750000000 11.308990478516 101 101 101
18.343750000000 18.453125000000 9.707992553711 136 136 136
18.343750000000 18.437500000000 9.719985961914 67 67 67
18.328125000000 18.406250000000 8.519989013672 186 186 186
18.312500000000 18.390625000000 8.519989013672 55 55 55
22.031250000000 20.750000000000 8.851989746094 68 68 68
22.000000000000 20.734375000000 8.870986938477 85 85 85
22.031250000000 20.828125000000 10.531997680664 64 64 64
22.000000000000 20.796875000000 10.538986206055 78 78 78
20.906250000000 20.156250000000 9.723999023438 160 160 160
21.625000000000 20.625000000000 11.278991699219 127 127 127
18.343750000000 18.750000000000 9.710998535156 127 127 127
18.343750000000 18.703125000000 8.543991088867 68 68 68
18.312500000000 18.703125000000 8.510986328125 189 189 189
22.031250000000 21.062500000000 8.863998413086 124 124 124
22.031250000000 21.125000000000 10.545989990234 51 51 51
22.000000000000 21.109375000000 10.562988281250 83 83 83
20.937500000000 20.500000000000 9.743988037109 22 22 22
20.890625000000 20.468750000000 9.736999511719 149 149 149
21.625000000000 20.937500000000 11.279998779297 134 134 134
18.343750000000 19.078125000000 9.724990844727 106 106 106
18.343750000000 19.062500000000 9.707992553711 121 121 121
18.343750000000 19.031250000000 8.517990112305 194 194 194
18.312500000000 19.015625000000 8.514999389648 157 157 157
22.015625000000 21.375000000000 8.873992919922 134 134 134
22.000000000000 21.437500000000 10.549987792969 29 29 29
21.984375000000 21.437500000000 10.578994750977 99 99 99
20.906250000000 20.796875000000 9.736999511719 94 94 94
20.875000000000 20.765625000000 9.747985839844 119 119 119
21.593750000000 21.234375000000 11.280990600586 137 137 137
18.343750000000 19.375000000000 9.709991455078 136 136 136
18.312500000000 19.359375000000 9.712997436523 65 65 65
18.312500000000 19.328125000000 8.525985717773 197 197 197
18.296875000000 19.312500000000 8.541000366211 66 66 66
22.015625000000 21.671875000000 8.884994506836 119 119 119
21.968750000000 21.718750000000 10.582000732422 113 113 113
20.906250000000 21.109375000000 9.751998901367 114 114 114
20.875000000000 21.078125000000 9.756988525391 100 100 100
21.562500000000 21.531250000000 11.291000366211 141 141 141
18.328125000000 19.687500000000 9.705993652344 136 136 136
18.312500000000 19.625000000000 8.521987915039 170 170 170
22.000000000000 22.000000000000 8.873992919922 93 93 93
22.000000000000 21.984375000000 8.896987915039 49 49 49
21.937500000000 22.031250000000 10.592987060547 114 114 114
20.875000000000 21.390625000000 9.752990722656 154 154 154
21.562500000000 21.828125000000 11.300994873047 141 141 141
18.312500000000 19.984375000000 9.710998535156 130 130 130
18.312500000000 19.937500000000 8.541000366211 68 68 68
18.296875000000 19.937500000000 8.520996093750 179 179 179
22.000000000000 22.296875000000 8.888992309570 128 128 128
21.937500000000 22.328125000000 10.604995727539 105 105 105
20.859375000000 21.718750000000 9.769989013672 155 155 155
21.531250000000 22.140625000000 11.303985595703 143 143 143
18.312500000000 20.296875000000 9.709991455078 140 140 140
18.296875000000 20.281250000000 9.705993652344 49 49 49
18.296875000000 20.234375000000 8.531997680664 186 186 186
18.281250000000 20.234375000000 8.528991699219 115 115 115
22.000000000000 22.625000000000 8.879989624023 42 42 42
21.968750000000 22.609375000000 8.898986816406 98 98 98
21.921875000000 22.640625000000 10.631988525391 105 105 105
20.875000000000 22.031250000000 9.765991210938 84 84 84
20.859375000000 22.015625000000 9.771987915039 125 125 125
21.531250000000 22.453125000000 11.319000244141 138 138 138
18.312500000000 20.609375000000 9.701995849609 135 135 135
18.281250000000 20.562500000000 8.528991699219 161 161 161
22.000000000000 22.921875000000 8.897994995117 113 113 113
21.906250000000 22.937500000000 10.650985717773 102 102 102
20.875000000000 22.343750000000 9.777999877930 145 145 145
20.828125000000 22.328125000000 9.779998779297 46 46 46
21.500000000000 22.750000000000 11.328994750977 139 139 139
18.312500000000 20.921875000000 9.705993652344 126 126 126
18.281250000000 20.906250000000 9.699996948242 112 112 112
18.281250000000 20.859375000000 8.542999267578 103 103 103
18.281250000000 20.859375000000 8.528991699219 173 173 173
21.984375000000 23.234375000000 8.914993286133 123 123 123
21.906250000000 23.265625000000 10.640991210938 43 43 43
21.875000000000 23.250000000000 10.656997680664 87 87 87
20.843750000000 22.640625000000 9.784988403320 157 157 157
21.468750000000 23.046875000000 11.338989257813 136 136 136
18.281250000000 21.218750000000 9.702987670898 133 133 133
18.281250000000 21.171875000000 8.526992797852 180 180 180
18.281250000000 21.156250000000 8.535995483398 76 76 76
22.000000000000 23.546875000000 8.911987304688 92 92 92
21.968750000000 23.531250000000 8.928985595703 63 63 63
21.890625000000 23.578125000000 10.650985717773 30 30 30
21.875000000000 23.562500000000 10.670989990234 88 88 88
20.859375000000 22.968750000000 9.791992187500 67 67 67
20.843750000000 22.953125000000 9.802993774414 134 134 134
21.453125000000 23.343750000000 11.335998535156 133 133 133
18.312500000000 21.546875000000 9.710998535156 56 56 56
18.281250000000 21.515625000000 9.698989868164 132 132 132
18.281250000000 21.484375000000 8.529998779297 155 155 155
21.968750000000 23.859375000000 8.917999267578 128 128 128
21.875000000000 23.875000000000 10.667999267578 47 47 47
21.843750000000 23.859375000000 10.694992065430 82 82 82
20.859375000000 23.265625000000 9.804992675781 143 143 143
20.812500000000 23.234375000000 9.805999755859 67 67 67
21.437500000000 23.656250000000 11.350997924805 137 137 137
18.296875000000 21.828125000000 9.705993652344 139 139 139
18.281250000000 21.828125000000 9.694992065430 41 41 41
18.281250000000 21.796875000000 8.533996582031 127 127 127
18.250000000000 21.765625000000 8.538986206055 174 174 174
21.984375000000 24.171875000000 8.917999267578 52 52 52
21.968750000000 24.171875000000 8.938995361328 96 96 96
21.859375000000 24.187500000000 10.679992675781 83 83 83
21.843750000000 24.171875000000 10.711990356445 48 48 48
20.828125000000 23.578125000000 9.805999755859 161 161 161
21.406250000000 23.953125000000 11.357986450195 133 133 133
18.312500000000 22.156250000000 9.704986572266 29 29 29
18.281250000000 22.140625000000 9.694992065430 132 132 132
18.265625000000 22.109375000000 8.532989501953 171 171 171
21.968750000000 24.484375000000 8.934997558594 128 128 128
21.843750000000 24.484375000000 10.696990966797 110 110 110
20.828125000000 23.890625000000 9.810989379883 101 101 101
20.812500000000 23.875000000000 9.822998046875 106 106 106
21.390625000000 24.265625000000 11.375991821289 135 135 135
18.281250000000 22.453125000000 9.699996948242 139 139 139
18.250000000000 22.406250000000 8.541992187500 138 138 138
18.250000000000 22.390625000000 8.538986206055 180 180 180
22.000000000000 24.812500000000 8.942993164063 54 54 54
21.953125000000 24.796875000000 8.944000244141 93 93 93
21.812500000000 24.781250000000 10.712997436523 117 117 117
20.812500000000 24.203125000000 9.832000732422 157 157 157
21.343750000000 24.546875000000 11.373992919922 128 128 128
18.250000000000 22.765625000000 9.715988159180 137 137 137
18.250000000000 22.703125000000 8.551986694336 170 170 170
18.234375000000 22.703125000000 8.539993286133 60 60 60
21.968750000000 25.109375000000 8.949996948242 134 134 134
21.812500000000 25.078125000000 10.740997314453 127 127 127
20.796875000000 24.484375000000 9.835998535156 151 151 151
21.343750000000 24.859375000000 11.389999389648 117 117 117
18.250000000000 23.078125000000 9.713989257813 135 135 135
18.250000000000 23.062500000000 9.715988159180 71 71 71
18.234375000000 23.015625000000 8.542999267578 165 165 165
21.937500000000 25.421875000000 8.962997436523 107 107 107
21.781250000000 25.406250000000 10.757995605469 128 128 128
20.812500000000 24.812500000000 9.836990356445 112 112 112
20.781250000000 24.796875000000 9.850997924805 94 94 94
21.359375000000 25.171875000000 11.397994995117 15 15 15
21.312500000000 25.156250000000 11.402999877930 124 124 124
18.250000000000 23.390625000000 9.716995239258 130 130 130
18.250000000000 23.328125000000 8.544998168945 172 172 172
18.234375000000 23.328125000000 8.544998168945 150 150 150
21.953125000000 25.734375000000 8.967987060547 118 118 118
21.750000000000 25.703125000000 10.767990112305 134 134 134
20.796875000000 25.140625000000 9.863998413086 158 158 158
21.328125000000 25.484375000000 11.405990600586 41 41 41
21.281250000000 25.453125000000 11.406997680664 107 107 107
18.250000000000 23.687500000000 9.720993041992 135 135 135
18.250000000000 23.687500000000 9.717987060547 79 79 79
18.218750000000 23.625000000000 8.564987182617 158 158 158
21.953125000000 26.046875000000 8.978988647461 111 111 111
21.750000000000 26.015625000000 10.794998168945 122 122 122
20.812500000000 25.437500000000 9.866989135742 66 66 66
20.781250000000 25.421875000000 9.862991333008 133 133 133
21.312500000000 25.796875000000 11.417999267578 69 69 69
21.265625000000 25.765625000000 11.416000366211 88 88 88
18.250000000000 24.000000000000 9.715988159180 134 134 134
18.218750000000 23.937500000000 8.560989379883 179 179 179
18.218750000000 23.937500000000 8.562988281250 127 127 127
21.968750000000 26.343750000000 8.974990844727 120 120 120
21.718750000000 26.312500000000 10.814987182617 109 109 109
20.781250000000 25.734375000000 9.866989135742 144 144 144
20.750000000000 25.718750000000 9.878997802734 31 31 31
21.281250000000 26.078125000000 11.423995971680 88 88 88
21.250000000000 26.062500000000 11.440994262695 65 65 65
18.250000000000 24.312500000000 9.715988159180 139 139 139
18.218750000000 24.296875000000 9.722991943359 65 65 65
18.218750000000 24.265625000000 8.575988769531 44 44 44
18.203125000000 24.250000000000 8.565994262695 169 169 169
21.953125000000 26.671875000000 8.978988647461 31 31 31
21.937500000000 26.656250000000 8.998992919922 107 107 107
21.750000000000 26.625000000000 10.821990966797 36 36 36
21.703125000000 26.609375000000 10.824996948242 87 87 87
20.765625000000 26.046875000000 9.888000488281 153 153 153
21.250000000000 26.375000000000 11.423995971680 111 111 111
21.218750000000 26.359375000000 11.449996948242 29 29 29
18.218750000000 24.609375000000 9.713989257813 134 134 134
18.218750000000 24.562500000000 8.563995361328 185 185 185
18.187500000000 24.546875000000 8.570999145508 99 99 99
21.953125000000 26.968750000000 8.994995117188 122 122 122
21.718750000000 26.937500000000 10.827987670898 56 56 56
21.687500000000 26.906250000000 10.847000122070 59 59 59
20.781250000000 26.359375000000 9.900985717773 116 116 116
20.750000000000 26.328125000000 9.896987915039 90 90 90
21.234375000000 26.687500000000 11.448989868164 111 111 111
18.218750000000 24.921875000000 9.725997924805 138 138 138
18.218750000000 24.921875000000 9.712997436523 75 75 75
18.218750000000 24.890625000000 8.589996337891 52 52 52
18.187500000000 24.859375000000 8.578994750977 173 173 173
21.937500000000 27.296875000000 9.011993408203 126 126 126
21.687500000000 27.234375000000 10.842987060547 45 45 45
21.671875000000 27.218750000000 10.863998413086 73 73 73
20.750000000000 26.671875000000 9.908996582031 154 154 154
21.218750000000 26.984375000000 11.454986572266 100 100 100
21.171875000000 26.953125000000 11.453994750977 37 37 37
18.218750000000 25.234375000000 9.718994140625 135 135 135
18.187500000000 25.171875000000 8.583999633789 169 169 169
18.187500000000 25.171875000000 8.574996948242 178 178 178
21.937500000000 27.609375000000 9.006988525391 95 95 95
21.906250000000 27.593750000000 9.028991699219 55 55 55
21.687500000000 27.546875000000 10.873992919922 64 64 64
21.656250000000 27.515625000000 10.885986328125 59 59 59
20.750000000000 26.953125000000 9.912994384766 152 152 152
21.187500000000 27.281250000000 11.466995239258 118 118 118
21.156250000000 27.265625000000 11.488998413086 27 27 27
18.218750000000 25.531250000000 9.723999023438 83 83 83
18.218750000000 25.531250000000 9.719985961914 132 132 132
18.187500000000 25.484375000000 8.578994750977 170 170 170
21.906250000000 27.906250000000 9.020996093750 118 118 118
21.656250000000 27.828125000000 10.890991210938 102 102 102
20.750000000000 27.296875000000 9.924987792969 132 132 132
20.718750000000 27.265625000000 9.928985595703 68 68 68
21.156250000000 27.578125000000 11.474990844727 118 118 118
18.187500000000 25.843750000000 9.729995727539 136 136 136
18.187500000000 25.796875000000 8.577987670898 175 175 175
18.171875000000 25.796875000000 8.573989868164 178 178 178
21.906250000000 28.203125000000 9.022994995117 107 107 107
21.656250000000 28.125000000000 10.903991699219 131 131 131
20.718750000000 27.578125000000 9.927993774414 152 152 152
21.156250000000 27.859375000000 11.480987548828 130 130 130
18.218750000000 26.156250000000 9.718994140625 125 125 125
18.187500000000 26.140625000000 9.728988647461 103 103 103
18.171875000000 26.109375000000 8.579986572266 170 170 170
21.906250000000 28.515625000000 9.047988891602 129 129 129
21.625000000000 28.437500000000 10.930999755859 131 131 131
20.750000000000 27.890625000000 9.948989868164 107 107 107
20.718750000000 27.875000000000 9.948989868164 102 102 102
21.125000000000 28.171875000000 11.502990722656 136 136 136
18.187500000000 26.468750000000 9.725997924805 138 138 138
18.171875000000 26.406250000000 8.585998535156 182 182 182
18.156250000000 26.390625000000 8.580993652344 148 148 148
21.906250000000 28.859375000000 9.045989990234 56 56 56
21.906250000000 28.859375000000 9.067993164063 85 85 85
21.609375000000 28.765625000000 10.949996948242 127 127 127
20.718750000000 28.203125000000 9.954986572266 150 150 150
20.687500000000 28.187500000000 9.967987060547 24 24 24
21.093750000000 28.484375000000 11.510986328125 120 120 120
18.187500000000 26.765625000000 9.714996337891 134 134 134
18.156250000000 26.718750000000 8.584991455078 179 179 179
21.906250000000 29.156250000000 9.066986083984 122 122 122
21.593750000000 29.046875000000 10.970993041992 123 123 123
20.687500000000 28.515625000000 9.966995239258 155 155 155
21.093750000000 28.781250000000 11.523986816406 129 129 129
18.187500000000 27.078125000000 9.737991333008 131 131 131
18.156250000000 27.046875000000 9.712997436523 86 86 86
18.156250000000 27.015625000000 8.611999511719 88 88 88
18.156250000000 27.015625000000 8.589996337891 178 178 178
21.906250000000 29.468750000000 9.085998535156 119 119 119
21.578125000000 29.359375000000 10.993988037109 138 138 138
20.718750000000 28.828125000000 9.959991455078 107 107 107
20.687500000000 28.812500000000 9.970993041992 104 104 104
21.062500000000 29.078125000000 11.534988403320 126 126 126
18.156250000000 27.359375000000 9.733993530273 135 135 135
18.156250000000 27.328125000000 8.608993530273 159 159 159
18.140625000000 27.312500000000 8.598999023438 51 51 51
21.906250000000 29.765625000000 9.082992553711 119 119 119
21.562500000000 29.656250000000 11.008987426758 125 125 125
20.687500000000 29.109375000000 9.982986450195 160 160 160
21.031250000000 29.375000000000 11.547988891602 118 118 118
18.171875000000 27.687500000000 9.735000610352 143 143 143
18.156250000000 27.640625000000 8.614990234375 125 125 125
18.156250000000 27.640625000000 8.595993041992 177 177 177
21.906250000000 30.078125000000 9.095993041992 120 120 120
21.531250000000 29.953125000000 11.028991699219 119 119 119
20.718750000000 29.453125000000 9.994995117188 71 71 71
20.687500000000 29.437500000000 9.997985839844 129 129 129
21.031250000000 29.687500000000 11.553985595703 14 14 14
21.000000000000 29.671875000000 11.554992675781 111 111 111
18.156250000000 27.984375000000 9.735000610352 134 134 134
18.125000000000 27.937500000000 8.605987548828 161 161 161
18.125000000000 27.937500000000 8.611999511719 51 51 51
21.890625000000 30.390625000000 9.091995239258 89 89 89
21.875000000000 30.390625000000 9.119995117188 50 50 50
21.531250000000 30.265625000000 11.041000366211 113 113 113
20.687500000000 29.734375000000 10.014999389648 147 147 147
20.656250000000 29.734375000000 10.020996093750 40 40 40
21.015625000000 29.984375000000 11.562988281250 40 40 40
21.000000000000 29.984375000000 11.567993164063 116 116 116
18.156250000000 28.296875000000 9.754989624023 142 142 142
18.125000000000 28.296875000000 9.735992431641 40 40 40
18.125000000000 28.265625000000 8.623992919922 72 72 72
18.125000000000 28.250000000000 8.605987548828 165 165 165
21.875000000000 30.718750000000 9.116989135742 129 129 129
21.515625000000 30.562500000000 11.069000244141 110 110 110
20.671875000000 30.062500000000 10.017990112305 155 155 155
21.000000000000 30.296875000000 11.569000244141 17 17 17
20.968750000000 30.265625000000 11.571990966797 115 115 115
18.140625000000 28.609375000000 9.752990722656 138 138 138
18.125000000000 28.562500000000 8.605987548828 173 173 173
18.125000000000 28.546875000000 8.611999511719 112 112 112
21.875000000000 31.015625000000 9.131988525391 125 125 125
21.484375000000 30.875000000000 11.077987670898 120 120 120
20.687500000000 30.359375000000 10.032989501953 45 45 45
20.656250000000 30.359375000000 10.028991699219 142 142 142
20.937500000000 30.578125000000 11.587997436523 116 116 116
18.156250000000 28.921875000000 9.754989624023 119 119 119
18.125000000000 28.906250000000 9.756988525391 116 116 116
18.109375000000 28.875000000000 8.615997314453 155 155 155
21.890625000000 31.343750000000 9.129989624023 93 93 93
21.875000000000 31.328125000000 9.152999877930 35 35 35
21.500000000000 31.203125000000 11.094985961914 19 19 19
21.468750000000 31.187500000000 11.095993041992 92 92 92
20.671875000000 30.671875000000 10.036987304688 140 140 140
20.656250000000 30.671875000000 10.057998657227 52 52 52
20.968750000000 30.890625000000 11.575988769531 43 43 43
20.937500000000 30.875000000000 11.600997924805 115 115 115
18.125000000000 29.218750000000 9.773986816406 134 134 134
18.125000000000 29.187500000000 8.610992431641 170 170 170
18.093750000000 29.171875000000 8.625000000000 86 86 86
21.875000000000 31.656250000000 9.153991699219 124 124 124
21.468750000000 31.500000000000 11.104995727539 75 75 75
21.453125000000 31.484375000000 11.125000000000 32 32 32
20.656250000000 30.984375000000 10.054992675781 149 149 149
20.937500000000 31.203125000000 11.593994140625 81 81 81
20.906250000000 31.187500000000 11.605987548828 101 101 101
18.125000000000 29.546875000000 9.772994995117 144 144 144
18.093750000000 29.500000000000 8.622985839844 137 137 137
18.093750000000 29.484375000000 8.608993530273 169 169 169
21.875000000000 31.968750000000 9.153991699219 84 84 84
21.875000000000 31.953125000000 9.176986694336 60 60 60
21.468750000000 31.796875000000 11.128997802734 120 120 120
20.656250000000 31.296875000000 10.051986694336 119 119 119
20.625000000000 31.281250000000 10.058990478516 82 82 82
20.906250000000 31.484375000000 11.604995727539 96 96 96
20.875000000000 31.484375000000 11.630996704102 76 76 76
18.140625000000 29.859375000000 9.766998291016 98 98 98
18.125000000000 29.828125000000 9.785995483398 131 131 131
18.093750000000 29.796875000000 8.618988037109 152 152 152
20.640625000000 31.593750000000 10.073989868164 153 153 153
20.890625000000 31.796875000000 11.627990722656 101 101 101
20.859375000000 31.765625000000 11.648986816406 61 61 61
18.125000000000 30.140625000000 9.775985717773 136 136 136
18.093750000000 30.109375000000 8.625000000000 169 169 169
18.078125000000 30.093750000000 8.621994018555 135 135 135
20.656250000000 31.921875000000 10.079986572266 29 29 29
20.625000000000 31.906250000000 10.084991455078 144 144 144
18.109375000000 30.468750000000 9.785995483398 74 74 74
18.093750000000 30.453125000000 9.774993896484 137 137 137
18.062500000000 30.421875000000 8.633987426758 149 149 149
18.109375000000 30.765625000000 9.780990600586 139 139 139
18.093750000000 30.718750000000 8.628997802734 174 174 174
18.062500000000 30.718750000000 8.630996704102 120 120 120
18.109375000000 31.093750000000 9.777999877930 135 135 135
18.078125000000 31.078125000000 9.786987304688 94 94 94
18.078125000000 31.046875000000 8.633987426758 150 150 150
18.062500000000 31.031250000000 8.633987426758 174 174 174
18.125000000000 31.390625000000 9.783996582031 55 55 55
18.093750000000 31.390625000000 9.793991088867 136 136 136
18.062500000000 31.328125000000 8.639999389648 163 163 163
18.093750000000 31.703125000000 9.798995971680 133 133 133
18.062500000000 31.656250000000 8.645996093750 168 168 168
18.046875000000 31.953125000000 8.642990112305 170 170 170
18.562500000000 0.234375000000 8.351989746094 228 228 228
18.593750000000 0.218750000000 8.340988159180 212 212 212
18.609375000000 0.109375000000 9.836990356445 130 130 130
18.578125000000 0.531250000000 8.341995239258 209 209 209
18.593750000000 0.531250000000 8.347991943359 220 220 220
18.625000000000 0.421875000000 9.845993041992 130 130 130
18.593750000000 0.828125000000 8.360000610352 80 80 80
18.625000000000 0.812500000000 8.341995239258 184 184 184
18.625000000000 0.718750000000 9.870986938477 139 139 139
18.625000000000 1.125000000000 8.358993530273 171 171 171
18.656250000000 1.015625000000 9.883987426758 143 143 143
18.640625000000 1.421875000000 8.358993530273 206 206 206
18.656250000000 1.421875000000 8.366989135742 142 142 142
18.656250000000 1.328125000000 9.882995605469 146 146 146
18.640625000000 1.734375000000 8.361999511719 198 198 198
18.656250000000 1.718750000000 8.369995117188 175 175 175
18.687500000000 1.625000000000 9.896987915039 145 145 145
21.218750000000 0.078125000000 9.417999267578 127 127 127
21.234375000000 0.062500000000 9.401992797852 78 78 78
18.656250000000 2.031250000000 8.370986938477 159 159 159
18.671875000000 2.031250000000 8.358993530273 180 180 180
18.687500000000 1.921875000000 9.916000366211 143 143 143
21.234375000000 0.390625000000 9.424987792969 158 158 158
18.656250000000 2.328125000000 8.383987426758 51 51 51
18.687500000000 2.328125000000 8.377990722656 171 171 171
18.703125000000 2.234375000000 9.919998168945 143 143 143
21.234375000000 0.687500000000 9.453994750977 92 92 92
21.250000000000 0.671875000000 9.434997558594 112 112 112
22.156250000000 0.156250000000 8.680999755859 111 111 111
22.171875000000 0.140625000000 8.651992797852 31 31 31
21.250000000000 0.984375000000 9.458999633789 147 147 147
21.281250000000 0.968750000000 9.438995361328 38 38 38
22.187500000000 0.453125000000 8.677993774414 124 124 124
18.687500000000 2.953125000000 8.388000488281 135 135 135
18.687500000000 2.937500000000 8.384994506836 153 153 153
18.718750000000 2.843750000000 9.932998657227 149 149 149
21.281250000000 1.265625000000 9.473999023438 153 153 153
22.781250000000 0.250000000000 10.973999023438 118 118 118
22.812500000000 0.296875000000 9.850997924805 124 124 124
22.187500000000 0.765625000000 8.712997436523 140 140 140
18.656250000000 3.265625000000 8.379989624023 122 122 122
18.687500000000 3.250000000000 8.382995605469 121 121 121
18.703125000000 3.156250000000 9.919998168945 147 147 147
21.281250000000 1.593750000000 9.489990234375 84 84 84
21.296875000000 1.578125000000 9.473999023438 119 119 119
22.765625000000 0.562500000000 10.991989135742 21 21 21
22.812500000000 0.546875000000 10.982986450195 63 63 63
22.828125000000 0.609375000000 9.849990844727 121 121 121
22.203125000000 1.062500000000 8.738998413086 94 94 94
22.218750000000 1.062500000000 8.716995239258 55 55 55
18.656250000000 3.578125000000 8.378997802734 165 165 165
18.671875000000 3.578125000000 8.386993408203 147 147 147
18.687500000000 3.484375000000 9.917999267578 144 144 144
18.718750000000 3.453125000000 9.927993774414 39 39 39
21.281250000000 1.890625000000 9.500000000000 155 155 155
22.796875000000 0.859375000000 10.989990234375 114 114 114
22.843750000000 0.906250000000 9.879989624023 118 118 118
22.218750000000 1.359375000000 8.773986816406 48 48 48
22.218750000000 1.359375000000 8.741989135742 111 111 111
18.656250000000 3.890625000000 8.386993408203 176 176 176
18.687500000000 3.875000000000 8.384994506836 155 155 155
18.687500000000 3.796875000000 9.911987304688 142 142 142
18.718750000000 3.765625000000 9.922988891602 71 71 71
21.296875000000 2.203125000000 9.509994506836 91 91 91
21.312500000000 2.187500000000 9.502990722656 162 162 162
22.843750000000 1.218750000000 9.870986938477 87 87 87
22.218750000000 1.671875000000 8.769989013672 138 138 138
18.656250000000 4.203125000000 8.383987426758 180 180 180
18.656250000000 4.203125000000 8.388000488281 162 162 162
18.687500000000 4.093750000000 9.905990600586 131 131 131
18.687500000000 4.093750000000 9.898986816406 94 94 94
22.859375000000 1.515625000000 9.899993896484 124 124 124
18.640625000000 4.515625000000 8.393997192383 184 184 184
18.656250000000 4.515625000000 8.381988525391 172 172 172
18.687500000000 4.421875000000 9.890991210938 99 99 99
18.703125000000 4.406250000000 9.889999389648 123 123 123
21.312500000000 2.812500000000 9.548995971680 145 145 145
21.359375000000 2.796875000000 9.552993774414 138 138 138
18.625000000000 4.843750000000 8.388992309570 190 190 190
18.640625000000 4.828125000000 8.388992309570 182 182 182
18.656250000000 4.734375000000 9.894989013672 34 34 34
18.687500000000 4.734375000000 9.888992309570 134 134 134
21.281250000000 3.140625000000 9.538986206055 22 22 22
21.312500000000 3.140625000000 9.511993408203 131 131 131
22.843750000000 2.078125000000 11.060989379883 123 123 123
18.625000000000 5.140625000000 8.388000488281 190 190 190
18.656250000000 5.140625000000 8.400985717773 183 183 183
18.671875000000 5.046875000000 9.881988525391 137 137 137
21.296875000000 3.453125000000 9.524993896484 136 136 136
22.250000000000 2.906250000000 8.793991088867 105 105 105
18.625000000000 5.453125000000 8.401992797852 195 195 195
18.640625000000 5.453125000000 8.396987915039 171 171 171
18.671875000000 5.359375000000 9.868988037109 136 136 136
21.296875000000 3.765625000000 9.523986816406 143 143 143
22.859375000000 2.703125000000 11.060989379883 91 91 91
22.906250000000 2.750000000000 9.939987182617 79 79 79
22.250000000000 3.218750000000 8.807998657227 124 124 124
18.625000000000 5.781250000000 8.392990112305 202 202 202
18.640625000000 5.765625000000 8.398986816406 171 171 171
18.656250000000 5.671875000000 9.869995117188 136 136 136
21.281250000000 4.078125000000 9.528991699219 111 111 111
21.312500000000 4.078125000000 9.510986328125 58 58 58
22.859375000000 3.031250000000 11.067993164063 95 95 95
22.890625000000 3.062500000000 9.949996948242 94 94 94
22.234375000000 3.546875000000 8.819992065430 51 51 51
22.250000000000 3.531250000000 8.786987304688 76 76 76
18.609375000000 6.078125000000 8.398986816406 211 211 211
18.625000000000 6.078125000000 8.400985717773 160 160 160
18.640625000000 5.984375000000 9.875991821289 144 144 144
18.671875000000 5.968750000000 9.868988037109 32 32 32
21.265625000000 4.406250000000 9.523986816406 65 65 65
21.281250000000 4.390625000000 9.511993408203 118 118 118
22.812500000000 3.359375000000 11.063995361328 106 106 106
22.875000000000 3.390625000000 9.957000732422 116 116 116
22.218750000000 3.859375000000 8.792999267578 117 117 117
18.593750000000 6.390625000000 8.412994384766 214 214 214
18.609375000000 6.390625000000 8.392990112305 191 191 191
18.640625000000 6.312500000000 9.855987548828 135 135 135
18.656250000000 6.281250000000 9.860000610352 101 101 101
21.281250000000 4.703125000000 9.524993896484 141 141 141
22.796875000000 3.687500000000 11.066986083984 108 108 108
22.843750000000 3.718750000000 9.972000122070 114 114 114
22.250000000000 4.171875000000 8.778991699219 104 104 104
18.593750000000 6.718750000000 8.410995483398 212 212 212
18.625000000000 6.703125000000 8.400985717773 194 194 194
18.625000000000 6.625000000000 9.849990844727 87 87 87
18.656250000000 6.609375000000 9.851989746094 136 136 136
21.265625000000 5.015625000000 9.539993286133 135 135 135
21.296875000000 5.000000000000 9.532989501953 34 34 34
22.781250000000 4.000000000000 11.069992065430 106 106 106
22.828125000000 4.031250000000 9.980987548828 109 109 109
22.218750000000 4.468750000000 8.802993774414 114 114 114
18.578125000000 7.031250000000 8.403991699219 215 215 215
18.593750000000 7.015625000000 8.396987915039 197 197 197
18.609375000000 6.953125000000 9.838989257813 44 44 44
18.640625000000 6.921875000000 9.835998535156 134 134 134
21.234375000000 5.343750000000 9.531997680664 89 89 89
21.281250000000 5.328125000000 9.530990600586 87 87 87
22.750000000000 4.328125000000 11.070999145508 105 105 105
22.812500000000 4.359375000000 9.981994628906 116 116 116
22.218750000000 4.781250000000 8.807998657227 31 31 31
22.234375000000 4.796875000000 8.771987915039 90 90 90
18.593750000000 7.343750000000 8.411987304688 228 228 228
18.609375000000 7.328125000000 8.399993896484 167 167 167
18.609375000000 7.234375000000 9.849990844727 23 23 23
18.625000000000 7.234375000000 9.826995849609 130 130 130
21.250000000000 5.671875000000 9.543991088867 66 66 66
21.265625000000 5.640625000000 9.520996093750 113 113 113
22.718750000000 4.671875000000 11.062988281250 107 107 107
22.796875000000 4.671875000000 9.993988037109 108 108 108
22.218750000000 5.109375000000 8.779998779297 123 123 123
18.562500000000 7.656250000000 8.416000366211 225 225 225
18.593750000000 7.640625000000 8.416992187500 162 162 162
18.625000000000 7.562500000000 9.825988769531 134 134 134
21.218750000000 5.984375000000 9.549987792969 27 27 27
21.250000000000 5.953125000000 9.530990600586 142 142 142
22.703125000000 5.000000000000 11.062988281250 114 114 114
22.781250000000 5.015625000000 9.997985839844 118 118 118
22.218750000000 5.421875000000 8.793991088867 67 67 67
22.218750000000 5.421875000000 8.763000488281 52 52 52
18.578125000000 7.984375000000 8.413986206055 233 233 233
18.593750000000 7.953125000000 8.408996582031 207 207 207
18.609375000000 7.859375000000 9.833999633789 138 138 138
