15.531250000000 9.078125000000 7.736000061035 60 60 60
19.859375000000 6.203125000000 8.070999145508 44 44 44
22.312500000000 4.578125000000 9.602996826172 134 134 134
23.375000000000 3.859375000000 9.616996765137 72 72 72
19.875000000000 6.171875000000 6.322998046875 69 69 69
15.500000000000 8.828125000000 6.386001586914 203 203 203
15.500000000000 8.812500000000 6.518997192383 147 147 147
19.828125000000 5.921875000000 8.064994812012 29 29 29
22.312500000000 4.296875000000 9.599998474121 122 122 122
23.375000000000 3.609375000000 9.601997375488 77 77 77
19.875000000000 5.906250000000 6.319000244141 61 61 61
15.468750000000 8.562500000000 6.383995056152 203 203 203
15.484375000000 8.546875000000 6.512001037598 139 139 139
15.484375000000 8.546875000000 7.749000549316 71 71 71
19.843750000000 5.671875000000 8.057998657227 46 46 46
22.343750000000 4.046875000000 9.585998535156 87 87 87
23.390625000000 3.343750000000 9.580001831055 77 77 77
19.859375000000 5.640625000000 6.303001403809 29 29 29
23.859375000000 3.015625000000 7.790000915527 18 18 18
15.421875000000 8.312500000000 6.392997741699 49 49 49
15.437500000000 8.296875000000 6.386001586914 217 217 217
15.453125000000 8.296875000000 6.490997314453 118 118 118
15.453125000000 8.296875000000 7.748001098633 102 102 102
19.843750000000 5.421875000000 8.029998779297 14 14 14
22.312500000000 3.796875000000 9.604995727539 59 59 59
23.390625000000 3.109375000000 9.604995727539 39 39 39
19.859375000000 5.390625000000 6.327995300293 51 51 51
23.859375000000 2.765625000000 7.820999145508 10 10 10
15.406250000000 8.046875000000 6.390998840332 58 58 58
15.406250000000 8.046875000000 6.405998229980 217 217 217
15.437500000000 8.046875000000 6.407997131348 38 38 38
15.437500000000 8.031250000000 7.771995544434 90 90 90
19.843750000000 5.109375000000 8.038002014160 17 17 17
22.343750000000 3.515625000000 9.596000671387 70 70 70
23.406250000000 2.828125000000 9.595001220703 56 56 56
19.859375000000 5.109375000000 6.321998596191 63 63 63
23.875000000000 2.500000000000 7.794998168945 18 18 18
15.375000000000 7.765625000000 6.395996093750 191 191 191
15.406250000000 7.765625000000 6.419998168945 53 53 53
15.406250000000 7.765625000000 7.768997192383 100 100 100
19.843750000000 4.828125000000 8.042999267578 43 43 43
22.312500000000 3.234375000000 9.587997436523 16 16 16
22.359375000000 3.203125000000 9.549995422363 36 36 36
23.406250000000 2.515625000000 9.592994689941 19 19 19
19.859375000000 4.828125000000 6.319000244141 41 41 41
23.875000000000 2.218750000000 7.792999267578 15 15 15
15.359375000000 7.515625000000 6.389999389648 198 198 198
15.375000000000 7.500000000000 6.393997192383 203 203 203
15.390625000000 7.500000000000 7.776000976563 108 108 108
19.843750000000 4.562500000000 8.044998168945 34 34 34
22.359375000000 2.921875000000 9.556999206543 58 58 58
23.437500000000 2.203125000000 9.545997619629 26 26 26
19.859375000000 4.546875000000 6.328994750977 29 29 29
23.890625000000 1.921875000000 7.793998718262 18 18 18
15.328125000000 7.265625000000 6.394996643066 179 179 179
15.343750000000 7.250000000000 6.393997192383 231 231 231
15.359375000000 7.234375000000 7.803001403809 91 91 91
19.843750000000 4.296875000000 8.032997131348 41 41 41
22.343750000000 2.671875000000 9.583000183105 28 28 28
22.375000000000 2.640625000000 9.532997131348 15 15 15
23.437500000000 1.953125000000 9.583999633789 51 51 51
19.875000000000 4.265625000000 6.321998596191 59 59 59
15.296875000000 7.000000000000 6.388999938965 184 184 184
15.296875000000 6.984375000000 6.401000976563 208 208 208
15.328125000000 6.984375000000 7.802001953125 90 90 90
22.343750000000 2.406250000000 9.553001403809 103 103 103
23.453125000000 1.703125000000 9.550994873047 78 78 78
19.859375000000 4.015625000000 6.302001953125 19 19 19
23.890625000000 1.406250000000 7.791999816895 17 17 17
15.281250000000 6.734375000000 6.403999328613 206 206 206
15.312500000000 6.734375000000 6.396995544434 170 170 170
15.312500000000 6.718750000000 7.810997009277 78 78 78
19.828125000000 3.765625000000 8.026000976563 38 38 38
22.375000000000 2.140625000000 9.524002075195 55 55 55
23.437500000000 1.453125000000 9.573997497559 38 38 38
19.875000000000 3.734375000000 6.327995300293 58 58 58
23.875000000000 1.171875000000 7.807998657227 8 8 8
15.250000000000 6.468750000000 6.405998229980 197 197 197
15.281250000000 6.468750000000 6.395996093750 188 188 188
15.281250000000 6.468750000000 7.830001831055 132 132 132
19.828125000000 3.484375000000 8.018997192383 37 37 37
22.343750000000 1.875000000000 9.559997558594 25 25 25
22.406250000000 1.859375000000 9.521995544434 18 18 18
23.468750000000 1.171875000000 9.561996459961 79 79 79
19.859375000000 3.484375000000 6.314994812012 63 63 63
23.875000000000 0.890625000000 7.786994934082 17 17 17
15.218750000000 6.218750000000 6.402000427246 201 201 201
15.250000000000 6.203125000000 6.410995483398 219 219 219
15.250000000000 6.203125000000 7.833000183105 122 122 122
19.843750000000 3.218750000000 8.019996643066 38 38 38
22.375000000000 1.578125000000 9.559997558594 15 15 15
22.406250000000 1.562500000000 9.517997741699 33 33 33
23.468750000000 0.890625000000 9.554000854492 81 81 81
19.875000000000 3.187500000000 6.322998046875 59 59 59
23.890625000000 0.609375000000 7.780998229980 18 18 18
15.187500000000 5.953125000000 6.399002075195 182 182 182
15.218750000000 5.953125000000 6.408996582031 206 206 206
15.203125000000 5.937500000000 7.839996337891 52 52 52
15.234375000000 5.921875000000 7.830001831055 55 55 55
19.843750000000 2.937500000000 8.026000976563 36 36 36
22.375000000000 1.296875000000 9.549995422363 16 16 16
22.421875000000 1.296875000000 9.512001037598 30 30 30
23.484375000000 0.593750000000 9.544998168945 79 79 79
19.859375000000 2.921875000000 6.314994812012 51 51 51
15.187500000000 5.703125000000 6.407997131348 187 187 187
15.187500000000 5.671875000000 6.421997070313 110 110 110
15.187500000000 5.687500000000 7.860000610352 32 32 32
15.203125000000 5.671875000000 7.853996276855 72 72 72
19.843750000000 2.640625000000 8.016998291016 31 31 31
22.390625000000 1.031250000000 9.536994934082 87 87 87
23.500000000000 0.296875000000 9.522994995117 82 82 82
19.843750000000 2.640625000000 6.337997436523 19 19 19
23.890625000000 0.062500000000 7.798995971680 18 18 18
15.140625000000 5.437500000000 6.405998229980 68 68 68
15.156250000000 5.421875000000 6.405998229980 197 197 197
15.171875000000 5.421875000000 7.853996276855 49 49 49
15.187500000000 5.406250000000 7.862998962402 30 30 30
19.843750000000 2.406250000000 8.016998291016 35 35 35
22.421875000000 0.750000000000 9.512001037598 43 43 43
23.484375000000 0.078125000000 9.539001464844 88 88 88
19.859375000000 2.390625000000 6.318000793457 45 45 45
15.109375000000 5.171875000000 6.401000976563 170 170 170
15.125000000000 5.171875000000 6.399002075195 208 208 208
15.140625000000 5.171875000000 7.877998352051 51 51 51
19.843750000000 2.140625000000 8.006996154785 31 31 31
22.390625000000 0.515625000000 9.513000488281 87 87 87
19.859375000000 2.140625000000 6.326995849609 47 47 47
15.109375000000 4.921875000000 6.405998229980 197 197 197
15.125000000000 4.906250000000 6.425994873047 148 148 148
15.125000000000 4.906250000000 7.881996154785 30 30 30
15.140625000000 4.890625000000 7.869995117188 42 42 42
19.859375000000 1.890625000000 7.989997863770 26 26 26
22.406250000000 0.265625000000 9.490997314453 83 83 83
19.843750000000 1.859375000000 6.312995910645 60 60 60
15.078125000000 4.671875000000 6.408996582031 200 200 200
15.093750000000 4.640625000000 6.421997070313 32 32 32
15.093750000000 4.640625000000 7.892997741699 22 22 22
15.109375000000 4.640625000000 7.906997680664 56 56 56
19.843750000000 1.578125000000 6.305999755859 56 56 56
15.062500000000 4.406250000000 6.413002014160 171 171 171
15.078125000000 4.390625000000 7.909996032715 66 66 66
19.875000000000 1.296875000000 6.307998657227 20 20 20
15.000000000000 4.140625000000 6.416999816895 176 176 176
15.031250000000 4.140625000000 6.416000366211 214 214 214
15.031250000000 4.140625000000 7.922996520996 26 26 26
15.062500000000 4.125000000000 7.906997680664 34 34 34
19.843750000000 1.046875000000 8.003997802734 41 41 41
19.859375000000 1.031250000000 6.325996398926 61 61 61
15.000000000000 3.890625000000 6.420997619629 189 189 189
15.015625000000 3.875000000000 7.917999267578 52 52 52
19.843750000000 0.796875000000 8.021995544434 15 15 15
19.843750000000 0.796875000000 6.331001281738 35 35 35
14.968750000000 3.640625000000 6.430999755859 63 63 63
14.968750000000 3.625000000000 6.425994873047 158 158 158
15.000000000000 3.609375000000 7.922996520996 63 63 63
19.859375000000 0.546875000000 8.000999450684 39 39 39
19.843750000000 0.515625000000 6.319000244141 47 47 47
14.953125000000 3.375000000000 6.427001953125 178 178 178
14.968750000000 3.359375000000 7.953994750977 59 59 59
19.859375000000 0.250000000000 7.995994567871 35 35 35
19.859375000000 0.234375000000 6.308998107910 18 18 18
14.937500000000 3.390625000000 6.462997436523 137 137 137
14.921875000000 3.109375000000 6.448997497559 168 168 168
14.937500000000 3.109375000000 6.548995971680 106 106 106
14.937500000000 3.109375000000 7.946998596191 128 128 128
14.921875000000 3.109375000000 6.471000671387 114 114 114
14.906250000000 2.578125000000 6.438995361328 154 154 154
14.906250000000 2.562500000000 6.433998107910 139 139 139
14.937500000000 2.546875000000 7.956001281738 66 66 66
14.906250000000 2.296875000000 6.437995910645 156 156 156
14.906250000000 2.296875000000 6.435997009277 117 117 117
14.937500000000 2.296875000000 7.943000793457 74 74 74
14.906250000000 2.046875000000 6.432998657227 168 168 168
14.921875000000 2.015625000000 6.431999206543 109 109 109
14.937500000000 2.015625000000 7.921997070313 51 51 51
14.906250000000 1.765625000000 6.436996459961 145 145 145
14.906250000000 1.750000000000 6.428001403809 146 146 146
14.937500000000 1.734375000000 7.950996398926 64 64 64
14.875000000000 1.484375000000 6.432998657227 113 113 113
14.906250000000 1.484375000000 6.427001953125 166 166 166
14.937500000000 1.453125000000 7.946998596191 76 76 76
14.890625000000 1.218750000000 6.419998168945 142 142 142
14.906250000000 1.203125000000 6.433998107910 175 175 175
14.921875000000 1.203125000000 7.923995971680 72 72 72
14.875000000000 0.953125000000 6.427001953125 167 167 167
14.906250000000 0.937500000000 6.419998168945 153 153 153
14.921875000000 0.937500000000 7.924995422363 63 63 63
14.890625000000 0.671875000000 6.430999755859 203 203 203
14.906250000000 0.656250000000 6.431999206543 96 96 96
14.921875000000 0.656250000000 7.914001464844 77 77 77
14.890625000000 0.390625000000 6.431999206543 196 196 196
14.906250000000 0.390625000000 6.442001342773 85 85 85
14.890625000000 0.390625000000 7.937995910645 35 35 35
14.921875000000 0.375000000000 7.942001342773 48 48 48
14.875000000000 0.125000000000 6.429000854492 196 196 196
14.906250000000 0.109375000000 6.429000854492 68 68 68
14.906250000000 0.109375000000 7.915000915527 48 48 48
14.921875000000 0.109375000000 7.914001464844 34 34 34
17.390625000000 27.828125000000 6.352996826172 194 194 194
17.359375000000 27.828125000000 6.430999755859 124 124 124
17.375000000000 27.578125000000 6.368995666504 68 68 68
17.343750000000 27.562500000000 6.361999511719 145 145 145
17.343750000000 27.578125000000 7.581001281738 52 52 52
17.343750000000 27.296875000000 6.352996826172 188 188 188
17.312500000000 27.296875000000 6.354995727539 202 202 202
17.296875000000 27.296875000000 7.584999084473 61 61 61
17.312500000000 27.031250000000 6.347999572754 197 197 197
17.296875000000 27.031250000000 6.367996215820 145 145 145
17.281250000000 27.046875000000 7.581001281738 69 69 69
17.296875000000 26.765625000000 6.368995666504 85 85 85
17.281250000000 26.765625000000 6.356994628906 192 192 192
17.250000000000 26.781250000000 7.572998046875 33 33 33
17.265625000000 26.500000000000 6.352996826172 199 199 199
17.250000000000 26.500000000000 6.361999511719 208 208 208
17.250000000000 26.515625000000 7.588996887207 29 29 29
17.218750000000 26.515625000000 7.577995300293 52 52 52
17.218750000000 26.234375000000 6.355995178223 182 182 182
17.218750000000 26.234375000000 7.559997558594 70 70 70
17.218750000000 25.968750000000 6.349998474121 118 118 118
17.187500000000 25.984375000000 6.348999023438 182 182 182
17.187500000000 25.984375000000 7.572998046875 77 77 77
17.187500000000 25.703125000000 6.361000061035 149 149 149
17.156250000000 25.703125000000 6.348999023438 193 193 193
17.156250000000 25.703125000000 7.567001342773 80 80 80
17.140625000000 25.437500000000 6.367996215820 250 250 250
17.125000000000 25.437500000000 6.359001159668 179 179 179
17.125000000000 25.453125000000 7.569000244141 69 69 69
17.125000000000 25.171875000000 6.358001708984 201 201 201
17.109375000000 25.171875000000 7.559997558594 53 53 53
17.109375000000 24.890625000000 6.352996826172 76 76 76
17.078125000000 24.890625000000 6.348999023438 178 178 178
17.078125000000 24.906250000000 7.559997558594 65 65 65
17.093750000000 24.640625000000 6.340995788574 174 174 174
17.062500000000 24.640625000000 6.358001708984 206 206 206
17.046875000000 24.640625000000 7.556999206543 62 62 62
17.062500000000 24.375000000000 6.352996826172 154 154 154
17.015625000000 24.359375000000 6.352996826172 201 201 201
17.015625000000 24.375000000000 7.556999206543 65 65 65
17.031250000000 24.109375000000 6.350997924805 128 128 128
17.000000000000 24.109375000000 6.350997924805 184 184 184
17.000000000000 24.109375000000 7.527999877930 101 101 101
16.984375000000 24.109375000000 7.529998779297 96 96 96
17.000000000000 23.828125000000 6.353996276855 160 160 160
16.968750000000 23.828125000000 6.349998474121 172 172 172
16.968750000000 23.828125000000 7.549995422363 85 85 85
16.953125000000 23.843750000000 7.554000854492 51 51 51
16.968750000000 23.578125000000 6.354995727539 188 188 188
16.968750000000 23.578125000000 6.359001159668 167 167 167
16.953125000000 23.578125000000 7.545997619629 82 82 82
16.937500000000 23.578125000000 7.563995361328 27 27 27
16.906250000000 23.296875000000 6.353996276855 49 49 49
16.937500000000 23.312500000000 7.542999267578 96 96 96
16.906250000000 23.046875000000 7.541000366211 90 90 90
16.843750000000 22.765625000000 7.543998718262 80 80 80
16.828125000000 22.515625000000 7.559997558594 56 56 56
16.812500000000 22.250000000000 7.559997558594 49 49 49
16.796875000000 21.984375000000 7.553001403809 54 54 54
16.750000000000 21.703125000000 7.550994873047 49 49 49
16.734375000000 21.453125000000 7.567001342773 45 45 45
16.718750000000 21.187500000000 7.558998107910 101 101 101
16.687500000000 21.187500000000 7.571998596191 27 27 27
16.687500000000 20.921875000000 7.558998107910 71 71 71
16.656250000000 20.640625000000 7.574996948242 42 42 42
16.640625000000 20.390625000000 7.567001342773 75 75 75
16.593750000000 20.109375000000 7.558998107910 65 65 65
16.578125000000 19.843750000000 7.571998596191 49 49 49
16.531250000000 19.578125000000 7.557998657227 59 59 59
16.531250000000 19.328125000000 7.561996459961 30 30 30
16.484375000000 19.046875000000 7.574996948242 54 54 54
16.468750000000 18.781250000000 7.570999145508 25 25 25
16.437500000000 18.515625000000 7.563995361328 37 37 37
16.390625000000 18.000000000000 7.569999694824 40 40 40
16.375000000000 17.703125000000 7.585998535156 67 67 67
16.328125000000 17.187500000000 7.588996887207 57 57 57
16.265625000000 16.656250000000 7.577995300293 55 55 55
16.250000000000 16.390625000000 7.585998535156 55 55 55
16.218750000000 16.125000000000 7.595001220703 54 54 54
16.171875000000 15.859375000000 7.599998474121 43 43 43
16.171875000000 15.593750000000 7.601997375488 52 52 52
16.109375000000 15.078125000000 7.602996826172 47 47 47
16.093750000000 14.796875000000 7.614997863770 38 38 38
16.062500000000 14.515625000000 7.631996154785 43 43 43
16.031250000000 14.265625000000 7.620994567871 39 39 39
16.000000000000 14.000000000000 7.637001037598 63 63 63
15.937500000000 13.484375000000 6.386001586914 159 159 159
15.906250000000 13.203125000000 6.400001525879 162 162 162
15.906250000000 12.921875000000 6.387001037598 185 185 185
15.875000000000 12.937500000000 6.394996643066 99 99 99
15.921875000000 12.937500000000 7.647994995117 39 39 39
15.890625000000 12.671875000000 6.393997192383 140 140 140
15.890625000000 12.671875000000 7.657997131348 28 28 28
15.859375000000 12.406250000000 6.378997802734 72 72 72
15.843750000000 12.406250000000 6.393997192383 160 160 160
15.843750000000 12.421875000000 7.667999267578 29 29 29
15.828125000000 12.140625000000 6.386001586914 152 152 152
15.812500000000 12.140625000000 6.387001037598 163 163 163
15.828125000000 12.140625000000 7.652000427246 26 26 26
15.812500000000 12.140625000000 7.652999877930 25 25 25
15.796875000000 11.859375000000 6.383995056152 180 180 180
15.781250000000 11.859375000000 6.402999877930 148 148 148
15.812500000000 11.859375000000 7.656997680664 51 51 51
15.765625000000 11.609375000000 6.388000488281 171 171 171
15.765625000000 11.609375000000 6.403999328613 96 96 96
15.781250000000 11.609375000000 7.678001403809 44 44 44
15.750000000000 11.343750000000 6.396995544434 137 137 137
15.734375000000 11.078125000000 6.394996643066 43 43 43
15.703125000000 11.078125000000 6.385002136230 166 166 166
15.734375000000 11.078125000000 7.679000854492 57 57 57
15.703125000000 10.796875000000 6.389999389648 185 185 185
15.687500000000 10.812500000000 6.392997741699 161 161 161
15.703125000000 10.812500000000 7.592994689941 98 98 98
15.656250000000 10.812500000000 7.650001525879 64 64 64
15.656250000000 10.546875000000 6.379997253418 158 158 158
15.656250000000 10.546875000000 7.666999816895 40 40 40
15.640625000000 10.281250000000 6.383995056152 162 162 162
15.640625000000 10.281250000000 7.677001953125 47 47 47
15.625000000000 10.015625000000 6.387001037598 45 45 45
15.609375000000 10.015625000000 6.385002136230 162 162 162
15.625000000000 10.015625000000 7.692001342773 26 26 26
15.593750000000 9.750000000000 6.382995605469 174 174 174
15.578125000000 9.734375000000 6.381996154785 156 156 156
15.562500000000 9.484375000000 6.383995056152 182 182 182
15.578125000000 9.484375000000 7.703994750977 51 51 51
15.515625000000 9.203125000000 6.388999938965 140 140 140
15.531250000000 9.218750000000 7.720001220703 30 30 30
15.531250000000 8.953125000000 6.388999938965 88 88 88
15.500000000000 8.953125000000 6.381996154785 151 151 151
15.531250000000 8.953125000000 7.726997375488 55 55 55
15.500000000000 8.687500000000 6.376998901367 142 142 142
15.468750000000 8.687500000000 6.387001037598 169 169 169
15.500000000000 8.703125000000 7.737998962402 59 59 59
15.468750000000 8.421875000000 6.383995056152 169 169 169
15.437500000000 8.421875000000 6.385002136230 171 171 171
15.468750000000 8.421875000000 7.751998901367 49 49 49
15.437500000000 8.156250000000 6.388999938965 195 195 195
15.406250000000 8.156250000000 6.402000427246 135 135 135
15.437500000000 8.156250000000 7.754997253418 71 71 71
15.406250000000 7.890625000000 6.393997192383 169 169 169
15.421875000000 7.890625000000 7.769996643066 63 63 63
15.390625000000 7.625000000000 6.405998229980 67 67 67
15.359375000000 7.609375000000 6.389999389648 181 181 181
15.390625000000 7.625000000000 7.769996643066 82 82 82
15.359375000000 7.359375000000 6.394996643066 78 78 78
15.328125000000 7.359375000000 6.379997253418 157 157 157
15.343750000000 7.359375000000 7.781997680664 62 62 62
15.343750000000 7.093750000000 6.395996093750 108 108 108
15.312500000000 7.093750000000 6.396995544434 178 178 178
15.312500000000 7.093750000000 7.795997619629 77 77 77
15.296875000000 6.812500000000 6.409996032715 112 112 112
15.281250000000 6.812500000000 6.393997192383 177 177 177
15.296875000000 6.828125000000 7.804000854492 56 56 56
15.281250000000 6.546875000000 6.397994995117 147 147 147
15.250000000000 6.546875000000 6.395996093750 171 171 171
15.250000000000 6.296875000000 6.402000427246 205 205 205
15.218750000000 6.296875000000 6.407997131348 157 157 157
15.234375000000 6.031250000000 6.399002075195 206 206 206
15.218750000000 6.015625000000 6.402000427246 173 173 173
15.187500000000 5.750000000000 6.405998229980 152 152 152
15.171875000000 5.750000000000 6.409996032715 185 185 185
15.171875000000 5.484375000000 6.407997131348 111 111 111
15.156250000000 5.484375000000 6.406997680664 188 188 188
15.156250000000 5.234375000000 6.416999816895 46 46 46
15.140625000000 5.234375000000 6.403999328613 191 191 191
15.125000000000 4.953125000000 6.438995361328 83 83 83
15.109375000000 4.953125000000 6.416999816895 207 207 207
15.093750000000 4.953125000000 6.417999267578 49 49 49
15.093750000000 4.703125000000 6.487998962402 106 106 106
15.078125000000 4.687500000000 6.414001464844 201 201 201
15.046875000000 4.421875000000 6.408996582031 195 195 195
15.046875000000 4.421875000000 6.418998718262 104 104 104
15.062500000000 4.171875000000 7.922996520996 28 28 28
15.031250000000 4.171875000000 6.420997619629 236 236 236
15.015625000000 4.171875000000 6.413002014160 243 243 243
15.031250000000 3.890625000000 6.422996520996 152 152 152
14.984375000000 3.890625000000 6.421997070313 174 174 174
15.015625000000 3.640625000000 7.925994873047 28 28 28
15.000000000000 3.640625000000 6.487998962402 144 144 144
14.968750000000 3.640625000000 6.430000305176 225 225 225
14.968750000000 3.359375000000 6.452995300293 70 70 70
14.937500000000 3.359375000000 6.424995422363 208 208 208
14.953125000000 3.109375000000 7.958000183105 30 30 30
14.937500000000 3.109375000000 6.445999145508 64 64 64
14.937500000000 3.109375000000 6.432998657227 207 207 207
14.937500000000 2.578125000000 7.939994812012 43 43 43
14.921875000000 2.578125000000 6.423995971680 177 177 177
14.890625000000 2.578125000000 6.424995422363 196 196 196
14.937500000000 2.312500000000 7.958999633789 22 22 22
14.921875000000 2.296875000000 6.434997558594 142 142 142
14.890625000000 2.312500000000 6.423995971680 189 189 189
14.937500000000 2.046875000000 7.953994750977 31 31 31
14.921875000000 2.046875000000 6.428001403809 168 168 168
14.906250000000 2.046875000000 6.422996520996 192 192 192
14.953125000000 1.765625000000 7.930000305176 28 28 28
14.921875000000 1.765625000000 6.430999755859 154 154 154
14.906250000000 1.765625000000 6.424995422363 181 181 181
14.906250000000 1.500000000000 6.428001403809 155 155 155
14.890625000000 1.500000000000 6.427001953125 172 172 172
14.906250000000 1.234375000000 6.497001647949 106 106 106
14.890625000000 1.234375000000 6.428001403809 166 166 166
14.906250000000 0.984375000000 6.423995971680 166 166 166
14.906250000000 0.703125000000 6.422996520996 169 169 169
14.875000000000 0.703125000000 6.429000854492 149 149 149
14.890625000000 0.421875000000 6.428001403809 156 156 156
14.875000000000 0.437500000000 6.425994873047 160 160 160
14.875000000000 0.171875000000 6.424995422363 198 198 198
14.875000000000 0.171875000000 6.430000305176 201 201 201
17.312500000000 27.906250000000 7.602996826172 80 80 80
17.375000000000 27.921875000000 6.375999450684 123 123 123
17.343750000000 27.906250000000 6.365997314453 150 150 150
17.296875000000 27.656250000000 7.596000671387 73 73 73
17.343750000000 27.656250000000 6.372001647949 131 131 131
17.265625000000 27.390625000000 7.583999633789 79 79 79
17.328125000000 27.406250000000 6.361999511719 131 131 131
17.312500000000 27.406250000000 6.362998962402 107 107 107
17.265625000000 27.140625000000 7.586997985840 52 52 52
17.250000000000 27.140625000000 7.596000671387 61 61 61
17.281250000000 27.140625000000 6.367996215820 131 131 131
19.687500000000 27.953125000000 6.349998474121 98 98 98
19.671875000000 27.953125000000 7.999000549316 52 52 52
17.234375000000 26.890625000000 7.599998474121 74 74 74
17.265625000000 26.890625000000 6.467994689941 113 113 113
17.250000000000 26.875000000000 6.373001098633 146 146 146
19.687500000000 27.703125000000 6.347999572754 124 124 124
19.671875000000 27.703125000000 6.386001586914 98 98 98
19.687500000000 27.703125000000 6.430999755859 50 50 50
19.671875000000 27.703125000000 7.987998962402 58 58 58
17.203125000000 26.625000000000 7.588996887207 88 88 88
17.234375000000 26.625000000000 6.365997314453 147 147 147
17.218750000000 26.625000000000 6.354995727539 124 124 124
19.703125000000 27.468750000000 6.336997985840 43 43 43
19.671875000000 27.453125000000 6.345001220703 56 56 56
19.687500000000 27.468750000000 7.986999511719 49 49 49
17.187500000000 26.359375000000 7.587997436523 69 69 69
17.203125000000 26.375000000000 6.367996215820 149 149 149
19.687500000000 27.234375000000 6.335998535156 88 88 88
19.671875000000 27.234375000000 7.971000671387 45 45 45
17.156250000000 26.109375000000 7.574996948242 54 54 54
17.187500000000 26.125000000000 6.362998962402 157 157 157
17.156250000000 26.109375000000 6.368995666504 62 62 62
19.687500000000 26.984375000000 6.344001770020 94 94 94
21.953125000000 27.984375000000 9.811996459961 130 130 130
19.671875000000 26.984375000000 7.980995178223 43 43 43
17.156250000000 25.859375000000 6.366996765137 157 157 157
17.156250000000 25.859375000000 6.364997863770 164 164 164
19.687500000000 26.734375000000 6.341995239258 78 78 78
21.968750000000 27.765625000000 9.796997070313 96 96 96
21.921875000000 27.734375000000 9.814994812012 15 15 15
19.687500000000 26.734375000000 7.976997375488 46 46 46
17.140625000000 25.609375000000 6.361999511719 171 171 171
17.109375000000 25.593750000000 6.372001647949 61 61 61
22.953125000000 27.953125000000 9.805000305176 82 82 82
19.703125000000 26.515625000000 6.347000122070 77 77 77
21.968750000000 27.515625000000 9.800994873047 133 133 133
19.703125000000 26.515625000000 7.983001708984 41 41 41
17.125000000000 25.359375000000 6.379997253418 74 74 74
17.093750000000 25.343750000000 6.364997863770 202 202 202
23.593750000000 28.015625000000 7.756996154785 32 32 32
22.968750000000 27.734375000000 9.807998657227 104 104 104
19.718750000000 26.265625000000 6.350997924805 81 81 81
21.953125000000 27.296875000000 9.798995971680 122 122 122
19.687500000000 26.265625000000 7.977996826172 40 40 40
17.078125000000 25.093750000000 6.372001647949 185 185 185
17.078125000000 25.078125000000 6.360000610352 180 180 180
23.578125000000 27.765625000000 7.687995910645 12 12 12
23.578125000000 27.765625000000 7.738998413086 16 16 16
22.953125000000 27.500000000000 9.795997619629 101 101 101
19.718750000000 26.031250000000 6.338996887207 83 83 83
22.000000000000 27.078125000000 9.784996032715 69 69 69
21.953125000000 27.046875000000 9.800994873047 42 42 42
19.687500000000 26.031250000000 7.978996276855 54 54 54
17.062500000000 24.828125000000 6.366996765137 204 204 204
17.046875000000 24.828125000000 6.425994873047 135 135 135
23.593750000000 27.531250000000 7.701995849609 29 29 29
22.984375000000 27.265625000000 9.782997131348 27 27 27
22.953125000000 27.250000000000 9.813995361328 51 51 51
19.718750000000 25.796875000000 6.344001770020 80 80 80
21.968750000000 26.812500000000 9.781997680664 134 134 134
19.687500000000 25.796875000000 7.983001708984 56 56 56
17.046875000000 24.578125000000 6.360000610352 195 195 195
17.031250000000 24.578125000000 6.364997863770 206 206 206
23.609375000000 27.296875000000 7.711997985840 71 71 71
22.984375000000 27.015625000000 9.789001464844 91 91 91
19.703125000000 25.546875000000 6.340995788574 76 76 76
22.000000000000 26.578125000000 9.768997192383 34 34 34
21.968750000000 26.578125000000 9.799995422363 70 70 70
19.687500000000 25.546875000000 7.977996826172 50 50 50
17.000000000000 24.312500000000 6.363998413086 193 193 193
17.000000000000 24.296875000000 6.375000000000 163 163 163
23.625000000000 27.062500000000 7.717994689941 59 59 59
22.968750000000 26.796875000000 9.786994934082 98 98 98
19.703125000000 25.296875000000 6.337997436523 78 78 78
21.984375000000 26.359375000000 9.780998229980 82 82 82
21.968750000000 26.328125000000 9.809997558594 30 30 30
19.671875000000 25.296875000000 7.978996276855 30 30 30
16.968750000000 24.046875000000 6.367996215820 190 190 190
16.953125000000 24.046875000000 6.415000915527 171 171 171
23.593750000000 26.843750000000 7.706001281738 34 34 34
22.984375000000 26.546875000000 9.791999816895 102 102 102
19.718750000000 25.062500000000 6.331001281738 43 43 43
19.703125000000 25.046875000000 6.348999023438 50 50 50
22.000000000000 26.109375000000 9.768997192383 105 105 105
21.968750000000 26.109375000000 9.802001953125 14 14 14
19.703125000000 25.062500000000 7.980995178223 58 58 58
16.953125000000 23.796875000000 6.360000610352 171 171 171
16.937500000000 23.781250000000 6.447998046875 164 164 164
16.906250000000 23.765625000000 7.548995971680 69 69 69
23.609375000000 26.609375000000 7.688995361328 13 13 13
22.984375000000 26.328125000000 9.781997680664 103 103 103
19.718750000000 24.828125000000 6.351997375488 80 80 80
21.984375000000 25.875000000000 9.765998840332 114 114 114
19.687500000000 24.812500000000 7.986000061035 40 40 40
16.921875000000 23.515625000000 6.361999511719 165 165 165
16.906250000000 23.515625000000 6.481994628906 144 144 144
16.890625000000 23.515625000000 7.545997619629 88 88 88
23.625000000000 26.390625000000 7.702995300293 31 31 31
22.984375000000 26.109375000000 9.777999877930 99 99 99
19.718750000000 24.578125000000 6.345001220703 78 78 78
21.984375000000 25.640625000000 9.766998291016 116 116 116
19.687500000000 24.578125000000 7.988998413086 60 60 60
16.906250000000 23.265625000000 6.362998962402 156 156 156
16.890625000000 23.265625000000 6.360000610352 185 185 185
16.875000000000 23.265625000000 7.569999694824 93 93 93
16.875000000000 23.265625000000 7.558998107910 65 65 65
23.625000000000 26.140625000000 7.700996398926 45 45 45
23.000000000000 25.859375000000 9.739997863770 4 4 4
22.968750000000 25.859375000000 9.788002014160 67 67 67
19.718750000000 24.359375000000 6.346000671387 75 75 75
22.015625000000 25.406250000000 9.748001098633 59 59 59
21.984375000000 25.390625000000 9.779998779297 64 64 64
19.718750000000 24.343750000000 7.984001159668 50 50 50
16.890625000000 23.015625000000 6.360000610352 179 179 179
16.875000000000 23.015625000000 6.361000061035 163 163 163
16.859375000000 23.015625000000 7.555999755859 96 96 96
16.843750000000 23.000000000000 7.555999755859 30 30 30
23.593750000000 25.890625000000 7.694999694824 59 59 59
23.000000000000 25.609375000000 9.753997802734 58 58 58
19.718750000000 24.109375000000 6.334999084473 55 55 55
22.000000000000 25.156250000000 9.744995117188 110 110 110
19.703125000000 24.093750000000 8.006996154785 18 18 18
16.859375000000 22.765625000000 6.363998413086 159 159 159
16.843750000000 22.750000000000 6.366996765137 80 80 80
16.812500000000 22.750000000000 7.571998596191 96 96 96
23.625000000000 25.671875000000 7.699996948242 55 55 55
23.000000000000 25.390625000000 9.756996154785 75 75 75
19.718750000000 23.843750000000 6.347000122070 77 77 77
22.000000000000 24.921875000000 9.755996704102 118 118 118
19.703125000000 23.843750000000 7.980995178223 67 67 67
16.828125000000 22.500000000000 6.361999511719 161 161 161
16.812500000000 22.484375000000 6.369995117188 62 62 62
16.796875000000 22.484375000000 7.571998596191 98 98 98
23.609375000000 25.421875000000 7.684997558594 39 39 39
23.000000000000 25.156250000000 9.758995056152 84 84 84
19.734375000000 23.609375000000 6.344001770020 75 75 75
21.984375000000 24.671875000000 9.754997253418 108 108 108
19.703125000000 23.609375000000 7.997001647949 22 22 22
16.812500000000 22.234375000000 6.367996215820 163 163 163
16.796875000000 22.234375000000 6.359001159668 85 85 85
16.781250000000 22.234375000000 7.557998657227 95 95 95
16.750000000000 22.234375000000 7.566001892090 75 75 75
23.625000000000 25.203125000000 7.686996459961 15 15 15
23.000000000000 24.921875000000 9.754997253418 96 96 96
19.734375000000 23.390625000000 6.351997375488 70 70 70
21.968750000000 24.453125000000 9.756996154785 98 98 98
19.718750000000 23.375000000000 7.988998413086 58 58 58
16.781250000000 21.968750000000 6.359001159668 165 165 165
16.765625000000 21.953125000000 6.366996765137 124 124 124
16.734375000000 21.953125000000 7.563995361328 89 89 89
23.656250000000 24.984375000000 7.699996948242 29 29 29
22.984375000000 24.671875000000 9.749000549316 106 106 106
19.750000000000 23.140625000000 6.347000122070 94 94 94
22.031250000000 24.234375000000 9.727996826172 74 74 74
21.968750000000 24.203125000000 9.758995056152 39 39 39
16.750000000000 21.703125000000 6.369995117188 151 151 151
16.718750000000 21.703125000000 6.356994628906 86 86 86
16.734375000000 21.703125000000 7.559997558594 54 54 54
16.703125000000 21.703125000000 7.566001892090 96 96 96
23.625000000000 24.718750000000 7.694000244141 63 63 63
19.750000000000 22.890625000000 6.341995239258 81 81 81
22.000000000000 23.968750000000 9.730995178223 113 113 113
19.718750000000 22.890625000000 7.998001098633 51 51 51
16.750000000000 21.453125000000 6.373001098633 41 41 41
16.718750000000 21.453125000000 6.367996215820 152 152 152
16.703125000000 21.453125000000 7.581001281738 97 97 97
16.687500000000 21.453125000000 7.566001892090 54 54 54
22.984375000000 24.421875000000 9.756996154785 38 38 38
23.625000000000 24.484375000000 7.696998596191 56 56 56
19.734375000000 22.640625000000 6.322998046875 43 43 43
22.031250000000 23.734375000000 9.715995788574 24 24 24
22.000000000000 23.734375000000 9.743995666504 73 73 73
19.718750000000 22.640625000000 7.990997314453 61 61 61
16.718750000000 21.203125000000 6.375999450684 98 98 98
16.687500000000 21.187500000000 6.362998962402 180 180 180
16.687500000000 21.203125000000 7.561996459961 91 91 91
16.656250000000 21.171875000000 7.561996459961 43 43 43
23.625000000000 24.234375000000 7.702995300293 61 61 61
19.718750000000 22.390625000000 6.339996337891 90 90 90
22.031250000000 23.484375000000 9.728996276855 61 61 61
22.000000000000 23.484375000000 9.757995605469 48 48 48
19.703125000000 22.390625000000 7.985000610352 33 33 33
16.671875000000 20.921875000000 6.366996765137 174 174 174
16.640625000000 20.921875000000 6.369995117188 95 95 95
16.656250000000 20.921875000000 7.564994812012 51 51 51
16.640625000000 20.921875000000 7.567001342773 93 93 93
23.015625000000 23.953125000000 9.725997924805 34 34 34
23.640625000000 24.000000000000 7.698997497559 62 62 62
19.718750000000 22.140625000000 6.351997375488 31 31 31
22.031250000000 23.250000000000 9.723999023438 78 78 78
22.000000000000 23.234375000000 9.760002136230 20 20 20
19.718750000000 22.140625000000 7.967994689941 29 29 29
16.640625000000 20.671875000000 6.368995666504 154 154 154
16.640625000000 20.656250000000 6.362998962402 139 139 139
16.625000000000 20.671875000000 7.571998596191 76 76 76
23.031250000000 23.718750000000 9.737998962402 85 85 85
23.656250000000 23.765625000000 7.697998046875 56 56 56
19.750000000000 21.921875000000 6.341995239258 89 89 89
23.015625000000 23.484375000000 9.730995178223 93 93 93
22.031250000000 23.015625000000 9.723999023438 103 103 103
19.718750000000 21.906250000000 7.988998413086 55 55 55
16.625000000000 20.406250000000 6.366996765137 162 162 162
16.609375000000 20.390625000000 6.362998962402 175 175 175
16.609375000000 20.406250000000 7.564994812012 82 82 82
23.656250000000 23.515625000000 7.695999145508 55 55 55
19.765625000000 21.671875000000 6.327995300293 25 25 25
23.015625000000 23.234375000000 9.731994628906 105 105 105
22.031250000000 22.765625000000 9.728996276855 112 112 112
19.750000000000 21.656250000000 7.973999023438 28 28 28
16.593750000000 20.140625000000 6.375000000000 114 114 114
16.578125000000 20.140625000000 6.361000061035 185 185 185
16.578125000000 20.140625000000 7.564994812012 86 86 86
16.562500000000 20.140625000000 7.550994873047 56 56 56
23.656250000000 23.265625000000 7.700996398926 63 63 63
19.750000000000 21.406250000000 6.337997436523 86 86 86
23.015625000000 22.984375000000 9.743995666504 93 93 93
22.062500000000 22.531250000000 9.694999694824 11 11 11
22.015625000000 22.515625000000 9.733001708984 91 91 91
19.718750000000 21.390625000000 7.981994628906 49 49 49
16.562500000000 19.859375000000 6.373001098633 164 164 164
16.562500000000 19.890625000000 7.567001342773 74 74 74
16.546875000000 19.875000000000 7.577995300293 73 73 73
23.656250000000 23.015625000000 7.701995849609 61 61 61
19.765625000000 21.171875000000 6.323997497559 25 25 25
23.015625000000 22.734375000000 9.745994567871 69 69 69
22.046875000000 22.265625000000 9.699996948242 48 48 48
22.015625000000 22.265625000000 9.740997314453 66 66 66
19.750000000000 21.156250000000 7.969001770020 20 20 20
16.531250000000 19.609375000000 6.370994567871 170 170 170
16.515625000000 19.609375000000 6.361000061035 150 150 150
16.515625000000 19.609375000000 7.569000244141 77 77 77
23.656250000000 22.781250000000 7.687995910645 49 49 49
19.765625000000 20.921875000000 6.330001831055 72 72 72
23.000000000000 22.484375000000 9.736999511719 90 90 90
22.062500000000 22.031250000000 9.703994750977 31 31 31
22.015625000000 22.015625000000 9.735000610352 74 74 74
19.718750000000 20.906250000000 7.975997924805 51 51 51
16.515625000000 19.359375000000 6.372001647949 154 154 154
16.515625000000 19.359375000000 7.568000793457 74 74 74
16.484375000000 19.343750000000 7.571998596191 53 53 53
19.765625000000 20.671875000000 6.337997436523 87 87 87
23.015625000000 22.250000000000 9.728996276855 107 107 107
22.062500000000 21.796875000000 9.702995300293 14 14 14
22.015625000000 21.765625000000 9.734001159668 85 85 85
19.718750000000 20.671875000000 7.973999023438 60 60 60
16.484375000000 19.078125000000 6.377998352051 109 109 109
16.468750000000 19.078125000000 6.364997863770 155 155 155
16.468750000000 19.078125000000 7.569999694824 59 59 59
23.656250000000 22.296875000000 7.721000671387 16 16 16
19.750000000000 20.406250000000 6.342994689941 62 62 62
23.031250000000 22.015625000000 9.722000122070 108 108 108
22.062500000000 21.546875000000 9.698997497559 18 18 18
22.031250000000 21.515625000000 9.727996826172 85 85 85
19.718750000000 20.390625000000 7.980995178223 35 35 35
16.468750000000 18.796875000000 6.370994567871 178 178 178
16.437500000000 18.796875000000 6.375999450684 130 130 130
16.453125000000 18.812500000000 7.580001831055 47 47 47
16.437500000000 18.796875000000 7.564994812012 59 59 59
23.656250000000 22.015625000000 7.708999633789 34 34 34
19.765625000000 20.156250000000 6.313995361328 45 45 45
23.031250000000 21.750000000000 9.721000671387 107 107 107
22.046875000000 21.296875000000 9.694000244141 44 44 44
22.031250000000 21.265625000000 9.738998413086 59 59 59
16.437500000000 18.546875000000 6.377998352051 133 133 133
16.437500000000 18.546875000000 6.378997802734 174 174 174
16.406250000000 18.546875000000 7.574996948242 63 63 63
23.671875000000 21.781250000000 7.708000183105 59 59 59
19.765625000000 19.906250000000 6.321998596191 59 59 59
23.031250000000 21.500000000000 9.720001220703 107 107 107
22.062500000000 21.046875000000 9.700996398926 22 22 22
22.031250000000 21.015625000000 9.729995727539 76 76 76
19.750000000000 19.906250000000 7.960998535156 28 28 28
16.406250000000 18.265625000000 6.373001098633 179 179 179
16.406250000000 18.265625000000 6.373001098633 163 163 163
16.390625000000 18.296875000000 7.569999694824 55 55 55
16.375000000000 18.265625000000 7.568000793457 40 40 40
23.671875000000 21.546875000000 7.695999145508 48 48 48
19.765625000000 19.656250000000 6.330001831055 75 75 75
23.062500000000 21.265625000000 9.715995788574 98 98 98
22.078125000000 20.796875000000 9.701995849609 8 8 8
22.031250000000 20.765625000000 9.733001708984 87 87 87
19.734375000000 19.656250000000 7.958999633789 45 45 45
16.375000000000 18.000000000000 6.376998901367 175 175 175
16.359375000000 18.015625000000 7.587997436523 58 58 58
23.687500000000 21.296875000000 7.688995361328 7 7 7
19.750000000000 19.406250000000 6.330001831055 80 80 80
23.062500000000 21.015625000000 9.707000732422 79 79 79
22.031250000000 20.515625000000 9.712997436523 99 99 99
19.734375000000 19.406250000000 7.972999572754 54 54 54
16.359375000000 17.734375000000 6.376998901367 168 168 168
16.343750000000 17.734375000000 6.368995666504 189 189 189
16.328125000000 17.734375000000 7.586997985840 66 66 66
23.656250000000 21.046875000000 7.717994689941 24 24 24
19.750000000000 19.140625000000 6.333999633789 78 78 78
23.062500000000 20.765625000000 9.693000793457 36 36 36
23.031250000000 20.734375000000 9.726997375488 10 10 10
22.046875000000 20.296875000000 9.714996337891 113 113 113
19.734375000000 19.140625000000 7.972000122070 51 51 51
16.328125000000 17.468750000000 6.375999450684 175 175 175
16.312500000000 17.453125000000 6.385002136230 144 144 144
16.312500000000 17.484375000000 7.573997497559 61 61 61
16.281250000000 17.468750000000 7.581001281738 34 34 34
23.671875000000 20.796875000000 7.706001281738 56 56 56
19.750000000000 18.906250000000 6.333999633789 77 77 77
23.031250000000 20.515625000000 9.727996826172 64 64 64
22.046875000000 20.031250000000 9.709999084473 116 116 116
19.750000000000 18.906250000000 7.977996826172 46 46 46
16.296875000000 17.203125000000 6.388000488281 151 151 151
16.281250000000 17.203125000000 6.501998901367 128 128 128
16.281250000000 17.203125000000 7.571998596191 101 101 101
23.671875000000 20.546875000000 7.692001342773 46 46 46
19.781250000000 18.656250000000 6.337997436523 49 49 49
23.031250000000 20.265625000000 9.724998474121 80 80 80
22.062500000000 19.781250000000 9.708999633789 112 112 112
19.734375000000 18.640625000000 7.971000671387 55 55 55
16.281250000000 16.937500000000 6.374000549316 165 165 165
16.265625000000 16.921875000000 6.390998840332 183 183 183
16.250000000000 16.937500000000 7.596000671387 45 45 45
23.687500000000 20.296875000000 7.689994812012 21 21 21
19.781250000000 18.406250000000 6.308998107910 28 28 28
23.062500000000 20.015625000000 9.716995239258 82 82 82
22.062500000000 19.531250000000 9.701995849609 118 118 118
19.750000000000 18.390625000000 7.987998962402 37 37 37
16.250000000000 16.671875000000 6.388000488281 173 173 173
16.218750000000 16.671875000000 6.392997741699 89 89 89
16.234375000000 16.671875000000 7.590995788574 50 50 50
23.671875000000 20.046875000000 7.724998474121 7 7 7
19.781250000000 18.156250000000 6.316001892090 46 46 46
23.062500000000 19.765625000000 9.705001831055 98 98 98
22.062500000000 19.281250000000 9.697998046875 111 111 111
19.750000000000 18.140625000000 7.991996765137 33 33 33
16.218750000000 16.421875000000 6.399002075195 149 149 149
16.218750000000 16.406250000000 6.381996154785 194 194 194
16.203125000000 16.406250000000 7.606994628906 62 62 62
23.687500000000 19.812500000000 7.708999633789 50 50 50
19.781250000000 17.890625000000 6.319999694824 40 40 40
23.062500000000 19.515625000000 9.697998046875 91 91 91
22.093750000000 19.046875000000 9.702995300293 83 83 83
19.750000000000 17.890625000000 7.988998413086 37 37 37
16.203125000000 16.140625000000 6.390998840332 138 138 138
16.171875000000 16.140625000000 6.396995544434 172 172 172
16.171875000000 16.140625000000 7.599998474121 58 58 58
23.718750000000 19.578125000000 7.698997497559 13 13 13
19.781250000000 17.640625000000 6.317001342773 43 43 43
23.093750000000 19.296875000000 9.691001892090 35 35 35
23.015625000000 19.265625000000 9.713996887207 11 11 11
22.093750000000 18.796875000000 9.681999206543 28 28 28
22.062500000000 18.781250000000 9.725997924805 57 57 57
19.718750000000 17.640625000000 7.986999511719 52 52 52
16.156250000000 15.859375000000 6.388000488281 176 176 176
16.156250000000 15.859375000000 6.382995605469 188 188 188
16.156250000000 15.859375000000 7.603996276855 56 56 56
16.140625000000 15.859375000000 7.592994689941 32 32 32
23.687500000000 19.328125000000 7.724998474121 16 16 16
19.781250000000 17.406250000000 6.321998596191 60 60 60
23.031250000000 19.015625000000 9.713996887207 57 57 57
22.062500000000 18.546875000000 9.711997985840 94 94 94
19.750000000000 17.390625000000 7.986000061035 38 38 38
16.156250000000 15.609375000000 6.376998901367 176 176 176
16.125000000000 15.578125000000 6.389999389648 142 142 142
16.125000000000 15.609375000000 7.614997863770 40 40 40
23.671875000000 19.062500000000 7.713996887207 48 48 48
19.781250000000 17.156250000000 6.323997497559 81 81 81
23.062500000000 18.765625000000 9.713996887207 66 66 66
22.062500000000 18.296875000000 9.712997436523 90 90 90
19.750000000000 17.140625000000 7.999000549316 34 34 34
16.125000000000 15.328125000000 6.405998229980 86 86 86
16.109375000000 15.328125000000 6.386001586914 170 170 170
16.093750000000 15.328125000000 7.618995666504 48 48 48
23.671875000000 18.812500000000 7.701995849609 46 46 46
19.781250000000 16.890625000000 6.326995849609 76 76 76
23.062500000000 18.515625000000 9.705001831055 82 82 82
22.062500000000 18.046875000000 9.706001281738 108 108 108
19.765625000000 16.890625000000 8.015998840332 22 22 22
16.109375000000 15.078125000000 6.388999938965 175 175 175
16.078125000000 15.046875000000 6.389999389648 180 180 180
16.078125000000 15.078125000000 7.615997314453 40 40 40
19.812500000000 16.640625000000 6.333000183105 80 80 80
23.078125000000 18.281250000000 9.705001831055 95 95 95
22.078125000000 17.796875000000 9.705001831055 118 118 118
19.750000000000 16.640625000000 8.007995605469 34 34 34
16.062500000000 14.796875000000 6.382995605469 170 170 170
16.046875000000 14.781250000000 6.387001037598 178 178 178
16.031250000000 14.796875000000 7.623001098633 37 37 37
23.687500000000 18.328125000000 7.728996276855 58 58 58
19.781250000000 16.390625000000 6.323997497559 75 75 75
23.093750000000 18.046875000000 9.683998107910 35 35 35
23.062500000000 18.031250000000 9.720001220703 14 14 14
22.093750000000 17.546875000000 9.694000244141 97 97 97
19.750000000000 16.390625000000 8.007995605469 43 43 43
16.046875000000 14.515625000000 6.394996643066 179 179 179
16.015625000000 14.515625000000 6.378997802734 206 206 206
23.703125000000 18.093750000000 7.707000732422 23 23 23
19.781250000000 16.156250000000 6.320999145508 69 69 69
23.062500000000 17.796875000000 9.713996887207 76 76 76
22.093750000000 17.328125000000 9.691001892090 32 32 32
22.062500000000 17.296875000000 9.715995788574 50 50 50
19.750000000000 16.140625000000 8.004997253418 33 33 33
16.000000000000 14.250000000000 6.389999389648 193 193 193
15.984375000000 14.250000000000 6.381996154785 206 206 206
15.984375000000 14.265625000000 7.629997253418 52 52 52
23.687500000000 17.843750000000 7.743995666504 20 20 20
19.812500000000 15.921875000000 6.324996948242 59 59 59
23.093750000000 17.546875000000 9.701995849609 107 107 107
22.078125000000 17.046875000000 9.711997985840 102 102 102
19.750000000000 15.890625000000 8.000000000000 25 25 25
15.984375000000 13.984375000000 6.388999938965 191 191 191
15.953125000000 13.968750000000 6.390998840332 172 172 172
23.703125000000 17.593750000000 7.729995727539 36 36 36
19.796875000000 15.640625000000 6.326995849609 76 76 76
23.093750000000 17.296875000000 9.694999694824 105 105 105
22.093750000000 16.796875000000 9.714996337891 94 94 94
19.781250000000 15.640625000000 8.006996154785 38 38 38
15.968750000000 13.718750000000 6.413002014160 43 43 43
15.937500000000 13.703125000000 6.396995544434 178 178 178
23.718750000000 17.359375000000 7.723999023438 43 43 43
19.796875000000 15.390625000000 6.321998596191 69 69 69
23.109375000000 17.046875000000 9.698997497559 80 80 80
22.078125000000 16.546875000000 9.700996398926 113 113 113
19.781250000000 15.390625000000 8.026000976563 25 25 25
15.937500000000 13.453125000000 6.396995544434 113 113 113
15.937500000000 13.453125000000 6.401000976563 175 175 175
19.812500000000 15.140625000000 6.325996398926 61 61 61
23.125000000000 16.812500000000 9.679000854492 13 13 13
23.062500000000 16.796875000000 9.715995788574 35 35 35
22.109375000000 16.312500000000 9.702995300293 115 115 115
19.781250000000 15.140625000000 8.017997741699 20 20 20
15.906250000000 13.187500000000 6.397994995117 125 125 125
15.875000000000 13.171875000000 6.394996643066 192 192 192
