12.406250000000 11.914062500000 6.992996215820 60 60 60
12.375000000000 11.914062500000 6.987998962402 70 70 70
12.390625000000 11.921875000000 6.182998657227 171 171 171
12.375000000000 11.921875000000 6.166000366211 57 57 57
12.390625000000 11.609375000000 6.997001647949 64 64 64
12.421875000000 11.609375000000 6.174003601074 106 106 106
12.390625000000 11.609375000000 6.194999694824 211 211 211
12.390625000000 11.304687500000 6.978996276855 92 92 92
12.406250000000 11.312500000000 6.180999755859 187 187 187
12.390625000000 11.312500000000 6.171997070313 203 203 203
12.406250000000 11.000000000000 6.976997375488 51 51 51
12.390625000000 11.000000000000 6.972999572754 76 76 76
12.406250000000 11.007812500000 6.161003112793 178 178 178
12.390625000000 11.007812500000 6.170997619629 167 167 167
12.406250000000 10.695312500000 6.961997985840 70 70 70
12.406250000000 10.695312500000 6.163002014160 185 185 185
12.390625000000 10.695312500000 6.153999328613 81 81 81
12.406250000000 10.382812500000 6.956001281738 67 67 67
12.421875000000 10.390625000000 6.171997070313 34 34 34
12.406250000000 10.390625000000 6.165000915527 175 175 175
12.406250000000 10.078125000000 6.946998596191 92 92 92
12.421875000000 10.085937500000 6.157997131348 141 141 141
12.406250000000 10.085937500000 6.157997131348 197 197 197
12.421875000000 9.781250000000 6.935997009277 64 64 64
12.390625000000 9.781250000000 6.949996948242 57 57 57
12.421875000000 9.781250000000 6.164001464844 207 207 207
12.406250000000 9.781250000000 6.154998779297 194 194 194
12.421875000000 9.468750000000 6.939002990723 68 68 68
12.421875000000 9.476562500000 6.143997192383 188 188 188
12.390625000000 9.476562500000 6.144996643066 60 60 60
12.437500000000 9.164062500000 6.921997070313 31 31 31
12.406250000000 9.164062500000 6.911003112793 92 92 92
12.437500000000 9.164062500000 6.155998229980 131 131 131
12.406250000000 9.164062500000 6.152000427246 182 182 182
12.437500000000 8.851562500000 6.915000915527 67 67 67
12.406250000000 8.851562500000 6.925003051758 61 61 61
12.437500000000 8.859375000000 6.138000488281 190 190 190
12.406250000000 8.859375000000 6.146003723145 253 253 253
12.421875000000 8.546875000000 6.921997070313 49 49 49
12.437500000000 8.554687500000 6.134002685547 203 203 203
12.406250000000 8.554687500000 6.138000488281 153 153 153
12.421875000000 8.242187500000 6.902999877930 89 89 89
12.421875000000 8.250000000000 6.139999389648 209 209 209
12.406250000000 8.250000000000 6.134002685547 73 73 73
12.437500000000 7.937500000000 6.888000488281 70 70 70
12.437500000000 7.945312500000 6.148002624512 221 221 221
12.421875000000 7.945312500000 6.130996704102 254 254 254
12.437500000000 7.632812500000 6.888999938965 76 76 76
12.437500000000 7.632812500000 6.126998901367 210 210 210
12.421875000000 7.640625000000 6.129997253418 133 133 133
12.453125000000 7.328125000000 6.874000549316 36 36 36
12.437500000000 7.328125000000 6.867996215820 96 96 96
12.437500000000 7.328125000000 6.129997253418 191 191 191
12.406250000000 7.328125000000 6.131996154785 51 51 51
12.453125000000 7.023437500000 6.865997314453 79 79 79
12.437500000000 7.023437500000 6.787002563477 78 78 78
12.453125000000 7.023437500000 6.138000488281 254 254 254
12.421875000000 7.023437500000 6.131996154785 254 254 254
12.437500000000 6.718750000000 6.869003295898 54 54 54
12.453125000000 6.718750000000 6.122001647949 191 191 191
12.421875000000 6.718750000000 6.107002258301 165 165 165
12.468750000000 6.406250000000 6.866996765137 65 65 65
12.437500000000 6.406250000000 6.857002258301 73 73 73
12.468750000000 6.406250000000 6.125000000000 89 89 89
12.437500000000 6.406250000000 6.115997314453 187 187 187
12.453125000000 6.093750000000 6.870002746582 63 63 63
12.453125000000 6.101562500000 6.115997314453 199 199 199
12.437500000000 6.101562500000 6.107002258301 184 184 184
12.468750000000 5.789062500000 6.849998474121 65 65 65
12.437500000000 5.789062500000 6.849998474121 84 84 84
12.453125000000 5.796875000000 6.103996276855 185 185 185
12.468750000000 5.484375000000 6.847000122070 52 52 52
12.468750000000 5.492187500000 6.107002258301 199 199 199
12.437500000000 5.492187500000 6.109001159668 242 242 242
12.453125000000 5.171875000000 6.851997375488 90 90 90
12.468750000000 5.179687500000 6.101997375488 197 197 197
12.468750000000 4.867187500000 6.846000671387 63 63 63
12.484375000000 4.867187500000 6.099998474121 204 204 204
12.453125000000 4.867187500000 6.097999572754 237 237 237
12.468750000000 4.554687500000 6.842002868652 99 99 99
12.468750000000 4.562500000000 6.097999572754 207 207 207
12.484375000000 4.250000000000 6.842002868652 48 48 48
12.484375000000 4.257812500000 6.094001770020 195 195 195
12.468750000000 4.257812500000 6.092002868652 250 250 250
12.468750000000 3.953125000000 6.830001831055 91 91 91
12.468750000000 3.953125000000 6.093002319336 176 176 176
12.484375000000 3.648437500000 6.825996398926 66 66 66
12.484375000000 3.648437500000 6.096000671387 163 163 163
12.468750000000 3.648437500000 6.089996337891 187 187 187
12.484375000000 3.335937500000 6.843002319336 70 70 70
12.484375000000 3.343750000000 6.077003479004 187 187 187
12.500000000000 3.031250000000 6.823997497559 71 71 71
12.468750000000 3.031250000000 6.831001281738 53 53 53
12.484375000000 3.039062500000 6.077003479004 188 188 188
12.484375000000 2.726562500000 6.820999145508 90 90 90
12.484375000000 2.726562500000 6.075996398926 188 188 188
12.500000000000 2.421875000000 6.821998596191 49 49 49
12.500000000000 2.429687500000 6.078002929688 177 177 177
12.484375000000 2.429687500000 6.072998046875 194 194 194
12.484375000000 2.117187500000 6.813003540039 95 95 95
12.500000000000 2.117187500000 6.070999145508 201 201 201
12.500000000000 1.804687500000 6.814002990723 55 55 55
12.500000000000 1.812500000000 6.083000183105 157 157 157
12.484375000000 1.812500000000 6.067001342773 199 199 199
12.515625000000 1.500000000000 6.804000854492 51 51 51
12.500000000000 1.500000000000 6.813003540039 91 91 91
12.500000000000 1.500000000000 6.055999755859 191 191 191
12.500000000000 1.187500000000 6.816001892090 54 54 54
12.515625000000 1.195312500000 6.066001892090 189 189 189
12.484375000000 1.195312500000 6.064002990723 216 216 216
12.515625000000 0.882812500000 6.806999206543 76 76 76
12.500000000000 0.890625000000 6.058998107910 198 198 198
12.531250000000 0.578125000000 6.805999755859 45 45 45
12.515625000000 0.578125000000 6.794998168945 94 94 94
12.515625000000 0.578125000000 6.055999755859 200 200 200
12.484375000000 0.585937500000 6.065002441406 123 123 123
12.515625000000 0.265625000000 6.802001953125 49 49 49
12.515625000000 0.273437500000 6.061996459961 175 175 175
12.500000000000 0.273437500000 6.059997558594 204 204 204
9.296875000000 0.273437500000 6.241996765137 130 130 130
9.296875000000 0.570312500000 6.233001708984 111 111 111
10.437500000000 0.015625000000 8.468002319336 23 23 23
10.296875000000 0.242187500000 6.669998168945 109 109 109
10.265625000000 0.257812500000 6.656997680664 115 115 115
9.312500000000 0.851562500000 6.241996765137 133 133 133
10.968750000000 0.000000000000 8.449996948242 141 141 141
10.484375000000 0.273437500000 8.485000610352 98 98 98
10.453125000000 0.289062500000 8.471000671387 131 131 131
10.296875000000 0.531250000000 6.683998107910 51 51 51
10.281250000000 0.539062500000 6.663002014160 150 150 150
9.312500000000 1.132812500000 6.256996154785 86 86 86
9.296875000000 1.140625000000 6.230003356934 49 49 49
10.968750000000 0.281250000000 8.458999633789 128 128 128
10.937500000000 0.304687500000 8.461997985840 73 73 73
10.468750000000 0.570312500000 8.458000183105 160 160 160
10.281250000000 0.820312500000 6.667999267578 161 161 161
9.296875000000 1.429687500000 6.237998962402 118 118 118
10.953125000000 0.585937500000 8.450996398926 133 133 133
10.468750000000 0.859375000000 8.476997375488 119 119 119
10.437500000000 0.875000000000 8.470001220703 105 105 105
10.281250000000 1.109375000000 6.681999206543 105 105 105
10.265625000000 1.125000000000 6.662002563477 114 114 114
9.296875000000 1.718750000000 6.253997802734 123 123 123
12.500000000000 0.109375000000 6.761001586914 83 83 83
12.500000000000 0.171875000000 6.015998840332 252 252 252
12.484375000000 0.179687500000 6.023002624512 252 252 252
12.468750000000 0.195312500000 6.021003723145 30 30 30
10.968750000000 0.867187500000 8.461997985840 97 97 97
10.937500000000 0.882812500000 8.442001342773 99 99 99
10.468750000000 1.156250000000 8.461997985840 156 156 156
10.265625000000 1.414062500000 6.686996459961 158 158 158
9.296875000000 2.007812500000 6.240997314453 128 128 128
12.484375000000 0.406250000000 6.768997192383 103 103 103
12.500000000000 0.460937500000 6.029998779297 121 121 121
12.484375000000 0.468750000000 6.024002075195 252 252 252
12.468750000000 0.476562500000 6.029998779297 194 194 194
10.953125000000 1.171875000000 8.453002929688 141 141 141
10.484375000000 1.445312500000 8.475997924805 82 82 82
10.453125000000 1.460937500000 8.467002868652 148 148 148
10.296875000000 1.695312500000 6.683998107910 85 85 85
10.265625000000 1.703125000000 6.666000366211 133 133 133
9.296875000000 2.304687500000 6.265998840332 76 76 76
9.281250000000 2.312500000000 6.247001647949 66 66 66
12.500000000000 0.695312500000 6.777999877930 84 84 84
12.468750000000 0.710937500000 6.771003723145 30 30 30
12.484375000000 0.757812500000 6.032997131348 252 252 252
12.468750000000 0.765625000000 6.027000427246 252 252 252
10.968750000000 1.453125000000 8.456001281738 118 118 118
10.937500000000 1.468750000000 8.439002990723 91 91 91
10.468750000000 1.742187500000 8.471000671387 155 155 155
10.281250000000 1.992187500000 6.677001953125 152 152 152
9.296875000000 2.593750000000 6.244003295898 125 125 125
12.500000000000 0.984375000000 6.767997741699 43 43 43
12.484375000000 0.992187500000 6.781997680664 106 106 106
12.484375000000 1.046875000000 6.042999267578 173 173 173
12.468750000000 1.054687500000 6.035003662109 252 252 252
12.453125000000 1.062500000000 6.040000915527 123 123 123
10.984375000000 1.734375000000 8.452003479004 42 42 42
10.953125000000 1.750000000000 8.444999694824 128 128 128
10.468750000000 2.023437500000 8.474998474121 140 140 140
10.437500000000 2.039062500000 8.463996887207 84 84 84
10.281250000000 2.281250000000 6.694999694824 152 152 152
10.265625000000 2.289062500000 6.664001464844 26 26 26
9.296875000000 2.882812500000 6.262001037598 134 134 134
12.484375000000 1.281250000000 6.789001464844 93 93 93
12.500000000000 1.335937500000 6.033996582031 47 47 47
12.484375000000 1.343750000000 6.031997680664 252 252 252
12.468750000000 1.351562500000 6.038002014160 252 252 252
10.953125000000 2.031250000000 8.454002380371 135 135 135
10.468750000000 2.304687500000 8.484001159668 60 60 60
10.453125000000 2.320312500000 8.464996337891 154 154 154
10.281250000000 2.562500000000 6.693000793457 111 111 111
10.265625000000 2.570312500000 6.674003601074 102 102 102
9.312500000000 3.156250000000 6.258003234863 89 89 89
9.281250000000 3.171875000000 6.244003295898 47 47 47
12.484375000000 1.570312500000 6.796997070313 26 26 26
12.468750000000 1.585937500000 6.773002624512 104 104 104
12.484375000000 1.632812500000 6.050003051758 204 204 204
12.468750000000 1.640625000000 6.038002014160 252 252 252
12.453125000000 1.648437500000 6.033996582031 104 104 104
10.968750000000 2.320312500000 8.450996398926 70 70 70
10.937500000000 2.335937500000 8.444999694824 126 126 126
10.468750000000 2.609375000000 8.472999572754 147 147 147
10.437500000000 2.625000000000 8.456001281738 50 50 50
10.265625000000 2.859375000000 6.694000244141 153 153 153
9.296875000000 3.453125000000 6.249000549316 122 122 122
12.484375000000 1.867187500000 6.794998168945 79 79 79
12.453125000000 1.882812500000 6.801002502441 52 52 52
12.484375000000 1.921875000000 6.047996520996 38 38 38
12.468750000000 1.929687500000 6.044998168945 252 252 252
12.453125000000 1.937500000000 6.042999267578 252 252 252
10.953125000000 2.617187500000 8.454002380371 146 146 146
10.921875000000 2.640625000000 8.439002990723 44 44 44
10.453125000000 2.906250000000 8.469001770020 157 157 157
10.265625000000 3.148437500000 6.712997436523 110 110 110
10.265625000000 3.156250000000 6.681999206543 100 100 100
9.296875000000 3.750000000000 6.280998229980 66 66 66
9.281250000000 3.757812500000 6.254997253418 77 77 77
12.468750000000 2.171875000000 6.791999816895 104 104 104
12.484375000000 2.218750000000 6.055000305176 163 163 163
12.468750000000 2.226562500000 6.043998718262 252 252 252
12.453125000000 2.234375000000 6.060997009277 142 142 142
10.968750000000 2.906250000000 8.456001281738 63 63 63
10.937500000000 2.921875000000 8.435997009277 126 126 126
10.468750000000 3.195312500000 8.474998474121 140 140 140
10.437500000000 3.210937500000 8.469001770020 86 86 86
10.265625000000 3.445312500000 6.702003479004 154 154 154
9.296875000000 4.046875000000 6.263999938965 129 129 129
12.468750000000 2.453125000000 6.794998168945 79 79 79
12.453125000000 2.468750000000 6.786003112793 68 68 68
12.468750000000 2.515625000000 6.047996520996 252 252 252
12.453125000000 2.523437500000 6.041999816895 252 252 252
10.953125000000 3.203125000000 8.443000793457 142 142 142
10.484375000000 3.476562500000 8.470001220703 35 35 35
10.453125000000 3.492187500000 8.460998535156 160 160 160
10.265625000000 3.734375000000 6.710998535156 150 150 150
10.250000000000 3.750000000000 6.696998596191 35 35 35
9.296875000000 4.328125000000 6.279998779297 96 96 96
9.281250000000 4.343750000000 6.253997802734 38 38 38
12.453125000000 2.750000000000 6.794998168945 100 100 100
12.468750000000 2.804687500000 6.055000305176 176 176 176
12.453125000000 2.812500000000 6.044998168945 252 252 252
12.437500000000 2.820312500000 6.059997558594 158 158 158
10.968750000000 3.484375000000 8.446998596191 111 111 111
10.937500000000 3.500000000000 8.430999755859 108 108 108
10.453125000000 3.773437500000 8.472000122070 160 160 160
10.281250000000 4.015625000000 6.724998474121 110 110 110
10.265625000000 4.031250000000 6.699996948242 110 110 110
9.281250000000 4.617187500000 6.260002136230 120 120 120
12.468750000000 3.039062500000 6.794998168945 71 71 71
12.453125000000 3.054687500000 6.799003601074 80 80 80
12.468750000000 3.101562500000 6.054000854492 252 252 252
12.453125000000 3.109375000000 6.046997070313 252 252 252
10.937500000000 3.781250000000 8.446998596191 140 140 140
10.468750000000 4.054687500000 8.486000061035 100 100 100
10.437500000000 4.070312500000 8.453002929688 142 142 142
10.265625000000 4.312500000000 6.714996337891 151 151 151
9.296875000000 4.898437500000 6.271003723145 126 126 126
12.453125000000 3.335937500000 6.814002990723 88 88 88
12.468750000000 3.382812500000 6.049003601074 131 131 131
12.453125000000 3.398437500000 6.057998657227 252 252 252
12.437500000000 3.406250000000 6.063003540039 159 159 159
10.953125000000 4.062500000000 8.446998596191 117 117 117
10.921875000000 4.085937500000 8.445999145508 93 93 93
10.453125000000 4.351562500000 8.460998535156 160 160 160
10.265625000000 4.601562500000 6.728996276855 146 146 146
10.250000000000 4.609375000000 6.714996337891 46 46 46
9.296875000000 5.187500000000 6.291000366211 49 49 49
9.281250000000 5.195312500000 6.259002685547 90 90 90
12.468750000000 3.625000000000 6.806999206543 54 54 54
12.437500000000 3.640625000000 6.800003051758 98 98 98
12.468750000000 3.679687500000 6.046997070313 30 30 30
12.453125000000 3.687500000000 6.055000305176 252 252 252
12.437500000000 3.695312500000 6.054000854492 252 252 252
12.421875000000 3.703125000000 6.055000305176 51 51 51
10.937500000000 4.367187500000 8.443000793457 139 139 139
10.468750000000 4.640625000000 8.471000671387 93 93 93
10.437500000000 4.656250000000 8.452003479004 135 135 135
10.281250000000 4.882812500000 6.736999511719 87 87 87
10.265625000000 4.898437500000 6.716003417969 141 141 141
9.281250000000 5.484375000000 6.280998229980 130 130 130
12.453125000000 3.921875000000 6.804000854492 83 83 83
12.468750000000 3.976562500000 6.067001342773 67 67 67
12.453125000000 3.984375000000 6.064002990723 252 252 252
12.437500000000 3.992187500000 6.061996459961 217 217 217
10.953125000000 4.656250000000 8.450996398926 124 124 124
10.921875000000 4.671875000000 8.438003540039 97 97 97
10.453125000000 4.937500000000 8.472000122070 160 160 160
10.265625000000 5.179687500000 6.728996276855 161 161 161
9.296875000000 5.773437500000 6.295997619629 71 71 71
9.265625000000 5.789062500000 6.275001525879 73 73 73
12.453125000000 4.210937500000 6.817001342773 36 36 36
12.437500000000 4.226562500000 6.805000305176 105 105 105
12.453125000000 4.273437500000 6.073997497559 241 241 241
12.437500000000 4.281250000000 6.051002502441 252 252 252
12.421875000000 4.289062500000 6.057998657227 49 49 49
10.937500000000 4.953125000000 8.446998596191 135 135 135
10.468750000000 5.218750000000 8.475997924805 101 101 101
10.437500000000 5.234375000000 8.461997985840 133 133 133
10.281250000000 5.468750000000 6.737998962402 114 114 114
10.250000000000 5.476562500000 6.730003356934 102 102 102
9.281250000000 6.062500000000 6.280998229980 128 128 128
12.437500000000 4.507812500000 6.824996948242 87 87 87
12.453125000000 4.554687500000 6.061996459961 111 111 111
12.437500000000 4.570312500000 6.071998596191 252 252 252
12.421875000000 4.578125000000 6.073997497559 208 208 208
10.953125000000 5.234375000000 8.446998596191 141 141 141
10.921875000000 5.250000000000 8.444000244141 50 50 50
10.437500000000 5.515625000000 8.466003417969 164 164 164
10.281250000000 5.750000000000 6.753997802734 70 70 70
10.265625000000 5.765625000000 6.736000061035 150 150 150
9.296875000000 6.343750000000 6.290000915527 125 125 125
12.453125000000 4.796875000000 6.824996948242 63 63 63
12.421875000000 4.812500000000 6.805999755859 85 85 85
12.437500000000 4.859375000000 6.069999694824 252 252 252
12.421875000000 4.867187500000 6.074996948242 252 252 252
10.953125000000 5.515625000000 8.459999084473 99 99 99
10.921875000000 5.531250000000 8.444999694824 120 120 120
10.453125000000 5.804687500000 8.475997924805 145 145 145
10.421875000000 5.820312500000 8.461997985840 50 50 50
10.265625000000 6.046875000000 6.750000000000 152 152 152
9.296875000000 6.632812500000 6.301002502441 71 71 71
9.265625000000 6.648437500000 6.288002014160 75 75 75
12.437500000000 5.093750000000 6.816001892090 85 85 85
12.453125000000 5.140625000000 6.080001831055 135 135 135
12.437500000000 5.156250000000 6.082000732422 252 252 252
12.406250000000 5.164062500000 6.089996337891 152 152 152
10.937500000000 5.820312500000 8.452003479004 138 138 138
10.468750000000 6.078125000000 8.476997375488 45 45 45
10.437500000000 6.101562500000 8.472000122070 154 154 154
10.265625000000 6.335937500000 6.764999389648 135 135 135
10.250000000000 6.343750000000 6.741996765137 78 78 78
9.281250000000 6.929687500000 6.293998718262 132 132 132
12.437500000000 5.382812500000 6.819999694824 64 64 64
12.421875000000 5.390625000000 6.822998046875 90 90 90
12.453125000000 5.429687500000 6.094001770020 37 37 37
12.437500000000 5.437500000000 6.082000732422 252 252 252
12.421875000000 5.453125000000 6.077003479004 252 252 252
10.953125000000 6.101562500000 8.448997497559 107 107 107
10.921875000000 6.117187500000 8.454002380371 104 104 104
10.453125000000 6.382812500000 8.473999023438 150 150 150
10.406250000000 6.398437500000 8.472999572754 45 45 45
10.265625000000 6.617187500000 6.780998229980 48 48 48
10.250000000000 6.625000000000 6.748001098633 144 144 144
9.296875000000 7.210937500000 6.303001403809 96 96 96
9.281250000000 7.218750000000 6.281997680664 48 48 48
12.421875000000 5.679687500000 6.824996948242 94 94 94
12.437500000000 5.726562500000 6.074996948242 164 164 164
12.421875000000 5.734375000000 6.080001831055 252 252 252
12.406250000000 5.750000000000 6.098999023438 134 134 134
10.937500000000 6.398437500000 8.453002929688 146 146 146
10.468750000000 6.664062500000 8.477996826172 66 66 66
10.437500000000 6.679687500000 8.458000183105 151 151 151
10.250000000000 6.914062500000 6.769996643066 155 155 155
9.281250000000 7.507812500000 6.296997070313 125 125 125
12.437500000000 5.968750000000 6.833999633789 67 67 67
12.406250000000 5.976562500000 6.833999633789 81 81 81
12.437500000000 6.015625000000 6.089996337891 78 78 78
12.421875000000 6.023437500000 6.083000183105 252 252 252
12.406250000000 6.039062500000 6.077003479004 252 252 252
10.953125000000 6.679687500000 8.454002380371 124 124 124
10.921875000000 6.703125000000 8.452003479004 83 83 83
10.437500000000 6.968750000000 8.472999572754 158 158 158
10.265625000000 7.203125000000 6.777999877930 117 117 117
10.250000000000 7.210937500000 6.760002136230 99 99 99
9.281250000000 7.796875000000 6.315002441406 124 124 124
12.421875000000 6.265625000000 6.827003479004 101 101 101
12.437500000000 6.312500000000 6.092002868652 252 252 252
12.421875000000 6.328125000000 6.087997436523 252 252 252
12.406250000000 6.335937500000 6.080001831055 54 54 54
10.953125000000 6.968750000000 8.484001159668 67 67 67
10.921875000000 6.984375000000 8.446998596191 134 134 134
10.453125000000 7.250000000000 8.475997924805 125 125 125
10.421875000000 7.265625000000 8.467002868652 93 93 93
10.265625000000 7.484375000000 6.787002563477 87 87 87
10.250000000000 7.500000000000 6.766998291016 142 142 142
9.281250000000 8.078125000000 6.324996948242 93 93 93
9.281250000000 8.085937500000 6.292999267578 52 52 52
12.421875000000 6.554687500000 6.835998535156 85 85 85
12.437500000000 6.601562500000 6.102996826172 117 117 117
12.421875000000 6.617187500000 6.100997924805 252 252 252
12.406250000000 6.625000000000 6.099998474121 146 146 146
10.937500000000 7.265625000000 8.467002868652 139 139 139
10.468750000000 7.531250000000 8.481002807617 45 45 45
10.437500000000 7.546875000000 8.469001770020 159 159 159
10.250000000000 7.789062500000 6.787002563477 158 158 158
9.265625000000 8.375000000000 6.316001892090 127 127 127
12.421875000000 6.843750000000 6.845001220703 35 35 35
12.406250000000 6.851562500000 6.848999023438 110 110 110
12.437500000000 6.890625000000 6.105003356934 40 40 40
12.421875000000 6.898437500000 6.094001770020 252 252 252
12.406250000000 6.914062500000 6.092002868652 252 252 252
10.937500000000 7.546875000000 8.466003417969 108 108 108
10.921875000000 7.562500000000 8.453002929688 106 106 106
10.437500000000 7.828125000000 8.486999511719 154 154 154
10.265625000000 8.070312500000 6.782997131348 141 141 141
10.234375000000 8.085937500000 6.783996582031 59 59 59
9.281250000000 8.656250000000 6.322998046875 129 129 129
12.421875000000 7.140625000000 6.851997375488 80 80 80
12.390625000000 7.148437500000 6.855003356934 63 63 63
12.437500000000 7.187500000000 6.095001220703 116 116 116
12.406250000000 7.195312500000 6.102996826172 252 252 252
12.390625000000 7.210937500000 6.113998413086 116 116 116
10.937500000000 7.851562500000 8.460998535156 145 145 145
10.453125000000 8.117187500000 8.505996704102 29 29 29
10.437500000000 8.125000000000 8.472999572754 162 162 162
10.250000000000 8.367187500000 6.791999816895 152 152 152
9.265625000000 8.953125000000 6.318000793457 113 113 113
12.406250000000 7.437500000000 6.847000122070 99 99 99
12.437500000000 7.476562500000 6.098999023438 49 49 49
12.421875000000 7.484375000000 6.098999023438 252 252 252
12.406250000000 7.492187500000 6.102996826172 252 252 252
10.937500000000 8.132812500000 8.478996276855 113 113 113
10.921875000000 8.148437500000 8.457000732422 122 122 122
10.437500000000 8.414062500000 8.483001708984 149 149 149
10.406250000000 8.429687500000 8.484001159668 56 56 56
10.250000000000 8.648437500000 6.796997070313 156 156 156
10.234375000000 8.664062500000 6.783996582031 37 37 37
9.281250000000 9.242187500000 6.334999084473 139 139 139
12.406250000000 7.726562500000 6.867996215820 83 83 83
12.421875000000 7.773437500000 6.108001708984 192 192 192
12.406250000000 7.781250000000 6.098999023438 252 252 252
12.390625000000 7.796875000000 6.114997863770 114 114 114
10.921875000000 8.437500000000 8.478996276855 139 139 139
10.453125000000 8.695312500000 8.497001647949 94 94 94
10.421875000000 8.718750000000 8.485000610352 148 148 148
10.265625000000 8.937500000000 6.810997009277 118 118 118
10.234375000000 8.953125000000 6.805999755859 103 103 103
9.281250000000 9.523437500000 6.347000122070 102 102 102
9.265625000000 9.531250000000 6.319000244141 50 50 50
12.406250000000 8.007812500000 6.867996215820 54 54 54
12.390625000000 8.023437500000 6.864997863770 102 102 102
12.421875000000 8.062500000000 6.108001708984 127 127 127
12.406250000000 8.070312500000 6.106002807617 252 252 252
12.390625000000 8.078125000000 6.121002197266 235 235 235
10.937500000000 8.718750000000 8.473999023438 140 140 140
10.906250000000 8.734375000000 8.474998474121 25 25 25
10.437500000000 8.992187500000 8.488998413086 168 168 168
10.265625000000 9.218750000000 6.816001892090 92 92 92
10.234375000000 9.234375000000 6.815002441406 126 126 126
9.281250000000 9.804687500000 6.353996276855 51 51 51
9.265625000000 9.812500000000 6.332000732422 92 92 92
12.406250000000 8.304687500000 6.856002807617 85 85 85
12.406250000000 8.359375000000 6.112998962402 252 252 252
12.390625000000 8.367187500000 6.115997314453 252 252 252
12.375000000000 8.375000000000 6.103996276855 46 46 46
10.937500000000 8.992187500000 8.476997375488 109 109 109
10.906250000000 9.015625000000 8.469001770020 116 116 116
10.437500000000 9.273437500000 8.490997314453 158 158 158
10.406250000000 9.289062500000 8.494003295898 28 28 28
10.250000000000 9.515625000000 6.815002441406 149 149 149
9.265625000000 10.101562500000 6.347000122070 131 131 131
12.406250000000 8.593750000000 6.880996704102 72 72 72
12.390625000000 8.601562500000 6.879997253418 80 80 80
12.421875000000 8.648437500000 6.125000000000 146 146 146
12.406250000000 8.656250000000 6.115997314453 252 252 252
12.375000000000 8.664062500000 6.120002746582 174 174 174
10.921875000000 9.296875000000 8.475997924805 141 141 141
10.437500000000 9.554687500000 8.515998840332 74 74 74
10.421875000000 9.570312500000 8.494003295898 158 158 158
10.250000000000 9.804687500000 6.828002929688 151 151 151
10.234375000000 9.812500000000 6.817001342773 45 45 45
9.281250000000 10.382812500000 6.355003356934 117 117 117
12.390625000000 8.890625000000 6.885002136230 94 94 94
12.406250000000 8.945312500000 6.119003295898 252 252 252
12.390625000000 8.953125000000 6.116996765137 252 252 252
12.375000000000 8.960937500000 6.123001098633 48 48 48
10.937500000000 9.578125000000 8.486000061035 124 124 124
10.906250000000 9.601562500000 8.470001220703 106 106 106
10.437500000000 9.859375000000 8.509002685547 156 156 156
10.250000000000 10.093750000000 6.850997924805 82 82 82
10.234375000000 10.101562500000 6.829002380371 131 131 131
9.265625000000 10.671875000000 6.379997253418 26 26 26
9.265625000000 10.679687500000 6.344001770020 106 106 106
12.390625000000 9.179687500000 6.896003723145 73 73 73
12.375000000000 9.187500000000 6.894996643066 53 53 53
12.406250000000 9.234375000000 6.129997253418 164 164 164
12.390625000000 9.242187500000 6.112998962402 252 252 252
12.375000000000 9.250000000000 6.126998901367 152 152 152
10.921875000000 9.882812500000 8.472999572754 137 137 137
10.453125000000 10.140625000000 8.504997253418 109 109 109
10.421875000000 10.156250000000 8.496002197266 136 136 136
10.234375000000 10.390625000000 6.842002868652 154 154 154
9.265625000000 10.968750000000 6.367996215820 138 138 138
12.406250000000 9.460937500000 6.906997680664 31 31 31
12.375000000000 9.476562500000 6.901000976563 108 108 108
12.406250000000 9.515625000000 6.121002197266 54 54 54
12.390625000000 9.531250000000 6.122001647949 252 252 252
12.375000000000 9.539062500000 6.131996154785 252 252 252
10.921875000000 10.164062500000 8.489997863770 141 141 141
10.890625000000 10.179687500000 8.482002258301 25 25 25
10.421875000000 10.437500000000 8.497001647949 171 171 171
10.234375000000 10.671875000000 6.848999023438 160 160 160
9.281250000000 11.250000000000 6.371002197266 130 130 130
12.390625000000 9.765625000000 6.907997131348 87 87 87
12.390625000000 9.812500000000 6.128997802734 252 252 252
12.375000000000 9.828125000000 6.116996765137 252 252 252
12.359375000000 9.835937500000 6.130996704102 82 82 82
10.937500000000 10.445312500000 8.487998962402 123 123 123
10.906250000000 10.460937500000 8.473999023438 100 100 100
10.437500000000 10.718750000000 8.509002685547 164 164 164
10.250000000000 10.953125000000 6.860000610352 159 159 159
10.218750000000 10.968750000000 6.842002868652 43 43 43
9.265625000000 11.531250000000 6.390998840332 114 114 114
9.250000000000 11.539062500000 6.361999511719 44 44 44
12.390625000000 10.046875000000 6.930000305176 74 74 74
12.375000000000 10.062500000000 6.916999816895 78 78 78
12.406250000000 10.101562500000 6.138000488281 171 171 171
12.390625000000 10.109375000000 6.131996154785 252 252 252
12.359375000000 10.125000000000 6.136001586914 217 217 217
10.921875000000 10.742187500000 8.481002807617 145 145 145
10.437500000000 11.000000000000 8.516998291016 100 100 100
10.406250000000 11.023437500000 8.513999938965 132 132 132
10.250000000000 11.242187500000 6.861999511719 113 113 113
10.234375000000 11.250000000000 6.855003356934 106 106 106
9.265625000000 11.820312500000 6.404998779297 30 30 30
9.265625000000 11.820312500000 6.372001647949 114 114 114
12.375000000000 10.351562500000 6.927001953125 98 98 98
12.406250000000 10.390625000000 6.147003173828 69 69 69
12.390625000000 10.398437500000 6.136001586914 252 252 252
12.375000000000 10.414062500000 6.136001586914 252 252 252
10.921875000000 11.031250000000 8.498001098633 141 141 141
10.890625000000 11.046875000000 8.488998413086 58 58 58
10.421875000000 11.304687500000 8.513999938965 166 166 166
10.250000000000 11.531250000000 6.892997741699 25 25 25
10.234375000000 11.539062500000 6.866996765137 147 147 147
9.265625000000 12.117187500000 6.394996643066 138 138 138
12.375000000000 10.632812500000 6.941001892090 81 81 81
12.359375000000 10.648437500000 6.932998657227 47 47 47
12.390625000000 10.687500000000 6.134002685547 252 252 252
12.375000000000 10.703125000000 6.127998352051 252 252 252
12.359375000000 10.710937500000 6.141998291016 123 123 123
10.937500000000 11.312500000000 8.518997192383 48 48 48
10.906250000000 11.328125000000 8.492996215820 135 135 135
10.437500000000 11.593750000000 8.528999328613 120 120 120
10.406250000000 11.609375000000 8.510002136230 106 106 106
10.234375000000 11.828125000000 6.886001586914 160 160 160
10.218750000000 11.835937500000 6.857002258301 32 32 32
9.265625000000 12.398437500000 6.404998779297 84 84 84
9.250000000000 12.414062500000 6.388000488281 73 73 73
12.359375000000 10.937500000000 6.943000793457 101 101 101
12.390625000000 10.976562500000 6.150001525879 165 165 165
12.375000000000 10.984375000000 6.139999389648 252 252 252
12.359375000000 11.000000000000 6.155998229980 219 219 219
10.921875000000 11.617187500000 8.501998901367 140 140 140
10.890625000000 11.632812500000 8.509002685547 18 18 18
10.421875000000 11.890625000000 8.521003723145 163 163 163
10.234375000000 12.117187500000 6.898002624512 127 127 127
10.218750000000 12.125000000000 6.874000549316 105 105 105
9.265625000000 12.695312500000 6.390998840332 133 133 133
12.375000000000 11.218750000000 6.944000244141 87 87 87
12.390625000000 11.265625000000 6.148002624512 31 31 31
12.375000000000 11.273437500000 6.146003723145 252 252 252
12.359375000000 11.289062500000 6.144996643066 252 252 252
10.937500000000 11.898437500000 8.499000549316 127 127 127
10.890625000000 11.914062500000 8.511001586914 104 104 104
10.421875000000 12.171875000000 8.536003112793 162 162 162
10.390625000000 12.187500000000 8.523002624512 17 17 17
10.250000000000 12.398437500000 6.899002075195 94 94 94
10.234375000000 12.414062500000 6.886001586914 131 131 131
9.250000000000 12.984375000000 6.416999816895 141 141 141
12.375000000000 11.507812500000 6.953002929688 86 86 86
12.359375000000 11.523437500000 6.950996398926 52 52 52
12.375000000000 11.562500000000 6.148002624512 252 252 252
12.359375000000 11.578125000000 6.147003173828 252 252 252
12.343750000000 11.585937500000 6.147003173828 49 49 49
10.937500000000 12.179687500000 8.524002075195 56 56 56
10.906250000000 12.195312500000 8.503997802734 132 132 132
10.437500000000 12.453125000000 8.529998779297 120 120 120
10.406250000000 12.476562500000 8.529998779297 119 119 119
10.234375000000 12.695312500000 6.897003173828 150 150 150
9.265625000000 13.265625000000 6.419998168945 108 108 108
9.234375000000 13.281250000000 6.407997131348 29 29 29
12.375000000000 11.796875000000 6.956001281738 35 35 35
12.359375000000 11.812500000000 6.950996398926 101 101 101
12.390625000000 11.851562500000 6.152000427246 252 252 252
12.375000000000 11.867187500000 6.140998840332 252 252 252
12.343750000000 11.875000000000 6.152999877930 135 135 135
10.906250000000 12.484375000000 8.515998840332 144 144 144
10.437500000000 12.742187500000 8.564002990723 24 24 24
10.406250000000 12.757812500000 8.536003112793 164 164 164
10.234375000000 12.984375000000 6.911003112793 163 163 163
9.265625000000 13.554687500000 6.441001892090 63 63 63
9.234375000000 13.562500000000 6.422996520996 95 95 95
12.359375000000 12.093750000000 6.978996276855 94 94 94
12.390625000000 12.140625000000 6.160003662109 139 139 139
12.375000000000 12.156250000000 6.150001525879 252 252 252
12.359375000000 12.164062500000 6.154998779297 157 157 157
10.921875000000 12.773437500000 8.521003723145 119 119 119
10.890625000000 12.789062500000 8.506996154785 104 104 104
10.421875000000 13.046875000000 8.549003601074 157 157 157
10.390625000000 13.062500000000 8.540000915527 37 37 37
10.234375000000 13.273437500000 6.929000854492 141 141 141
10.218750000000 13.281250000000 6.898002624512 79 79 79
9.265625000000 13.843750000000 6.421997070313 136 136 136
12.359375000000 12.382812500000 6.966003417969 79 79 79
12.343750000000 12.398437500000 6.973999023438 69 69 69
12.390625000000 12.437500000000 6.143997192383 41 41 41
12.375000000000 12.445312500000 6.157997131348 252 252 252
12.359375000000 12.453125000000 6.172996520996 223 223 223
10.906250000000 13.070312500000 8.515998840332 139 139 139
10.437500000000 13.328125000000 8.547996520996 83 83 83
10.406250000000 13.343750000000 8.542999267578 156 156 156
10.250000000000 13.554687500000 6.932998657227 92 92 92
10.218750000000 13.570312500000 6.919998168945 139 139 139
9.265625000000 14.132812500000 6.441001892090 120 120 120
9.250000000000 14.148437500000 6.418998718262 36 36 36
12.343750000000 12.687500000000 6.975997924805 101 101 101
12.375000000000 12.734375000000 6.157997131348 252 252 252
12.359375000000 12.742187500000 6.164001464844 252 252 252
12.343750000000 12.750000000000 6.177001953125 30 30 30
10.921875000000 13.359375000000 8.533996582031 138 138 138
10.890625000000 13.375000000000 8.519996643066 22 22 22
10.406250000000 13.632812500000 8.555999755859 164 164 164
10.234375000000 13.843750000000 6.958000183105 22 22 22
10.234375000000 13.851562500000 6.926002502441 150 150 150
9.265625000000 14.421875000000 6.461997985840 75 75 75
9.250000000000 14.437500000000 6.441001892090 93 93 93
12.343750000000 12.968750000000 6.982002258301 93 93 93
12.375000000000 13.023437500000 6.166000366211 252 252 252
12.359375000000 13.031250000000 6.164001464844 252 252 252
12.343750000000 13.039062500000 6.156997680664 57 57 57
10.921875000000 13.640625000000 8.532997131348 132 132 132
10.890625000000 13.656250000000 8.536003112793 99 99 99
10.421875000000 13.914062500000 8.560997009277 155 155 155
10.390625000000 13.929687500000 8.560997009277 32 32 32
10.218750000000 14.140625000000 6.946998596191 158 158 158
9.265625000000 14.710937500000 6.440002441406 132 132 132
12.359375000000 13.257812500000 6.990997314453 91 91 91
12.375000000000 13.312500000000 6.169998168945 252 252 252
12.359375000000 13.320312500000 6.165000915527 252 252 252
12.343750000000 13.328125000000 6.167999267578 73 73 73
10.921875000000 13.929687500000 8.569999694824 98 98 98
10.890625000000 13.945312500000 8.530998229980 129 129 129
10.421875000000 14.195312500000 8.561996459961 139 139 139
10.406250000000 14.210937500000 8.542999267578 112 112 112
10.218750000000 14.429687500000 6.958999633789 163 163 163
9.250000000000 15.000000000000 6.456001281738 135 135 135
12.359375000000 13.546875000000 7.003997802734 79 79 79
12.328125000000 13.562500000000 6.991996765137 73 73 73
12.375000000000 13.601562500000 6.170997619629 192 192 192
12.359375000000 13.609375000000 6.170997619629 252 252 252
12.343750000000 13.617187500000 6.180999755859 81 81 81
10.906250000000 14.226562500000 8.537002563477 142 142 142
10.437500000000 14.484375000000 8.563003540039 60 60 60
10.406250000000 14.500000000000 8.560997009277 165 165 165
10.234375000000 14.718750000000 6.963996887207 159 159 159
10.218750000000 14.726562500000 6.943000793457 41 41 41
9.250000000000 15.281250000000 6.470001220703 140 140 140
12.343750000000 13.851562500000 6.998001098633 99 99 99
12.375000000000 13.890625000000 6.185997009277 105 105 105
12.359375000000 13.898437500000 6.180000305176 252 252 252
12.343750000000 13.906250000000 6.190002441406 145 145 145
10.906250000000 14.515625000000 8.552001953125 144 144 144
10.890625000000 14.531250000000 8.541999816895 61 61 61
10.406250000000 14.781250000000 8.572998046875 172 172 172
10.234375000000 15.000000000000 6.972000122070 125 125 125
10.218750000000 15.015625000000 6.958000183105 96 96 96
9.265625000000 15.570312500000 6.481002807617 96 96 96
9.234375000000 15.578125000000 6.461997985840 62 62 62
12.343750000000 14.132812500000 7.016998291016 93 93 93
12.359375000000 14.187500000000 6.194999694824 252 252 252
12.343750000000 14.195312500000 6.197998046875 167 167 167
10.921875000000 14.796875000000 8.572998046875 101 101 101
10.890625000000 14.812500000000 8.550003051758 132 132 132
10.421875000000 15.070312500000 8.584999084473 124 124 124
10.390625000000 15.085937500000 8.569999694824 124 124 124
10.234375000000 15.289062500000 6.990997314453 100 100 100
10.218750000000 15.296875000000 6.967002868652 147 147 147
9.265625000000 15.859375000000 6.503997802734 38 38 38
9.250000000000 15.867187500000 6.472000122070 113 113 113
12.343750000000 14.421875000000 7.016998291016 85 85 85
12.359375000000 14.476562500000 6.194000244141 252 252 252
12.343750000000 14.484375000000 6.198997497559 222 222 222
10.921875000000 15.085937500000 8.577003479004 19 19 19
10.890625000000 15.101562500000 8.561996459961 143 143 143
10.421875000000 15.351562500000 8.594001770020 69 69 69
10.406250000000 15.367187500000 8.575996398926 161 161 161
10.234375000000 15.578125000000 7.006996154785 61 61 61
10.218750000000 15.585937500000 6.989997863770 154 154 154
9.250000000000 16.156250000000 6.485000610352 121 121 121
12.343750000000 14.710937500000 7.031997680664 71 71 71
12.359375000000 14.765625000000 6.197998046875 252 252 252
12.343750000000 14.773437500000 6.203002929688 216 216 216
10.906250000000 15.390625000000 8.569999694824 145 145 145
10.406250000000 15.656250000000 8.591003417969 174 174 174
10.234375000000 15.867187500000 7.026000976563 35 35 35
10.218750000000 15.875000000000 6.991996765137 148 148 148
9.250000000000 16.437500000000 6.499000549316 127 127 127
12.343750000000 15.000000000000 7.039001464844 43 43 43
12.312500000000 15.007812500000 7.063003540039 98 98 98
12.359375000000 15.054687500000 6.208000183105 252 252 252
12.343750000000 15.062500000000 6.197998046875 212 212 212
10.906250000000 15.671875000000 8.560997009277 142 142 142
10.406250000000 15.937500000000 8.583000183105 172 172 172
10.234375000000 16.148437500000 7.028999328613 40 40 40
10.218750000000 16.156250000000 7.000000000000 155 155 155
9.250000000000 16.718750000000 6.500000000000 128 128 128
12.328125000000 15.296875000000 7.041999816895 94 94 94
12.359375000000 15.343750000000 6.203002929688 228 228 228
12.328125000000 15.351562500000 6.205001831055 208 208 208
10.906250000000 15.953125000000 8.578002929688 147 147 147
10.875000000000 15.968750000000 8.570999145508 90 90 90
10.406250000000 16.218750000000 8.599998474121 165 165 165
10.375000000000 16.234375000000 8.602996826172 23 23 23
10.218750000000 16.445312500000 7.015998840332 151 151 151
9.250000000000 17.000000000000 6.511001586914 134 134 134
12.328125000000 15.585937500000 7.053001403809 90 90 90
12.343750000000 15.625000000000 6.217002868652 217 217 217
12.328125000000 15.640625000000 6.212997436523 218 218 218
10.906250000000 16.234375000000 8.591003417969 119 119 119
10.890625000000 16.250000000000 8.581001281738 130 130 130
10.406250000000 16.500000000000 8.620002746582 140 140 140
10.390625000000 16.515625000000 8.597999572754 108 108 108
10.218750000000 16.726562500000 7.019996643066 164 164 164
9.250000000000 17.289062500000 6.524002075195 139 139 139
12.328125000000 15.867187500000 7.068000793457 93 93 93
12.343750000000 15.914062500000 6.205001831055 207 207 207
12.328125000000 15.929687500000 6.219001770020 229 229 229
10.921875000000 16.515625000000 8.599998474121 41 41 41
10.890625000000 16.539062500000 8.587997436523 151 151 151
10.421875000000 16.789062500000 8.625999450684 76 76 76
10.390625000000 16.804687500000 8.610000610352 159 159 159
10.218750000000 17.015625000000 7.031997680664 161 161 161
12.328125000000 16.156250000000 7.069999694824 86 86 86
12.343750000000 16.203125000000 6.217002868652 204 204 204
12.328125000000 16.210937500000 6.217002868652 217 217 217
10.890625000000 16.820312500000 8.595001220703 148 148 148
10.406250000000 17.085937500000 8.615997314453 172 172 172
10.218750000000 17.304687500000 7.051002502441 162 162 162
12.328125000000 16.445312500000 7.083000183105 79 79 79
12.343750000000 16.492187500000 6.220001220703 215 215 215
12.328125000000 16.500000000000 6.214996337891 222 222 222
10.890625000000 17.101562500000 8.602996826172 149 149 149
10.406250000000 17.367187500000 8.620002746582 173 173 173
12.312500000000 16.726562500000 7.101997375488 70 70 70
12.343750000000 16.781250000000 6.222999572754 209 209 209
12.328125000000 16.789062500000 6.213996887207 210 210 210
10.890625000000 17.382812500000 8.609001159668 143 143 143
12.312500000000 17.015625000000 7.119003295898 39 39 39
12.343750000000 17.062500000000 6.218002319336 188 188 188
12.328125000000 17.078125000000 6.213996887207 209 209 209
12.343750000000 17.359375000000 6.222999572754 179 179 179
12.312500000000 17.367187500000 6.225997924805 213 213 213
12.468750000000 0.210937500000 6.029998779297 228 228 228
12.500000000000 0.210937500000 6.040000915527 202 202 202
12.500000000000 0.203125000000 6.774002075195 83 83 83
12.468750000000 0.507812500000 6.033996582031 70 70 70
12.484375000000 0.507812500000 6.029998779297 193 193 193
12.484375000000 0.492187500000 6.769996643066 83 83 83
12.468750000000 0.804687500000 6.027999877930 192 192 192
12.484375000000 0.804687500000 6.031997680664 215 215 215
12.500000000000 0.789062500000 6.767997741699 75 75 75
12.453125000000 1.093750000000 6.022003173828 47 47 47
12.468750000000 1.093750000000 6.047996520996 219 219 219
12.500000000000 1.093750000000 6.013000488281 60 60 60
12.484375000000 1.085937500000 6.773002624512 77 77 77
12.468750000000 1.390625000000 6.029998779297 187 187 187
12.484375000000 1.390625000000 6.039001464844 216 216 216
12.484375000000 1.375000000000 6.777999877930 80 80 80
12.453125000000 1.679687500000 6.038002014160 65 65 65
12.468750000000 1.679687500000 6.039001464844 196 196 196
12.468750000000 1.671875000000 6.783996582031 71 71 71
12.453125000000 1.976562500000 6.038002014160 225 225 225
12.484375000000 1.976562500000 6.043998718262 211 211 211
12.453125000000 1.960937500000 6.777000427246 39 39 39
12.484375000000 1.960937500000 6.794998168945 73 73 73
12.453125000000 2.265625000000 6.032997131348 75 75 75
12.468750000000 2.265625000000 6.056999206543 219 219 219
12.484375000000 2.265625000000 6.036003112793 54 54 54
12.468750000000 2.257812500000 6.783996582031 84 84 84
12.453125000000 2.562500000000 6.051002502441 253 253 253
12.468750000000 2.562500000000 6.042999267578 221 221 221
12.453125000000 2.546875000000 6.790000915527 67 67 67
12.468750000000 2.546875000000 6.804000854492 68 68 68
12.437500000000 2.851562500000 6.041999816895 74 74 74
12.453125000000 2.851562500000 6.042999267578 198 198 198
12.453125000000 2.843750000000 6.799003601074 65 65 65
12.437500000000 3.148437500000 6.057998657227 238 238 238
12.468750000000 3.148437500000 6.057998657227 207 207 207
12.453125000000 3.132812500000 6.795997619629 80 80 80
12.468750000000 3.132812500000 6.809997558594 56 56 56
12.437500000000 3.437500000000 6.053001403809 112 112 112
12.453125000000 3.437500000000 6.051002502441 211 211 211
12.453125000000 3.421875000000 6.819000244141 71 71 71
12.421875000000 3.726562500000 6.043998718262 43 43 43
12.437500000000 3.726562500000 6.073997497559 248 248 248
12.468750000000 3.726562500000 6.060997009277 91 91 91
12.437500000000 3.718750000000 6.804000854492 84 84 84
12.421875000000 4.023437500000 6.052001953125 159 159 159
12.453125000000 4.023437500000 6.051002502441 223 223 223
12.453125000000 4.007812500000 6.805999755859 68 68 68
12.406250000000 4.312500000000 6.071998596191 42 42 42
12.437500000000 4.312500000000 6.054000854492 246 246 246
12.453125000000 4.312500000000 6.069000244141 99 99 99
12.437500000000 4.304687500000 6.811996459961 78 78 78
12.421875000000 4.609375000000 6.056999206543 104 104 104
12.437500000000 4.609375000000 6.066001892090 209 209 209
12.437500000000 4.593750000000 6.813003540039 65 65 65
12.406250000000 4.898437500000 6.063003540039 60 60 60
12.421875000000 4.898437500000 6.069999694824 254 254 254
12.437500000000 4.898437500000 6.081001281738 201 201 201
12.421875000000 4.890625000000 6.819999694824 80 80 80
12.453125000000 4.890625000000 6.818000793457 50 50 50
12.406250000000 5.195312500000 6.071998596191 115 115 115
12.437500000000 5.195312500000 6.079002380371 218 218 218
12.437500000000 5.179687500000 6.819000244141 66 66 66
12.421875000000 5.484375000000 6.089996337891 254 254 254
12.437500000000 5.484375000000 6.100997924805 216 216 216
12.421875000000 5.468750000000 6.823997497559 81 81 81
12.437500000000 5.468750000000 6.839996337891 44 44 44
12.406250000000 5.773437500000 6.089996337891 89 89 89
12.421875000000 5.773437500000 6.091003417969 206 206 206
12.421875000000 5.765625000000 6.836997985840 65 65 65
12.406250000000 6.070312500000 6.078002929688 197 197 197
12.437500000000 6.070312500000 6.079002380371 247 247 247
12.406250000000 6.054687500000 6.819999694824 72 72 72
12.437500000000 6.054687500000 6.843002319336 71 71 71
12.390625000000 6.359375000000 6.096000671387 66 66 66
12.421875000000 6.367187500000 6.080001831055 254 254 254
12.437500000000 6.367187500000 6.091003417969 109 109 109
12.421875000000 6.351562500000 6.823997497559 61 61 61
12.406250000000 6.656250000000 6.083999633789 139 139 139
12.421875000000 6.656250000000 6.099998474121 224 224 224
12.406250000000 6.640625000000 6.829002380371 61 61 61
12.421875000000 6.648437500000 6.846000671387 70 70 70
12.390625000000 6.945312500000 6.087997436523 48 48 48
12.406250000000 6.945312500000 6.088996887207 245 245 245
12.421875000000 6.945312500000 6.107002258301 94 94 94
12.406250000000 6.937500000000 6.852996826172 72 72 72
12.390625000000 7.242187500000 6.101997375488 124 124 124
12.421875000000 7.242187500000 6.094001770020 209 209 209
12.390625000000 7.226562500000 6.849998474121 80 80 80
12.421875000000 7.226562500000 6.841003417969 63 63 63
12.406250000000 7.531250000000 6.107002258301 243 243 243
12.421875000000 7.539062500000 6.112998962402 191 191 191
12.406250000000 7.523437500000 6.852996826172 67 67 67
12.390625000000 7.828125000000 6.111000061035 78 78 78
12.406250000000 7.828125000000 6.108001708984 198 198 198
12.406250000000 7.812500000000 6.866996765137 77 77 77
