32.906250000000 8.781250000000 5.854003906250 159 159 159
32.906250000000 8.789062500000 5.884002685547 159 159 159
32.906250000000 8.789062500000 5.906005859375 159 159 159
32.906250000000 8.781250000000 5.930999755859 159 159 159
32.906250000000 8.789062500000 5.958007812500 158 158 158
32.906250000000 8.789062500000 5.984008789063 155 155 155
32.906250000000 8.781250000000 6.008010864258 157 157 157
32.906250000000 8.789062500000 6.036010742188 158 158 158
32.906250000000 8.789062500000 6.063003540039 158 158 158
32.906250000000 8.781250000000 6.087005615234 157 157 157
32.906250000000 8.789062500000 6.117996215820 158 158 158
32.906250000000 8.789062500000 6.141998291016 160 160 160
32.906250000000 8.781250000000 6.164001464844 158 158 158
32.906250000000 8.789062500000 6.195999145508 155 155 155
32.906250000000 8.789062500000 6.223007202148 156 156 156
32.906250000000 8.781250000000 6.249008178711 154 154 154
32.906250000000 8.781250000000 6.274002075195 153 153 153
32.859375000000 8.750000000000 6.275009155273 154 154 154
32.750000000000 8.703125000000 6.245010375977 130 130 130
32.750000000000 8.695312500000 6.266998291016 121 121 121
32.750000000000 8.695312500000 6.296005249023 123 123 123
32.750000000000 8.695312500000 6.320999145508 117 117 117
32.750000000000 8.695312500000 6.348007202148 122 122 122
32.781250000000 8.710937500000 6.395996093750 133 133 133
32.906250000000 8.781250000000 6.498001098633 156 156 156
32.890625000000 8.781250000000 6.523010253906 158 158 158
32.906250000000 8.789062500000 6.553009033203 158 158 158
32.906250000000 8.789062500000 6.582000732422 157 157 157
32.890625000000 8.781250000000 6.610000610352 155 155 155
32.906250000000 8.789062500000 6.641998291016 155 155 155
32.890625000000 8.781250000000 6.666000366211 155 155 155
32.890625000000 8.781250000000 6.699005126953 152 152 152
32.890625000000 8.781250000000 6.727005004883 152 152 152
32.890625000000 8.781250000000 6.755996704102 153 153 153
32.875000000000 8.781250000000 6.781997680664 150 150 150
32.875000000000 8.781250000000 6.814010620117 152 152 152
32.875000000000 8.781250000000 6.846008300781 151 151 151
32.875000000000 8.781250000000 6.873001098633 147 147 147
32.875000000000 8.781250000000 6.906005859375 147 147 147
32.890625000000 8.781250000000 6.940002441406 147 147 147
32.875000000000 8.781250000000 6.967010498047 148 148 148
32.703125000000 8.687500000000 6.992996215820 120 120 120
32.468750000000 8.781250000000 2.355010986328 151 151 151
32.500000000000 8.781250000000 2.367996215820 149 149 149
32.531250000000 8.812500000000 2.361999511719 151 151 151
32.562500000000 8.828125000000 2.374008178711 164 164 164
32.562500000000 8.828125000000 2.404006958008 167 167 167
32.562500000000 8.828125000000 2.432998657227 153 153 153
32.562500000000 8.835937500000 2.454010009766 151 151 151
32.562500000000 8.835937500000 2.483001708984 151 151 151
32.562500000000 8.835937500000 2.508010864258 151 151 151
32.562500000000 8.828125000000 2.540008544922 153 153 153
32.562500000000 8.835937500000 2.561996459961 163 163 163
32.562500000000 8.835937500000 2.591003417969 159 159 159
32.562500000000 8.843750000000 2.613998413086 154 154 154
32.562500000000 8.835937500000 2.643997192383 152 152 152
32.562500000000 8.835937500000 2.667999267578 152 152 152
32.562500000000 8.835937500000 2.694000244141 156 156 156
32.562500000000 8.835937500000 2.721008300781 155 155 155
32.562500000000 8.835937500000 2.749008178711 157 157 157
32.562500000000 8.835937500000 2.772003173828 156 156 156
32.562500000000 8.835937500000 2.798995971680 157 157 157
32.562500000000 8.835937500000 2.820999145508 157 157 157
32.562500000000 8.843750000000 2.845001220703 157 157 157
32.562500000000 8.835937500000 2.872009277344 155 155 155
32.562500000000 8.835937500000 2.899002075195 155 155 155
32.562500000000 8.843750000000 2.917999267578 157 157 157
32.562500000000 8.828125000000 2.951004028320 156 156 156
32.562500000000 8.843750000000 2.967010498047 156 156 156
32.562500000000 8.843750000000 2.992004394531 158 158 158
32.562500000000 8.843750000000 3.016006469727 158 158 158
32.578125000000 8.843750000000 3.039001464844 157 157 157
32.562500000000 8.843750000000 3.064010620117 160 160 160
32.578125000000 8.843750000000 3.087005615234 161 161 161
32.562500000000 8.843750000000 3.115005493164 156 156 156
32.578125000000 8.843750000000 3.135009765625 157 157 157
32.578125000000 8.843750000000 3.156997680664 160 160 160
32.578125000000 8.843750000000 3.182006835938 157 157 157
32.562500000000 8.843750000000 3.208007812500 155 155 155
32.578125000000 8.843750000000 3.229003906250 158 158 158
32.578125000000 8.843750000000 3.251007080078 155 155 155
32.578125000000 8.843750000000 3.276000976563 156 156 156
32.578125000000 8.851562500000 3.296005249023 156 156 156
32.578125000000 8.843750000000 3.320999145508 160 160 160
32.578125000000 8.851562500000 3.341003417969 157 157 157
32.578125000000 8.851562500000 3.363998413086 160 160 160
32.578125000000 8.843750000000 3.388000488281 162 162 162
32.593750000000 8.859375000000 3.408004760742 159 159 159
32.578125000000 8.843750000000 3.434005737305 159 159 159
32.578125000000 8.843750000000 3.457000732422 158 158 158
32.578125000000 8.843750000000 3.479003906250 156 156 156
32.578125000000 8.851562500000 3.500000000000 157 157 157
32.578125000000 8.851562500000 3.522003173828 158 158 158
32.593750000000 8.859375000000 3.542999267578 156 156 156
32.593750000000 8.859375000000 3.565002441406 158 158 158
32.593750000000 8.859375000000 3.587997436523 162 162 162
32.578125000000 8.851562500000 3.610000610352 169 169 169
32.593750000000 8.859375000000 3.632003784180 157 157 157
32.578125000000 8.851562500000 3.654998779297 155 155 155
32.578125000000 8.843750000000 3.677001953125 159 159 159
32.593750000000 8.867187500000 3.694000244141 157 157 157
32.593750000000 8.859375000000 3.719009399414 157 157 157
32.593750000000 8.859375000000 3.738998413086 158 158 158
32.578125000000 8.851562500000 3.763000488281 160 160 160
32.593750000000 8.859375000000 3.783004760742 160 160 160
32.593750000000 8.867187500000 3.803009033203 156 156 156
32.593750000000 8.859375000000 3.826004028320 166 166 166
32.593750000000 8.867187500000 3.846008300781 157 157 157
32.593750000000 8.859375000000 3.869003295898 157 157 157
32.593750000000 8.859375000000 3.891006469727 155 155 155
32.593750000000 8.867187500000 3.910003662109 156 156 156
32.593750000000 8.867187500000 3.932006835938 154 154 154
32.593750000000 8.867187500000 3.951004028320 156 156 156
32.593750000000 8.867187500000 3.973007202148 158 158 158
32.593750000000 8.859375000000 3.995010375977 155 155 155
32.593750000000 8.867187500000 4.014999389648 152 152 152
32.593750000000 8.867187500000 4.037002563477 152 152 152
32.593750000000 8.867187500000 4.057006835938 145 145 145
32.593750000000 8.867187500000 4.078002929688 144 144 144
32.593750000000 8.867187500000 4.098999023438 142 142 142
32.578125000000 8.867187500000 4.121002197266 140 140 140
32.593750000000 8.867187500000 4.141006469727 142 142 142
32.578125000000 8.867187500000 4.163009643555 138 138 138
32.593750000000 8.875000000000 4.184005737305 135 135 135
32.593750000000 8.867187500000 4.204010009766 133 133 133
32.593750000000 8.867187500000 4.225006103516 126 126 126
32.593750000000 8.875000000000 4.246002197266 128 128 128
32.593750000000 8.875000000000 4.266998291016 124 124 124
32.593750000000 8.867187500000 4.287002563477 121 121 121
32.593750000000 8.875000000000 4.307998657227 119 119 119
32.593750000000 8.875000000000 4.328002929688 116 116 116
32.593750000000 8.867187500000 4.348999023438 116 116 116
32.593750000000 8.875000000000 4.370010375977 116 116 116
32.593750000000 8.875000000000 4.391006469727 112 112 112
32.593750000000 8.875000000000 4.411010742188 109 109 109
32.593750000000 8.875000000000 4.432006835938 110 110 110
32.609375000000 8.882812500000 4.453002929688 112 112 112
32.593750000000 8.875000000000 4.473999023438 104 104 104
32.593750000000 8.875000000000 4.494003295898 100 100 100
32.593750000000 8.882812500000 4.514999389648 97 97 97
32.609375000000 8.882812500000 4.536010742188 91 91 91
32.593750000000 8.875000000000 4.557006835938 80 80 80
32.593750000000 8.882812500000 4.577011108398 75 75 75
32.593750000000 8.875000000000 4.598007202148 55 55 55
32.593750000000 8.890625000000 5.059997558594 87 87 87
32.625000000000 8.890625000000 5.083999633789 92 92 92
32.625000000000 8.898437500000 5.106002807617 91 91 91
32.625000000000 8.898437500000 5.126998901367 90 90 90
32.625000000000 8.898437500000 5.149002075195 85 85 85
32.609375000000 8.898437500000 5.169006347656 74 74 74
32.484375000000 9.062500000000 2.363006591797 148 148 148
32.531250000000 9.085937500000 2.361007690430 168 168 168
32.687500000000 8.507812500000 2.361999511719 175 175 175
32.625000000000 8.539062500000 2.369003295898 150 150 150
32.593750000000 8.562500000000 2.371002197266 149 149 149
32.546875000000 8.585937500000 2.367996215820 149 149 149
32.500000000000 8.609375000000 2.369003295898 146 146 146
32.468750000000 8.640625000000 2.367996215820 148 148 148
32.453125000000 8.648437500000 2.350006103516 154 154 154
32.593750000000 8.851562500000 6.999008178711 163 163 163
32.609375000000 8.835937500000 6.971008300781 162 162 162
32.593750000000 8.851562500000 6.936004638672 160 160 160
32.593750000000 8.851562500000 6.908004760742 162 162 162
32.593750000000 8.851562500000 6.876998901367 162 162 162
32.593750000000 8.851562500000 6.848007202148 164 164 164
32.593750000000 8.851562500000 6.813003540039 162 162 162
32.593750000000 8.851562500000 6.785003662109 162 162 162
32.593750000000 8.851562500000 6.755004882813 160 160 160
32.593750000000 8.851562500000 6.727005004883 159 159 159
32.593750000000 8.851562500000 6.699005126953 162 162 162
32.593750000000 8.851562500000 6.671005249023 162 162 162
32.593750000000 8.843750000000 6.638000488281 166 166 166
32.593750000000 8.843750000000 6.610000610352 163 163 163
32.593750000000 8.851562500000 6.583007812500 160 160 160
32.593750000000 8.843750000000 6.552001953125 160 160 160
32.593750000000 8.851562500000 6.529006958008 165 165 165
32.593750000000 8.843750000000 6.498001098633 167 167 167
32.593750000000 8.843750000000 6.470001220703 164 164 164
32.593750000000 8.843750000000 6.443008422852 163 163 163
32.593750000000 8.843750000000 6.417007446289 166 166 166
32.593750000000 8.843750000000 6.391006469727 164 164 164
32.593750000000 8.851562500000 6.367004394531 166 166 166
32.593750000000 8.843750000000 6.337997436523 168 168 168
32.593750000000 8.851562500000 6.315002441406 168 168 168
32.593750000000 8.843750000000 6.283004760742 166 166 166
32.593750000000 8.843750000000 6.258010864258 167 167 167
32.593750000000 8.843750000000 6.235000610352 167 167 167
32.578125000000 8.851562500000 6.205001831055 168 168 168
32.578125000000 8.851562500000 6.179000854492 170 170 170
32.578125000000 8.851562500000 6.152999877930 168 168 168
32.593750000000 8.843750000000 6.128005981445 169 169 169
32.593750000000 8.851562500000 6.109008789063 173 173 173
32.578125000000 8.851562500000 6.077011108398 168 168 168
32.593750000000 8.843750000000 6.054000854492 167 167 167
32.593750000000 8.843750000000 6.027999877930 169 169 169
32.578125000000 8.851562500000 6.003005981445 169 169 169
32.578125000000 8.851562500000 5.977996826172 168 168 168
32.578125000000 8.851562500000 5.954010009766 167 167 167
32.578125000000 8.851562500000 5.928009033203 169 169 169
32.578125000000 8.851562500000 5.904998779297 170 170 170
32.578125000000 8.851562500000 5.880004882813 168 168 168
32.578125000000 8.851562500000 5.855010986328 167 167 167
32.578125000000 8.851562500000 5.832000732422 167 167 167
32.578125000000 8.851562500000 5.807998657227 170 170 170
32.593750000000 8.843750000000 5.787002563477 168 168 168
32.593750000000 8.843750000000 5.763000488281 168 168 168
32.578125000000 8.851562500000 5.738006591797 166 166 166
32.578125000000 8.851562500000 5.714004516602 166 166 166
32.578125000000 8.851562500000 5.689010620117 168 168 168
32.578125000000 8.851562500000 5.667007446289 164 164 164
32.578125000000 8.851562500000 5.643005371094 165 165 165
32.578125000000 8.851562500000 5.620010375977 166 166 166
32.578125000000 8.851562500000 5.595001220703 165 165 165
32.578125000000 8.851562500000 5.572998046875 168 168 168
32.578125000000 8.851562500000 5.551010131836 163 163 163
32.578125000000 8.851562500000 5.529998779297 169 169 169
32.578125000000 8.851562500000 5.507003784180 167 167 167
32.578125000000 8.851562500000 5.482009887695 168 168 168
32.578125000000 8.851562500000 5.462005615234 166 166 166
32.578125000000 8.851562500000 5.438003540039 170 170 170
32.578125000000 8.851562500000 5.414001464844 170 170 170
32.578125000000 8.851562500000 5.393005371094 173 173 173
32.562500000000 8.859375000000 5.369003295898 169 169 169
32.578125000000 8.851562500000 5.348999023438 172 172 172
32.578125000000 8.851562500000 5.326004028320 170 170 170
32.578125000000 8.851562500000 5.304000854492 170 170 170
32.578125000000 8.851562500000 5.281005859375 171 171 171
32.578125000000 8.851562500000 5.259002685547 171 171 171
32.578125000000 8.851562500000 5.236999511719 169 169 169
32.578125000000 8.851562500000 5.216003417969 170 170 170
32.578125000000 8.851562500000 5.194000244141 171 171 171
32.578125000000 8.851562500000 5.171997070313 171 171 171
32.578125000000 8.851562500000 5.150009155273 169 169 169
32.578125000000 8.851562500000 5.128997802734 170 170 170
32.562500000000 8.851562500000 5.106002807617 170 170 170
32.578125000000 8.851562500000 5.085998535156 171 171 171
32.562500000000 8.851562500000 5.063003540039 173 173 173
32.562500000000 8.859375000000 5.042007446289 169 169 169
32.578125000000 8.851562500000 5.020996093750 170 170 170
32.562500000000 8.851562500000 4.999008178711 170 170 170
32.562500000000 8.851562500000 4.977005004883 168 168 168
32.562500000000 8.859375000000 4.956008911133 171 171 171
32.578125000000 8.851562500000 4.934997558594 170 170 170
32.578125000000 8.851562500000 4.914001464844 169 169 169
32.562500000000 8.851562500000 4.891998291016 171 171 171
32.562500000000 8.859375000000 4.871002197266 172 172 172
32.562500000000 8.851562500000 4.850006103516 170 170 170
32.562500000000 8.851562500000 4.828002929688 170 170 170
32.562500000000 8.859375000000 4.807006835938 173 173 173
32.562500000000 8.859375000000 4.786010742188 172 172 172
32.562500000000 8.859375000000 4.764999389648 172 172 172
32.578125000000 8.851562500000 4.744003295898 173 173 173
32.562500000000 8.851562500000 4.723007202148 171 171 171
32.578125000000 8.851562500000 4.702011108398 168 168 168
32.562500000000 8.859375000000 4.680999755859 171 171 171
32.578125000000 8.851562500000 4.660003662109 171 171 171
32.562500000000 8.851562500000 4.639007568359 170 170 170
32.562500000000 8.851562500000 4.617996215820 171 171 171
32.562500000000 8.851562500000 4.596008300781 169 169 169
32.562500000000 8.851562500000 4.574996948242 169 169 169
32.562500000000 8.851562500000 4.554000854492 174 174 174
32.562500000000 8.851562500000 4.533004760742 169 169 169
32.562500000000 8.851562500000 4.512008666992 170 170 170
32.562500000000 8.851562500000 4.490997314453 171 171 171
32.562500000000 8.851562500000 4.470001220703 171 171 171
32.562500000000 8.851562500000 4.449005126953 169 169 169
32.562500000000 8.851562500000 4.428009033203 169 169 169
32.562500000000 8.851562500000 4.406997680664 168 168 168
32.562500000000 8.851562500000 4.386001586914 170 170 170
32.562500000000 8.851562500000 4.365005493164 170 170 170
32.562500000000 8.867187500000 4.345001220703 172 172 172
32.562500000000 8.859375000000 4.322998046875 166 166 166
32.562500000000 8.851562500000 4.302001953125 169 169 169
32.562500000000 8.851562500000 4.281005859375 171 171 171
32.562500000000 8.851562500000 4.260009765625 170 170 170
32.562500000000 8.851562500000 4.238998413086 170 170 170
32.562500000000 8.867187500000 4.218002319336 171 171 171
32.562500000000 8.851562500000 4.197006225586 170 170 170
32.562500000000 8.851562500000 4.175003051758 170 170 170
32.562500000000 8.851562500000 4.154006958008 173 173 173
32.562500000000 8.851562500000 4.133010864258 173 173 173
32.562500000000 8.851562500000 4.111999511719 171 171 171
32.562500000000 8.851562500000 4.091003417969 171 171 171
32.562500000000 8.851562500000 4.070007324219 168 168 168
32.562500000000 8.851562500000 4.048004150391 169 169 169
32.562500000000 8.867187500000 4.029006958008 169 169 169
32.562500000000 8.867187500000 4.007003784180 167 167 167
32.562500000000 8.867187500000 3.985000610352 168 168 168
32.562500000000 8.851562500000 3.962997436523 171 171 171
32.562500000000 8.867187500000 3.942001342773 170 170 170
32.562500000000 8.851562500000 3.919998168945 166 166 166
32.562500000000 8.851562500000 3.898010253906 167 167 167
32.562500000000 8.851562500000 3.876998901367 168 168 168
32.562500000000 8.867187500000 3.857009887695 176 176 176
32.562500000000 8.867187500000 3.833999633789 174 174 174
32.562500000000 8.867187500000 3.813003540039 172 172 172
32.562500000000 8.867187500000 3.791000366211 167 167 167
32.562500000000 8.851562500000 3.768005371094 167 167 167
32.562500000000 8.867187500000 3.747009277344 168 168 168
32.562500000000 8.867187500000 3.725997924805 167 167 167
32.562500000000 8.851562500000 3.703002929688 167 167 167
32.562500000000 8.867187500000 3.680999755859 167 167 167
32.562500000000 8.867187500000 3.658996582031 166 166 166
32.562500000000 8.851562500000 3.636001586914 165 165 165
32.562500000000 8.867187500000 3.615997314453 170 170 170
32.562500000000 8.867187500000 3.593002319336 173 173 173
32.562500000000 8.867187500000 3.572006225586 164 164 164
32.562500000000 8.867187500000 3.548004150391 165 165 165
32.562500000000 8.867187500000 3.525009155273 167 167 167
32.562500000000 8.867187500000 3.503005981445 166 166 166
32.562500000000 8.867187500000 3.482009887695 168 168 168
32.562500000000 8.867187500000 3.460006713867 167 167 167
32.562500000000 8.867187500000 3.436004638672 170 170 170
32.562500000000 8.867187500000 3.413009643555 167 167 167
32.562500000000 8.867187500000 3.389007568359 170 170 170
32.562500000000 8.867187500000 3.369003295898 168 168 168
32.562500000000 8.867187500000 3.344009399414 165 165 165
32.562500000000 8.867187500000 3.320007324219 168 168 168
32.562500000000 8.867187500000 3.296005249023 164 164 164
32.562500000000 8.867187500000 3.273010253906 168 168 168
32.562500000000 8.867187500000 3.251998901367 168 168 168
32.562500000000 8.867187500000 3.229003906250 167 167 167
32.546875000000 8.875000000000 3.206008911133 166 166 166
32.562500000000 8.867187500000 3.180007934570 167 167 167
32.562500000000 8.867187500000 3.156005859375 167 167 167
32.562500000000 8.867187500000 3.133010864258 163 163 163
32.562500000000 8.867187500000 3.107009887695 163 163 163
32.562500000000 8.867187500000 3.081008911133 164 164 164
32.546875000000 8.875000000000 3.064010620117 163 163 163
32.546875000000 8.875000000000 3.039001464844 165 165 165
32.562500000000 8.867187500000 3.012008666992 161 161 161
32.562500000000 8.867187500000 2.986007690430 161 161 161
32.562500000000 8.867187500000 2.962997436523 160 160 160
32.562500000000 8.867187500000 2.939010620117 160 160 160
32.562500000000 8.867187500000 2.914001464844 161 161 161
32.562500000000 8.867187500000 2.889007568359 160 160 160
32.531250000000 8.875000000000 2.867004394531 161 161 161
32.546875000000 8.875000000000 2.841003417969 160 160 160
32.546875000000 8.875000000000 2.814010620117 156 156 156
32.546875000000 8.875000000000 2.790008544922 160 160 160
32.546875000000 8.875000000000 2.762008666992 160 160 160
32.546875000000 8.875000000000 2.738006591797 162 162 162
32.531250000000 8.875000000000 2.714996337891 158 158 158
32.531250000000 8.875000000000 2.686004638672 157 157 157
32.562500000000 8.867187500000 2.656997680664 158 158 158
32.562500000000 8.867187500000 2.630004882813 157 157 157
32.546875000000 8.875000000000 2.605010986328 155 155 155
32.531250000000 8.875000000000 2.580001831055 165 165 165
32.546875000000 8.875000000000 2.550003051758 163 163 163
32.531250000000 8.875000000000 2.525009155273 162 162 162
32.531250000000 8.875000000000 2.500000000000 155 155 155
32.531250000000 8.875000000000 2.473999023438 156 156 156
32.531250000000 8.875000000000 2.447006225586 154 154 154
32.531250000000 8.875000000000 2.413009643555 163 163 163
32.531250000000 8.875000000000 2.389007568359 168 168 168
32.531250000000 8.890625000000 2.372009277344 165 165 165
32.484375000000 8.914062500000 2.367004394531 155 155 155
32.468750000000 8.929687500000 2.361007690430 159 159 159
32.937500000000 8.914062500000 2.551010131836 166 166 166
32.937500000000 8.914062500000 2.523010253906 158 158 158
32.953125000000 8.898437500000 2.490005493164 158 158 158
32.937500000000 8.914062500000 2.462005615234 156 156 156
32.953125000000 8.898437500000 2.432006835938 161 161 161
32.937500000000 8.914062500000 2.404006958008 167 167 167
32.937500000000 8.914062500000 2.374008178711 172 172 172
32.906250000000 8.921875000000 2.365005493164 167 167 167
32.875000000000 8.960937500000 2.367996215820 166 166 166
32.812500000000 8.992187500000 2.367996215820 168 168 168
32.765625000000 9.023437500000 2.370010375977 159 159 159
32.718750000000 9.046875000000 2.365997314453 158 158 158
32.687500000000 9.070312500000 2.363998413086 155 155 155
32.656250000000 9.085937500000 2.357009887695 144 144 144
32.500000000000 8.687500000000 2.348999023438 166 166 166
32.468750000000 8.695312500000 2.378997802734 151 151 151
32.515625000000 8.687500000000 2.378997802734 144 144 144
32.562500000000 8.695312500000 2.378997802734 165 165 165
32.562500000000 8.695312500000 2.404006958008 176 176 176
32.562500000000 8.695312500000 2.427001953125 175 175 175
32.562500000000 8.703125000000 2.445007324219 155 155 155
32.562500000000 8.703125000000 2.470001220703 149 149 149
32.562500000000 8.695312500000 2.498001098633 155 155 155
32.562500000000 8.695312500000 2.518997192383 152 152 152
32.562500000000 8.695312500000 2.544998168945 163 163 163
32.562500000000 8.695312500000 2.572006225586 171 171 171
32.875000000000 8.687500000000 2.421005249023 187 187 187
32.968750000000 8.687500000000 2.397003173828 178 178 178
32.968750000000 8.679687500000 2.419998168945 160 160 160
32.968750000000 8.679687500000 2.453002929688 154 154 154
32.968750000000 8.679687500000 2.479003906250 156 156 156
32.968750000000 8.679687500000 2.505004882813 158 158 158
32.953125000000 8.671875000000 2.533004760742 170 170 170
32.968750000000 8.679687500000 2.554000854492 177 177 177
32.968750000000 8.687500000000 2.574996948242 160 160 160
32.578125000000 8.710937500000 3.486007690430 48 48 48
32.578125000000 8.710937500000 3.505004882813 58 58 58
32.593750000000 8.703125000000 3.522003173828 64 64 64
32.578125000000 8.710937500000 3.544998168945 80 80 80
32.578125000000 8.710937500000 3.564010620117 89 89 89
32.578125000000 8.710937500000 3.583007812500 93 93 93
32.578125000000 8.710937500000 3.602005004883 105 105 105
32.562500000000 8.703125000000 3.622009277344 112 112 112
32.562500000000 8.710937500000 3.641998291016 118 118 118
32.578125000000 8.710937500000 3.658004760742 127 127 127
32.562500000000 8.710937500000 3.679000854492 130 130 130
32.578125000000 8.710937500000 3.695007324219 133 133 133
32.578125000000 8.710937500000 3.714004516602 133 133 133
32.578125000000 8.710937500000 3.733001708984 140 140 140
32.578125000000 8.710937500000 3.751007080078 135 135 135
32.578125000000 8.710937500000 3.770004272461 145 145 145
32.578125000000 8.710937500000 3.789001464844 143 143 143
32.578125000000 8.710937500000 3.807006835938 143 143 143
32.578125000000 8.710937500000 3.824996948242 149 149 149
32.562500000000 8.718750000000 3.845001220703 152 152 152
32.578125000000 8.710937500000 3.861999511719 153 153 153
32.578125000000 8.710937500000 3.880996704102 155 155 155
32.578125000000 8.718750000000 3.899002075195 154 154 154
32.578125000000 8.718750000000 3.917007446289 158 158 158
32.562500000000 8.718750000000 3.936004638672 161 161 161
32.578125000000 8.718750000000 3.953002929688 163 163 163
32.562500000000 8.718750000000 3.973007202148 161 161 161
32.562500000000 8.718750000000 3.990005493164 161 161 161
32.578125000000 8.718750000000 4.008010864258 164 164 164
32.578125000000 8.718750000000 4.026000976563 163 163 163
32.578125000000 8.718750000000 4.044006347656 169 169 169
32.562500000000 8.726562500000 4.063003540039 168 168 168
32.562500000000 8.718750000000 4.081008911133 170 170 170
32.578125000000 8.718750000000 4.098999023438 175 175 175
32.562500000000 8.726562500000 4.117004394531 175 175 175
32.562500000000 8.726562500000 4.135009765625 180 180 180
32.578125000000 8.718750000000 4.152999877930 177 177 177
32.562500000000 8.726562500000 4.171005249023 176 176 176
32.562500000000 8.726562500000 4.190002441406 175 175 175
32.593750000000 8.726562500000 4.207000732422 175 175 175
32.578125000000 8.718750000000 4.225997924805 176 176 176
32.562500000000 8.726562500000 4.244003295898 178 178 178
32.562500000000 8.726562500000 4.262008666992 177 177 177
32.562500000000 8.726562500000 4.279998779297 177 177 177
32.562500000000 8.726562500000 4.298004150391 180 180 180
32.562500000000 8.726562500000 4.316009521484 179 179 179
32.562500000000 8.726562500000 4.333999633789 178 178 178
32.593750000000 8.726562500000 4.352005004883 179 179 179
32.578125000000 8.734375000000 4.370010375977 184 184 184
32.593750000000 8.726562500000 4.389007568359 182 182 182
32.593750000000 8.726562500000 4.406997680664 184 184 184
32.562500000000 8.726562500000 4.425003051758 186 186 186
32.578125000000 8.734375000000 4.443008422852 187 187 187
32.578125000000 8.734375000000 4.460998535156 184 184 184
32.578125000000 8.734375000000 4.479003906250 182 182 182
32.593750000000 8.726562500000 4.498001098633 180 180 180
32.578125000000 8.734375000000 4.514999389648 181 181 181
32.562500000000 8.726562500000 4.533004760742 180 180 180
32.578125000000 8.734375000000 4.552001953125 181 181 181
32.562500000000 8.726562500000 4.570007324219 181 181 181
32.593750000000 8.726562500000 4.589004516602 180 180 180
32.578125000000 8.734375000000 4.607009887695 179 179 179
32.593750000000 8.726562500000 4.626007080078 182 182 182
32.593750000000 8.726562500000 4.643997192383 180 180 180
32.578125000000 8.734375000000 4.662002563477 177 177 177
32.578125000000 8.734375000000 4.680007934570 178 178 178
32.578125000000 8.734375000000 4.697998046875 179 179 179
32.578125000000 8.734375000000 4.717010498047 177 177 177
32.593750000000 8.726562500000 4.736999511719 178 178 178
32.578125000000 8.734375000000 4.755004882813 177 177 177
32.593750000000 8.734375000000 4.773010253906 177 177 177
32.593750000000 8.734375000000 4.792007446289 176 176 176
32.593750000000 8.726562500000 4.811004638672 178 178 178
32.593750000000 8.734375000000 4.830001831055 175 175 175
32.593750000000 8.734375000000 4.848007202148 177 177 177
32.593750000000 8.734375000000 4.867004394531 178 178 178
32.593750000000 8.734375000000 4.886001586914 177 177 177
32.593750000000 8.734375000000 4.906005859375 171 171 171
32.593750000000 8.734375000000 4.923995971680 172 172 172
32.578125000000 8.734375000000 4.941009521484 175 175 175
32.593750000000 8.734375000000 4.960998535156 175 175 175
32.593750000000 8.734375000000 4.980010986328 176 176 176
32.593750000000 8.734375000000 4.999008178711 175 175 175
32.593750000000 8.742187500000 5.020004272461 174 174 174
32.593750000000 8.734375000000 5.041000366211 175 175 175
32.593750000000 8.734375000000 5.057006835938 173 173 173
32.593750000000 8.742187500000 5.077011108398 175 175 175
32.593750000000 8.742187500000 5.096008300781 176 176 176
32.593750000000 8.734375000000 5.115005493164 172 172 172
32.593750000000 8.742187500000 5.136001586914 176 176 176
32.593750000000 8.742187500000 5.156005859375 176 176 176
32.593750000000 8.742187500000 5.176010131836 176 176 176
32.593750000000 8.742187500000 5.195007324219 176 176 176
32.593750000000 8.742187500000 5.214996337891 177 177 177
32.593750000000 8.742187500000 5.233001708984 174 174 174
32.593750000000 8.742187500000 5.255004882813 174 174 174
32.593750000000 8.742187500000 5.273010253906 172 172 172
32.593750000000 8.742187500000 5.296997070313 171 171 171
32.593750000000 8.742187500000 5.314010620117 170 170 170
32.593750000000 8.750000000000 5.337005615234 171 171 171
32.593750000000 8.750000000000 5.357009887695 171 171 171
32.593750000000 8.742187500000 5.375000000000 171 171 171
32.593750000000 8.742187500000 5.395996093750 170 170 170
32.593750000000 8.750000000000 5.417999267578 171 171 171
32.593750000000 8.742187500000 5.436996459961 169 169 169
32.593750000000 8.750000000000 5.458999633789 171 171 171
32.593750000000 8.750000000000 5.480010986328 168 168 168
32.593750000000 8.742187500000 5.500000000000 169 169 169
32.593750000000 8.750000000000 5.520996093750 168 168 168
32.593750000000 8.750000000000 5.542007446289 169 169 169
32.593750000000 8.750000000000 5.566009521484 169 169 169
32.593750000000 8.742187500000 5.589004516602 168 168 168
32.593750000000 8.750000000000 5.607009887695 166 166 166
32.593750000000 8.750000000000 5.630996704102 165 165 165
32.593750000000 8.750000000000 5.650009155273 168 168 168
32.593750000000 8.750000000000 5.673995971680 169 169 169
32.593750000000 8.750000000000 5.695999145508 167 167 167
32.593750000000 8.750000000000 5.719009399414 168 168 168
32.593750000000 8.750000000000 5.740005493164 170 170 170
32.609375000000 8.742187500000 5.766998291016 167 167 167
32.609375000000 8.742187500000 5.789001464844 168 168 168
32.593750000000 8.750000000000 5.809005737305 169 169 169
32.609375000000 8.742187500000 5.833999633789 166 166 166
32.609375000000 8.742187500000 5.857009887695 166 166 166
32.593750000000 8.750000000000 5.878005981445 165 165 165
32.593750000000 8.750000000000 5.902008056641 165 165 165
32.593750000000 8.750000000000 5.925003051758 161 161 161
32.593750000000 8.750000000000 5.947998046875 162 162 162
32.609375000000 8.742187500000 5.973007202148 163 163 163
32.593750000000 8.750000000000 5.992996215820 163 163 163
32.609375000000 8.750000000000 6.023010253906 165 165 165
32.609375000000 8.750000000000 6.046997070313 166 166 166
32.609375000000 8.750000000000 6.070999145508 166 166 166
32.609375000000 8.750000000000 6.098007202148 162 162 162
32.593750000000 8.750000000000 6.117004394531 163 163 163
32.593750000000 8.750000000000 6.141998291016 164 164 164
32.609375000000 8.750000000000 6.169998168945 164 164 164
32.593750000000 8.750000000000 6.191009521484 161 161 161
32.609375000000 8.750000000000 6.219009399414 162 162 162
32.609375000000 8.750000000000 6.245010375977 162 162 162
32.593750000000 8.757812500000 6.270004272461 162 162 162
32.609375000000 8.750000000000 6.296005249023 163 163 163
32.593750000000 8.757812500000 6.320007324219 161 161 161
32.609375000000 8.750000000000 6.350997924805 159 159 159
32.609375000000 8.750000000000 6.376007080078 160 160 160
32.593750000000 8.757812500000 6.401000976563 159 159 159
32.625000000000 8.757812500000 6.436004638672 160 160 160
32.593750000000 8.757812500000 6.456008911133 161 161 161
32.625000000000 8.757812500000 6.488998413086 160 160 160
32.593750000000 8.757812500000 6.509002685547 161 161 161
32.625000000000 8.765625000000 6.546005249023 159 159 159
32.625000000000 8.757812500000 6.568008422852 159 159 159
32.625000000000 8.757812500000 6.597000122070 159 159 159
32.625000000000 8.765625000000 6.630004882813 156 156 156
32.625000000000 8.757812500000 6.654006958008 157 157 157
32.609375000000 8.765625000000 6.682006835938 157 157 157
32.625000000000 8.757812500000 6.714004516602 159 159 159
32.625000000000 8.765625000000 6.749008178711 160 160 160
32.625000000000 8.765625000000 6.776000976563 161 161 161
32.625000000000 8.765625000000 6.805999755859 162 162 162
32.625000000000 8.765625000000 6.837005615234 160 160 160
32.609375000000 8.765625000000 6.861999511719 159 159 159
32.625000000000 8.765625000000 6.895996093750 158 158 158
32.609375000000 8.765625000000 6.925003051758 157 157 157
32.609375000000 8.765625000000 6.956008911133 156 156 156
32.625000000000 8.773437500000 6.990005493164 157 157 157
32.484375000000 8.976562500000 2.367004394531 160 160 160
32.500000000000 8.976562500000 2.375000000000 153 153 153
32.546875000000 8.976562500000 2.373001098633 155 155 155
32.562500000000 8.984375000000 2.389999389648 162 162 162
32.578125000000 8.976562500000 2.404006958008 162 162 162
32.593750000000 8.976562500000 2.421997070313 167 167 167
32.593750000000 8.984375000000 2.439010620117 162 162 162
32.625000000000 8.976562500000 2.455001831055 164 164 164
32.765625000000 8.976562500000 2.393997192383 156 156 156
32.843750000000 8.968750000000 2.375000000000 160 160 160
32.890625000000 8.976562500000 2.374008178711 155 155 155
32.937500000000 8.968750000000 2.376998901367 156 156 156
32.968750000000 8.968750000000 2.380996704102 160 160 160
33.000000000000 8.976562500000 2.391006469727 152 152 152
33.000000000000 8.968750000000 2.426010131836 134 134 134
32.968750000000 8.968750000000 2.455001831055 128 128 128
32.968750000000 8.968750000000 2.485000610352 107 107 107
33.000000000000 9.007812500000 2.404998779297 150 150 150
32.953125000000 9.039062500000 2.404006958008 160 160 160
32.906250000000 9.062500000000 2.402008056641 163 163 163
32.859375000000 9.093750000000 2.404998779297 154 154 154
32.812500000000 9.117187500000 2.402999877930 151 151 151
32.796875000000 9.140625000000 2.389999389648 142 142 142
32.828125000000 8.929687500000 6.984008789063 110 110 110
32.828125000000 8.929687500000 6.953002929688 109 109 109
32.812500000000 8.929687500000 6.916000366211 115 115 115
32.828125000000 8.929687500000 6.891998291016 118 118 118
32.828125000000 8.921875000000 6.860000610352 116 116 116
32.828125000000 8.921875000000 6.827011108398 117 117 117
32.828125000000 8.921875000000 6.798004150391 117 117 117
32.828125000000 8.921875000000 6.768005371094 118 118 118
32.828125000000 8.921875000000 6.738006591797 117 117 117
32.828125000000 8.921875000000 6.708999633789 123 123 123
32.812500000000 8.929687500000 6.673004150391 118 118 118
32.812500000000 8.929687500000 6.639999389648 120 120 120
32.812500000000 8.929687500000 6.613998413086 122 122 122
32.812500000000 8.929687500000 6.583007812500 126 126 126
32.812500000000 8.929687500000 6.554000854492 123 123 123
32.812500000000 8.929687500000 6.527999877930 130 130 130
32.812500000000 8.929687500000 6.499008178711 135 135 135
32.812500000000 8.921875000000 6.473007202148 141 141 141
32.812500000000 8.921875000000 6.444000244141 139 139 139
32.812500000000 8.929687500000 6.414001464844 137 137 137
32.812500000000 8.929687500000 6.384002685547 137 137 137
32.812500000000 8.929687500000 6.355010986328 133 133 133
32.812500000000 8.929687500000 6.327011108398 134 134 134
32.812500000000 8.929687500000 6.300003051758 132 132 132
32.812500000000 8.929687500000 6.273010253906 139 139 139
32.812500000000 8.921875000000 6.255004882813 145 145 145
32.843750000000 8.914062500000 6.235000610352 147 147 147
32.828125000000 8.914062500000 6.206008911133 150 150 150
32.828125000000 8.914062500000 6.179000854492 151 151 151
32.828125000000 8.914062500000 6.151000976563 152 152 152
32.843750000000 8.898437500000 6.130004882813 150 150 150
32.828125000000 8.914062500000 6.098007202148 154 154 154
32.843750000000 8.898437500000 6.076004028320 155 155 155
32.843750000000 8.898437500000 6.050003051758 160 160 160
32.828125000000 8.914062500000 6.020004272461 161 161 161
32.843750000000 8.898437500000 5.996002197266 164 164 164
32.828125000000 8.914062500000 5.967010498047 164 164 164
32.843750000000 8.898437500000 5.944000244141 166 166 166
32.828125000000 8.914062500000 5.917007446289 165 165 165
32.828125000000 8.914062500000 5.893005371094 169 169 169
32.843750000000 8.898437500000 5.867996215820 166 166 166
32.843750000000 8.898437500000 5.846008300781 169 169 169
32.843750000000 8.898437500000 5.820999145508 163 163 163
32.843750000000 8.890625000000 5.798004150391 164 164 164
32.875000000000 8.875000000000 5.776000976563 165 165 165
32.875000000000 8.875000000000 5.751007080078 165 165 165
32.843750000000 8.890625000000 5.723007202148 166 166 166
32.875000000000 8.875000000000 5.703002929688 167 167 167
32.875000000000 8.875000000000 5.678009033203 170 170 170
32.875000000000 8.875000000000 5.652999877930 169 169 169
32.875000000000 8.875000000000 5.628005981445 167 167 167
32.875000000000 8.875000000000 5.604003906250 167 167 167
32.875000000000 8.867187500000 5.582000732422 172 172 172
32.875000000000 8.867187500000 5.557006835938 169 169 169
32.875000000000 8.867187500000 5.531005859375 169 169 169
32.875000000000 8.867187500000 5.505996704102 170 170 170
32.875000000000 8.867187500000 5.482009887695 172 172 172
32.875000000000 8.867187500000 5.458999633789 169 169 169
32.875000000000 8.867187500000 5.432998657227 171 171 171
32.875000000000 8.875000000000 5.408004760742 169 169 169
32.875000000000 8.867187500000 5.385009765625 170 170 170
32.875000000000 8.867187500000 5.361999511719 172 172 172
32.875000000000 8.867187500000 5.335998535156 169 169 169
32.875000000000 8.867187500000 5.313003540039 167 167 167
32.875000000000 8.867187500000 5.289001464844 168 168 168
32.875000000000 8.867187500000 5.264999389648 170 170 170
32.718750000000 8.953125000000 5.210006713867 160 160 160
32.718750000000 8.953125000000 5.186004638672 177 177 177
32.718750000000 8.945312500000 5.163009643555 182 182 182
32.718750000000 8.945312500000 5.139999389648 188 188 188
32.718750000000 8.953125000000 5.119003295898 178 178 178
32.750000000000 8.945312500000 5.097000122070 159 159 159
32.781250000000 8.921875000000 5.083007812500 137 137 137
32.890625000000 8.859375000000 5.077011108398 168 168 168
32.890625000000 8.859375000000 5.053009033203 171 171 171
32.890625000000 8.859375000000 5.029006958008 167 167 167
32.890625000000 8.859375000000 5.005996704102 170 170 170
32.890625000000 8.859375000000 4.982009887695 166 166 166
32.875000000000 8.851562500000 4.958999633789 168 168 168
32.875000000000 8.851562500000 4.934997558594 169 169 169
32.875000000000 8.851562500000 4.912002563477 171 171 171
32.875000000000 8.851562500000 4.889007568359 168 168 168
32.906250000000 8.843750000000 4.865997314453 170 170 170
32.875000000000 8.851562500000 4.842010498047 168 168 168
32.890625000000 8.835937500000 4.819000244141 172 172 172
32.906250000000 8.843750000000 4.796005249023 172 172 172
32.906250000000 8.843750000000 4.772003173828 170 170 170
32.890625000000 8.835937500000 4.748001098633 169 169 169
32.890625000000 8.835937500000 4.725997924805 172 172 172
32.890625000000 8.835937500000 4.702011108398 169 169 169
32.890625000000 8.835937500000 4.678009033203 171 171 171
32.890625000000 8.835937500000 4.654998779297 171 171 171
32.890625000000 8.835937500000 4.632003784180 168 168 168
32.890625000000 8.835937500000 4.609008789063 168 168 168
32.890625000000 8.835937500000 4.585006713867 170 170 170
32.890625000000 8.835937500000 4.561996459961 168 168 168
32.890625000000 8.835937500000 4.539001464844 169 169 169
32.890625000000 8.835937500000 4.514999389648 169 169 169
32.890625000000 8.828125000000 4.492004394531 169 169 169
32.890625000000 8.835937500000 4.469009399414 173 173 173
32.890625000000 8.828125000000 4.445007324219 168 168 168
32.906250000000 8.828125000000 4.421997070313 168 168 168
32.890625000000 8.828125000000 4.399002075195 167 167 167
32.906250000000 8.828125000000 4.375000000000 171 171 171
32.906250000000 8.828125000000 4.350997924805 170 170 170
32.906250000000 8.828125000000 4.328002929688 171 171 171
32.906250000000 8.820312500000 4.305007934570 172 172 172
32.906250000000 8.820312500000 4.281005859375 170 170 170
32.906250000000 8.820312500000 4.258010864258 172 172 172
32.906250000000 8.820312500000 4.235000610352 171 171 171
32.906250000000 8.820312500000 4.210998535156 170 170 170
32.906250000000 8.820312500000 4.186996459961 170 170 170
32.906250000000 8.820312500000 4.163009643555 173 173 173
32.906250000000 8.820312500000 4.139999389648 173 173 173
32.906250000000 8.820312500000 4.115997314453 172 172 172
32.906250000000 8.804687500000 4.091003417969 167 167 167
32.781250000000 8.890625000000 4.085998535156 148 148 148
32.718750000000 8.929687500000 4.070007324219 133 133 133
32.718750000000 8.914062500000 4.046997070313 137 137 137
32.718750000000 8.929687500000 4.025009155273 129 129 129
32.718750000000 8.914062500000 4.001007080078 133 133 133
32.718750000000 8.914062500000 3.980010986328 137 137 137
32.718750000000 8.914062500000 3.956008911133 136 136 136
32.906250000000 8.812500000000 3.904006958008 169 169 169
32.906250000000 8.812500000000 3.878005981445 168 168 168
32.906250000000 8.804687500000 3.850997924805 168 168 168
32.906250000000 8.804687500000 3.827011108398 167 167 167
32.906250000000 8.796875000000 3.804000854492 167 167 167
32.906250000000 8.804687500000 3.779006958008 165 165 165
32.906250000000 8.796875000000 3.755996704102 168 168 168
32.906250000000 8.796875000000 3.730010986328 166 166 166
32.906250000000 8.796875000000 3.706008911133 164 164 164
32.906250000000 8.796875000000 3.680999755859 167 167 167
32.906250000000 8.796875000000 3.656005859375 167 167 167
32.921875000000 8.796875000000 3.630004882813 165 165 165
32.906250000000 8.789062500000 3.607009887695 166 166 166
32.906250000000 8.796875000000 3.582000732422 164 164 164
32.906250000000 8.796875000000 3.557006835938 165 165 165
32.906250000000 8.796875000000 3.533004760742 165 165 165
32.906250000000 8.789062500000 3.505004882813 167 167 167
32.906250000000 8.796875000000 3.483001708984 163 163 163
32.906250000000 8.796875000000 3.458007812500 167 167 167
32.906250000000 8.789062500000 3.428009033203 169 169 169
32.906250000000 8.789062500000 3.404998779297 166 166 166
32.906250000000 8.789062500000 3.380004882813 164 164 164
32.906250000000 8.789062500000 3.354003906250 165 165 165
32.906250000000 8.789062500000 3.328002929688 168 168 168
32.906250000000 8.789062500000 3.302001953125 169 169 169
32.906250000000 8.789062500000 3.276000976563 169 169 169
32.937500000000 8.781250000000 3.247009277344 170 170 170
32.906250000000 8.789062500000 3.223999023438 168 168 168
32.937500000000 8.781250000000 3.195007324219 168 168 168
32.937500000000 8.781250000000 3.169998168945 171 171 171
32.906250000000 8.789062500000 3.145004272461 171 171 171
32.937500000000 8.781250000000 3.117004394531 170 170 170
32.906250000000 8.789062500000 3.093002319336 168 168 168
32.937500000000 8.781250000000 3.063003540039 171 171 171
32.921875000000 8.781250000000 3.037002563477 170 170 170
32.921875000000 8.781250000000 3.010009765625 173 173 173
32.906250000000 8.789062500000 2.996002197266 170 170 170
32.703125000000 8.914062500000 3.055007934570 133 133 133
32.687500000000 8.921875000000 3.033004760742 130 130 130
32.687500000000 8.914062500000 3.014007568359 128 128 128
32.687500000000 8.914062500000 2.986007690430 125 125 125
32.687500000000 8.914062500000 2.960006713867 130 130 130
32.703125000000 8.914062500000 2.930007934570 136 136 136
32.859375000000 8.820312500000 2.822006225586 162 162 162
32.921875000000 8.781250000000 2.760009765625 161 161 161
32.937500000000 8.765625000000 2.730010986328 161 161 161
32.921875000000 8.781250000000 2.703002929688 159 159 159
32.937500000000 8.765625000000 2.673004150391 162 162 162
32.921875000000 8.781250000000 2.648010253906 158 158 158
32.921875000000 8.781250000000 2.620010375977 155 155 155
32.921875000000 8.781250000000 2.587997436523 159 159 159
32.937500000000 8.765625000000 2.555999755859 163 163 163
32.937500000000 8.765625000000 2.525009155273 164 164 164
32.937500000000 8.757812500000 2.499008178711 161 161 161
32.921875000000 8.773437500000 2.471008300781 162 162 162
32.921875000000 8.773437500000 2.443008422852 168 168 168
32.921875000000 8.773437500000 2.413009643555 171 171 171
32.875000000000 8.796875000000 2.411010742188 170 170 170
32.828125000000 8.820312500000 2.408004760742 164 164 164
32.671875000000 8.921875000000 2.485000610352 164 164 164
32.578125000000 8.976562500000 2.516998291016 192 192 192
32.531250000000 9.015625000000 2.522003173828 158 158 158
32.531250000000 9.007812500000 2.492004394531 156 156 156
32.531250000000 9.015625000000 2.464996337891 168 168 168
32.531250000000 9.015625000000 2.436996459961 170 170 170
32.515625000000 9.007812500000 2.417999267578 169 169 169
32.500000000000 9.031250000000 2.404998779297 161 161 161
32.453125000000 9.054687500000 2.402008056641 157 157 157
32.437500000000 9.046875000000 2.378997802734 162 162 162
32.593750000000 8.789062500000 7.003005981445 161 161 161
32.562500000000 8.796875000000 6.969009399414 158 158 158
32.593750000000 8.789062500000 6.940002441406 159 159 159
32.593750000000 8.789062500000 6.913009643555 163 163 163
32.562500000000 8.796875000000 6.876998901367 161 161 161
32.593750000000 8.789062500000 6.850997924805 165 165 165
32.593750000000 8.789062500000 6.824996948242 160 160 160
32.593750000000 8.789062500000 6.792007446289 157 157 157
32.578125000000 8.781250000000 6.762008666992 159 159 159
32.578125000000 8.781250000000 6.732009887695 161 161 161
32.578125000000 8.781250000000 6.704010009766 165 165 165
32.578125000000 8.781250000000 6.673004150391 160 160 160
32.578125000000 8.781250000000 6.645996093750 160 160 160
32.578125000000 8.781250000000 6.617996215820 160 160 160
32.578125000000 8.781250000000 6.592010498047 165 165 165
32.578125000000 8.781250000000 6.561996459961 163 163 163
32.578125000000 8.781250000000 6.533996582031 160 160 160
32.578125000000 8.781250000000 6.511001586914 163 163 163
32.578125000000 8.781250000000 6.479003906250 160 160 160
32.578125000000 8.781250000000 6.453002929688 164 164 164
32.578125000000 8.781250000000 6.425003051758 163 163 163
32.578125000000 8.781250000000 6.398010253906 162 162 162
32.593750000000 8.765625000000 6.378997802734 167 167 167
32.562500000000 8.781250000000 6.344009399414 166 166 166
32.578125000000 8.773437500000 6.318008422852 166 166 166
32.578125000000 8.773437500000 6.292007446289 168 168 168
32.562500000000 8.781250000000 6.264007568359 164 164 164
32.578125000000 8.773437500000 6.240997314453 159 159 159
32.578125000000 8.773437500000 6.214996337891 163 163 163
32.578125000000 8.773437500000 6.192001342773 165 165 165
32.578125000000 8.773437500000 6.163009643555 163 163 163
32.578125000000 8.773437500000 6.141998291016 160 160 160
32.578125000000 8.773437500000 6.115005493164 159 159 159
32.578125000000 8.773437500000 6.089004516602 159 159 159
32.578125000000 8.773437500000 6.064010620117 161 161 161
32.578125000000 8.773437500000 6.040008544922 157 157 157
32.578125000000 8.773437500000 6.013000488281 158 158 158
32.578125000000 8.773437500000 5.992004394531 162 162 162
32.578125000000 8.773437500000 5.968002319336 156 156 156
32.578125000000 8.773437500000 5.940002441406 155 155 155
32.562500000000 8.773437500000 5.916000366211 151 151 151
32.562500000000 8.773437500000 5.891998291016 153 153 153
32.562500000000 8.773437500000 5.867996215820 154 154 154
32.562500000000 8.773437500000 5.846008300781 149 149 149
32.562500000000 8.773437500000 5.820999145508 151 151 151
32.562500000000 8.773437500000 5.796005249023 147 147 147
32.562500000000 8.773437500000 5.773010253906 143 143 143
32.562500000000 8.773437500000 5.751007080078 145 145 145
32.562500000000 8.773437500000 5.725997924805 144 144 144
32.562500000000 8.773437500000 5.703002929688 145 145 145
32.562500000000 8.773437500000 5.678009033203 142 142 142
32.562500000000 8.781250000000 5.654006958008 142 142 142
32.562500000000 8.773437500000 5.633010864258 145 145 145
32.562500000000 8.773437500000 5.611007690430 142 142 142
