24.343750000000 44.359375000000 2.210998535156 205 205 205
24.359375000000 44.320312500000 2.238006591797 181 181 181
24.406250000000 44.312500000000 2.286010742188 187 187 187
24.375000000000 44.320312500000 2.311996459961 182 182 182
24.375000000000 44.312500000000 2.342010498047 182 182 182
24.359375000000 44.320312500000 2.370010375977 184 184 184
24.343750000000 44.312500000000 2.401000976563 181 181 181
24.343750000000 44.312500000000 2.434005737305 179 179 179
24.343750000000 44.312500000000 2.467010498047 179 179 179
24.343750000000 44.312500000000 2.500000000000 181 181 181
24.343750000000 44.312500000000 2.531997680664 180 180 180
24.343750000000 44.312500000000 2.563003540039 178 178 178
24.343750000000 44.312500000000 2.596008300781 177 177 177
24.343750000000 44.312500000000 2.626998901367 185 185 185
24.375000000000 44.312500000000 2.664001464844 186 186 186
24.343750000000 44.312500000000 2.692001342773 185 185 185
24.343750000000 44.312500000000 2.723999023438 189 189 189
24.343750000000 44.312500000000 2.755996704102 191 191 191
24.375000000000 44.312500000000 2.789001464844 190 190 190
24.375000000000 44.312500000000 2.820999145508 194 194 194
24.375000000000 44.312500000000 2.850997924805 188 188 188
24.375000000000 44.312500000000 2.883010864258 185 185 185
24.375000000000 44.312500000000 2.915008544922 183 183 183
24.375000000000 44.312500000000 2.945007324219 184 184 184
24.375000000000 44.312500000000 2.975997924805 190 190 190
24.375000000000 44.312500000000 3.007003784180 195 195 195
24.375000000000 44.312500000000 3.039001464844 194 194 194
24.375000000000 44.312500000000 3.069000244141 197 197 197
24.375000000000 44.312500000000 3.098999023438 198 198 198
24.375000000000 44.312500000000 3.130004882813 201 201 201
24.375000000000 44.312500000000 3.160003662109 201 201 201
24.375000000000 44.312500000000 3.192001342773 196 196 196
24.375000000000 44.312500000000 3.222000122070 195 195 195
24.375000000000 44.312500000000 3.251998901367 197 197 197
24.375000000000 44.312500000000 3.283004760742 197 197 197
24.375000000000 44.312500000000 3.311996459961 194 194 194
24.375000000000 44.312500000000 3.342010498047 199 199 199
24.375000000000 44.296875000000 3.374008178711 193 193 193
24.375000000000 44.312500000000 3.402999877930 195 195 195
24.375000000000 44.296875000000 3.432998657227 193 193 193
24.375000000000 44.312500000000 3.462005615234 186 186 186
24.375000000000 44.296875000000 3.492004394531 187 187 187
24.375000000000 44.296875000000 3.522003173828 191 191 191
24.375000000000 44.296875000000 3.551010131836 193 193 193
24.375000000000 44.312500000000 3.580001831055 201 201 201
24.375000000000 44.296875000000 3.611007690430 204 204 204
24.375000000000 44.296875000000 3.639999389648 199 199 199
24.375000000000 44.312500000000 3.669006347656 201 201 201
24.375000000000 44.296875000000 3.699005126953 204 204 204
24.375000000000 44.296875000000 3.727996826172 203 203 203
24.390625000000 44.304687500000 3.758010864258 205 205 205
24.390625000000 44.304687500000 3.787002563477 201 201 201
24.390625000000 44.304687500000 3.817001342773 206 206 206
24.390625000000 44.304687500000 3.846008300781 204 204 204
24.390625000000 44.304687500000 3.875000000000 206 206 206
24.390625000000 44.304687500000 3.904006958008 207 207 207
24.390625000000 44.304687500000 3.934005737305 208 208 208
24.390625000000 44.304687500000 3.962005615234 205 205 205
24.390625000000 44.304687500000 3.992004394531 207 207 207
24.390625000000 44.304687500000 4.020996093750 215 215 215
24.390625000000 44.304687500000 4.050003051758 214 214 214
24.390625000000 44.304687500000 4.079010009766 213 213 213
24.390625000000 44.304687500000 4.108001708984 210 210 210
24.390625000000 44.304687500000 4.137008666992 213 213 213
24.390625000000 44.304687500000 4.166000366211 212 212 212
24.390625000000 44.304687500000 4.195007324219 214 214 214
24.390625000000 44.304687500000 4.223999023438 215 215 215
24.406250000000 44.304687500000 4.253005981445 212 212 212
24.406250000000 44.304687500000 4.281997680664 213 213 213
24.406250000000 44.304687500000 4.311004638672 212 212 212
24.406250000000 44.304687500000 4.339996337891 212 212 212
24.406250000000 44.304687500000 4.369003295898 216 216 216
24.406250000000 44.296875000000 4.398010253906 216 216 216
24.390625000000 44.304687500000 4.428009033203 218 218 218
24.406250000000 44.304687500000 4.457000732422 218 218 218
24.406250000000 44.304687500000 4.485000610352 215 215 215
24.406250000000 44.304687500000 4.514999389648 214 214 214
24.406250000000 44.304687500000 4.544006347656 218 218 218
24.406250000000 44.304687500000 4.572998046875 219 219 219
24.406250000000 44.304687500000 4.602005004883 218 218 218
24.406250000000 44.304687500000 4.630996704102 217 217 217
24.406250000000 44.312500000000 4.658996582031 214 214 214
24.406250000000 44.304687500000 4.689010620117 213 213 213
24.406250000000 44.304687500000 4.719009399414 215 215 215
24.406250000000 44.304687500000 4.748001098633 214 214 214
24.406250000000 44.304687500000 4.777008056641 190 190 190
24.406250000000 44.312500000000 4.805999755859 201 201 201
24.406250000000 44.312500000000 4.835998535156 208 208 208
24.406250000000 44.312500000000 4.865005493164 205 205 205
24.406250000000 44.304687500000 4.895996093750 208 208 208
24.406250000000 44.304687500000 4.926010131836 209 209 209
24.406250000000 44.312500000000 4.954010009766 213 213 213
24.406250000000 44.312500000000 4.984008789063 208 208 208
24.406250000000 44.304687500000 5.014007568359 184 184 184
24.406250000000 44.312500000000 5.042999267578 199 199 199
24.437500000000 44.304687500000 5.072998046875 201 201 201
24.437500000000 44.304687500000 5.102996826172 196 196 196
24.437500000000 44.304687500000 5.132003784180 198 198 198
24.437500000000 44.304687500000 5.161010742188 196 196 196
24.437500000000 44.304687500000 5.193008422852 199 199 199
24.437500000000 44.304687500000 5.222000122070 198 198 198
24.437500000000 44.304687500000 5.253005981445 193 193 193
24.437500000000 44.304687500000 5.283004760742 198 198 198
24.437500000000 44.304687500000 5.311004638672 201 201 201
24.437500000000 44.304687500000 5.343002319336 179 179 179
24.437500000000 44.304687500000 5.374008178711 186 186 186
24.437500000000 44.304687500000 5.404998779297 192 192 192
24.437500000000 44.304687500000 5.434997558594 189 189 189
24.437500000000 44.304687500000 5.467010498047 188 188 188
24.437500000000 44.304687500000 5.497009277344 183 183 183
24.437500000000 44.304687500000 5.527008056641 186 186 186
24.437500000000 44.304687500000 5.561004638672 188 188 188
24.437500000000 44.304687500000 5.589996337891 183 183 183
24.437500000000 44.304687500000 5.621002197266 189 189 189
24.437500000000 44.304687500000 5.651000976563 188 188 188
24.437500000000 44.304687500000 5.684997558594 175 175 175
24.437500000000 44.304687500000 5.714996337891 178 178 178
24.437500000000 44.304687500000 5.746002197266 181 181 181
24.437500000000 44.304687500000 5.779006958008 184 184 184
24.437500000000 44.304687500000 5.809005737305 179 179 179
24.437500000000 44.304687500000 5.842010498047 187 187 187
24.437500000000 44.304687500000 5.875000000000 198 198 198
24.437500000000 44.304687500000 5.910003662109 177 177 177
24.437500000000 44.304687500000 5.939010620117 181 181 181
24.437500000000 44.304687500000 5.971008300781 182 182 182
24.437500000000 44.304687500000 6.005996704102 180 180 180
24.437500000000 44.304687500000 6.036010742188 175 175 175
24.437500000000 44.289062500000 6.068008422852 177 177 177
24.437500000000 44.304687500000 6.104003906250 177 177 177
24.437500000000 44.289062500000 6.133010864258 174 174 174
24.437500000000 44.304687500000 6.171997070313 172 172 172
24.437500000000 44.304687500000 6.202011108398 176 176 176
24.437500000000 44.296875000000 6.233001708984 171 171 171
24.437500000000 44.304687500000 6.272003173828 176 176 176
24.437500000000 44.289062500000 6.303009033203 175 175 175
24.437500000000 44.304687500000 6.339004516602 172 172 172
24.437500000000 44.304687500000 6.373001098633 172 172 172
24.437500000000 44.289062500000 6.406997680664 170 170 170
24.437500000000 44.289062500000 6.441009521484 175 175 175
24.437500000000 44.304687500000 6.477996826172 173 173 173
24.437500000000 44.296875000000 6.510009765625 174 174 174
24.437500000000 44.296875000000 6.542999267578 177 177 177
24.437500000000 44.296875000000 6.580001831055 162 162 162
24.437500000000 44.296875000000 6.617004394531 160 160 160
24.437500000000 44.296875000000 6.651000976563 169 169 169
24.437500000000 44.296875000000 6.686996459961 171 171 171
24.437500000000 44.296875000000 6.725006103516 160 160 160
24.437500000000 44.296875000000 6.762008666992 165 165 165
24.437500000000 44.289062500000 6.798995971680 165 165 165
24.437500000000 44.296875000000 6.833999633789 165 165 165
24.437500000000 44.296875000000 6.873001098633 166 166 166
24.437500000000 44.289062500000 6.914001464844 158 158 158
24.437500000000 44.296875000000 6.945999145508 155 155 155
24.437500000000 44.304687500000 6.990997314453 158 158 158
24.437500000000 44.296875000000 7.024002075195 157 157 157
24.437500000000 44.296875000000 7.061996459961 168 168 168
24.437500000000 44.296875000000 7.100006103516 155 155 155
24.437500000000 44.289062500000 7.143005371094 143 143 143
24.437500000000 44.289062500000 7.182998657227 168 168 168
24.437500000000 44.289062500000 7.223999023438 167 167 167
24.437500000000 44.296875000000 7.260009765625 167 167 167
24.437500000000 44.289062500000 7.301010131836 174 174 174
24.437500000000 44.296875000000 7.339996337891 162 162 162
24.437500000000 44.289062500000 7.384002685547 163 163 163
24.437500000000 44.304687500000 7.429000854492 167 167 167
24.437500000000 44.289062500000 7.469009399414 169 169 169
24.437500000000 44.289062500000 7.510009765625 164 164 164
24.437500000000 44.289062500000 7.548995971680 165 165 165
24.437500000000 44.289062500000 7.593002319336 165 165 165
24.437500000000 44.289062500000 7.637008666992 173 173 173
24.437500000000 44.289062500000 7.679000854492 153 153 153
24.437500000000 44.289062500000 7.721008300781 154 154 154
24.437500000000 44.289062500000 7.766998291016 153 153 153
24.437500000000 44.289062500000 7.809997558594 155 155 155
24.437500000000 44.289062500000 7.852996826172 162 162 162
24.437500000000 44.296875000000 7.893997192383 162 162 162
24.437500000000 44.296875000000 7.938003540039 159 159 159
24.437500000000 44.296875000000 7.982009887695 154 154 154
24.437500000000 44.296875000000 8.031005859375 155 155 155
24.437500000000 44.296875000000 8.078002929688 154 154 154
24.437500000000 44.296875000000 8.126998901367 150 150 150
24.437500000000 44.296875000000 8.175003051758 157 157 157
24.437500000000 44.296875000000 8.217010498047 155 155 155
24.437500000000 44.296875000000 8.272003173828 154 154 154
24.437500000000 44.296875000000 8.318008422852 170 170 170
24.437500000000 44.296875000000 8.365997314453 153 153 153
24.437500000000 44.296875000000 8.417007446289 143 143 143
24.437500000000 44.296875000000 8.471008300781 140 140 140
24.437500000000 44.289062500000 8.525009155273 144 144 144
24.437500000000 44.296875000000 8.570007324219 145 145 145
24.468750000000 44.296875000000 8.613998413086 155 155 155
24.437500000000 44.296875000000 8.671997070313 166 166 166
24.437500000000 44.296875000000 8.723999023438 162 162 162
24.468750000000 44.296875000000 8.766998291016 89 89 89
24.218750000000 44.054687500000 7.098999023438 128 128 128
24.234375000000 44.062500000000 7.126007080078 110 110 110
24.187500000000 44.062500000000 8.503997802734 111 111 111
24.031250000000 43.820312500000 7.097000122070 112 112 112
24.062500000000 43.804687500000 7.125000000000 118 118 118
24.031250000000 43.820312500000 8.311996459961 67 67 67
24.031250000000 43.812500000000 8.350006103516 97 97 97
23.843750000000 43.570312500000 7.089004516602 76 76 76
23.890625000000 43.578125000000 7.111999511719 131 131 131
23.875000000000 43.570312500000 8.151000976563 113 113 113
23.718750000000 43.343750000000 7.105010986328 136 136 136
23.718750000000 43.335937500000 7.149002075195 21 21 21
23.718750000000 43.343750000000 8.000000000000 122 122 122
23.546875000000 43.101562500000 7.093002319336 129 129 129
23.562500000000 43.101562500000 7.125000000000 80 80 80
23.531250000000 43.109375000000 7.814010620117 81 81 81
23.562500000000 43.109375000000 7.850006103516 78 78 78
23.375000000000 42.867187500000 7.074996948242 62 62 62
23.390625000000 42.859375000000 7.109008789063 130 130 130
23.375000000000 42.859375000000 7.651000976563 96 96 96
23.375000000000 42.859375000000 7.697998046875 48 48 48
23.218750000000 42.617187500000 7.083007812500 87 87 87
23.250000000000 42.625000000000 7.113006591797 86 86 86
23.203125000000 42.625000000000 7.494003295898 60 60 60
23.218750000000 42.625000000000 7.527999877930 79 79 79
22.968750000000 42.367187500000 6.815002441406 94 94 94
22.968750000000 42.382812500000 6.863006591797 97 97 97
22.968750000000 42.367187500000 6.902999877930 89 89 89
22.968750000000 42.382812500000 6.949005126953 83 83 83
22.968750000000 42.382812500000 6.994003295898 73 73 73
22.968750000000 42.382812500000 7.037002563477 52 52 52
22.968750000000 42.382812500000 7.082000732422 21 21 21
23.062500000000 42.382812500000 7.087997436523 107 107 107
23.062500000000 42.375000000000 7.128005981445 38 38 38
23.046875000000 42.375000000000 7.363998413086 109 109 109
22.812500000000 42.132812500000 6.816009521484 93 93 93
22.859375000000 42.132812500000 7.066009521484 24 24 24
22.906250000000 42.132812500000 7.095001220703 104 104 104
22.875000000000 42.132812500000 7.197006225586 108 108 108
22.671875000000 41.898437500000 6.811996459961 81 81 81
22.718750000000 41.898437500000 7.066009521484 71 71 71
22.718750000000 41.890625000000 7.104003906250 96 96 96
22.531250000000 41.664062500000 6.803009033203 118 118 118
22.531250000000 41.664062500000 7.077011108398 60 60 60
22.578125000000 41.664062500000 7.106002807617 94 94 94
22.375000000000 41.429687500000 6.790008544922 101 101 101
22.375000000000 41.429687500000 7.074996948242 71 71 71
22.406250000000 41.429687500000 7.106002807617 80 80 80
22.218750000000 41.187500000000 6.781997680664 95 95 95
22.218750000000 41.179687500000 6.827011108398 40 40 40
22.187500000000 41.187500000000 6.936004638672 34 34 34
22.187500000000 41.179687500000 6.985000610352 64 64 64
22.156250000000 41.187500000000 7.040008544922 73 73 73
22.187500000000 41.187500000000 7.081008911133 81 81 81
22.218750000000 41.187500000000 7.108001708984 81 81 81
22.015625000000 40.945312500000 6.779006958008 44 44 44
22.031250000000 40.945312500000 6.822006225586 184 184 184
22.015625000000 40.953125000000 6.872009277344 191 191 191
22.015625000000 40.953125000000 6.921005249023 190 190 190
22.015625000000 40.945312500000 6.973007202148 177 177 177
22.015625000000 40.945312500000 7.023010253906 121 121 121
22.031250000000 40.945312500000 7.064010620117 18 18 18
22.078125000000 40.945312500000 7.098007202148 94 94 94
21.875000000000 40.703125000000 6.805999755859 151 151 151
21.875000000000 40.703125000000 6.857009887695 193 193 193
21.859375000000 40.718750000000 6.908996582031 153 153 153
21.843750000000 40.703125000000 6.964004516602 140 140 140
21.859375000000 40.710937500000 7.012008666992 168 168 168
21.906250000000 40.710937500000 7.092010498047 90 90 90
21.687500000000 40.484375000000 6.798004150391 117 117 117
21.703125000000 40.468750000000 6.847000122070 197 197 197
21.687500000000 40.476562500000 6.901000976563 160 160 160
21.687500000000 40.476562500000 6.956008911133 146 146 146
21.671875000000 40.476562500000 7.010009765625 181 181 181
21.750000000000 40.484375000000 7.085006713867 96 96 96
21.531250000000 40.242187500000 6.785003662109 79 79 79
21.531250000000 40.242187500000 6.835998535156 194 194 194
21.515625000000 40.242187500000 6.893005371094 141 141 141
21.515625000000 40.242187500000 6.944000244141 174 174 174
21.515625000000 40.242187500000 6.998001098633 181 181 181
21.531250000000 40.234375000000 7.042999267578 35 35 35
21.562500000000 40.242187500000 7.083007812500 82 82 82
21.578125000000 40.250000000000 7.126998901367 30 30 30
21.343750000000 40.007812500000 6.824005126953 176 176 176
21.343750000000 40.015625000000 6.874008178711 176 176 176
21.343750000000 40.007812500000 6.932998657227 157 157 157
21.312500000000 40.007812500000 6.990005493164 175 175 175
21.343750000000 40.015625000000 7.033004760742 121 121 121
21.375000000000 40.007812500000 7.074005126953 13 13 13
21.421875000000 40.015625000000 7.110000610352 88 88 88
21.171875000000 39.773437500000 6.794998168945 110 110 110
21.171875000000 39.773437500000 6.848007202148 200 200 200
21.171875000000 39.773437500000 6.901000976563 119 119 119
21.156250000000 39.765625000000 6.958999633789 136 136 136
21.156250000000 39.773437500000 7.016998291016 188 188 188
21.218750000000 39.773437500000 7.093002319336 78 78 78
21.265625000000 39.765625000000 7.136001586914 20 20 20
21.031250000000 39.523437500000 6.809997558594 116 116 116
21.031250000000 39.523437500000 6.863006591797 194 194 194
21.015625000000 39.523437500000 6.923995971680 174 174 174
21.000000000000 39.539062500000 6.979003906250 127 127 127
21.015625000000 39.523437500000 7.029998779297 160 160 160
21.078125000000 39.523437500000 7.115005493164 83 83 83
20.921875000000 39.281250000000 6.820007324219 102 102 102
20.906250000000 39.281250000000 7.098007202148 68 68 68
20.937500000000 39.289062500000 7.139999389648 21 21 21
20.703125000000 39.054687500000 6.809997558594 43 43 43
20.687500000000 39.054687500000 6.865997314453 10 10 10
20.687500000000 39.062500000000 6.923004150391 18 18 18
20.671875000000 39.046875000000 6.984008789063 28 28 28
20.656250000000 39.062500000000 7.041000366211 56 56 56
20.656250000000 39.062500000000 7.098007202148 78 78 78
20.750000000000 39.054687500000 7.126007080078 85 85 85
20.562500000000 38.820312500000 6.828002929688 92 92 92
20.593750000000 38.820312500000 7.104003906250 58 58 58
20.593750000000 38.820312500000 7.156997680664 26 26 26
20.421875000000 38.585937500000 6.839996337891 81 81 81
20.421875000000 38.585937500000 7.126998901367 79 79 79
20.421875000000 38.593750000000 7.179000854492 8 8 8
20.281250000000 38.343750000000 6.850006103516 84 84 84
20.250000000000 38.351562500000 7.145996093750 81 81 81
20.218750000000 38.359375000000 7.214004516602 10 10 10
20.234375000000 38.343750000000 7.268997192383 30 30 30
20.062500000000 38.109375000000 7.111007690430 5 5 5
20.093750000000 38.109375000000 7.166000366211 65 65 65
20.093750000000 38.109375000000 7.406005859375 61 61 61
19.890625000000 37.882812500000 7.137008666992 57 57 57
19.937500000000 37.875000000000 7.186004638672 12 12 12
19.906250000000 37.875000000000 7.559997558594 58 58 58
19.750000000000 37.656250000000 7.152999877930 93 93 93
19.765625000000 37.640625000000 7.710006713867 46 46 46
19.593750000000 37.421875000000 7.175003051758 89 89 89
19.625000000000 37.414062500000 7.867004394531 36 36 36
19.437500000000 37.171875000000 7.192001342773 86 86 86
19.453125000000 37.179687500000 8.022003173828 24 24 24
19.265625000000 36.937500000000 7.199996948242 84 84 84
19.281250000000 36.945312500000 8.176010131836 40 40 40
19.078125000000 36.695312500000 7.216003417969 76 76 76
19.125000000000 36.703125000000 8.343002319336 40 40 40
18.937500000000 36.476562500000 7.227005004883 70 70 70
18.984375000000 36.476562500000 8.500000000000 19 19 19
18.734375000000 36.250000000000 7.195007324219 33 33 33
18.765625000000 36.250000000000 7.247009277344 43 43 43
18.750000000000 36.242187500000 8.574996948242 57 57 57
18.843750000000 36.242187500000 8.611999511719 59 59 59
18.765625000000 36.250000000000 8.706008911133 23 23 23
18.359375000000 36.031250000000 2.710006713867 179 179 179
18.359375000000 36.031250000000 2.775009155273 172 172 172
18.375000000000 36.031250000000 2.841003417969 172 172 172
18.375000000000 36.015625000000 2.906005859375 162 162 162
18.375000000000 36.023437500000 2.972000122070 177 177 177
18.375000000000 36.023437500000 3.037002563477 181 181 181
18.406250000000 36.023437500000 3.102996826172 181 181 181
18.406250000000 36.023437500000 3.167007446289 182 182 182
18.406250000000 36.031250000000 3.232009887695 189 189 189
18.406250000000 36.031250000000 3.296005249023 187 187 187
18.421875000000 36.015625000000 3.360000610352 192 192 192
18.421875000000 36.015625000000 3.423995971680 189 189 189
18.437500000000 36.023437500000 3.490005493164 190 190 190
18.437500000000 36.023437500000 3.554000854492 190 190 190
18.437500000000 36.023437500000 3.617004394531 190 190 190
18.437500000000 36.023437500000 3.680999755859 179 179 179
18.437500000000 36.023437500000 3.745010375977 178 178 178
18.468750000000 36.023437500000 3.809005737305 193 193 193
18.468750000000 36.023437500000 3.872009277344 194 194 194
18.468750000000 36.031250000000 3.936004638672 198 198 198
18.500000000000 36.023437500000 3.999008178711 196 196 196
18.500000000000 36.023437500000 4.061996459961 201 201 201
18.484375000000 36.015625000000 4.125000000000 204 204 204
18.500000000000 36.023437500000 4.189010620117 201 201 201
18.500000000000 36.023437500000 4.251998901367 201 201 201
18.515625000000 36.023437500000 4.315002441406 201 201 201
18.500000000000 36.015625000000 4.378005981445 199 199 199
18.515625000000 36.023437500000 4.441009521484 201 201 201
18.531250000000 36.015625000000 4.503997802734 201 201 201
18.531250000000 36.015625000000 4.566009521484 209 209 209
18.531250000000 36.031250000000 4.630004882813 209 209 209
18.531250000000 36.015625000000 4.692001342773 207 207 207
18.546875000000 36.015625000000 4.755004882813 209 209 209
18.562500000000 36.023437500000 4.817001342773 206 206 206
18.562500000000 36.023437500000 4.880004882813 211 211 211
18.562500000000 36.023437500000 4.943008422852 212 212 212
18.562500000000 36.023437500000 5.005996704102 211 211 211
18.562500000000 36.015625000000 5.069000244141 210 210 210
18.562500000000 36.023437500000 5.132003784180 213 213 213
18.578125000000 36.023437500000 5.194000244141 211 211 211
18.578125000000 36.023437500000 5.255996704102 206 206 206
18.578125000000 36.023437500000 5.320007324219 204 204 204
18.593750000000 36.015625000000 5.382003784180 205 205 205
18.593750000000 36.015625000000 5.445999145508 204 204 204
18.593750000000 36.015625000000 5.509002685547 200 200 200
18.593750000000 36.023437500000 5.570999145508 204 204 204
18.593750000000 36.015625000000 5.635009765625 205 205 205
18.593750000000 36.023437500000 5.697998046875 200 200 200
18.625000000000 36.015625000000 5.761001586914 201 201 201
18.625000000000 36.015625000000 5.824005126953 204 204 204
18.625000000000 36.015625000000 5.888000488281 201 201 201
18.625000000000 36.015625000000 5.949005126953 196 196 196
18.625000000000 36.023437500000 6.014999389648 194 194 194
18.625000000000 36.015625000000 6.078002929688 186 186 186
18.625000000000 36.015625000000 6.143005371094 191 191 191
18.640625000000 36.031250000000 6.203002929688 185 185 185
18.640625000000 36.023437500000 6.268997192383 185 185 185
18.640625000000 36.023437500000 6.335006713867 187 187 187
18.656250000000 36.015625000000 6.397003173828 180 180 180
18.656250000000 36.015625000000 6.462005615234 180 180 180
18.656250000000 36.015625000000 6.527008056641 168 168 168
18.656250000000 36.015625000000 6.587997436523 159 159 159
18.656250000000 36.015625000000 6.652999877930 149 149 149
18.656250000000 36.015625000000 6.721008300781 146 146 146
18.687500000000 36.015625000000 6.783004760742 141 141 141
18.687500000000 36.015625000000 6.848007202148 140 140 140
18.687500000000 36.023437500000 6.912002563477 130 130 130
18.687500000000 36.023437500000 6.977005004883 117 117 117
18.687500000000 36.023437500000 7.044006347656 116 116 116
18.687500000000 36.007812500000 7.110000610352 112 112 112
18.687500000000 36.015625000000 7.173995971680 113 113 113
18.703125000000 36.015625000000 7.238006591797 69 69 69
18.687500000000 36.015625000000 7.307998657227 119 119 119
18.687500000000 36.015625000000 7.374008178711 94 94 94
18.687500000000 36.007812500000 7.445007324219 83 83 83
18.687500000000 36.023437500000 7.514999389648 78 78 78
18.718750000000 36.007812500000 7.574996948242 55 55 55
18.718750000000 36.007812500000 7.641998291016 33 33 33
18.718750000000 36.015625000000 7.708007812500 13 13 13
18.359375000000 36.031250000000 2.645004272461 158 158 158
24.375000000000 44.531250000000 2.365005493164 231 231 231
24.359375000000 44.523437500000 2.322998046875 220 220 220
24.406250000000 44.507812500000 2.301010131836 211 211 211
24.375000000000 44.515625000000 2.253997802734 207 207 207
24.390625000000 44.507812500000 2.222000122070 203 203 203
24.468750000000 44.234375000000 8.803009033203 79 79 79
24.437500000000 44.234375000000 8.762008666992 176 176 176
24.437500000000 44.234375000000 8.708999633789 175 175 175
24.437500000000 44.234375000000 8.658996582031 172 172 172
24.437500000000 44.234375000000 8.608001708984 145 145 145
24.468750000000 44.234375000000 8.550003051758 152 152 152
24.468750000000 44.226562500000 8.503997802734 151 151 151
24.437500000000 44.234375000000 8.457000732422 156 156 156
24.437500000000 44.234375000000 8.406997680664 160 160 160
24.437500000000 44.234375000000 8.360000610352 170 170 170
24.437500000000 44.234375000000 8.309997558594 171 171 171
24.437500000000 44.234375000000 8.258010864258 162 162 162
24.437500000000 44.234375000000 8.218002319336 166 166 166
24.437500000000 44.234375000000 8.166000366211 170 170 170
24.437500000000 44.234375000000 8.117996215820 166 166 166
24.437500000000 44.234375000000 8.072998046875 167 167 167
24.437500000000 44.234375000000 8.027008056641 163 163 163
24.437500000000 44.234375000000 7.977996826172 170 170 170
24.437500000000 44.234375000000 7.932998657227 182 182 182
24.437500000000 44.234375000000 7.889999389648 174 174 174
24.437500000000 44.234375000000 7.841003417969 168 168 168
24.437500000000 44.250000000000 7.805999755859 171 171 171
24.437500000000 44.234375000000 7.751998901367 170 170 170
24.437500000000 44.234375000000 7.710998535156 174 174 174
24.437500000000 44.234375000000 7.665008544922 184 184 184
24.437500000000 44.234375000000 7.623001098633 179 179 179
24.437500000000 44.250000000000 7.583007812500 178 178 178
24.437500000000 44.250000000000 7.538009643555 175 175 175
24.437500000000 44.250000000000 7.494003295898 175 175 175
24.437500000000 44.250000000000 7.457000732422 173 173 173
24.437500000000 44.250000000000 7.411010742188 178 178 178
24.437500000000 44.250000000000 7.369003295898 183 183 183
24.437500000000 44.250000000000 7.324996948242 188 188 188
24.437500000000 44.250000000000 7.285003662109 180 180 180
24.437500000000 44.250000000000 7.246002197266 181 181 181
24.437500000000 44.250000000000 7.202011108398 184 184 184
24.437500000000 44.250000000000 7.160003662109 155 155 155
24.437500000000 44.250000000000 7.120010375977 180 180 180
24.437500000000 44.250000000000 7.078002929688 180 180 180
24.437500000000 44.257812500000 7.042999267578 176 176 176
24.437500000000 44.250000000000 7.000000000000 176 176 176
24.437500000000 44.250000000000 6.955001831055 178 178 178
24.437500000000 44.250000000000 6.916000366211 179 179 179
24.437500000000 44.250000000000 6.880004882813 183 183 183
24.437500000000 44.250000000000 6.841003417969 177 177 177
24.437500000000 44.250000000000 6.802001953125 175 175 175
24.437500000000 44.250000000000 6.762008666992 174 174 174
24.437500000000 44.250000000000 6.721008300781 178 178 178
24.437500000000 44.250000000000 6.682998657227 180 180 180
24.437500000000 44.257812500000 6.648010253906 179 179 179
24.437500000000 44.257812500000 6.611999511719 180 180 180
24.437500000000 44.250000000000 6.570007324219 198 198 198
24.437500000000 44.257812500000 6.536010742188 183 183 183
24.437500000000 44.257812500000 6.495010375977 183 183 183
24.437500000000 44.250000000000 6.456008911133 187 187 187
24.437500000000 44.250000000000 6.419006347656 186 186 186
24.437500000000 44.250000000000 6.380996704102 186 186 186
24.437500000000 44.257812500000 6.346008300781 185 185 185
24.437500000000 44.257812500000 6.307998657227 184 184 184
24.437500000000 44.257812500000 6.272003173828 188 188 188
24.437500000000 44.257812500000 6.233001708984 188 188 188
24.437500000000 44.257812500000 6.199005126953 187 187 187
24.437500000000 44.257812500000 6.161010742188 188 188 188
24.437500000000 44.257812500000 6.126998901367 203 203 203
24.437500000000 44.257812500000 6.091003417969 197 197 197
24.437500000000 44.257812500000 6.053009033203 190 190 190
24.437500000000 44.257812500000 6.018005371094 190 190 190
24.437500000000 44.257812500000 5.981002807617 195 195 195
24.437500000000 44.257812500000 5.945999145508 190 190 190
24.437500000000 44.257812500000 5.908996582031 195 195 195
24.437500000000 44.257812500000 5.874008178711 200 200 200
24.437500000000 44.257812500000 5.839004516602 199 199 199
24.437500000000 44.257812500000 5.803009033203 195 195 195
24.437500000000 44.257812500000 5.768005371094 197 197 197
24.437500000000 44.257812500000 5.732009887695 198 198 198
24.406250000000 44.257812500000 5.697998046875 196 196 196
24.406250000000 44.257812500000 5.663009643555 196 196 196
24.406250000000 44.257812500000 5.628005981445 207 207 207
24.406250000000 44.257812500000 5.592010498047 205 205 205
24.406250000000 44.257812500000 5.557006835938 201 201 201
24.406250000000 44.257812500000 5.523010253906 203 203 203
24.406250000000 44.257812500000 5.488006591797 205 205 205
24.406250000000 44.257812500000 5.454010009766 205 205 205
24.406250000000 44.257812500000 5.419006347656 202 202 202
24.406250000000 44.257812500000 5.384002685547 204 204 204
24.406250000000 44.257812500000 5.348999023438 203 203 203
24.406250000000 44.257812500000 5.314010620117 214 214 214
24.406250000000 44.257812500000 5.281997680664 213 213 213
24.406250000000 44.257812500000 5.246002197266 215 215 215
24.406250000000 44.257812500000 5.212005615234 215 215 215
24.406250000000 44.257812500000 5.178009033203 216 216 216
24.406250000000 44.273437500000 5.145004272461 215 215 215
24.406250000000 44.273437500000 5.110000610352 215 215 215
24.406250000000 44.257812500000 5.074996948242 210 210 210
24.406250000000 44.257812500000 5.041000366211 210 210 210
24.406250000000 44.273437500000 5.008010864258 209 209 209
24.406250000000 44.257812500000 4.973007202148 216 216 216
24.406250000000 44.273437500000 4.940002441406 219 219 219
24.406250000000 44.273437500000 4.906005859375 216 216 216
24.406250000000 44.273437500000 4.872009277344 216 216 216
24.406250000000 44.273437500000 4.837997436523 213 213 213
24.406250000000 44.273437500000 4.804000854492 213 213 213
24.390625000000 44.265625000000 4.770004272461 212 212 212
24.406250000000 44.273437500000 4.736007690430 215 215 215
24.390625000000 44.265625000000 4.703002929688 220 220 220
24.390625000000 44.265625000000 4.669006347656 220 220 220
24.390625000000 44.265625000000 4.635009765625 220 220 220
24.406250000000 44.273437500000 4.600997924805 220 220 220
24.390625000000 44.265625000000 4.567001342773 221 221 221
24.390625000000 44.265625000000 4.533004760742 219 219 219
24.390625000000 44.265625000000 4.500000000000 221 221 221
24.390625000000 44.265625000000 4.466003417969 219 219 219
24.390625000000 44.265625000000 4.432006835938 218 218 218
24.390625000000 44.265625000000 4.398010253906 215 215 215
24.375000000000 44.273437500000 4.363998413086 214 214 214
24.390625000000 44.265625000000 4.330001831055 215 215 215
24.375000000000 44.273437500000 4.296005249023 211 211 211
24.375000000000 44.273437500000 4.263000488281 217 217 217
24.375000000000 44.273437500000 4.229003906250 214 214 214
24.375000000000 44.273437500000 4.195007324219 216 216 216
24.375000000000 44.273437500000 4.161010742188 210 210 210
24.375000000000 44.273437500000 4.126998901367 213 213 213
24.375000000000 44.273437500000 4.093002319336 216 216 216
24.375000000000 44.273437500000 4.059005737305 214 214 214
24.375000000000 44.273437500000 4.025009155273 212 212 212
24.375000000000 44.273437500000 3.990997314453 216 216 216
24.375000000000 44.273437500000 3.957000732422 215 215 215
24.375000000000 44.273437500000 3.923004150391 215 215 215
24.375000000000 44.273437500000 3.888000488281 215 215 215
24.375000000000 44.273437500000 3.852996826172 216 216 216
24.375000000000 44.273437500000 3.819000244141 211 211 211
24.375000000000 44.273437500000 3.785003662109 214 214 214
24.375000000000 44.281250000000 3.750000000000 215 215 215
24.375000000000 44.281250000000 3.716003417969 215 215 215
24.375000000000 44.281250000000 3.680999755859 212 212 212
24.375000000000 44.281250000000 3.647003173828 209 209 209
24.375000000000 44.281250000000 3.611999511719 209 209 209
24.375000000000 44.281250000000 3.577011108398 211 211 211
24.375000000000 44.281250000000 3.542999267578 212 212 212
24.375000000000 44.281250000000 3.507003784180 213 213 213
24.375000000000 44.281250000000 3.473007202148 207 207 207
24.375000000000 44.281250000000 3.436996459961 210 210 210
24.375000000000 44.281250000000 3.402008056641 211 211 211
24.375000000000 44.281250000000 3.367004394531 210 210 210
24.375000000000 44.281250000000 3.331008911133 208 208 208
24.375000000000 44.281250000000 3.296997070313 212 212 212
24.375000000000 44.281250000000 3.261001586914 210 210 210
24.375000000000 44.281250000000 3.225997924805 209 209 209
24.375000000000 44.281250000000 3.189010620117 207 207 207
24.375000000000 44.281250000000 3.154006958008 206 206 206
24.375000000000 44.281250000000 3.117996215820 206 206 206
24.343750000000 44.296875000000 3.081008911133 203 203 203
24.343750000000 44.296875000000 3.044998168945 202 202 202
24.375000000000 44.281250000000 3.011001586914 202 202 202
24.375000000000 44.281250000000 2.975997924805 202 202 202
24.343750000000 44.296875000000 2.936996459961 201 201 201
24.343750000000 44.296875000000 2.900009155273 200 200 200
24.343750000000 44.296875000000 2.861999511719 200 200 200
24.343750000000 44.296875000000 2.827011108398 202 202 202
24.343750000000 44.296875000000 2.791000366211 204 204 204
24.343750000000 44.296875000000 2.755004882813 201 201 201
24.343750000000 44.296875000000 2.717010498047 204 204 204
24.343750000000 44.296875000000 2.680007934570 199 199 199
24.343750000000 44.296875000000 2.643005371094 199 199 199
24.343750000000 44.296875000000 2.604003906250 200 200 200
24.343750000000 44.296875000000 2.569000244141 196 196 196
24.500000000000 44.195312500000 2.585006713867 215 215 215
24.375000000000 44.281250000000 2.494003295898 199 199 199
24.343750000000 44.296875000000 2.454010009766 197 197 197
24.343750000000 44.289062500000 2.415008544922 194 194 194
24.343750000000 44.296875000000 2.378997802734 192 192 192
24.375000000000 44.281250000000 2.344009399414 189 189 189
24.343750000000 44.289062500000 2.300003051758 190 190 190
24.343750000000 44.296875000000 2.263000488281 194 194 194
24.406250000000 44.250000000000 2.248001098633 196 196 196
24.468750000000 44.226562500000 2.232009887695 210 210 210
24.281250000000 44.093750000000 8.566009521484 118 118 118
24.250000000000 44.125000000000 8.544998168945 67 67 67
24.281250000000 44.093750000000 7.177001953125 23 23 23
24.281250000000 44.101562500000 7.141006469727 176 176 176
24.156250000000 43.937500000000 8.490005493164 99 99 99
24.171875000000 43.929687500000 7.141998291016 177 177 177
24.062500000000 43.765625000000 8.355010986328 113 113 113
24.062500000000 43.765625000000 7.143997192383 177 177 177
24.031250000000 43.765625000000 7.108001708984 26 26 26
23.937500000000 43.609375000000 8.270996093750 86 86 86
23.937500000000 43.609375000000 8.223999023438 46 46 46
23.937500000000 43.593750000000 7.141006469727 173 173 173
23.906250000000 43.609375000000 7.111999511719 31 31 31
23.828125000000 43.421875000000 8.117004394531 98 98 98
23.828125000000 43.421875000000 7.137008666992 178 178 178
23.687500000000 43.257812500000 8.016006469727 107 107 107
23.687500000000 43.265625000000 7.977996826172 38 38 38
23.687500000000 43.257812500000 7.167999267578 78 78 78
23.687500000000 43.257812500000 7.125000000000 165 165 165
23.562500000000 43.078125000000 7.865005493164 104 104 104
23.562500000000 43.078125000000 7.156005859375 141 141 141
23.562500000000 43.085937500000 7.111999511719 107 107 107
23.453125000000 42.914062500000 7.761001586914 105 105 105
23.468750000000 42.906250000000 7.137008666992 162 162 162
23.437500000000 42.921875000000 7.104003906250 24 24 24
23.343750000000 42.750000000000 7.658996582031 109 109 109
23.343750000000 42.750000000000 7.128005981445 167 167 167
23.218750000000 42.593750000000 7.548004150391 118 118 118
23.234375000000 42.578125000000 7.156005859375 89 89 89
23.218750000000 42.593750000000 7.113006591797 159 159 159
23.093750000000 42.421875000000 7.436996459961 119 119 119
23.125000000000 42.406250000000 7.134002685547 174 174 174
23.093750000000 42.421875000000 7.098007202148 17 17 17
23.000000000000 42.242187500000 7.311004638672 85 85 85
22.984375000000 42.242187500000 7.165008544922 80 80 80
23.000000000000 42.234375000000 7.109008789063 151 151 151
22.937500000000 42.281250000000 6.844009399414 130 130 130
22.875000000000 42.070312500000 7.234008789063 80 80 80
22.875000000000 42.070312500000 7.132003784180 180 180 180
22.875000000000 42.070312500000 7.091003417969 20 20 20
22.812500000000 42.109375000000 6.861999511719 15 15 15
22.812500000000 42.109375000000 6.814010620117 106 106 106
22.781250000000 41.890625000000 7.154998779297 42 42 42
22.765625000000 41.898437500000 7.109008789063 165 165 165
22.703125000000 41.929687500000 6.830001831055 144 144 144
22.656250000000 41.734375000000 7.133010864258 169 169 169
22.593750000000 41.757812500000 7.098007202148 23 23 23
22.593750000000 41.757812500000 6.847000122070 77 77 77
22.593750000000 41.750000000000 6.798995971680 42 42 42
22.531250000000 41.570312500000 7.158004760742 81 81 81
22.546875000000 41.562500000000 7.102005004883 121 121 121
22.515625000000 41.578125000000 6.854003906250 19 19 19
22.500000000000 41.585937500000 6.807006835938 85 85 85
22.406250000000 41.398437500000 7.120010375977 165 165 165
22.375000000000 41.421875000000 6.819000244141 116 116 116
22.281250000000 41.226562500000 7.135009765625 162 162 162
22.265625000000 41.242187500000 7.094009399414 8 8 8
22.281250000000 41.226562500000 6.820999145508 137 137 137
22.156250000000 41.054687500000 7.151000976563 109 109 109
22.156250000000 41.054687500000 7.100997924805 84 84 84
22.140625000000 41.078125000000 7.055007934570 143 143 143
22.140625000000 41.078125000000 7.001998901367 220 220 220
22.140625000000 41.078125000000 6.947998046875 220 220 220
22.156250000000 41.070312500000 6.891006469727 222 222 222
22.156250000000 41.070312500000 6.837997436523 192 192 192
22.062500000000 40.882812500000 7.113998413086 150 150 150
22.031250000000 40.914062500000 7.070007324219 33 33 33
22.031250000000 40.914062500000 7.020004272461 210 210 210
22.031250000000 40.914062500000 6.962997436523 206 206 206
22.031250000000 40.914062500000 6.908004760742 222 222 222
22.031250000000 40.914062500000 6.854003906250 212 212 212
22.062500000000 40.890625000000 6.796005249023 58 58 58
21.937500000000 40.742187500000 7.134002685547 145 145 145
21.906250000000 40.765625000000 7.039001464844 198 198 198
21.906250000000 40.765625000000 6.984008789063 176 176 176
21.906250000000 40.750000000000 6.927001953125 183 183 183
21.937500000000 40.742187500000 6.869003295898 217 217 217
21.937500000000 40.742187500000 6.813003540039 104 104 104
21.843750000000 40.554687500000 7.149002075195 100 100 100
21.812500000000 40.578125000000 7.105010986328 50 50 50
21.796875000000 40.601562500000 7.054000854492 165 165 165
21.781250000000 40.593750000000 7.001998901367 191 191 191
21.812500000000 40.593750000000 6.942001342773 184 184 184
21.812500000000 40.578125000000 6.883010864258 217 217 217
21.812500000000 40.578125000000 6.826004028320 135 135 135
21.718750000000 40.406250000000 7.163009643555 64 64 64
21.718750000000 40.398437500000 7.106002807617 92 92 92
21.687500000000 40.421875000000 7.061004638672 137 137 137
21.656250000000 40.421875000000 7.010009765625 193 193 193
21.687500000000 40.414062500000 6.951004028320 192 192 192
21.687500000000 40.406250000000 6.891006469727 207 207 207
21.687500000000 40.406250000000 6.833999633789 156 156 156
21.593750000000 40.218750000000 7.169998168945 51 51 51
21.593750000000 40.226562500000 7.113006591797 103 103 103
21.531250000000 40.250000000000 7.070999145508 128 128 128
21.531250000000 40.250000000000 7.014007568359 194 194 194
21.562500000000 40.242187500000 6.954010009766 169 169 169
21.562500000000 40.242187500000 6.895996093750 208 208 208
21.562500000000 40.234375000000 6.835006713867 161 161 161
21.468750000000 40.062500000000 7.123001098633 135 135 135
21.437500000000 40.078125000000 7.077011108398 80 80 80
21.421875000000 40.085937500000 7.024002075195 214 214 214
21.437500000000 40.093750000000 6.962997436523 209 209 209
21.437500000000 40.078125000000 6.902008056641 216 216 216
21.437500000000 40.078125000000 6.846008300781 193 193 193
21.375000000000 39.882812500000 7.138000488281 150 150 150
21.281250000000 39.945312500000 7.046005249023 208 208 208
21.312500000000 39.929687500000 6.985000610352 194 194 194
21.312500000000 39.929687500000 6.926010131836 197 197 197
21.312500000000 39.929687500000 6.863006591797 215 215 215
21.312500000000 39.929687500000 6.803009033203 49 49 49
21.265625000000 39.734375000000 7.154006958008 135 135 135
21.187500000000 39.773437500000 7.057998657227 189 189 189
21.171875000000 39.781250000000 7.001007080078 85 85 85
21.187500000000 39.773437500000 6.938003540039 181 181 181
21.203125000000 39.765625000000 6.875000000000 220 220 220
21.218750000000 39.757812500000 6.813003540039 97 97 97
21.140625000000 39.562500000000 7.163009643555 121 121 121
21.125000000000 39.570312500000 7.109008789063 14 14 14
21.062500000000 39.609375000000 7.064010620117 177 177 177
21.062500000000 39.609375000000 7.005004882813 177 177 177
21.093750000000 39.593750000000 6.940002441406 183 183 183
21.093750000000 39.593750000000 6.880004882813 221 221 221
21.125000000000 39.585937500000 6.816009521484 64 64 64
21.031250000000 39.398437500000 7.164001464844 131 131 131
20.968750000000 39.414062500000 7.057006835938 203 203 203
20.968750000000 39.414062500000 6.995010375977 222 222 222
21.000000000000 39.414062500000 6.932998657227 223 223 223
21.000000000000 39.414062500000 6.871002197266 206 206 206
20.906250000000 39.218750000000 7.167007446289 112 112 112
20.890625000000 39.234375000000 7.113006591797 4 4 4
20.906250000000 39.210937500000 6.861007690430 103 103 103
20.781250000000 39.054687500000 7.178009033203 57 57 57
20.781250000000 39.062500000000 7.119003295898 65 65 65
20.781250000000 39.062500000000 6.874008178711 42 42 42
20.671875000000 38.898437500000 7.194000244141 20 20 20
20.656250000000 38.906250000000 7.137008666992 99 99 99
20.656250000000 38.906250000000 6.887008666992 34 34 34
20.562500000000 38.734375000000 7.203002929688 13 13 13
20.562500000000 38.742187500000 7.141998291016 114 114 114
20.531250000000 38.757812500000 6.895004272461 65 65 65
20.437500000000 38.585937500000 7.208999633789 52 52 52
20.437500000000 38.570312500000 7.141998291016 62 62 62
20.437500000000 38.578125000000 6.891006469727 112 112 112
20.312500000000 38.414062500000 7.206008911133 117 117 117
20.312500000000 38.414062500000 7.141998291016 111 111 111
20.343750000000 38.390625000000 6.876998901367 111 111 111
20.203125000000 38.226562500000 7.339004516602 71 71 71
20.203125000000 38.226562500000 7.205001831055 78 78 78
20.187500000000 38.234375000000 7.143005371094 23 23 23
20.203125000000 38.226562500000 6.878005981445 96 96 96
20.093750000000 38.046875000000 7.416000366211 70 70 70
20.093750000000 38.062500000000 7.216003417969 68 68 68
20.093750000000 38.062500000000 7.152008056641 28 28 28
19.968750000000 37.906250000000 7.566009521484 30 30 30
19.968750000000 37.906250000000 7.225006103516 46 46 46
19.968750000000 37.906250000000 7.158996582031 35 35 35
19.875000000000 37.742187500000 7.643005371094 75 75 75
19.875000000000 37.742187500000 7.222000122070 77 77 77
19.875000000000 37.742187500000 7.160003662109 26 26 26
19.750000000000 37.585937500000 7.783996582031 34 34 34
19.734375000000 37.585937500000 7.232009887695 80 80 80
19.640625000000 37.398437500000 7.859008789063 63 63 63
19.625000000000 37.414062500000 7.223999023438 110 110 110
19.515625000000 37.234375000000 8.010009765625 13 13 13
19.500000000000 37.242187500000 7.225006103516 120 120 120
19.437500000000 37.062500000000 8.089004516602 46 46 46
19.406250000000 37.078125000000 7.227005004883 126 126 126
19.312500000000 36.914062500000 8.178009033203 53 53 53
19.296875000000 36.921875000000 7.231002807617 126 126 126
19.187500000000 36.765625000000 7.231002807617 128 128 128
19.078125000000 36.578125000000 8.421997070313 55 55 55
19.046875000000 36.601562500000 7.227996826172 111 111 111
18.937500000000 36.421875000000 7.287002563477 41 41 41
18.906250000000 36.437500000000 7.218002319336 15 15 15
18.906250000000 36.203125000000 8.634002685547 32 32 32
18.812500000000 36.250000000000 7.277008056641 124 124 124
18.656250000000 36.367187500000 3.064010620117 23 23 23
18.812500000000 36.023437500000 8.794006347656 122 122 122
18.812500000000 36.039062500000 8.719009399414 160 160 160
18.828125000000 36.031250000000 8.633010864258 131 131 131
18.812500000000 36.039062500000 8.559997558594 149 149 149
18.812500000000 36.039062500000 8.481002807617 161 161 161
18.796875000000 36.046875000000 8.402999877930 157 157 157
18.796875000000 36.046875000000 8.324996948242 164 164 164
18.796875000000 36.046875000000 8.247009277344 167 167 167
18.796875000000 36.046875000000 8.169006347656 171 171 171
18.781250000000 36.062500000000 8.095001220703 174 174 174
18.781250000000 36.062500000000 8.020004272461 185 185 185
18.781250000000 36.062500000000 7.942001342773 185 185 185
18.781250000000 36.062500000000 7.865997314453 182 182 182
18.781250000000 36.062500000000 7.792007446289 182 182 182
18.781250000000 36.062500000000 7.716003417969 178 178 178
18.750000000000 36.070312500000 7.641998291016 188 188 188
18.750000000000 36.070312500000 7.567001342773 188 188 188
18.750000000000 36.085937500000 7.492996215820 181 181 181
18.750000000000 36.085937500000 7.417999267578 181 181 181
18.750000000000 36.085937500000 7.343002319336 177 177 177
18.781250000000 36.062500000000 7.261001586914 142 142 142
18.750000000000 36.085937500000 7.193008422852 161 161 161
18.734375000000 36.093750000000 7.119003295898 158 158 158
18.734375000000 36.093750000000 7.044998168945 146 146 146
18.718750000000 36.109375000000 6.973007202148 141 141 141
18.718750000000 36.109375000000 6.898010253906 139 139 139
18.703125000000 36.109375000000 6.827011108398 133 133 133
18.687500000000 36.109375000000 6.755996704102 118 118 118
18.687500000000 36.125000000000 6.682998657227 84 84 84
18.687500000000 36.125000000000 6.608001708984 12 12 12
18.609375000000 35.945312500000 6.596008300781 31 31 31
18.593750000000 35.953125000000 6.523010253906 94 94 94
18.609375000000 35.945312500000 6.445999145508 120 120 120
18.593750000000 35.953125000000 6.373001098633 121 121 121
18.609375000000 35.945312500000 6.296997070313 130 130 130
18.562500000000 35.976562500000 5.934005737305 97 97 97
18.593750000000 35.968750000000 5.856002807617 204 204 204
18.593750000000 35.968750000000 5.781997680664 200 200 200
18.531250000000 35.984375000000 5.639007568359 189 189 189
18.593750000000 35.968750000000 5.121002197266 215 215 215
18.562500000000 35.968750000000 5.048995971680 217 217 217
18.562500000000 35.968750000000 4.975997924805 218 218 218
18.562500000000 35.968750000000 4.902999877930 218 218 218
18.562500000000 35.968750000000 4.829010009766 221 221 221
