24.359375000000 15.140625000000 2.388000488281 161 161 161
24.390625000000 15.140625000000 2.345001220703 146 146 146
24.453125000000 15.109375000000 2.283996582031 144 144 144
24.453125000000 15.101562500000 2.246002197266 150 150 150
24.453125000000 15.101562500000 2.207000732422 144 144 144
24.453125000000 15.101562500000 2.172988891602 144 144 144
24.453125000000 15.101562500000 2.134994506836 148 148 148
24.453125000000 15.101562500000 2.098999023438 145 145 145
24.796875000000 15.250000000000 3.059997558594 72 72 72
24.828125000000 15.234375000000 3.017990112305 153 153 153
24.828125000000 15.242187500000 2.985992431641 152 152 152
24.796875000000 15.250000000000 2.951995849609 146 146 146
24.765625000000 15.265625000000 2.921997070313 134 134 134
24.718750000000 15.281250000000 2.893997192383 120 120 120
24.093750000000 15.671875000000 3.029998779297 138 138 138
24.062500000000 15.703125000000 3.011993408203 167 167 167
24.062500000000 15.710937500000 2.983001708984 168 168 168
24.062500000000 15.703125000000 2.949996948242 165 165 165
24.062500000000 15.703125000000 2.917999267578 165 165 165
24.062500000000 15.710937500000 2.888992309570 164 164 164
24.062500000000 15.703125000000 2.851989746094 168 168 168
24.062500000000 15.687500000000 2.817001342773 164 164 164
24.718750000000 15.296875000000 2.567001342773 150 150 150
24.687500000000 15.312500000000 2.541000366211 145 145 145
24.687500000000 15.312500000000 2.504989624023 147 147 147
24.687500000000 15.312500000000 2.468002319336 151 151 151
24.687500000000 15.312500000000 2.429992675781 139 139 139
24.687500000000 15.328125000000 2.394989013672 122 122 122
24.687500000000 15.335937500000 2.363998413086 96 96 96
25.062500000000 15.468750000000 3.026000976563 23 23 23
25.062500000000 15.476562500000 2.990997314453 157 157 157
25.062500000000 15.476562500000 2.953994750977 159 159 159
25.031250000000 15.484375000000 2.916000366211 155 155 155
25.031250000000 15.484375000000 2.878997802734 155 155 155
25.062500000000 15.492187500000 2.839996337891 123 123 123
24.218750000000 15.976562500000 3.022994995117 115 115 115
24.218750000000 15.992187500000 2.993988037109 102 102 102
24.218750000000 15.992187500000 2.958999633789 99 99 99
24.218750000000 15.992187500000 2.929992675781 94 94 94
24.218750000000 15.992187500000 2.897003173828 88 88 88
24.218750000000 15.992187500000 2.861999511719 87 87 87
24.218750000000 15.992187500000 2.828994750977 72 72 72
25.250000000000 15.734375000000 3.045989990234 60 60 60
25.156250000000 15.789062500000 3.026992797852 146 146 146
25.156250000000 15.804687500000 2.991989135742 159 159 159
25.156250000000 15.804687500000 2.955001831055 155 155 155
25.156250000000 15.812500000000 2.916992187500 156 156 156
25.156250000000 15.804687500000 2.875000000000 152 152 152
25.156250000000 15.804687500000 2.835998535156 151 151 151
25.156250000000 15.812500000000 2.800994873047 87 87 87
23.218750000000 7.898437500000 2.946990966797 166 166 166
23.218750000000 7.890625000000 2.925994873047 218 218 218
23.218750000000 7.898437500000 2.901992797852 231 231 231
23.218750000000 7.898437500000 2.879989624023 225 225 225
23.187500000000 7.906250000000 2.856994628906 230 230 230
23.187500000000 7.906250000000 2.833999633789 212 212 212
23.281250000000 8.281250000000 2.944000244141 207 207 207
23.281250000000 8.273437500000 2.923995971680 233 233 233
23.250000000000 8.273437500000 2.902999877930 221 221 221
23.250000000000 8.281250000000 2.878997802734 229 229 229
23.281250000000 8.273437500000 2.852996826172 233 233 233
23.250000000000 8.273437500000 2.833999633789 146 146 146
23.406250000000 8.632812500000 2.951995849609 208 208 208
23.312500000000 8.640625000000 2.945999145508 217 217 217
23.312500000000 8.640625000000 2.925003051758 229 229 229
23.312500000000 8.648437500000 2.901992797852 230 230 230
23.312500000000 8.640625000000 2.878997802734 229 229 229
23.312500000000 8.648437500000 2.852996826172 235 235 235
23.281250000000 8.656250000000 2.836990356445 87 87 87
23.453125000000 9.015625000000 2.948989868164 219 219 219
23.359375000000 9.015625000000 2.948989868164 220 220 220
23.359375000000 9.015625000000 2.929000854492 230 230 230
23.359375000000 9.015625000000 2.905990600586 233 233 233
23.359375000000 9.015625000000 2.884002685547 226 226 226
23.359375000000 9.015625000000 2.858993530273 229 229 229
23.296875000000 9.023437500000 2.843994140625 123 123 123
23.546875000000 9.390625000000 2.973999023438 140 140 140
23.546875000000 9.390625000000 2.948989868164 231 231 231
23.453125000000 9.390625000000 2.953002929688 222 222 222
23.390625000000 9.398437500000 2.940994262695 230 230 230
23.390625000000 9.398437500000 2.914001464844 231 231 231
23.390625000000 9.398437500000 2.891998291016 228 228 228
23.390625000000 9.398437500000 2.867996215820 235 235 235
23.390625000000 9.398437500000 2.845001220703 164 164 164
23.640625000000 9.765625000000 2.972991943359 211 211 211
23.640625000000 9.765625000000 2.947998046875 228 228 228
23.515625000000 9.773437500000 2.958999633789 221 221 221
23.453125000000 9.781250000000 2.947998046875 227 227 227
23.453125000000 9.773437500000 2.921997070313 229 229 229
23.453125000000 9.781250000000 2.899002075195 224 224 224
23.453125000000 9.789062500000 2.875000000000 209 209 209
23.453125000000 9.781250000000 2.851989746094 170 170 170
23.718750000000 10.132812500000 2.990997314453 162 162 162
23.718750000000 10.140625000000 2.966995239258 216 216 216
23.687500000000 10.148437500000 2.950988769531 174 174 174
23.500000000000 10.148437500000 2.968994140625 220 220 220
23.500000000000 10.156250000000 2.947998046875 215 215 215
23.500000000000 10.140625000000 2.921997070313 228 228 228
23.500000000000 10.156250000000 2.897994995117 224 224 224
23.500000000000 10.156250000000 2.873001098633 230 230 230
23.468750000000 10.156250000000 2.854995727539 109 109 109
23.812500000000 10.507812500000 3.004989624023 80 80 80
23.812500000000 10.507812500000 2.976989746094 234 234 234
23.812500000000 10.507812500000 2.953994750977 227 227 227
23.687500000000 10.507812500000 2.958999633789 234 234 234
23.562500000000 10.515625000000 2.964996337891 228 228 228
23.562500000000 10.515625000000 2.942993164063 229 229 229
23.562500000000 10.515625000000 2.914993286133 236 236 236
23.562500000000 10.515625000000 2.891998291016 225 225 225
23.562500000000 10.515625000000 2.866989135742 214 214 214
23.906250000000 10.882812500000 2.996994018555 210 210 210
23.906250000000 10.882812500000 2.970993041992 231 231 231
23.906250000000 10.882812500000 2.942993164063 233 233 233
23.656250000000 10.882812500000 2.981002807617 217 217 217
23.593750000000 10.890625000000 2.965988159180 201 201 201
23.625000000000 10.890625000000 2.936996459961 227 227 227
23.593750000000 10.890625000000 2.916000366211 222 222 222
23.625000000000 10.898437500000 2.884994506836 239 239 239
23.593750000000 10.882812500000 2.868988037109 193 193 193
24.031250000000 11.250000000000 3.017990112305 79 79 79
24.000000000000 11.257812500000 2.992996215820 227 227 227
23.968750000000 11.265625000000 2.970001220703 176 176 176
23.968750000000 11.257812500000 2.950988769531 127 127 127
23.656250000000 11.257812500000 2.996002197266 203 203 203
23.656250000000 11.273437500000 2.970993041992 232 232 232
23.656250000000 11.257812500000 2.944992065430 213 213 213
23.656250000000 11.273437500000 2.921997070313 226 226 226
23.656250000000 11.257812500000 2.894989013672 215 215 215
23.656250000000 11.273437500000 2.871994018555 215 215 215
24.109375000000 11.632812500000 3.014999389648 122 122 122
24.109375000000 11.640625000000 2.990997314453 219 219 219
24.109375000000 11.640625000000 2.960998535156 234 234 234
24.109375000000 11.640625000000 2.935989379883 227 227 227
23.796875000000 11.648437500000 2.981994628906 236 236 236
23.703125000000 11.648437500000 2.977996826172 229 229 229
23.703125000000 11.656250000000 2.950988769531 233 233 233
23.703125000000 11.656250000000 2.925003051758 232 232 232
23.703125000000 11.640625000000 2.902999877930 232 232 232
23.703125000000 11.656250000000 2.873992919922 222 222 222
23.671875000000 11.656250000000 2.860000610352 34 34 34
24.171875000000 12.015625000000 3.024002075195 177 177 177
24.171875000000 12.007812500000 2.990997314453 228 228 228
24.203125000000 12.015625000000 2.961990356445 238 238 238
24.171875000000 12.007812500000 2.934997558594 230 230 230
23.890625000000 12.023437500000 2.981994628906 2 2 2
23.734375000000 12.031250000000 2.983993530273 211 211 211
23.734375000000 12.031250000000 2.957000732422 215 215 215
23.765625000000 12.023437500000 2.929000854492 222 222 222
23.734375000000 12.031250000000 2.905990600586 213 213 213
23.765625000000 12.039062500000 2.878997802734 220 220 220
23.765625000000 12.039062500000 2.847991943359 58 58 58
24.265625000000 12.382812500000 3.013000488281 194 194 194
24.265625000000 12.382812500000 2.983001708984 173 173 173
24.265625000000 12.390625000000 2.953994750977 166 166 166
24.265625000000 12.375000000000 2.929992675781 168 168 168
23.828125000000 12.406250000000 3.003997802734 216 216 216
23.796875000000 12.406250000000 2.985992431641 217 217 217
23.796875000000 12.406250000000 2.955001831055 224 224 224
23.796875000000 12.406250000000 2.931991577148 220 220 220
23.796875000000 12.398437500000 2.905990600586 222 222 222
23.828125000000 12.406250000000 2.875000000000 222 222 222
24.375000000000 12.742187500000 3.024993896484 164 164 164
24.343750000000 12.742187500000 3.000000000000 207 207 207
24.343750000000 12.750000000000 2.968994140625 229 229 229
24.375000000000 12.750000000000 2.938995361328 232 232 232
24.343750000000 12.757812500000 2.914993286133 230 230 230
23.843750000000 12.773437500000 3.001998901367 229 229 229
23.812500000000 12.781250000000 2.977996826172 206 206 206
23.843750000000 12.773437500000 2.948989868164 207 207 207
23.812500000000 12.781250000000 2.927001953125 193 193 193
23.843750000000 12.773437500000 2.894989013672 223 223 223
23.812500000000 12.773437500000 2.875991821289 192 192 192
24.437500000000 13.125000000000 3.020996093750 192 192 192
24.437500000000 13.125000000000 2.990997314453 214 214 214
24.437500000000 13.132812500000 2.960998535156 228 228 228
24.468750000000 13.125000000000 2.929000854492 230 230 230
24.468750000000 13.125000000000 2.897994995117 222 222 222
23.906250000000 13.140625000000 2.998001098633 229 229 229
23.906250000000 13.148437500000 2.972991943359 225 225 225
23.875000000000 13.148437500000 2.951995849609 189 189 189
23.875000000000 13.148437500000 2.922988891602 208 208 208
23.906250000000 13.148437500000 2.894989013672 224 224 224
23.875000000000 13.148437500000 2.868988037109 167 167 167
24.531250000000 13.515625000000 3.020996093750 182 182 182
24.531250000000 13.507812500000 2.993988037109 205 205 205
24.531250000000 13.500000000000 2.960998535156 230 230 230
24.531250000000 13.500000000000 2.929992675781 231 231 231
24.562500000000 13.507812500000 2.894989013672 225 225 225
23.968750000000 13.531250000000 3.002990722656 218 218 218
23.968750000000 13.523437500000 2.978988647461 210 210 210
23.937500000000 13.531250000000 2.955001831055 195 195 195
23.937500000000 13.531250000000 2.929992675781 193 193 193
23.968750000000 13.523437500000 2.897994995117 221 221 221
23.968750000000 13.523437500000 2.871994018555 207 207 207
24.625000000000 13.882812500000 3.029998779297 149 149 149
24.625000000000 13.882812500000 2.998992919922 203 203 203
24.625000000000 13.890625000000 2.965988159180 230 230 230
24.625000000000 13.882812500000 2.936996459961 226 226 226
24.625000000000 13.882812500000 2.908996582031 231 231 231
24.031250000000 13.906250000000 3.005996704102 239 239 239
24.031250000000 13.898437500000 2.983993530273 231 231 231
24.031250000000 13.906250000000 2.955001831055 228 228 228
24.031250000000 13.906250000000 2.929000854492 230 230 230
24.031250000000 13.906250000000 2.899993896484 233 233 233
24.031250000000 13.898437500000 2.875991821289 219 219 219
24.703125000000 14.257812500000 3.026992797852 154 154 154
24.703125000000 14.257812500000 2.998001098633 201 201 201
24.703125000000 14.257812500000 2.966995239258 213 213 213
24.671875000000 14.265625000000 2.937988281250 206 206 206
24.703125000000 14.265625000000 2.901992797852 226 226 226
24.109375000000 14.281250000000 3.006988525391 230 230 230
24.078125000000 14.273437500000 2.979995727539 232 232 232
24.109375000000 14.281250000000 2.950988769531 237 237 237
24.078125000000 14.273437500000 2.925003051758 231 231 231
24.078125000000 14.281250000000 2.899002075195 229 229 229
24.078125000000 14.281250000000 2.873001098633 205 205 205
24.765625000000 14.625000000000 3.022994995117 170 170 170
24.765625000000 14.625000000000 2.990997314453 176 176 176
24.765625000000 14.632812500000 2.957992553711 169 169 169
24.765625000000 14.625000000000 2.929992675781 167 167 167
24.140625000000 14.648437500000 3.027999877930 156 156 156
24.140625000000 14.648437500000 3.001998901367 173 173 173
24.140625000000 14.656250000000 2.975997924805 176 176 176
24.140625000000 14.648437500000 2.945999145508 174 174 174
24.140625000000 14.664062500000 2.919998168945 174 174 174
24.140625000000 14.664062500000 2.891998291016 171 171 171
24.140625000000 14.656250000000 2.865997314453 140 140 140
24.609375000000 15.000000000000 3.086990356445 98 98 98
24.484375000000 15.015625000000 3.085998535156 94 94 94
24.359375000000 15.000000000000 3.078994750977 156 156 156
24.328125000000 15.007812500000 3.052001953125 164 164 164
24.328125000000 15.007812500000 3.024993896484 168 168 168
24.203125000000 15.015625000000 3.022003173828 167 167 167
24.203125000000 15.015625000000 2.996002197266 173 173 173
24.203125000000 15.015625000000 2.968994140625 177 177 177
24.203125000000 15.015625000000 2.940002441406 172 172 172
24.203125000000 15.015625000000 2.912002563477 178 178 178
24.203125000000 15.031250000000 2.886001586914 174 174 174
24.203125000000 15.015625000000 2.854995727539 163 163 163
24.328125000000 15.007812500000 2.793991088867 164 164 164
24.359375000000 15.015625000000 2.761993408203 164 164 164
24.359375000000 15.015625000000 2.731994628906 166 166 166
24.359375000000 15.007812500000 2.705993652344 161 161 161
24.359375000000 15.007812500000 2.675003051758 166 166 166
24.359375000000 15.007812500000 2.644989013672 165 165 165
24.359375000000 15.015625000000 2.613998413086 165 165 165
24.359375000000 15.015625000000 2.584991455078 163 163 163
24.328125000000 15.023437500000 2.557998657227 163 163 163
24.359375000000 15.007812500000 2.526992797852 165 165 165
24.359375000000 15.015625000000 2.494995117188 161 161 161
24.359375000000 15.007812500000 2.466995239258 166 166 166
24.359375000000 15.015625000000 2.433990478516 164 164 164
24.328125000000 15.023437500000 2.405990600586 167 167 167
24.328125000000 15.023437500000 2.376998901367 165 165 165
24.453125000000 15.031250000000 2.306991577148 124 124 124
24.515625000000 15.023437500000 2.255996704102 116 116 116
24.484375000000 15.031250000000 2.228988647461 109 109 109
24.484375000000 15.039062500000 2.194992065430 108 108 108
24.484375000000 15.031250000000 2.164001464844 113 113 113
24.484375000000 15.031250000000 2.132995605469 115 115 115
24.484375000000 15.039062500000 2.098999023438 121 121 121
25.062500000000 15.367187500000 3.024002075195 90 90 90
25.031250000000 15.375000000000 2.993988037109 184 184 184
25.031250000000 15.375000000000 2.960998535156 182 182 182
25.031250000000 15.375000000000 2.929000854492 182 182 182
25.031250000000 15.375000000000 2.895996093750 181 181 181
25.031250000000 15.367187500000 2.863998413086 172 172 172
24.187500000000 15.390625000000 3.011993408203 153 153 153
24.187500000000 15.398437500000 2.983001708984 164 164 164
24.187500000000 15.398437500000 2.953994750977 163 163 163
24.187500000000 15.398437500000 2.925994873047 158 158 158
24.187500000000 15.398437500000 2.897994995117 162 162 162
24.187500000000 15.398437500000 2.869995117188 152 152 152
24.156250000000 15.398437500000 2.847991943359 132 132 132
25.250000000000 15.750000000000 3.044998168945 84 84 84
25.156250000000 15.742187500000 3.027999877930 174 174 174
25.125000000000 15.742187500000 3.003997802734 170 170 170
25.093750000000 15.750000000000 2.972000122070 177 177 177
25.093750000000 15.750000000000 2.938995361328 171 171 171
25.093750000000 15.750000000000 2.905990600586 169 169 169
25.093750000000 15.757812500000 2.871994018555 174 174 174
24.156250000000 15.781250000000 3.041000366211 145 145 145
24.093750000000 15.781250000000 3.027999877930 167 167 167
24.062500000000 15.781250000000 3.002990722656 175 175 175
24.062500000000 15.781250000000 2.975997924805 180 180 180
24.093750000000 15.781250000000 2.946990966797 174 174 174
24.093750000000 15.789062500000 2.917999267578 177 177 177
24.062500000000 15.781250000000 2.893997192383 174 174 174
24.093750000000 15.781250000000 2.863998413086 177 177 177
24.093750000000 15.789062500000 2.835998535156 176 176 176
24.093750000000 15.789062500000 2.806991577148 167 167 167
24.062500000000 15.679687500000 2.784988403320 101 101 101
24.062500000000 15.679687500000 2.817001342773 158 158 158
24.062500000000 15.679687500000 2.848999023438 155 155 155
24.062500000000 15.679687500000 2.879989624023 157 157 157
24.093750000000 15.679687500000 2.909988403320 154 154 154
24.093750000000 15.679687500000 2.940994262695 151 151 151
24.093750000000 15.679687500000 2.972000122070 149 149 149
24.062500000000 15.671875000000 3.004989624023 143 143 143
24.125000000000 15.695312500000 3.022994995117 131 131 131
24.187500000000 15.734375000000 3.037994384766 55 55 55
24.187500000000 15.390625000000 2.828002929688 126 126 126
24.187500000000 15.398437500000 2.856002807617 157 157 157
24.187500000000 15.398437500000 2.888000488281 164 164 164
24.218750000000 15.390625000000 2.917999267578 160 160 160
24.218750000000 15.382812500000 2.953002929688 168 168 168
24.218750000000 15.382812500000 2.983993530273 167 167 167
24.453125000000 15.179687500000 2.312988281250 218 218 218
24.359375000000 15.125000000000 2.376998901367 147 147 147
24.359375000000 15.140625000000 2.414001464844 149 149 149
24.359375000000 15.125000000000 2.447998046875 158 158 158
24.359375000000 15.117187500000 2.483001708984 168 168 168
24.359375000000 15.117187500000 2.517990112305 168 168 168
24.359375000000 15.117187500000 2.552993774414 168 168 168
24.359375000000 15.125000000000 2.583999633789 171 171 171
24.359375000000 15.125000000000 2.618988037109 174 174 174
24.359375000000 15.125000000000 2.653991699219 168 168 168
24.359375000000 15.125000000000 2.687988281250 165 165 165
24.359375000000 15.117187500000 2.722991943359 168 168 168
24.328125000000 15.101562500000 2.766998291016 150 150 150
24.265625000000 15.054687500000 2.823989868164 142 142 142
24.203125000000 15.046875000000 2.866989135742 150 150 150
24.203125000000 15.046875000000 2.899002075195 147 147 147
24.203125000000 15.046875000000 2.932998657227 143 143 143
24.203125000000 15.046875000000 2.962997436523 143 143 143
24.203125000000 15.046875000000 2.996002197266 142 142 142
24.359375000000 15.101562500000 2.996994018555 156 156 156
24.359375000000 15.117187500000 3.022994995117 158 158 158
24.359375000000 15.125000000000 3.054000854492 154 154 154
24.453125000000 15.156250000000 3.069992065430 97 97 97
24.640625000000 15.265625000000 3.060989379883 119 119 119
25.093750000000 15.515625000000 2.992996215820 119 119 119
25.125000000000 15.539062500000 3.024002075195 140 140 140
25.250000000000 15.601562500000 3.033996582031 32 32 32
24.515625000000 14.859375000000 2.371994018555 145 145 145
24.515625000000 14.851562500000 2.410995483398 143 143 143
24.515625000000 14.859375000000 2.440002441406 144 144 144
24.515625000000 14.859375000000 2.477996826172 143 143 143
24.515625000000 14.859375000000 2.513000488281 159 159 159
24.515625000000 14.859375000000 2.547988891602 201 201 201
24.515625000000 14.867187500000 2.582000732422 170 170 170
24.546875000000 14.867187500000 2.614990234375 158 158 158
24.546875000000 14.867187500000 2.649993896484 182 182 182
24.546875000000 14.867187500000 2.682998657227 177 177 177
24.265625000000 14.710937500000 2.800994873047 165 165 165
24.140625000000 14.648437500000 2.868988037109 144 144 144
24.140625000000 14.648437500000 2.899993896484 151 151 151
24.140625000000 14.648437500000 2.931991577148 148 148 148
24.171875000000 14.648437500000 2.962997436523 150 150 150
24.140625000000 14.648437500000 2.996002197266 148 148 148
24.515625000000 14.851562500000 2.934997558594 194 194 194
24.546875000000 14.875000000000 2.957000732422 175 175 175
24.546875000000 14.875000000000 2.991989135742 200 200 200
24.578125000000 14.867187500000 3.022003173828 146 146 146
24.578125000000 14.875000000000 3.054992675781 142 142 142
24.671875000000 14.937500000000 3.069000244141 87 87 87
24.078125000000 14.265625000000 2.869995117188 221 221 221
24.078125000000 14.265625000000 2.901992797852 223 223 223
24.078125000000 14.265625000000 2.933990478516 224 224 224
24.078125000000 14.257812500000 2.966995239258 222 222 222
24.078125000000 14.265625000000 2.996002197266 215 215 215
24.765625000000 14.640625000000 2.845001220703 100 100 100
24.796875000000 14.640625000000 2.879989624023 139 139 139
24.765625000000 14.640625000000 2.917999267578 140 140 140
24.765625000000 14.632812500000 2.955001831055 126 126 126
24.765625000000 14.625000000000 2.991989135742 131 131 131
24.796875000000 14.656250000000 3.019989013672 59 59 59
24.031250000000 13.882812500000 2.875000000000 223 223 223
24.031250000000 13.882812500000 2.904998779297 224 224 224
24.000000000000 13.875000000000 2.938995361328 222 222 222
24.000000000000 13.875000000000 2.968994140625 223 223 223
24.000000000000 13.875000000000 3.000000000000 219 219 219
24.703125000000 14.234375000000 2.851989746094 117 117 117
24.703125000000 14.242187500000 2.886001586914 214 214 214
24.703125000000 14.234375000000 2.921997070313 208 208 208
24.703125000000 14.242187500000 2.955993652344 215 215 215
24.703125000000 14.234375000000 2.991989135742 177 177 177
23.937500000000 13.492187500000 2.877990722656 218 218 218
23.937500000000 13.484375000000 2.912002563477 213 213 213
23.937500000000 13.492187500000 2.942001342773 208 208 208
23.937500000000 13.484375000000 2.972991943359 210 210 210
23.968750000000 13.476562500000 3.000991821289 199 199 199
24.625000000000 13.843750000000 2.850997924805 71 71 71
24.625000000000 13.843750000000 2.886001586914 215 215 215
24.625000000000 13.843750000000 2.921997070313 223 223 223
24.625000000000 13.835937500000 2.957000732422 222 222 222
24.625000000000 13.828125000000 2.992996215820 185 185 185
24.625000000000 13.828125000000 3.027999877930 73 73 73
23.906250000000 13.109375000000 2.873992919922 218 218 218
23.875000000000 13.101562500000 2.905990600586 204 204 204
23.875000000000 13.101562500000 2.936996459961 184 184 184
23.875000000000 13.101562500000 2.968002319336 218 218 218
23.906250000000 13.109375000000 2.994995117188 223 223 223
24.531250000000 13.437500000000 2.854995727539 65 65 65
24.531250000000 13.437500000000 2.888992309570 196 196 196
24.468750000000 13.406250000000 2.940002441406 118 118 118
24.531250000000 13.445312500000 2.955993652344 124 124 124
24.531250000000 13.437500000000 2.991989135742 182 182 182
24.531250000000 13.445312500000 3.024002075195 87 87 87
23.843750000000 12.718750000000 2.869995117188 217 217 217
23.843750000000 12.718750000000 2.901000976563 215 215 215
23.843750000000 12.718750000000 2.931991577148 206 206 206
23.843750000000 12.718750000000 2.963989257813 214 214 214
23.843750000000 12.718750000000 2.989990234375 220 220 220
24.000000000000 12.820312500000 2.972000122070 102 102 102
24.437500000000 13.031250000000 2.892990112305 213 213 213
24.437500000000 13.039062500000 2.925994873047 223 223 223
24.437500000000 13.039062500000 2.959991455078 221 221 221
24.437500000000 13.031250000000 2.994995117188 181 181 181
24.437500000000 13.046875000000 3.024993896484 70 70 70
23.796875000000 12.351562500000 2.867996215820 212 212 212
23.796875000000 12.351562500000 2.897994995117 215 215 215
23.796875000000 12.343750000000 2.931991577148 198 198 198
23.796875000000 12.343750000000 2.960998535156 215 215 215
23.796875000000 12.343750000000 2.986999511719 219 219 219
24.328125000000 12.632812500000 2.899002075195 217 217 217
24.328125000000 12.632812500000 2.932998657227 221 221 221
24.359375000000 12.632812500000 2.963989257813 221 221 221
24.359375000000 12.625000000000 2.998992919922 182 182 182
23.765625000000 11.968750000000 2.865997314453 206 206 206
23.765625000000 11.968750000000 2.897003173828 223 223 223
23.734375000000 11.960937500000 2.927001953125 210 210 210
23.734375000000 11.960937500000 2.957000732422 178 178 178
23.734375000000 11.945312500000 2.992996215820 172 172 172
23.734375000000 11.945312500000 3.022994995117 134 134 134
23.734375000000 11.960937500000 3.043991088867 160 160 160
23.734375000000 11.953125000000 3.075988769531 163 163 163
23.734375000000 11.953125000000 3.104995727539 163 163 163
23.734375000000 11.953125000000 3.134002685547 163 163 163
23.734375000000 11.945312500000 3.164993286133 145 145 145
23.671875000000 11.585937500000 2.865997314453 202 202 202
23.703125000000 11.585937500000 2.892990112305 223 223 223
23.703125000000 11.585937500000 2.922988891602 224 224 224
23.703125000000 11.585937500000 2.950988769531 226 226 226
23.703125000000 11.585937500000 2.981994628906 221 221 221
24.140625000000 11.828125000000 2.884002685547 195 195 195
24.140625000000 11.828125000000 2.912994384766 220 220 220
24.140625000000 11.835937500000 2.944000244141 220 220 220
24.140625000000 11.828125000000 2.977996826172 221 221 221
24.140625000000 11.828125000000 3.009994506836 171 171 171
23.656250000000 11.203125000000 2.863998413086 193 193 193
23.656250000000 11.210937500000 2.890991210938 225 225 225
23.656250000000 11.210937500000 2.919998168945 223 223 223
23.656250000000 11.210937500000 2.948989868164 225 225 225
23.656250000000 11.210937500000 2.977996826172 221 221 221
23.781250000000 11.273437500000 2.973999023438 219 219 219
24.015625000000 11.421875000000 2.925003051758 221 221 221
24.015625000000 11.414062500000 2.957000732422 221 221 221
24.015625000000 11.421875000000 2.986999511719 217 217 217
24.046875000000 11.414062500000 3.015991210938 146 146 146
23.593750000000 10.828125000000 2.856002807617 157 157 157
23.593750000000 10.828125000000 2.884002685547 223 223 223
23.593750000000 10.828125000000 2.914993286133 221 221 221
23.593750000000 10.828125000000 2.940002441406 224 224 224
23.593750000000 10.828125000000 2.970993041992 222 222 222
23.875000000000 10.968750000000 2.921997070313 220 220 220
23.937500000000 11.007812500000 2.931991577148 221 221 221
23.937500000000 11.015625000000 2.960998535156 221 221 221
23.937500000000 11.015625000000 2.991989135742 218 218 218
23.531250000000 10.445312500000 2.858001708984 161 161 161
23.562500000000 10.437500000000 2.884994506836 219 219 219
23.562500000000 10.429687500000 2.914993286133 223 223 223
23.562500000000 10.437500000000 2.940994262695 225 225 225
23.562500000000 10.429687500000 2.970993041992 217 217 217
23.812500000000 10.593750000000 2.916992187500 221 221 221
23.843750000000 10.601562500000 2.942001342773 221 221 221
23.843750000000 10.601562500000 2.972991943359 219 219 219
23.843750000000 10.601562500000 3.002990722656 123 123 123
23.468750000000 10.062500000000 2.860000610352 182 182 182
23.500000000000 10.070312500000 2.886001586914 223 223 223
23.468750000000 10.062500000000 2.916000366211 219 219 219
23.500000000000 10.070312500000 2.942993164063 222 222 222
23.468750000000 10.062500000000 2.972991943359 210 210 210
23.718750000000 10.179687500000 2.931991577148 136 136 136
23.750000000000 10.187500000000 2.955993652344 172 172 172
23.750000000000 10.187500000000 2.985000610352 199 199 199
23.421875000000 9.687500000000 2.860992431641 207 207 207
23.453125000000 9.679687500000 2.884002685547 223 223 223
23.453125000000 9.671875000000 2.916000366211 223 223 223
23.453125000000 9.671875000000 2.942993164063 225 225 225
23.453125000000 9.687500000000 2.964996337891 218 218 218
23.640625000000 9.789062500000 2.937988281250 220 220 220
23.640625000000 9.789062500000 2.966995239258 222 222 222
23.671875000000 9.781250000000 2.992996215820 63 63 63
23.390625000000 9.304687500000 2.858993530273 217 217 217
23.390625000000 9.304687500000 2.886993408203 224 224 224
23.390625000000 9.296875000000 2.914993286133 223 223 223
23.390625000000 9.296875000000 2.942993164063 225 225 225
23.453125000000 9.335937500000 2.949996948242 217 217 217
23.546875000000 9.382812500000 2.949996948242 220 220 220
23.546875000000 9.382812500000 2.975997924805 152 152 152
23.328125000000 8.906250000000 2.858993530273 220 220 220
23.328125000000 8.914062500000 2.884002685547 224 224 224
23.328125000000 8.914062500000 2.912002563477 224 224 224
23.328125000000 8.906250000000 2.940002441406 224 224 224
23.421875000000 8.968750000000 2.940002441406 218 218 218
23.453125000000 8.976562500000 2.958999633789 208 208 208
23.312500000000 8.539062500000 2.856002807617 220 220 220
23.312500000000 8.539062500000 2.882995605469 223 223 223
23.312500000000 8.539062500000 2.909988403320 224 224 224
23.312500000000 8.539062500000 2.938995361328 223 223 223
23.343750000000 8.562500000000 2.946990966797 218 218 218
23.375000000000 8.585937500000 2.961990356445 39 39 39
23.250000000000 8.164062500000 2.830993652344 92 92 92
23.250000000000 8.164062500000 2.858001708984 221 221 221
23.218750000000 8.156250000000 2.886001586914 220 220 220
23.250000000000 8.164062500000 2.912002563477 221 221 221
23.250000000000 8.164062500000 2.937988281250 215 215 215
23.281250000000 8.171875000000 2.955001831055 168 168 168
23.156250000000 7.773437500000 2.703994750977 167 167 167
23.156250000000 7.773437500000 2.731994628906 167 167 167
23.156250000000 7.773437500000 2.757995605469 165 165 165
23.156250000000 7.765625000000 2.789001464844 144 144 144
23.156250000000 7.773437500000 2.811996459961 144 144 144
23.156250000000 7.765625000000 2.843002319336 176 176 176
23.156250000000 7.765625000000 2.866989135742 198 198 198
23.156250000000 7.765625000000 2.893997192383 198 198 198
23.156250000000 7.765625000000 2.918991088867 214 214 214
23.187500000000 7.773437500000 2.940002441406 208 208 208
25.187500000000 15.671875000000 3.037994384766 101 101 101
25.125000000000 15.671875000000 3.017990112305 173 173 173
25.093750000000 15.671875000000 2.990997314453 175 175 175
25.062500000000 15.664062500000 2.959991455078 176 176 176
25.062500000000 15.664062500000 2.927001953125 175 175 175
25.062500000000 15.664062500000 2.894989013672 173 173 173
25.062500000000 15.664062500000 2.860000610352 170 170 170
24.125000000000 15.710937500000 3.029998779297 143 143 143
24.062500000000 15.710937500000 3.017990112305 165 165 165
24.062500000000 15.710937500000 2.990997314453 178 178 178
24.062500000000 15.710937500000 2.964996337891 177 177 177
24.062500000000 15.710937500000 2.936996459961 179 179 179
24.062500000000 15.710937500000 2.909988403320 176 176 176
24.062500000000 15.710937500000 2.880996704102 176 176 176
24.062500000000 15.710937500000 2.854995727539 180 180 180
24.062500000000 15.710937500000 2.825988769531 176 176 176
24.062500000000 15.710937500000 2.797988891602 167 167 167
25.031250000000 15.312500000000 3.016998291016 50 50 50
25.031250000000 15.320312500000 2.988998413086 176 176 176
25.000000000000 15.312500000000 2.957992553711 183 183 183
24.500000000000 15.335937500000 3.027999877930 215 215 215
24.437500000000 15.343750000000 3.009994506836 210 210 210
24.406250000000 15.335937500000 2.985992431641 164 164 164
24.187500000000 15.351562500000 3.001998901367 153 153 153
24.187500000000 15.335937500000 2.972000122070 161 161 161
24.187500000000 15.335937500000 2.944000244141 161 161 161
24.187500000000 15.351562500000 2.917999267578 158 158 158
24.187500000000 15.335937500000 2.888000488281 159 159 159
24.187500000000 15.335937500000 2.860000610352 156 156 156
24.218750000000 15.343750000000 2.826995849609 152 152 152
24.375000000000 15.343750000000 2.755996704102 158 158 158
24.375000000000 15.343750000000 2.725997924805 161 161 161
24.375000000000 15.343750000000 2.696990966797 160 160 160
24.375000000000 15.343750000000 2.667999267578 165 165 165
24.375000000000 15.343750000000 2.638000488281 161 161 161
24.375000000000 15.343750000000 2.606994628906 165 165 165
24.375000000000 15.343750000000 2.578002929688 164 164 164
24.375000000000 15.343750000000 2.547988891602 163 163 163
24.375000000000 15.343750000000 2.516998291016 167 167 167
24.375000000000 15.343750000000 2.486999511719 165 165 165
24.375000000000 15.343750000000 2.457000732422 166 166 166
24.375000000000 15.343750000000 2.427993774414 162 162 162
24.375000000000 15.343750000000 2.394989013672 164 164 164
24.375000000000 15.343750000000 2.360992431641 163 163 163
24.609375000000 14.984375000000 3.078002929688 97 97 97
24.484375000000 14.984375000000 3.076995849609 86 86 86
24.328125000000 14.984375000000 3.073989868164 136 136 136
24.328125000000 14.976562500000 3.050003051758 169 169 169
24.328125000000 14.984375000000 3.019989013672 166 166 166
24.234375000000 14.984375000000 3.011993408203 162 162 162
24.171875000000 14.984375000000 2.992996215820 168 168 168
24.203125000000 14.992187500000 2.963989257813 172 172 172
24.203125000000 14.992187500000 2.935989379883 171 171 171
24.203125000000 14.992187500000 2.906997680664 174 174 174
24.203125000000 14.992187500000 2.878997802734 177 177 177
24.203125000000 14.992187500000 2.851989746094 163 163 163
24.328125000000 14.984375000000 2.789001464844 164 164 164
24.328125000000 14.984375000000 2.759994506836 164 164 164
24.328125000000 14.984375000000 2.731002807617 164 164 164
24.328125000000 14.976562500000 2.700988769531 166 166 166
24.328125000000 14.976562500000 2.673995971680 163 163 163
24.328125000000 14.984375000000 2.641998291016 161 161 161
24.328125000000 14.984375000000 2.612991333008 164 164 164
24.328125000000 14.984375000000 2.582000732422 165 165 165
24.328125000000 14.984375000000 2.552993774414 165 165 165
24.328125000000 14.984375000000 2.522003173828 164 164 164
24.328125000000 14.984375000000 2.490997314453 164 164 164
24.328125000000 14.984375000000 2.462997436523 160 160 160
24.328125000000 14.984375000000 2.429992675781 167 167 167
24.328125000000 14.984375000000 2.401992797852 168 168 168
24.328125000000 14.976562500000 2.371002197266 168 168 168
24.328125000000 14.984375000000 2.340988159180 100 100 100
24.765625000000 14.625000000000 3.034988403320 24 24 24
24.734375000000 14.617187500000 3.007995605469 176 176 176
24.734375000000 14.609375000000 2.975997924805 166 166 166
24.734375000000 14.609375000000 2.944000244141 172 172 172
24.734375000000 14.617187500000 2.914993286133 163 163 163
24.109375000000 14.648437500000 3.015991210938 169 169 169
24.140625000000 14.632812500000 2.985992431641 172 172 172
24.109375000000 14.648437500000 2.959991455078 171 171 171
24.109375000000 14.640625000000 2.933990478516 173 173 173
24.140625000000 14.632812500000 2.903991699219 168 168 168
24.140625000000 14.632812500000 2.875991821289 176 176 176
24.109375000000 14.648437500000 2.848999023438 126 126 126
24.671875000000 14.257812500000 3.004989624023 193 193 193
24.671875000000 14.257812500000 2.970993041992 225 225 225
24.671875000000 14.257812500000 2.942993164063 212 212 212
24.671875000000 14.257812500000 2.908996582031 225 225 225
24.109375000000 14.273437500000 3.000991821289 237 237 237
24.078125000000 14.281250000000 2.981994628906 242 242 242
24.078125000000 14.281250000000 2.955993652344 232 232 232
24.078125000000 14.281250000000 2.929000854492 234 234 234
24.078125000000 14.281250000000 2.899002075195 232 232 232
24.078125000000 14.273437500000 2.875000000000 223 223 223
24.046875000000 14.281250000000 2.851989746094 57 57 57
24.625000000000 13.898437500000 3.026992797852 46 46 46
24.593750000000 13.906250000000 3.004989624023 188 188 188
24.625000000000 13.914062500000 2.970001220703 232 232 232
24.625000000000 13.906250000000 2.940994262695 229 229 229
24.625000000000 13.914062500000 2.908996582031 232 232 232
24.093750000000 13.921875000000 2.994995117188 7 7 7
24.031250000000 13.929687500000 2.983993530273 233 233 233
24.000000000000 13.937500000000 2.957992553711 231 231 231
24.031250000000 13.929687500000 2.927001953125 241 241 241
24.031250000000 13.929687500000 2.902999877930 231 231 231
24.031250000000 13.929687500000 2.875000000000 227 227 227
24.000000000000 13.929687500000 2.849990844727 87 87 87
24.562500000000 13.554687500000 3.027999877930 38 38 38
24.531250000000 13.562500000000 3.003997802734 193 193 193
24.531250000000 13.562500000000 2.970993041992 228 228 228
24.531250000000 13.562500000000 2.940002441406 231 231 231
24.531250000000 13.562500000000 2.910995483398 232 232 232
24.000000000000 13.578125000000 2.998992919922 255 255 255
23.968750000000 13.570312500000 2.983001708984 225 225 225
23.937500000000 13.578125000000 2.960998535156 190 190 190
23.937500000000 13.570312500000 2.935989379883 203 203 203
23.937500000000 13.578125000000 2.905990600586 213 213 213
23.937500000000 13.578125000000 2.876998901367 226 226 226
23.937500000000 13.578125000000 2.852996826172 109 109 109
24.500000000000 13.218750000000 3.027999877930 37 37 37
24.437500000000 13.210937500000 3.006988525391 193 193 193
24.468750000000 13.203125000000 2.974990844727 230 230 230
24.468750000000 13.203125000000 2.944000244141 232 232 232
24.468750000000 13.203125000000 2.914993286133 231 231 231
23.968750000000 13.226562500000 2.996994018555 248 248 248
23.906250000000 13.218750000000 2.985000610352 226 226 226
23.843750000000 13.226562500000 2.964996337891 218 218 218
23.875000000000 13.234375000000 2.937988281250 185 185 185
23.875000000000 13.234375000000 2.910995483398 208 208 208
23.906250000000 13.226562500000 2.876998901367 229 229 229
23.875000000000 13.226562500000 2.856994628906 92 92 92
24.375000000000 12.859375000000 3.006988525391 202 202 202
24.375000000000 12.843750000000 2.976989746094 228 228 228
24.375000000000 12.843750000000 2.946990966797 229 229 229
24.375000000000 12.843750000000 2.917999267578 232 232 232
23.937500000000 12.867187500000 2.990997314453 6 6 6
23.843750000000 12.882812500000 2.981002807617 222 222 222
23.875000000000 12.867187500000 2.951995849609 233 233 233
23.843750000000 12.882812500000 2.929992675781 218 218 218
23.843750000000 12.882812500000 2.903991699219 222 222 222
23.843750000000 12.882812500000 2.875991821289 224 224 224
23.843750000000 12.882812500000 2.850997924805 50 50 50
24.265625000000 12.492187500000 3.011001586914 193 193 193
24.296875000000 12.500000000000 2.978988647461 224 224 224
24.296875000000 12.500000000000 2.945999145508 240 240 240
24.296875000000 12.500000000000 2.920989990234 226 226 226
23.890625000000 12.515625000000 2.988998413086 250 250 250
23.828125000000 12.515625000000 2.978988647461 219 219 219
23.796875000000 12.523437500000 2.955993652344 199 199 199
23.796875000000 12.523437500000 2.929992675781 179 179 179
23.796875000000 12.507812500000 2.901000976563 217 217 217
23.828125000000 12.523437500000 2.871002197266 226 226 226
23.796875000000 12.523437500000 2.850997924805 56 56 56
24.203125000000 12.148437500000 3.009994506836 200 200 200
24.203125000000 12.148437500000 2.978988647461 230 230 230
24.203125000000 12.148437500000 2.950988769531 230 230 230
24.203125000000 12.148437500000 2.921997070313 233 233 233
23.796875000000 12.171875000000 2.992996215820 215 215 215
23.765625000000 12.179687500000 2.974990844727 214 214 214
23.765625000000 12.164062500000 2.953994750977 174 174 174
23.765625000000 12.171875000000 2.927001953125 193 193 193
23.765625000000 12.164062500000 2.895996093750 224 224 224
23.765625000000 12.171875000000 2.873001098633 210 210 210
24.109375000000 11.796875000000 3.013000488281 178 178 178
24.140625000000 11.796875000000 2.983001708984 235 235 235
24.140625000000 11.796875000000 2.955001831055 231 231 231
24.140625000000 11.789062500000 2.929000854492 230 230 230
23.765625000000 11.812500000000 2.989990234375 234 234 234
23.703125000000 11.796875000000 2.973999023438 229 229 229
23.703125000000 11.804687500000 2.945999145508 237 237 237
23.703125000000 11.796875000000 2.921997070313 228 228 228
23.703125000000 11.804687500000 2.894989013672 233 233 233
23.703125000000 11.812500000000 2.873992919922 210 210 210
24.015625000000 11.445312500000 3.018997192383 169 169 169
24.015625000000 11.437500000000 2.992996215820 216 216 216
24.015625000000 11.445312500000 2.963989257813 229 229 229
24.015625000000 11.445312500000 2.942001342773 237 237 237
23.671875000000 11.445312500000 2.994995117188 217 217 217
23.671875000000 11.445312500000 2.970001220703 230 230 230
23.671875000000 11.445312500000 2.944000244141 240 240 240
23.671875000000 11.445312500000 2.918991088867 233 233 233
23.671875000000 11.460937500000 2.895996093750 226 226 226
23.640625000000 11.445312500000 2.873001098633 208 208 208
23.968750000000 11.093750000000 3.013992309570 73 73 73
23.937500000000 11.101562500000 2.994995117188 222 222 222
23.968750000000 11.085937500000 2.965988159180 224 224 224
23.937500000000 11.093750000000 2.942993164063 232 232 232
23.625000000000 11.101562500000 2.990997314453 206 206 206
23.625000000000 11.093750000000 2.970001220703 213 213 213
23.625000000000 11.093750000000 2.944000244141 223 223 223
23.625000000000 11.101562500000 2.916000366211 228 228 228
23.625000000000 11.093750000000 2.894989013672 221 221 221
23.593750000000 11.101562500000 2.871994018555 197 197 197
23.875000000000 10.734375000000 2.998001098633 208 208 208
23.875000000000 10.734375000000 2.970993041992 232 232 232
23.843750000000 10.742187500000 2.945999145508 230 230 230
23.625000000000 10.750000000000 2.978988647461 225 225 225
23.593750000000 10.742187500000 2.960998535156 233 233 233
23.593750000000 10.742187500000 2.936996459961 229 229 229
23.593750000000 10.742187500000 2.910995483398 232 232 232
23.593750000000 10.742187500000 2.888000488281 228 228 228
23.562500000000 10.742187500000 2.867996215820 195 195 195
23.781250000000 10.390625000000 2.998992919922 123 123 123
23.781250000000 10.390625000000 2.976989746094 229 229 229
23.781250000000 10.390625000000 2.950988769531 231 231 231
23.593750000000 10.382812500000 2.972991943359 224 224 224
23.531250000000 10.382812500000 2.958999633789 236 236 236
23.531250000000 10.390625000000 2.936996459961 230 230 230
23.531250000000 10.382812500000 2.910995483398 228 228 228
23.531250000000 10.390625000000 2.888000488281 213 213 213
23.500000000000 10.390625000000 2.865997314453 191 191 191
23.703125000000 10.031250000000 2.983001708984 211 211 211
23.703125000000 10.031250000000 2.955993652344 231 231 231
23.562500000000 10.039062500000 2.959991455078 231 231 231
23.484375000000 10.031250000000 2.957000732422 239 239 239
23.468750000000 10.039062500000 2.936996459961 217 217 217
23.468750000000 10.039062500000 2.912002563477 220 220 220
23.484375000000 10.031250000000 2.884002685547 240 240 240
23.468750000000 10.039062500000 2.864990234375 207 207 207
23.609375000000 9.671875000000 2.986999511719 142 142 142
23.609375000000 9.671875000000 2.962997436523 235 235 235
23.546875000000 9.679687500000 2.953002929688 231 231 231
23.421875000000 9.687500000000 2.958999633789 229 229 229
23.421875000000 9.687500000000 2.931991577148 229 229 229
23.421875000000 9.687500000000 2.909988403320 230 230 230
23.421875000000 9.687500000000 2.881988525391 234 234 234
23.421875000000 9.687500000000 2.863998413086 208 208 208
23.515625000000 9.328125000000 2.970001220703 204 204 204
23.515625000000 9.328125000000 2.942993164063 236 236 236
23.390625000000 9.335937500000 2.953994750977 228 228 228
23.390625000000 9.335937500000 2.929000854492 242 242 242
23.390625000000 9.335937500000 2.908996582031 236 236 236
23.390625000000 9.335937500000 2.884994506836 225 225 225
23.390625000000 9.335937500000 2.858993530273 220 220 220
23.453125000000 8.968750000000 2.970993041992 154 154 154
23.421875000000 8.984375000000 2.950988769531 230 230 230
23.328125000000 8.984375000000 2.950988769531 231 231 231
23.328125000000 8.976562500000 2.927993774414 234 234 234
23.328125000000 8.976562500000 2.906997680664 229 229 229
23.328125000000 8.976562500000 2.882995605469 226 226 226
23.328125000000 8.976562500000 2.858993530273 218 218 218
23.375000000000 8.625000000000 2.951995849609 227 227 227
23.312500000000 8.625000000000 2.946990966797 226 226 226
23.312500000000 8.625000000000 2.925003051758 230 230 230
23.312500000000 8.625000000000 2.899993896484 235 235 235
23.312500000000 8.632812500000 2.875000000000 243 243 243
23.312500000000 8.632812500000 2.848999023438 241 241 241
23.281250000000 8.265625000000 2.960998535156 172 172 172
23.250000000000 8.265625000000 2.942993164063 220 220 220
23.250000000000 8.265625000000 2.918991088867 237 237 237
23.250000000000 8.265625000000 2.895996093750 235 235 235
23.250000000000 8.273437500000 2.875000000000 231 231 231
23.250000000000 8.273437500000 2.850997924805 221 221 221
23.218750000000 7.906250000000 2.957992553711 67 67 67
23.187500000000 7.906250000000 2.944000244141 206 206 206
23.187500000000 7.906250000000 2.919998168945 225 225 225
23.187500000000 7.906250000000 2.897994995117 231 231 231
23.187500000000 7.906250000000 2.873992919922 227 227 227
23.187500000000 7.914062500000 2.853988647461 224 224 224
23.187500000000 7.914062500000 2.830993652344 97 97 97
25.187500000000 15.656250000000 3.033996582031 124 124 124
25.125000000000 15.687500000000 3.007995605469 152 152 152
25.062500000000 15.718750000000 2.979995727539 158 158 158
25.093750000000 15.710937500000 2.938995361328 158 158 158
25.093750000000 15.710937500000 2.901000976563 160 160 160
25.062500000000 15.718750000000 2.863998413086 162 162 162
25.093750000000 15.703125000000 2.819992065430 156 156 156
25.031250000000 15.382812500000 3.005996704102 122 122 122
25.000000000000 15.390625000000 2.968994140625 156 156 156
25.000000000000 15.390625000000 2.930999755859 157 157 157
25.000000000000 15.390625000000 2.893997192383 156 156 156
25.000000000000 15.390625000000 2.854995727539 152 152 152
24.187500000000 15.898437500000 3.034988403320 98 98 98
24.125000000000 15.953125000000 3.024993896484 151 151 151
24.093750000000 15.960937500000 2.998992919922 167 167 167
24.093750000000 15.960937500000 2.965988159180 164 164 164
24.093750000000 15.960937500000 2.934997558594 164 164 164
24.093750000000 15.960937500000 2.901992797852 157 157 157
24.093750000000 15.960937500000 2.868988037109 167 167 167
24.093750000000 15.945312500000 2.833999633789 168 168 168
24.093750000000 15.960937500000 2.804000854492 160 160 160
24.640625000000 15.257812500000 3.069992065430 110 110 110
24.593750000000 15.296875000000 3.050003051758 122 122 122
24.562500000000 15.304687500000 3.018997192383 116 116 116
24.562500000000 15.312500000000 2.985992431641 124 124 124
24.562500000000 15.312500000000 2.950988769531 124 124 124
24.531250000000 15.320312500000 2.919998168945 117 117 117
24.187500000000 15.546875000000 2.987991333008 145 145 145
24.187500000000 15.546875000000 2.953994750977 150 150 150
24.187500000000 15.546875000000 2.923995971680 151 151 151
24.187500000000 15.546875000000 2.889999389648 154 154 154
24.187500000000 15.546875000000 2.858001708984 154 154 154
24.187500000000 15.539062500000 2.819000244141 141 141 141
24.500000000000 15.343750000000 2.681991577148 148 148 148
24.500000000000 15.343750000000 2.644989013672 155 155 155
24.500000000000 15.343750000000 2.608993530273 163 163 163
24.500000000000 15.351562500000 2.578002929688 145 145 145
24.500000000000 15.343750000000 2.539001464844 149 149 149
24.500000000000 15.351562500000 2.507995605469 149 149 149
