24.437500000000 8.546875000000 3.334991455078 165 165 165
24.437500000000 8.546875000000 3.367996215820 167 167 167
24.437500000000 8.546875000000 3.401000976563 169 169 169
24.437500000000 8.554687500000 3.434997558594 169 169 169
24.437500000000 8.546875000000 3.466995239258 176 176 176
24.437500000000 8.546875000000 3.498992919922 178 178 178
24.437500000000 8.539062500000 3.532989501953 179 179 179
24.437500000000 8.554687500000 3.567001342773 181 181 181
24.437500000000 8.539062500000 3.598999023438 186 186 186
24.437500000000 8.539062500000 3.630996704102 182 182 182
24.437500000000 8.546875000000 3.664001464844 185 185 185
24.437500000000 8.539062500000 3.696990966797 188 188 188
24.437500000000 8.539062500000 3.728988647461 192 192 192
24.437500000000 8.546875000000 3.761001586914 194 194 194
24.437500000000 8.546875000000 3.793991088867 198 198 198
24.437500000000 8.539062500000 3.826995849609 200 200 200
24.437500000000 8.554687500000 3.858993530273 198 198 198
24.437500000000 8.554687500000 3.890991210938 203 203 203
24.437500000000 8.554687500000 3.923995971680 203 203 203
24.437500000000 8.554687500000 3.955993652344 203 203 203
24.437500000000 8.546875000000 3.988998413086 196 196 196
24.437500000000 8.546875000000 4.022003173828 205 205 205
24.437500000000 8.554687500000 4.054000854492 211 211 211
24.437500000000 8.546875000000 4.085998535156 226 226 226
24.437500000000 8.554687500000 4.118988037109 214 214 214
24.437500000000 8.554687500000 4.151000976563 202 202 202
24.437500000000 8.554687500000 4.183990478516 201 201 201
24.437500000000 8.554687500000 4.215988159180 207 207 207
24.437500000000 8.554687500000 4.248992919922 204 204 204
24.437500000000 8.554687500000 4.280990600586 203 203 203
24.437500000000 8.546875000000 4.313995361328 198 198 198
24.437500000000 8.546875000000 4.345993041992 199 199 199
24.437500000000 8.554687500000 4.378997802734 201 201 201
24.437500000000 8.554687500000 4.412002563477 199 199 199
24.437500000000 8.554687500000 4.444000244141 199 199 199
24.437500000000 8.554687500000 4.476989746094 193 193 193
24.437500000000 8.554687500000 4.509994506836 192 192 192
24.437500000000 8.554687500000 4.541992187500 189 189 189
24.437500000000 8.554687500000 4.574996948242 187 187 187
24.437500000000 8.554687500000 4.606994628906 183 183 183
24.437500000000 8.554687500000 4.639999389648 185 185 185
24.437500000000 8.546875000000 4.671997070313 181 181 181
24.437500000000 8.546875000000 4.705001831055 183 183 183
24.437500000000 8.554687500000 4.738998413086 180 180 180
24.437500000000 8.554687500000 4.772003173828 178 178 178
24.437500000000 8.554687500000 4.804000854492 179 179 179
24.437500000000 8.554687500000 4.836990356445 176 176 176
24.437500000000 8.554687500000 4.869995117188 175 175 175
24.437500000000 8.546875000000 4.901992797852 176 176 176
24.437500000000 8.546875000000 4.934997558594 176 176 176
24.437500000000 8.546875000000 4.968002319336 174 174 174
24.437500000000 8.554687500000 5.002990722656 171 171 171
24.437500000000 8.546875000000 5.034988403320 169 169 169
24.437500000000 8.554687500000 5.069992065430 170 170 170
24.437500000000 8.554687500000 5.103988647461 170 170 170
24.437500000000 8.546875000000 5.134994506836 167 167 167
24.437500000000 8.539062500000 5.166992187500 166 166 166
24.437500000000 8.539062500000 5.201995849609 165 165 165
24.437500000000 8.539062500000 5.233993530273 162 162 162
24.437500000000 8.546875000000 5.269989013672 166 166 166
24.437500000000 8.539062500000 5.300994873047 165 165 165
24.437500000000 8.546875000000 5.336990356445 160 160 160
24.437500000000 8.539062500000 5.369995117188 163 163 163
24.437500000000 8.539062500000 5.402999877930 165 165 165
24.437500000000 8.539062500000 5.435989379883 162 162 162
24.437500000000 8.531250000000 5.468994140625 161 161 161
24.375000000000 8.515625000000 5.491989135742 116 116 116
24.593750000000 8.320312500000 3.930999755859 69 69 69
24.593750000000 8.335937500000 3.963989257813 97 97 97
24.593750000000 8.328125000000 3.998001098633 96 96 96
24.593750000000 8.328125000000 4.030990600586 99 99 99
24.593750000000 8.335937500000 4.063995361328 104 104 104
24.593750000000 8.335937500000 4.097991943359 97 97 97
24.593750000000 8.335937500000 4.131988525391 106 106 106
24.593750000000 8.335937500000 4.164993286133 97 97 97
24.593750000000 8.335937500000 4.198989868164 93 93 93
24.593750000000 8.343750000000 4.231994628906 93 93 93
24.593750000000 8.343750000000 4.265991210938 95 95 95
24.593750000000 8.343750000000 4.300003051758 91 91 91
24.625000000000 8.343750000000 4.333999633789 94 94 94
24.625000000000 8.343750000000 4.366989135742 71 71 71
24.468750000000 8.250000000000 4.754989624023 131 131 131
24.437500000000 8.234375000000 4.787002563477 170 170 170
24.468750000000 8.250000000000 4.820999145508 175 175 175
24.437500000000 8.234375000000 4.852996826172 168 168 168
24.437500000000 8.234375000000 4.886001586914 170 170 170
24.468750000000 8.257812500000 4.920989990234 173 173 173
24.468750000000 8.250000000000 4.953994750977 169 169 169
24.468750000000 8.250000000000 4.986999511719 151 151 151
24.468750000000 8.257812500000 5.156997680664 175 175 175
24.468750000000 8.257812500000 5.190002441406 179 179 179
24.468750000000 8.257812500000 5.223999023438 178 178 178
24.468750000000 8.257812500000 5.257995605469 182 182 182
24.468750000000 8.257812500000 5.292999267578 175 175 175
24.468750000000 8.257812500000 5.326995849609 179 179 179
24.468750000000 8.257812500000 5.360992431641 176 176 176
24.593750000000 8.250000000000 3.953002929688 73 73 73
24.593750000000 8.257812500000 3.985992431641 94 94 94
24.593750000000 8.257812500000 4.018997192383 99 99 99
24.593750000000 8.257812500000 4.052993774414 99 99 99
24.625000000000 8.257812500000 4.086990356445 102 102 102
24.625000000000 8.257812500000 4.119995117188 95 95 95
24.625000000000 8.265625000000 4.153991699219 95 95 95
24.593750000000 8.257812500000 4.187988281250 93 93 93
24.625000000000 8.265625000000 4.220993041992 90 90 90
24.625000000000 8.265625000000 4.254989624023 89 89 89
24.625000000000 8.265625000000 4.289001464844 93 93 93
24.625000000000 8.265625000000 4.321990966797 95 95 95
24.625000000000 8.257812500000 4.356002807617 75 75 75
24.468750000000 8.179687500000 4.743988037109 100 100 100
24.468750000000 8.171875000000 4.776992797852 174 174 174
24.468750000000 8.171875000000 4.809997558594 175 175 175
24.468750000000 8.171875000000 4.843002319336 169 169 169
24.468750000000 8.171875000000 4.875991821289 173 173 173
24.468750000000 8.179687500000 4.909988403320 174 174 174
24.468750000000 8.179687500000 4.942993164063 174 174 174
24.468750000000 8.179687500000 4.976989746094 160 160 160
24.468750000000 8.187500000000 5.145996093750 146 146 146
24.500000000000 8.195312500000 5.181991577148 184 184 184
24.500000000000 8.195312500000 5.214996337891 182 182 182
24.468750000000 8.187500000000 5.246994018555 197 197 197
24.500000000000 8.195312500000 5.282989501953 182 182 182
24.500000000000 8.195312500000 5.315994262695 183 183 183
24.468750000000 8.187500000000 5.348999023438 186 186 186
24.468750000000 8.179687500000 5.382995605469 100 100 100
24.406250000000 8.515625000000 2.080993652344 152 152 152
24.406250000000 8.515625000000 2.117996215820 150 150 150
24.406250000000 8.515625000000 2.152999877930 148 148 148
24.406250000000 8.515625000000 2.192001342773 152 152 152
24.406250000000 8.507812500000 2.233001708984 152 152 152
24.406250000000 8.507812500000 2.265991210938 152 152 152
24.406250000000 8.507812500000 2.302001953125 152 152 152
24.406250000000 8.507812500000 2.341995239258 151 151 151
24.406250000000 8.500000000000 2.694992065430 150 150 150
24.375000000000 8.492187500000 2.731002807617 157 157 157
24.406250000000 8.500000000000 2.763000488281 158 158 158
24.375000000000 8.484375000000 2.800994873047 160 160 160
24.375000000000 8.492187500000 2.834991455078 158 158 158
24.375000000000 8.492187500000 2.867996215820 155 155 155
24.375000000000 8.500000000000 2.902999877930 156 156 156
24.375000000000 8.484375000000 2.936996459961 159 159 159
24.375000000000 8.492187500000 2.970001220703 154 154 154
24.375000000000 8.500000000000 3.003997802734 154 154 154
24.375000000000 8.492187500000 3.037002563477 158 158 158
24.375000000000 8.500000000000 3.072998046875 155 155 155
24.375000000000 8.492187500000 3.106994628906 151 151 151
24.375000000000 8.492187500000 3.140991210938 151 151 151
24.375000000000 8.492187500000 3.173995971680 151 151 151
24.375000000000 8.492187500000 3.207000732422 153 153 153
24.375000000000 8.492187500000 3.239990234375 151 151 151
24.375000000000 8.492187500000 3.272994995117 153 153 153
24.343750000000 8.484375000000 3.306991577148 152 152 152
24.343750000000 8.484375000000 3.338989257813 154 154 154
24.343750000000 8.484375000000 3.371994018555 156 156 156
24.375000000000 8.500000000000 3.401992797852 158 158 158
24.343750000000 8.484375000000 3.436996459961 156 156 156
24.375000000000 8.492187500000 3.468994140625 157 157 157
24.375000000000 8.492187500000 3.500991821289 160 160 160
24.375000000000 8.492187500000 3.533996582031 162 162 162
24.375000000000 8.492187500000 3.565994262695 165 165 165
24.343750000000 8.484375000000 3.598999023438 165 165 165
24.375000000000 8.500000000000 3.629989624023 166 166 166
24.343750000000 8.484375000000 3.662994384766 170 170 170
24.375000000000 8.492187500000 3.694992065430 172 172 172
24.343750000000 8.484375000000 3.727996826172 173 173 173
24.343750000000 8.484375000000 3.759994506836 172 172 172
24.375000000000 8.492187500000 3.791000366211 173 173 173
24.343750000000 8.484375000000 3.823989868164 179 179 179
24.375000000000 8.492187500000 3.856002807617 181 181 181
24.375000000000 8.492187500000 3.888000488281 184 184 184
24.343750000000 8.484375000000 3.919998168945 182 182 182
24.343750000000 8.484375000000 3.951995849609 187 187 187
24.343750000000 8.484375000000 3.983993530273 187 187 187
24.375000000000 8.492187500000 4.014999389648 189 189 189
24.343750000000 8.484375000000 4.047988891602 196 196 196
24.343750000000 8.484375000000 4.078994750977 204 204 204
24.343750000000 8.484375000000 4.110992431641 215 215 215
24.343750000000 8.484375000000 4.142990112305 209 209 209
24.375000000000 8.492187500000 4.175003051758 206 206 206
24.375000000000 8.492187500000 4.207000732422 207 207 207
24.343750000000 8.484375000000 4.238998413086 204 204 204
24.375000000000 8.492187500000 4.270996093750 200 200 200
24.343750000000 8.484375000000 4.302993774414 199 199 199
24.343750000000 8.484375000000 4.333999633789 199 199 199
24.343750000000 8.484375000000 4.365997314453 201 201 201
24.343750000000 8.484375000000 4.397994995117 201 201 201
24.343750000000 8.484375000000 4.429992675781 202 202 202
24.343750000000 8.484375000000 4.461990356445 203 203 203
24.343750000000 8.484375000000 4.493988037109 200 200 200
24.375000000000 8.492187500000 4.526000976563 199 199 199
24.375000000000 8.492187500000 4.557998657227 200 200 200
24.375000000000 8.492187500000 4.589996337891 200 200 200
24.375000000000 8.492187500000 4.623001098633 202 202 202
24.343750000000 8.484375000000 4.653991699219 200 200 200
24.375000000000 8.492187500000 4.686996459961 206 206 206
24.375000000000 8.492187500000 4.718994140625 201 201 201
24.375000000000 8.492187500000 4.750991821289 199 199 199
24.375000000000 8.492187500000 4.783996582031 200 200 200
24.375000000000 8.492187500000 4.815994262695 198 198 198
24.343750000000 8.484375000000 4.847000122070 198 198 198
24.375000000000 8.492187500000 4.879989624023 200 200 200
24.343750000000 8.484375000000 4.912002563477 197 197 197
24.375000000000 8.492187500000 4.945999145508 198 198 198
24.375000000000 8.492187500000 4.976989746094 195 195 195
24.375000000000 8.492187500000 5.009994506836 195 195 195
24.375000000000 8.500000000000 5.043991088867 193 193 193
24.375000000000 8.492187500000 5.075988769531 195 195 195
24.375000000000 8.500000000000 5.110000610352 192 192 192
24.375000000000 8.492187500000 5.141998291016 193 193 193
24.375000000000 8.500000000000 5.175003051758 190 190 190
24.375000000000 8.500000000000 5.207992553711 195 195 195
24.375000000000 8.500000000000 5.242996215820 193 193 193
24.375000000000 8.492187500000 5.272994995117 192 192 192
24.375000000000 8.500000000000 5.307998657227 193 193 193
24.375000000000 8.492187500000 5.339996337891 191 191 191
24.375000000000 8.500000000000 5.375991821289 191 191 191
24.375000000000 8.500000000000 5.409988403320 192 192 192
24.375000000000 8.492187500000 5.440002441406 191 191 191
24.375000000000 8.500000000000 5.474990844727 193 193 193
24.375000000000 8.500000000000 5.511001586914 38 38 38
24.468750000000 8.546875000000 2.358001708984 135 135 135
24.515625000000 8.937500000000 4.718994140625 167 167 167
24.515625000000 8.937500000000 4.752990722656 183 183 183
24.515625000000 8.945312500000 4.787002563477 179 179 179
24.515625000000 8.937500000000 4.819000244141 182 182 182
24.515625000000 8.937500000000 4.852996826172 182 182 182
24.515625000000 8.945312500000 4.886001586914 177 177 177
24.515625000000 8.945312500000 4.919998168945 181 181 181
24.515625000000 8.937500000000 4.951995849609 98 98 98
24.515625000000 8.945312500000 5.188995361328 111 111 111
24.515625000000 8.945312500000 5.222991943359 173 173 173
24.515625000000 8.953125000000 5.257995605469 175 175 175
24.515625000000 8.937500000000 5.289993286133 170 170 170
24.515625000000 8.937500000000 5.322998046875 169 169 169
24.515625000000 8.953125000000 5.360992431641 172 172 172
24.515625000000 8.945312500000 5.393997192383 169 169 169
24.515625000000 8.953125000000 5.429992675781 134 134 134
26.093750000000 13.929687500000 4.255996704102 15 15 15
26.125000000000 13.960937500000 4.300003051758 45 45 45
26.156250000000 13.960937500000 4.343002319336 34 34 34
25.843750000000 13.804687500000 4.876998901367 87 87 87
25.843750000000 13.796875000000 4.916992187500 122 122 122
25.843750000000 13.796875000000 4.960998535156 42 42 42
25.812500000000 13.789062500000 5.418991088867 82 82 82
25.812500000000 13.789062500000 5.462997436523 110 110 110
25.812500000000 13.789062500000 5.503997802734 89 89 89
26.203125000000 14.375000000000 3.830993652344 33 33 33
26.234375000000 14.367187500000 3.873992919922 126 126 126
26.234375000000 14.359375000000 3.917999267578 122 122 122
26.140625000000 14.312500000000 3.965988159180 84 84 84
26.109375000000 14.320312500000 4.009994506836 86 86 86
26.109375000000 14.312500000000 4.052993774414 116 116 116
26.046875000000 14.281250000000 4.097000122070 145 145 145
26.078125000000 14.281250000000 4.139999389648 151 151 151
26.078125000000 14.281250000000 4.182998657227 147 147 147
26.078125000000 14.296875000000 4.225997924805 168 168 168
26.046875000000 14.289062500000 4.267990112305 163 163 163
26.078125000000 14.281250000000 4.310989379883 197 197 197
26.078125000000 14.289062500000 4.353988647461 172 172 172
26.078125000000 14.296875000000 4.397003173828 164 164 164
26.078125000000 14.296875000000 4.440002441406 162 162 162
26.078125000000 14.289062500000 4.483001708984 165 165 165
26.078125000000 14.289062500000 4.526000976563 155 155 155
26.078125000000 14.281250000000 4.569000244141 153 153 153
26.078125000000 14.281250000000 4.610992431641 153 153 153
26.078125000000 14.296875000000 4.654998779297 155 155 155
26.078125000000 14.296875000000 4.697998046875 155 155 155
26.078125000000 14.296875000000 4.740997314453 153 153 153
26.078125000000 14.289062500000 4.783996582031 161 161 161
26.078125000000 14.296875000000 4.826995849609 162 162 162
26.078125000000 14.296875000000 4.871002197266 168 168 168
26.078125000000 14.296875000000 4.914001464844 168 168 168
26.078125000000 14.296875000000 4.957000732422 174 174 174
26.078125000000 14.296875000000 5.000991821289 169 169 169
26.078125000000 14.289062500000 5.042999267578 171 171 171
26.078125000000 14.289062500000 5.086990356445 186 186 186
26.078125000000 14.296875000000 5.130996704102 187 187 187
26.078125000000 14.289062500000 5.172988891602 184 184 184
26.078125000000 14.289062500000 5.216995239258 186 186 186
26.078125000000 14.281250000000 5.259994506836 184 184 184
26.078125000000 14.289062500000 5.304992675781 187 187 187
26.078125000000 14.281250000000 5.347000122070 183 183 183
26.078125000000 14.289062500000 5.392990112305 183 183 183
26.078125000000 14.289062500000 5.435989379883 176 176 176
26.078125000000 14.281250000000 5.477996826172 182 182 182
26.046875000000 14.289062500000 5.520996093750 187 187 187
26.015625000000 14.250000000000 5.554992675781 164 164 164
26.015625000000 14.265625000000 5.602996826172 154 154 154
26.015625000000 14.250000000000 5.642990112305 99 99 99
25.984375000000 14.242187500000 5.677993774414 118 118 118
25.984375000000 14.250000000000 5.725997924805 115 115 115
26.015625000000 14.250000000000 5.776000976563 99 99 99
25.921875000000 14.203125000000 5.796997070313 115 115 115
25.953125000000 14.226562500000 5.847991943359 114 114 114
25.984375000000 14.257812500000 5.906997680664 43 43 43
26.015625000000 14.617187500000 2.011993408203 170 170 170
25.953125000000 14.593750000000 2.073989868164 194 194 194
25.984375000000 14.601562500000 2.116989135742 159 159 159
26.359375000000 14.804687500000 4.779998779297 56 56 56
26.359375000000 14.796875000000 4.823989868164 95 95 95
26.359375000000 14.812500000000 4.869995117188 133 133 133
26.359375000000 14.812500000000 4.916000366211 112 112 112
26.359375000000 14.812500000000 4.959991455078 124 124 124
26.359375000000 14.804687500000 5.003997802734 61 61 61
26.359375000000 14.812500000000 5.416000366211 56 56 56
26.390625000000 14.820312500000 5.462997436523 141 141 141
26.390625000000 14.828125000000 5.509994506836 94 94 94
26.359375000000 14.812500000000 5.552993774414 69 69 69
24.468750000000 8.179687500000 5.399993896484 136 136 136
24.468750000000 8.195312500000 5.363998413086 172 172 172
24.468750000000 8.179687500000 5.330001831055 173 173 173
24.468750000000 8.195312500000 5.293991088867 176 176 176
24.468750000000 8.195312500000 5.261001586914 192 192 192
24.468750000000 8.195312500000 5.226989746094 185 185 185
24.437500000000 8.195312500000 5.190002441406 175 175 175
24.437500000000 8.195312500000 5.155990600586 136 136 136
24.468750000000 8.203125000000 4.985992431641 177 177 177
24.437500000000 8.210937500000 4.950988769531 182 182 182
24.468750000000 8.203125000000 4.918991088867 186 186 186
24.468750000000 8.203125000000 4.884994506836 184 184 184
24.468750000000 8.203125000000 4.850997924805 181 181 181
24.437500000000 8.210937500000 4.817001342773 183 183 183
24.437500000000 8.210937500000 4.783996582031 179 179 179
24.406250000000 8.609375000000 5.493988037109 101 101 101
24.437500000000 8.570312500000 5.472991943359 151 151 151
24.468750000000 8.562500000000 5.440994262695 162 162 162
24.437500000000 8.570312500000 5.406997680664 164 164 164
24.437500000000 8.570312500000 5.371994018555 163 163 163
24.468750000000 8.585937500000 5.336990356445 163 163 163
24.468750000000 8.585937500000 5.304000854492 166 166 166
24.468750000000 8.570312500000 5.270996093750 166 166 166
24.468750000000 8.570312500000 5.235992431641 167 167 167
24.468750000000 8.585937500000 5.200988769531 171 171 171
24.468750000000 8.570312500000 5.167999267578 173 173 173
24.468750000000 8.570312500000 5.134002685547 174 174 174
24.468750000000 8.570312500000 5.099990844727 174 174 174
24.468750000000 8.578125000000 5.067001342773 180 180 180
24.468750000000 8.585937500000 5.031997680664 179 179 179
24.468750000000 8.578125000000 5.000000000000 183 183 183
24.468750000000 8.593750000000 4.964996337891 182 182 182
24.468750000000 8.578125000000 4.932998657227 184 184 184
24.468750000000 8.578125000000 4.899002075195 184 184 184
24.468750000000 8.593750000000 4.863998413086 188 188 188
24.468750000000 8.578125000000 4.830993652344 190 190 190
24.468750000000 8.593750000000 4.796997070313 191 191 191
24.468750000000 8.593750000000 4.763000488281 189 189 189
24.468750000000 8.593750000000 4.729995727539 194 194 194
24.468750000000 8.593750000000 4.696990966797 193 193 193
24.468750000000 8.593750000000 4.662994384766 193 193 193
24.468750000000 8.578125000000 4.630996704102 190 190 190
24.468750000000 8.593750000000 4.597000122070 186 186 186
24.468750000000 8.593750000000 4.563995361328 186 186 186
24.468750000000 8.593750000000 4.529998779297 182 182 182
24.468750000000 8.593750000000 4.496994018555 181 181 181
24.468750000000 8.593750000000 4.463989257813 181 181 181
24.468750000000 8.593750000000 4.430999755859 182 182 182
24.468750000000 8.593750000000 4.397994995117 181 181 181
24.468750000000 8.593750000000 4.364990234375 181 181 181
24.468750000000 8.578125000000 4.332000732422 194 194 194
24.468750000000 8.593750000000 4.298995971680 180 180 180
24.468750000000 8.593750000000 4.265991210938 179 179 179
24.468750000000 8.593750000000 4.233001708984 178 178 178
24.437500000000 8.593750000000 4.198989868164 182 182 182
24.437500000000 8.593750000000 4.166992187500 189 189 189
24.437500000000 8.593750000000 4.132995605469 206 206 206
24.437500000000 8.593750000000 4.099990844727 193 193 193
24.468750000000 8.593750000000 4.067001342773 176 176 176
24.437500000000 8.593750000000 4.034988403320 172 172 172
24.437500000000 8.609375000000 4.001998901367 167 167 167
24.468750000000 8.585937500000 3.966995239258 177 177 177
24.468750000000 8.585937500000 3.933990478516 170 170 170
24.468750000000 8.601562500000 3.901000976563 155 155 155
24.468750000000 8.601562500000 3.867996215820 149 149 149
24.468750000000 8.601562500000 3.834991455078 148 148 148
24.468750000000 8.601562500000 3.800994873047 140 140 140
24.468750000000 8.609375000000 3.768997192383 127 127 127
24.468750000000 8.609375000000 3.735000610352 112 112 112
24.500000000000 8.585937500000 3.698989868164 120 120 120
24.468750000000 8.609375000000 3.669998168945 55 55 55
24.437500000000 8.609375000000 3.638000488281 20 20 20
24.515625000000 8.921875000000 5.436996459961 18 18 18
24.484375000000 8.921875000000 5.399002075195 182 182 182
24.484375000000 8.921875000000 5.364990234375 180 180 180
24.484375000000 8.921875000000 5.330001831055 181 181 181
24.484375000000 8.929687500000 5.296997070313 184 184 184
24.484375000000 8.921875000000 5.261001586914 179 179 179
24.484375000000 8.929687500000 5.226989746094 180 180 180
24.484375000000 8.937500000000 5.190994262695 162 162 162
24.484375000000 8.929687500000 4.953994750977 148 148 148
24.484375000000 8.945312500000 4.918991088867 171 171 171
24.484375000000 8.945312500000 4.884994506836 172 172 172
24.484375000000 8.945312500000 4.851989746094 172 172 172
24.484375000000 8.945312500000 4.817993164063 173 173 173
24.484375000000 8.945312500000 4.784988403320 173 173 173
24.484375000000 8.945312500000 4.750991821289 176 176 176
24.484375000000 8.945312500000 4.716995239258 145 145 145
24.640625000000 8.867187500000 4.284988403320 64 64 64
24.609375000000 8.882812500000 4.250991821289 91 91 91
24.609375000000 8.882812500000 4.216995239258 95 95 95
24.609375000000 8.890625000000 4.182998657227 98 98 98
24.609375000000 8.882812500000 4.149002075195 93 93 93
24.609375000000 8.890625000000 4.114990234375 85 85 85
24.609375000000 8.898437500000 4.080993652344 36 36 36
25.812500000000 13.828125000000 5.562988281250 186 186 186
25.812500000000 13.835937500000 5.517990112305 227 227 227
25.812500000000 13.828125000000 5.476989746094 233 233 233
25.812500000000 13.835937500000 5.433990478516 231 231 231
25.812500000000 13.828125000000 5.393997192383 123 123 123
25.812500000000 13.828125000000 4.966995239258 236 236 236
25.812500000000 13.835937500000 4.923995971680 217 217 217
25.812500000000 13.835937500000 4.882995605469 229 229 229
25.812500000000 13.828125000000 4.839996337891 234 234 234
25.812500000000 13.835937500000 4.798995971680 161 161 161
25.953125000000 14.101562500000 5.440994262695 224 224 224
25.953125000000 14.109375000000 5.397003173828 235 235 235
25.953125000000 14.109375000000 5.352996826172 235 235 235
25.953125000000 14.109375000000 5.309997558594 202 202 202
25.953125000000 14.109375000000 5.265991210938 221 221 221
25.953125000000 14.109375000000 5.222991943359 209 209 209
25.984375000000 14.085937500000 5.184997558594 107 107 107
25.953125000000 14.109375000000 5.136993408203 239 239 239
25.953125000000 14.109375000000 5.093994140625 205 205 205
25.953125000000 14.117187500000 5.050003051758 241 241 241
25.953125000000 14.117187500000 5.006988525391 199 199 199
25.953125000000 14.109375000000 4.963989257813 243 243 243
25.953125000000 14.117187500000 4.919998168945 175 175 175
26.109375000000 14.031250000000 4.451995849609 72 72 72
26.109375000000 14.031250000000 4.407989501953 82 82 82
26.109375000000 14.031250000000 4.364990234375 85 85 85
26.109375000000 14.031250000000 4.320999145508 80 80 80
26.109375000000 14.031250000000 4.276992797852 83 83 83
26.109375000000 14.031250000000 4.233001708984 83 83 83
26.078125000000 14.046875000000 4.190002441406 88 88 88
26.109375000000 14.031250000000 4.145996093750 91 91 91
26.109375000000 14.031250000000 4.101989746094 86 86 86
26.078125000000 14.046875000000 4.058990478516 74 74 74
26.078125000000 14.054687500000 4.014999389648 19 19 19
25.953125000000 14.476562500000 5.873001098633 74 74 74
25.890625000000 14.515625000000 5.813995361328 105 105 105
26.046875000000 14.421875000000 5.805999755859 107 107 107
26.015625000000 14.453125000000 5.746002197266 103 103 103
25.984375000000 14.476562500000 5.696990966797 112 112 112
26.015625000000 14.445312500000 5.660995483398 82 82 82
26.078125000000 14.398437500000 5.631988525391 53 53 53
26.109375000000 14.390625000000 5.367996215820 190 190 190
26.109375000000 14.390625000000 5.322998046875 242 242 242
26.109375000000 14.390625000000 5.277999877930 245 245 245
26.109375000000 14.406250000000 5.231994628906 240 240 240
26.109375000000 14.390625000000 5.187988281250 242 242 242
26.109375000000 14.406250000000 5.142990112305 242 242 242
26.109375000000 14.406250000000 5.097991943359 245 245 245
26.109375000000 14.406250000000 5.054000854492 239 239 239
26.109375000000 14.406250000000 5.009994506836 65 65 65
26.234375000000 14.328125000000 4.486999511719 71 71 71
26.234375000000 14.328125000000 4.442001342773 94 94 94
26.234375000000 14.343750000000 4.397003173828 98 98 98
26.234375000000 14.343750000000 4.352996826172 99 99 99
26.109375000000 14.414062500000 4.306991577148 148 148 148
26.109375000000 14.414062500000 4.263000488281 188 188 188
26.109375000000 14.414062500000 4.218994140625 170 170 170
26.109375000000 14.414062500000 4.175003051758 174 174 174
26.109375000000 14.429687500000 4.131988525391 190 190 190
26.109375000000 14.421875000000 4.087997436523 143 143 143
26.203125000000 14.351562500000 4.041000366211 77 77 77
26.203125000000 14.367187500000 3.996994018555 83 83 83
26.234375000000 14.351562500000 3.950988769531 123 123 123
26.203125000000 14.351562500000 3.906997680664 73 73 73
26.234375000000 14.359375000000 3.862991333008 107 107 107
26.234375000000 14.359375000000 3.817993164063 106 106 106
26.296875000000 14.671875000000 5.565002441406 205 205 205
26.265625000000 14.687500000000 5.516998291016 240 240 240
26.265625000000 14.687500000000 5.472000122070 240 240 240
26.265625000000 14.687500000000 5.425994873047 231 231 231
26.265625000000 14.687500000000 5.379989624023 238 238 238
26.265625000000 14.687500000000 5.333999633789 230 230 230
26.296875000000 14.671875000000 5.106994628906 45 45 45
26.265625000000 14.695312500000 5.058990478516 240 240 240
26.265625000000 14.695312500000 5.013992309570 210 210 210
26.265625000000 14.695312500000 4.968994140625 245 245 245
26.265625000000 14.687500000000 4.923995971680 252 252 252
26.265625000000 14.687500000000 4.879989624023 251 251 251
26.265625000000 14.695312500000 4.833999633789 171 171 171
24.468750000000 8.187500000000 5.406997680664 92 92 92
24.468750000000 8.179687500000 5.378997802734 214 214 214
24.468750000000 8.179687500000 5.349990844727 223 223 223
24.468750000000 8.179687500000 5.319992065430 231 231 231
24.468750000000 8.179687500000 5.285995483398 225 225 225
24.468750000000 8.179687500000 5.255996704102 222 222 222
24.468750000000 8.179687500000 5.225997924805 228 228 228
24.468750000000 8.179687500000 5.194000244141 229 229 229
24.468750000000 8.195312500000 5.162002563477 204 204 204
24.468750000000 8.187500000000 4.979995727539 224 224 224
24.468750000000 8.187500000000 4.950988769531 238 238 238
24.468750000000 8.195312500000 4.922988891602 243 243 243
24.468750000000 8.187500000000 4.890991210938 233 233 233
24.468750000000 8.195312500000 4.861999511719 239 239 239
24.468750000000 8.195312500000 4.832000732422 249 249 249
24.437500000000 8.187500000000 4.800994873047 245 245 245
24.468750000000 8.195312500000 4.772994995117 252 252 252
24.468750000000 8.195312500000 4.746002197266 119 119 119
24.593750000000 8.195312500000 4.289993286133 87 87 87
24.593750000000 8.195312500000 4.261001586914 101 101 101
24.593750000000 8.195312500000 4.231002807617 91 91 91
24.593750000000 8.195312500000 4.200988769531 96 96 96
24.593750000000 8.195312500000 4.171997070313 96 96 96
24.593750000000 8.195312500000 4.142990112305 96 96 96
24.593750000000 8.195312500000 4.111999511719 97 97 97
24.593750000000 8.203125000000 4.082992553711 93 93 93
24.593750000000 8.203125000000 4.054000854492 77 77 77
24.343750000000 8.539062500000 5.507995605469 78 78 78
24.343750000000 8.546875000000 5.476989746094 179 179 179
24.343750000000 8.546875000000 5.446990966797 177 177 177
24.343750000000 8.554687500000 5.414001464844 175 175 175
24.343750000000 8.546875000000 5.388000488281 177 177 177
24.343750000000 8.554687500000 5.353988647461 175 175 175
24.343750000000 8.554687500000 5.323989868164 176 176 176
24.343750000000 8.554687500000 5.292999267578 179 179 179
24.343750000000 8.562500000000 5.264999389648 179 179 179
24.343750000000 8.562500000000 5.235992431641 181 181 181
24.343750000000 8.562500000000 5.203994750977 176 176 176
24.343750000000 8.554687500000 5.173995971680 179 179 179
24.343750000000 8.562500000000 5.144989013672 180 180 180
24.343750000000 8.562500000000 5.115997314453 178 178 178
24.343750000000 8.554687500000 5.084991455078 179 179 179
24.343750000000 8.562500000000 5.055999755859 181 181 181
24.343750000000 8.554687500000 5.026992797852 181 181 181
24.343750000000 8.562500000000 4.998001098633 182 182 182
24.343750000000 8.562500000000 4.970001220703 180 180 180
24.343750000000 8.562500000000 4.940002441406 182 182 182
24.343750000000 8.562500000000 4.910995483398 182 182 182
24.343750000000 8.562500000000 4.881988525391 181 181 181
24.343750000000 8.562500000000 4.852996826172 183 183 183
24.343750000000 8.562500000000 4.823989868164 180 180 180
24.343750000000 8.562500000000 4.795989990234 182 182 182
24.312500000000 8.562500000000 4.765991210938 184 184 184
24.343750000000 8.570312500000 4.737991333008 180 180 180
24.343750000000 8.562500000000 4.709991455078 183 183 183
24.343750000000 8.562500000000 4.680999755859 181 181 181
24.343750000000 8.570312500000 4.652999877930 181 181 181
24.343750000000 8.570312500000 4.623992919922 183 183 183
24.312500000000 8.562500000000 4.595001220703 185 185 185
24.343750000000 8.570312500000 4.567993164063 184 184 184
24.343750000000 8.570312500000 4.539001464844 183 183 183
24.343750000000 8.570312500000 4.511993408203 179 179 179
24.343750000000 8.570312500000 4.483001708984 181 181 181
24.343750000000 8.570312500000 4.455001831055 178 178 178
24.343750000000 8.570312500000 4.427001953125 181 181 181
24.343750000000 8.570312500000 4.399002075195 178 178 178
24.343750000000 8.570312500000 4.369995117188 180 180 180
24.343750000000 8.570312500000 4.343002319336 181 181 181
24.343750000000 8.570312500000 4.313995361328 177 177 177
24.343750000000 8.570312500000 4.287002563477 179 179 179
24.343750000000 8.570312500000 4.257995605469 179 179 179
24.343750000000 8.570312500000 4.231002807617 176 176 176
24.343750000000 8.578125000000 4.203002929688 179 179 179
24.343750000000 8.570312500000 4.175003051758 180 180 180
24.312500000000 8.585937500000 4.147003173828 179 179 179
24.312500000000 8.578125000000 4.118988037109 180 180 180
24.343750000000 8.570312500000 4.091995239258 178 178 178
24.343750000000 8.578125000000 4.063995361328 182 182 182
24.343750000000 8.578125000000 4.035995483398 179 179 179
24.343750000000 8.578125000000 4.007995605469 178 178 178
24.343750000000 8.578125000000 3.979995727539 182 182 182
24.312500000000 8.585937500000 3.953002929688 177 177 177
24.343750000000 8.578125000000 3.925003051758 181 181 181
24.312500000000 8.585937500000 3.897003173828 191 191 191
24.312500000000 8.585937500000 3.868988037109 180 180 180
24.312500000000 8.593750000000 3.840988159180 175 175 175
24.312500000000 8.585937500000 3.813995361328 169 169 169
24.312500000000 8.585937500000 3.785995483398 165 165 165
24.312500000000 8.593750000000 3.757995605469 168 168 168
24.312500000000 8.585937500000 3.731002807617 165 165 165
24.312500000000 8.593750000000 3.701995849609 164 164 164
24.312500000000 8.593750000000 3.673995971680 158 158 158
24.312500000000 8.593750000000 3.647003173828 158 158 158
24.312500000000 8.593750000000 3.618988037109 160 160 160
24.312500000000 8.593750000000 3.590988159180 156 156 156
24.312500000000 8.593750000000 3.562988281250 154 154 154
24.343750000000 8.585937500000 3.532989501953 158 158 158
24.312500000000 8.593750000000 3.506988525391 150 150 150
24.312500000000 8.593750000000 3.478988647461 148 148 148
24.312500000000 8.593750000000 3.450988769531 146 146 146
24.312500000000 8.593750000000 3.422988891602 151 151 151
24.312500000000 8.593750000000 3.393997192383 151 151 151
24.312500000000 8.593750000000 3.364990234375 147 147 147
24.312500000000 8.593750000000 3.336990356445 144 144 144
24.343750000000 8.601562500000 3.307998657227 143 143 143
24.343750000000 8.601562500000 3.278991699219 149 149 149
24.312500000000 8.593750000000 3.251998901367 146 146 146
24.312500000000 8.593750000000 3.223999023438 148 148 148
24.312500000000 8.593750000000 3.194992065430 145 145 145
24.343750000000 8.601562500000 3.164993286133 142 142 142
24.312500000000 8.593750000000 3.138000488281 140 140 140
24.343750000000 8.601562500000 3.108001708984 139 139 139
24.312500000000 8.593750000000 3.080993652344 144 144 144
24.343750000000 8.609375000000 3.050003051758 135 135 135
24.343750000000 8.601562500000 3.022003173828 137 137 137
24.312500000000 8.601562500000 2.996002197266 131 131 131
24.312500000000 8.601562500000 2.966995239258 134 134 134
24.343750000000 8.601562500000 2.935989379883 131 131 131
24.343750000000 8.601562500000 2.906997680664 127 127 127
24.312500000000 8.601562500000 2.880996704102 124 124 124
24.312500000000 8.601562500000 2.849990844727 126 126 126
24.343750000000 8.601562500000 2.817993164063 117 117 117
24.312500000000 8.601562500000 2.792999267578 117 117 117
24.312500000000 8.601562500000 2.763000488281 109 109 109
24.312500000000 8.601562500000 2.733001708984 107 107 107
24.312500000000 8.601562500000 2.494995117188 110 110 110
24.343750000000 8.617187500000 2.457992553711 111 111 111
24.312500000000 8.609375000000 2.430999755859 107 107 107
24.343750000000 8.617187500000 2.397003173828 108 108 108
24.312500000000 8.601562500000 2.371002197266 106 106 106
24.375000000000 8.609375000000 2.319000244141 205 205 205
24.343750000000 8.617187500000 2.304992675781 111 111 111
24.343750000000 8.617187500000 2.270996093750 107 107 107
24.312500000000 8.609375000000 2.244995117188 107 107 107
24.343750000000 8.617187500000 2.208999633789 104 104 104
24.343750000000 8.617187500000 2.177001953125 106 106 106
24.343750000000 8.617187500000 2.147994995117 105 105 105
24.406250000000 8.609375000000 2.093002319336 181 181 181
24.484375000000 8.929687500000 5.422988891602 111 111 111
24.484375000000 8.921875000000 5.390991210938 217 217 217
24.484375000000 8.929687500000 5.360000610352 221 221 221
24.484375000000 8.921875000000 5.328002929688 218 218 218
24.484375000000 8.929687500000 5.298995971680 221 221 221
24.484375000000 8.929687500000 5.267990112305 223 223 223
24.484375000000 8.921875000000 5.235000610352 223 223 223
24.484375000000 8.921875000000 5.203994750977 224 224 224
24.484375000000 8.921875000000 5.172988891602 133 133 133
24.484375000000 8.937500000000 4.961990356445 168 168 168
24.484375000000 8.945312500000 4.932998657227 229 229 229
24.515625000000 8.937500000000 4.904998779297 241 241 241
24.484375000000 8.929687500000 4.875000000000 241 241 241
24.484375000000 8.929687500000 4.843994140625 242 242 242
24.515625000000 8.937500000000 4.815994262695 0 0 0
24.515625000000 8.937500000000 4.784988403320 249 249 249
24.484375000000 8.945312500000 4.754989624023 244 244 244
24.484375000000 8.945312500000 4.724990844727 222 222 222
25.812500000000 13.796875000000 5.539993286133 88 88 88
25.812500000000 13.796875000000 5.504989624023 170 170 170
25.781250000000 13.812500000000 5.462997436523 180 180 180
25.812500000000 13.796875000000 5.425994873047 173 173 173
25.812500000000 13.812500000000 4.942001342773 172 172 172
25.812500000000 13.820312500000 4.905990600586 199 199 199
25.812500000000 13.820312500000 4.868988037109 179 179 179
25.812500000000 13.804687500000 4.832992553711 120 120 120
26.015625000000 14.171875000000 5.813995361328 77 77 77
26.109375000000 14.164062500000 5.800994873047 97 97 97
26.171875000000 14.164062500000 5.774993896484 24 24 24
25.984375000000 14.179687500000 5.412002563477 132 132 132
25.984375000000 14.179687500000 5.373001098633 183 183 183
25.984375000000 14.179687500000 5.335998535156 176 176 176
25.984375000000 14.187500000000 5.294998168945 181 181 181
26.015625000000 14.179687500000 5.257995605469 181 181 181
25.984375000000 14.187500000000 5.218002319336 179 179 179
26.015625000000 14.179687500000 5.181991577148 179 179 179
26.015625000000 14.187500000000 5.144989013672 206 206 206
26.015625000000 14.179687500000 5.106002807617 185 185 185
26.015625000000 14.179687500000 5.067001342773 183 183 183
25.984375000000 14.187500000000 5.026992797852 188 188 188
26.015625000000 14.187500000000 4.990997314453 151 151 151
26.203125000000 14.187500000000 4.477996826172 85 85 85
26.203125000000 14.179687500000 4.438995361328 82 82 82
26.203125000000 14.179687500000 4.401000976563 88 88 88
26.203125000000 14.179687500000 4.361999511719 87 87 87
26.140625000000 14.187500000000 4.321990966797 84 84 84
26.140625000000 14.187500000000 4.283996582031 86 86 86
26.140625000000 14.187500000000 4.246002197266 85 85 85
26.171875000000 14.187500000000 4.208999633789 83 83 83
26.140625000000 14.195312500000 4.169998168945 83 83 83
26.140625000000 14.187500000000 4.131988525391 130 130 130
26.140625000000 14.187500000000 4.093994140625 88 88 88
26.140625000000 14.195312500000 4.055999755859 89 89 89
26.140625000000 14.195312500000 4.017990112305 78 78 78
26.140625000000 14.195312500000 3.979995727539 73 73 73
26.140625000000 14.187500000000 3.942001342773 73 73 73
26.171875000000 14.187500000000 3.903991699219 84 84 84
26.140625000000 14.195312500000 3.865997314453 74 74 74
26.140625000000 14.187500000000 3.828002929688 64 64 64
26.015625000000 14.539062500000 5.819000244141 62 62 62
26.109375000000 14.539062500000 5.809997558594 90 90 90
26.203125000000 14.539062500000 5.468002319336 122 122 122
26.203125000000 14.539062500000 5.427993774414 166 166 166
26.203125000000 14.539062500000 5.388992309570 169 169 169
26.203125000000 14.539062500000 5.348999023438 166 166 166
26.203125000000 14.546875000000 5.309997558594 173 173 173
26.203125000000 14.539062500000 5.268997192383 170 170 170
26.203125000000 14.539062500000 5.228988647461 114 114 114
26.171875000000 14.539062500000 5.185989379883 101 101 101
26.203125000000 14.546875000000 5.149002075195 179 179 179
26.203125000000 14.546875000000 5.108993530273 177 177 177
26.203125000000 14.546875000000 5.070999145508 178 178 178
26.203125000000 14.546875000000 5.030990600586 175 175 175
26.203125000000 14.546875000000 4.991989135742 175 175 175
26.203125000000 14.546875000000 4.951995849609 165 165 165
26.390625000000 14.546875000000 4.422988891602 78 78 78
26.390625000000 14.546875000000 4.382995605469 90 90 90
26.359375000000 14.562500000000 4.343002319336 88 88 88
26.359375000000 14.562500000000 4.304000854492 92 92 92
26.359375000000 14.562500000000 4.263992309570 90 90 90
26.359375000000 14.562500000000 4.224990844727 92 92 92
26.359375000000 14.562500000000 4.185989379883 95 95 95
26.359375000000 14.554687500000 4.147003173828 69 69 69
26.015625000000 14.601562500000 2.018997192383 192 192 192
25.984375000000 14.593750000000 2.069992065430 196 196 196
25.953125000000 14.578125000000 2.128997802734 112 112 112
26.359375000000 14.757812500000 4.785995483398 37 37 37
26.328125000000 14.718750000000 4.826995849609 126 126 126
26.328125000000 14.734375000000 4.873992919922 110 110 110
26.328125000000 14.726562500000 4.917999267578 129 129 129
26.328125000000 14.734375000000 4.962997436523 111 111 111
26.328125000000 14.726562500000 5.006988525391 128 128 128
26.296875000000 14.718750000000 5.050994873047 17 17 17
26.390625000000 14.757812500000 5.378997802734 193 193 193
26.359375000000 14.726562500000 5.417999267578 180 180 180
26.359375000000 14.734375000000 5.464996337891 156 156 156
26.359375000000 14.726562500000 5.509002685547 108 108 108
26.328125000000 14.718750000000 5.552993774414 112 112 112
26.359375000000 14.734375000000 5.602996826172 47 47 47
26.015625000000 14.531250000000 5.793991088867 77 77 77
26.234375000000 14.351562500000 3.826995849609 104 104 104
26.265625000000 14.359375000000 3.868988037109 124 124 124
26.265625000000 14.351562500000 3.912994384766 135 135 135
26.203125000000 14.328125000000 3.959991455078 33 33 33
26.234375000000 14.335937500000 4.002990722656 58 58 58
26.265625000000 14.351562500000 4.045989990234 32 32 32
26.078125000000 14.257812500000 4.093002319336 136 136 136
26.078125000000 14.257812500000 4.136001586914 129 129 129
26.046875000000 14.250000000000 4.179000854492 134 134 134
26.046875000000 14.250000000000 4.222000122070 129 129 129
26.078125000000 14.257812500000 4.264999389648 127 127 127
26.265625000000 14.359375000000 4.310989379883 91 91 91
26.265625000000 14.367187500000 4.354995727539 80 80 80
26.296875000000 14.359375000000 4.399993896484 86 86 86
26.296875000000 14.375000000000 4.444992065430 81 81 81
26.046875000000 14.226562500000 4.993988037109 17 17 17
26.046875000000 14.226562500000 5.037994384766 139 139 139
26.078125000000 14.242187500000 5.082992553711 147 147 147
26.046875000000 14.226562500000 5.123992919922 134 134 134
26.046875000000 14.226562500000 5.166992187500 144 144 144
26.046875000000 14.226562500000 5.210998535156 144 144 144
26.046875000000 14.226562500000 5.253997802734 144 144 144
26.046875000000 14.234375000000 5.300003051758 136 136 136
26.046875000000 14.226562500000 5.341995239258 144 144 144
26.046875000000 14.210937500000 5.647003173828 78 78 78
26.015625000000 14.195312500000 5.685989379883 99 99 99
26.203125000000 14.312500000000 5.779998779297 125 125 125
26.171875000000 14.281250000000 5.817001342773 125 125 125
25.953125000000 14.156250000000 5.804992675781 101 101 101
26.046875000000 14.210937500000 5.871002197266 16 16 16
26.187500000000 13.960937500000 4.284988403320 18 18 18
26.218750000000 13.968750000000 4.328994750977 15 15 15
24.515625000000 9.156250000000 4.789993286133 141 141 141
24.515625000000 9.156250000000 4.822998046875 100 100 100
24.515625000000 9.148437500000 5.296997070313 112 112 112
24.515625000000 9.140625000000 5.330001831055 137 137 137
24.546875000000 9.156250000000 5.368988037109 36 36 36
24.609375000000 8.867187500000 4.041992187500 44 44 44
24.609375000000 8.875000000000 4.075988769531 89 89 89
24.609375000000 8.875000000000 4.108993530273 99 99 99
24.609375000000 8.882812500000 4.142990112305 101 101 101
24.609375000000 8.890625000000 4.177001953125 103 103 103
24.609375000000 8.875000000000 4.209991455078 100 100 100
24.609375000000 8.875000000000 4.243988037109 84 84 84
24.609375000000 8.875000000000 4.277999877930 27 27 27
24.484375000000 8.796875000000 4.802993774414 179 179 179
24.484375000000 8.796875000000 4.836990356445 183 183 183
24.515625000000 8.789062500000 4.871002197266 177 177 177
24.484375000000 8.781250000000 4.902999877930 185 185 185
24.515625000000 8.789062500000 4.937988281250 184 184 184
24.484375000000 8.781250000000 4.970001220703 181 181 181
24.484375000000 8.781250000000 5.003997802734 184 184 184
24.484375000000 8.789062500000 5.033996582031 33 33 33
24.484375000000 8.781250000000 5.103988647461 163 163 163
24.484375000000 8.781250000000 5.138992309570 175 175 175
24.484375000000 8.781250000000 5.172988891602 173 173 173
24.484375000000 8.781250000000 5.207000732422 173 173 173
24.484375000000 8.781250000000 5.239990234375 175 175 175
24.484375000000 8.781250000000 5.272003173828 173 173 173
24.484375000000 8.781250000000 5.307998657227 167 167 167
24.593750000000 8.500000000000 3.656997680664 33 33 33
24.593750000000 8.507812500000 3.690002441406 74 74 74
24.593750000000 8.500000000000 3.722991943359 63 63 63
24.593750000000 8.507812500000 3.756988525391 70 70 70
24.562500000000 8.500000000000 3.791992187500 80 80 80
24.625000000000 8.515625000000 3.822998046875 79 79 79
24.625000000000 8.515625000000 3.856002807617 87 87 87
24.593750000000 8.507812500000 3.889999389648 107 107 107
24.562500000000 8.492187500000 3.925994873047 153 153 153
24.531250000000 8.468750000000 3.960998535156 180 180 180
24.468750000000 8.437500000000 3.996002197266 165 165 165
24.468750000000 8.445312500000 4.027999877930 176 176 176
24.468750000000 8.437500000000 4.060989379883 168 168 168
24.468750000000 8.437500000000 4.093994140625 183 183 183
24.500000000000 8.453125000000 4.126998901367 165 165 165
24.468750000000 8.429687500000 4.159988403320 169 169 169
24.625000000000 8.515625000000 4.192993164063 91 91 91
24.625000000000 8.515625000000 4.226989746094 88 88 88
24.625000000000 8.515625000000 4.259994506836 101 101 101
24.625000000000 8.507812500000 4.293991088867 155 155 155
24.625000000000 8.523437500000 4.328002929688 155 155 155
24.625000000000 8.531250000000 4.361999511719 89 89 89
24.500000000000 8.421875000000 4.882995605469 137 137 137
24.500000000000 8.421875000000 4.916992187500 173 173 173
24.500000000000 8.421875000000 4.949996948242 176 176 176
24.500000000000 8.421875000000 4.983001708984 174 174 174
24.500000000000 8.421875000000 5.015991210938 176 176 176
24.500000000000 8.421875000000 5.050003051758 176 176 176
24.500000000000 8.421875000000 5.085998535156 173 173 173
24.500000000000 8.429687500000 5.119995117188 185 185 185
24.500000000000 8.429687500000 5.153991699219 186 186 186
24.500000000000 8.429687500000 5.187988281250 186 186 186
24.500000000000 8.429687500000 5.222000122070 177 177 177
24.593750000000 8.148437500000 4.106994628906 58 58 58
24.625000000000 8.156250000000 4.139999389648 77 77 77
24.625000000000 8.156250000000 4.173995971680 86 86 86
24.625000000000 8.164062500000 4.207992553711 82 82 82
24.625000000000 8.171875000000 4.241989135742 67 67 67
24.437500000000 8.062500000000 4.664001464844 78 78 78
24.437500000000 8.054687500000 4.695999145508 178 178 178
24.437500000000 8.054687500000 4.728988647461 216 216 216
24.437500000000 8.062500000000 4.761993408203 211 211 211
24.468750000000 8.062500000000 4.796997070313 178 178 178
24.468750000000 8.062500000000 4.828994750977 178 178 178
24.468750000000 8.062500000000 4.861999511719 172 172 172
24.468750000000 8.062500000000 4.894989013672 167 167 167
24.468750000000 8.078125000000 5.199996948242 131 131 131
24.468750000000 8.062500000000 5.231994628906 189 189 189
24.468750000000 8.078125000000 5.268997192383 178 178 178
24.468750000000 8.070312500000 5.300994873047 183 183 183
24.468750000000 8.070312500000 5.334991455078 182 182 182
