8.093750000000 4.875000000000 8.131999969482 119 119 119
8.093750000000 4.875000000000 8.240999221802 127 127 127
8.093750000000 4.875000000000 8.343000411987 128 128 128
8.156250000000 4.875000000000 8.409999847412 133 133 133
8.281250000000 5.000000000000 8.399000167847 114 114 114
8.093750000000 4.875000000000 8.667999267578 129 129 129
8.093750000000 4.875000000000 8.781000137329 121 121 121
8.156250000000 4.875000000000 8.878000259399 124 124 124
8.218750000000 4.937500000000 8.890998840332 93 93 93
8.250000000000 4.937500000000 8.982000350952 34 34 34
8.250000000000 5.062500000000 6.701000213623 99 99 99
8.218750000000 5.125000000000 8.360000610352 103 103 103
8.218750000000 5.250000000000 6.708999633789 123 123 123
8.250000000000 5.312500000000 6.715000152588 135 135 135
8.250000000000 5.437500000000 6.718999862671 145 145 145
8.218750000000 5.500000000000 8.157999038696 23 23 23
8.281250000000 5.625000000000 6.729000091553 117 117 117
8.218750000000 5.625000000000 8.067998886108 21 21 21
8.218750000000 5.750000000000 6.732999801636 110 110 110
8.218750000000 5.750000000000 7.962999343872 55 55 55
8.250000000000 5.937500000000 6.733999252319 71 71 71
8.187500000000 5.875000000000 7.871000289917 69 69 69
8.281250000000 6.000000000000 6.744998931885 33 33 33
8.218750000000 5.937500000000 7.774000167847 68 68 68
8.218750000000 6.125000000000 6.683000564575 30 30 30
8.218750000000 6.125000000000 7.685998916626 57 57 57
8.218750000000 6.250000000000 6.684999465942 74 74 74
8.218750000000 6.375000000000 6.687999725342 122 122 122
8.218750000000 6.562500000000 6.687999725342 132 132 132
8.218750000000 6.687500000000 6.697999954224 140 140 140
8.187500000000 6.687500000000 7.243000030518 39 39 39
8.218750000000 6.750000000000 6.701000213623 128 128 128
8.187500000000 6.812500000000 7.156000137329 53 53 53
8.218750000000 6.937500000000 6.718000411987 119 119 119
8.187500000000 6.937500000000 7.083999633789 70 70 70
8.218750000000 7.062500000000 6.718000411987 131 131 131
8.187500000000 7.062500000000 6.993999481201 82 82 82
8.218750000000 7.250000000000 6.722000122070 123 123 123
8.187500000000 7.250000000000 6.900999069214 62 62 62
8.218750000000 7.375000000000 6.725999832153 96 96 96
8.156250000000 7.437500000000 6.423000335693 40 40 40
8.156250000000 7.437500000000 6.508998870850 52 52 52
8.156250000000 7.437500000000 6.590999603271 72 72 72
8.156250000000 7.437500000000 6.673999786377 95 95 95
8.218750000000 7.500000000000 6.735000610352 52 52 52
8.156250000000 7.562500000000 6.676000595093 79 79 79
8.156250000000 7.562500000000 6.737998962402 21 21 21
8.156250000000 7.750000000000 6.673999786377 119 119 119
8.156250000000 7.875000000000 6.680000305176 133 133 133
8.156250000000 8.000000000000 6.683000564575 154 154 154
8.156250000000 8.187500000000 6.199998855591 57 57 57
8.156250000000 8.187500000000 6.690000534058 168 168 168
8.156250000000 8.250000000000 6.204000473022 77 77 77
8.156250000000 8.250000000000 6.697000503540 162 162 162
8.156250000000 8.437500000000 6.211000442505 103 103 103
8.156250000000 8.375000000000 6.288000106812 61 61 61
8.125000000000 8.375000000000 6.381999969482 38 38 38
8.156250000000 8.375000000000 6.698999404907 148 148 148
8.156250000000 8.562500000000 6.211000442505 90 90 90
8.156250000000 8.562500000000 6.709999084473 152 152 152
8.125000000000 8.625000000000 6.222000122070 112 112 112
8.156250000000 8.687500000000 6.716999053955 152 152 152
8.156250000000 8.875000000000 6.218000411987 111 111 111
8.125000000000 8.812500000000 6.722000122070 146 146 146
8.156250000000 8.875000000000 6.233999252319 141 141 141
8.156250000000 8.875000000000 6.316999435425 199 199 199
8.125000000000 8.875000000000 6.406999588013 199 199 199
8.156250000000 8.875000000000 6.722000122070 126 126 126
8.093750000000 9.062500000000 6.237998962402 169 169 169
8.093750000000 9.062500000000 6.326000213623 166 166 166
8.093750000000 9.062500000000 6.413999557495 126 126 126
8.125000000000 9.000000000000 6.730998992920 114 114 114
8.125000000000 9.187500000000 6.244998931885 181 181 181
8.125000000000 9.187500000000 6.329000473022 194 194 194
8.093750000000 9.125000000000 6.421998977661 189 189 189
8.125000000000 9.187500000000 6.742000579834 50 50 50
8.125000000000 9.375000000000 6.251998901367 182 182 182
8.093750000000 9.312500000000 6.344999313354 139 139 139
8.093750000000 9.312500000000 6.427000045776 193 193 193
8.093750000000 9.312500000000 6.681999206543 33 33 33
8.156250000000 9.312500000000 6.746000289917 65 65 65
8.093750000000 9.437500000000 6.261999130249 196 196 196
8.093750000000 9.437500000000 6.348999023438 187 187 187
8.093750000000 9.437500000000 6.437999725342 199 199 199
8.093750000000 9.437500000000 6.687999725342 96 96 96
8.093750000000 9.562500000000 6.271999359131 198 198 198
8.062500000000 9.562500000000 6.357999801636 193 193 193
8.062500000000 9.562500000000 6.444000244141 198 198 198
8.093750000000 9.562500000000 6.688999176025 113 113 113
8.093750000000 9.687500000000 6.277999877930 198 198 198
8.062500000000 9.687500000000 6.367000579834 198 198 198
8.062500000000 9.687500000000 6.454000473022 197 197 197
8.093750000000 9.687500000000 6.692998886108 131 131 131
8.093750000000 9.812500000000 6.285999298096 197 197 197
8.093750000000 9.812500000000 6.375999450684 199 199 199
8.093750000000 9.812500000000 6.458000183105 191 191 191
8.093750000000 9.812500000000 6.548000335693 32 32 32
8.031250000000 9.750000000000 6.649000167847 42 42 42
8.093750000000 9.812500000000 6.704999923706 151 151 151
8.062500000000 10.000000000000 6.288999557495 198 198 198
8.062500000000 10.000000000000 6.374000549316 159 159 159
8.031250000000 10.000000000000 6.465000152588 189 189 189
8.062500000000 10.000000000000 6.708999633789 161 161 161
8.062500000000 10.125000000000 6.298000335693 199 199 199
8.031250000000 10.125000000000 6.388999938965 196 196 196
8.031250000000 10.125000000000 6.472000122070 179 179 179
8.093750000000 10.125000000000 6.715000152588 152 152 152
8.093750000000 10.250000000000 6.302000045776 199 199 199
8.093750000000 10.250000000000 6.390998840332 194 194 194
8.093750000000 10.250000000000 6.475000381470 157 157 157
8.093750000000 10.250000000000 6.725999832153 170 170 170
8.093750000000 10.375000000000 6.310998916626 199 199 199
8.031250000000 10.375000000000 6.399000167847 175 175 175
8.031250000000 10.375000000000 6.482999801636 152 152 152
8.093750000000 10.375000000000 6.726999282837 160 160 160
8.031250000000 10.437500000000 6.315000534058 198 198 198
8.031250000000 10.437500000000 6.404998779297 114 114 114
8.031250000000 10.437500000000 6.489000320435 131 131 131
8.062500000000 10.500000000000 6.732000350952 172 172 172
8.031250000000 10.625000000000 6.322999954224 191 191 191
8.031250000000 10.625000000000 6.410999298096 134 134 134
8.031250000000 10.625000000000 6.500000000000 114 114 114
8.093750000000 10.687500000000 6.737998962402 167 167 167
8.031250000000 10.750000000000 6.243999481201 40 40 40
8.031250000000 10.750000000000 6.329000473022 199 199 199
8.031250000000 10.750000000000 6.413000106812 139 139 139
8.031250000000 10.750000000000 6.507999420166 95 95 95
8.031250000000 10.750000000000 6.744998931885 163 163 163
8.031250000000 10.875000000000 6.250000000000 71 71 71
8.031250000000 10.875000000000 6.334999084473 154 154 154
8.031250000000 10.937500000000 6.423000335693 199 199 199
8.031250000000 10.937500000000 6.510000228882 89 89 89
8.062500000000 10.875000000000 6.750999450684 158 158 158
8.031250000000 11.062500000000 6.258998870850 92 92 92
8.031250000000 11.062500000000 6.347999572754 193 193 193
8.031250000000 11.062500000000 6.433000564575 195 195 195
8.031250000000 11.062500000000 6.520000457764 92 92 92
8.031250000000 11.062500000000 6.604000091553 67 67 67
7.968750000000 11.000000000000 6.699998855591 61 61 61
8.031250000000 11.062500000000 6.760000228882 133 133 133
8.031250000000 11.125000000000 6.258998870850 74 74 74
8.031250000000 11.125000000000 6.768999099731 139 139 139
8.062500000000 11.312500000000 6.263999938965 72 72 72
8.062500000000 11.312500000000 6.777000427246 144 144 144
8.031250000000 11.437500000000 6.277999877930 97 97 97
8.031250000000 11.437500000000 6.777000427246 120 120 120
7.968750000000 11.562500000000 6.284999847412 91 91 91
8.031250000000 11.625000000000 6.788000106812 134 134 134
8.000000000000 11.687500000000 6.288000106812 89 89 89
8.031250000000 11.750000000000 6.792999267578 133 133 133
8.031250000000 11.812500000000 6.291000366211 92 92 92
8.031250000000 11.812500000000 6.805000305176 125 125 125
7.968750000000 11.937500000000 6.299999237061 94 94 94
7.968750000000 11.937500000000 6.812000274658 123 123 123
7.968750000000 12.062500000000 6.306999206543 89 89 89
8.000000000000 12.062500000000 6.815999984741 108 108 108
8.000000000000 12.250000000000 6.305999755859 86 86 86
8.000000000000 12.250000000000 6.820999145508 107 107 107
7.968750000000 12.375000000000 6.316999435425 89 89 89
7.968750000000 12.375000000000 6.833000183105 107 107 107
7.968750000000 12.500000000000 6.320999145508 69 69 69
7.968750000000 12.500000000000 6.409000396729 89 89 89
7.937500000000 12.500000000000 6.503000259399 86 86 86
7.937500000000 12.500000000000 6.593999862671 95 95 95
7.906250000000 12.500000000000 6.684999465942 97 97 97
7.906250000000 12.500000000000 6.774000167847 106 106 106
7.968750000000 12.500000000000 6.847000122070 104 104 104
7.968750000000 12.625000000000 6.844999313354 117 117 117
8.031250000000 12.750000000000 6.843999862671 92 92 92
7.968750000000 12.875000000000 6.857000350952 86 86 86
7.937500000000 13.000000000000 6.874000549316 83 83 83
7.968750000000 13.187500000000 6.876998901367 65 65 65
7.968750000000 13.312500000000 6.885000228882 53 53 53
7.937500000000 13.375000000000 6.896999359131 40 40 40
7.937500000000 13.562500000000 6.899999618530 24 24 24
7.968750000000 13.687500000000 6.892999649048 24 24 24
7.906250000000 13.812500000000 6.920999526978 25 25 25
7.906250000000 13.937500000000 6.918998718262 75 75 75
7.906250000000 14.125000000000 6.923999786377 40 40 40
7.906250000000 14.125000000000 7.021999359131 57 57 57
7.906250000000 14.187500000000 6.924999237061 60 60 60
7.906250000000 14.187500000000 7.114000320435 20 20 20
7.906250000000 14.312500000000 6.935998916626 69 69 69
7.875000000000 14.437500000000 6.941999435425 61 61 61
7.875000000000 14.562500000000 6.944999694824 45 45 45
7.875000000000 14.750000000000 6.951999664307 30 30 30
7.843750000000 14.750000000000 7.447000503540 69 69 69
7.843750000000 14.812500000000 7.556999206543 107 107 107
7.843750000000 15.000000000000 6.972999572754 46 46 46
7.843750000000 15.000000000000 7.667999267578 113 113 113
7.843750000000 15.125000000000 7.768999099731 58 58 58
7.812500000000 15.500000000000 8.010999679565 78 78 78
7.843750000000 15.625000000000 8.122999191284 102 102 102
7.781250000000 15.750000000000 8.233999252319 46 46 46
7.812500000000 16.062500000000 8.374000549316 67 67 67
7.781250000000 16.125000000000 8.497999191284 105 105 105
7.718750000000 16.312500000000 8.534000396729 73 73 73
8.093750000000 16.625000000000 1.632999420166 103 103 103
8.031250000000 16.562500000000 1.680999755859 119 119 119
7.968750000000 16.500000000000 4.958999633789 35 35 35
7.968750000000 16.500000000000 5.034999847412 51 51 51
7.968750000000 16.500000000000 5.112998962402 62 62 62
7.968750000000 16.500000000000 5.192998886108 66 66 66
7.968750000000 16.500000000000 5.270000457764 74 74 74
7.968750000000 16.500000000000 5.350999832153 76 76 76
7.968750000000 16.500000000000 5.428998947144 77 77 77
7.968750000000 16.500000000000 5.510000228882 76 76 76
7.968750000000 16.500000000000 5.590000152588 79 79 79
7.968750000000 16.500000000000 5.668998718262 84 84 84
7.968750000000 16.500000000000 5.751998901367 89 89 89
7.968750000000 16.500000000000 5.834999084473 90 90 90
7.968750000000 16.500000000000 5.918998718262 101 101 101
7.968750000000 16.500000000000 6.000000000000 102 102 102
7.968750000000 16.500000000000 6.087999343872 109 109 109
7.968750000000 16.500000000000 6.173000335693 108 108 108
7.968750000000 16.500000000000 6.254999160767 117 117 117
7.968750000000 16.500000000000 6.347999572754 117 117 117
7.968750000000 16.500000000000 6.430999755859 122 122 122
7.968750000000 16.500000000000 6.520999908447 120 120 120
7.968750000000 16.500000000000 6.607000350952 124 124 124
7.968750000000 16.500000000000 6.698999404907 114 114 114
7.906250000000 16.500000000000 6.791999816895 123 123 123
7.906250000000 16.500000000000 6.882999420166 117 117 117
7.906250000000 16.500000000000 6.977998733521 114 114 114
7.906250000000 16.500000000000 7.069999694824 108 108 108
7.906250000000 16.500000000000 7.170000076294 112 112 112
7.906250000000 16.500000000000 7.265998840332 113 113 113
7.906250000000 16.500000000000 7.364000320435 119 119 119
7.906250000000 16.500000000000 7.463998794556 117 117 117
7.906250000000 16.500000000000 7.566999435425 112 112 112
7.906250000000 16.500000000000 7.670000076294 104 104 104
7.906250000000 16.500000000000 7.770999908447 122 122 122
7.906250000000 16.500000000000 7.871999740601 118 118 118
7.906250000000 16.500000000000 7.977998733521 113 113 113
7.906250000000 16.500000000000 8.086000442505 118 118 118
7.906250000000 16.500000000000 8.198999404907 117 117 117
7.906250000000 16.500000000000 8.313999176025 121 121 121
7.906250000000 16.500000000000 8.426000595093 121 121 121
7.906250000000 16.500000000000 8.541999816895 120 120 120
7.906250000000 16.500000000000 8.653999328613 120 120 120
7.906250000000 16.500000000000 8.779998779297 123 123 123
7.906250000000 16.500000000000 8.903999328613 120 120 120
7.906250000000 16.500000000000 9.025999069214 112 112 112
8.093750000000 16.750000000000 1.632999420166 107 107 107
8.031250000000 16.687500000000 1.682999610901 141 141 141
8.031250000000 16.687500000000 1.763999938965 164 164 164
8.031250000000 16.687500000000 1.849999427795 155 155 155
8.031250000000 16.687500000000 1.925999641418 157 157 157
8.031250000000 16.687500000000 2.009999275208 158 158 158
8.031250000000 16.687500000000 2.085999488831 149 149 149
8.031250000000 16.687500000000 2.166999816895 145 145 145
8.031250000000 16.687500000000 2.244999885559 157 157 157
8.031250000000 16.687500000000 2.321999549866 153 153 153
8.031250000000 16.687500000000 2.401000022888 150 150 150
8.031250000000 16.687500000000 2.476999282837 151 151 151
8.031250000000 16.687500000000 2.552999496460 155 155 155
8.000000000000 16.625000000000 2.628999710083 150 150 150
8.031250000000 16.687500000000 2.707999229431 150 150 150
8.031250000000 16.687500000000 2.782999992371 151 151 151
7.968750000000 16.687500000000 2.856999397278 147 147 147
8.031250000000 16.687500000000 2.934999465942 152 152 152
8.031250000000 16.687500000000 3.009999275208 153 153 153
8.031250000000 16.687500000000 3.085999488831 159 159 159
7.968750000000 16.687500000000 3.159999847412 146 146 146
8.031250000000 16.687500000000 3.236000061035 150 150 150
7.968750000000 16.687500000000 3.309000015259 154 154 154
7.968750000000 16.687500000000 3.383999824524 155 155 155
7.968750000000 16.687500000000 3.458999633789 156 156 156
7.968750000000 16.687500000000 3.532999992371 154 154 154
7.968750000000 16.687500000000 3.606999397278 146 146 146
7.968750000000 16.687500000000 3.681999206543 150 150 150
7.968750000000 16.687500000000 3.756999969482 156 156 156
7.968750000000 16.687500000000 3.830999374390 154 154 154
7.968750000000 16.687500000000 3.906000137329 148 148 148
7.968750000000 16.687500000000 3.979999542236 148 148 148
7.968750000000 16.687500000000 4.054999351501 153 153 153
7.968750000000 16.687500000000 4.128999710083 147 147 147
7.968750000000 16.687500000000 4.204000473022 154 154 154
7.968750000000 16.687500000000 4.278999328613 147 147 147
7.968750000000 16.687500000000 4.354000091553 146 146 146
7.968750000000 16.687500000000 4.428998947144 151 151 151
7.968750000000 16.687500000000 4.504999160767 141 141 141
7.968750000000 16.687500000000 4.580999374390 132 132 132
7.968750000000 16.687500000000 4.657999038696 133 133 133
7.968750000000 16.687500000000 4.735000610352 134 134 134
7.968750000000 16.687500000000 4.809999465942 127 127 127
7.968750000000 16.687500000000 4.885999679565 129 129 129
7.968750000000 16.687500000000 4.963998794556 121 121 121
7.968750000000 16.687500000000 5.042999267578 118 118 118
7.968750000000 16.687500000000 5.119998931885 114 114 114
7.968750000000 16.687500000000 5.198999404907 119 119 119
7.937500000000 16.687500000000 5.281000137329 118 118 118
7.968750000000 16.687500000000 5.357000350952 108 108 108
7.968750000000 16.687500000000 5.437000274658 108 108 108
7.906250000000 16.625000000000 5.522998809814 111 111 111
7.906250000000 16.625000000000 5.604000091553 111 111 111
7.906250000000 16.625000000000 5.688999176025 113 113 113
7.906250000000 16.625000000000 5.770999908447 111 111 111
7.875000000000 16.625000000000 5.860000610352 109 109 109
7.875000000000 16.625000000000 5.947999954224 106 106 106
7.875000000000 16.625000000000 6.032999038696 109 109 109
7.843750000000 16.562500000000 6.128000259399 112 112 112
7.843750000000 16.625000000000 6.205999374390 118 118 118
7.843750000000 16.562500000000 6.299999237061 114 114 114
7.843750000000 16.562500000000 6.392999649048 112 112 112
7.781250000000 16.500000000000 6.503000259399 121 121 121
7.843750000000 16.625000000000 6.559000015259 98 98 98
7.843750000000 16.562500000000 6.670000076294 111 111 111
7.781250000000 16.562500000000 6.791999816895 117 117 117
7.750000000000 16.562500000000 6.896999359131 106 106 106
7.781250000000 16.562500000000 6.986999511719 109 109 109
7.843750000000 16.562500000000 7.020999908447 96 96 96
7.656250000000 16.500000000000 7.223999023438 126 126 126
7.656250000000 16.500000000000 7.326000213623 110 110 110
7.625000000000 16.437500000000 7.438999176025 124 124 124
7.625000000000 16.437500000000 7.535999298096 118 118 118
7.625000000000 16.437500000000 7.640998840332 112 112 112
7.625000000000 16.437500000000 7.743999481201 113 113 113
7.781250000000 16.562500000000 7.758998870850 89 89 89
7.718750000000 16.500000000000 7.906000137329 107 107 107
7.656250000000 16.437500000000 8.059000015259 122 122 122
7.656250000000 16.437500000000 8.166999816895 124 124 124
7.656250000000 16.437500000000 8.282999038696 122 122 122
7.656250000000 16.500000000000 8.389999389648 123 123 123
7.656250000000 16.500000000000 8.503000259399 122 122 122
7.750000000000 16.562500000000 8.563999176025 102 102 102
7.656250000000 16.500000000000 8.732999801636 111 111 111
7.656250000000 16.500000000000 8.851999282837 110 110 110
7.687500000000 16.500000000000 8.965000152588 101 101 101
7.718750000000 16.500000000000 9.070999145508 61 61 61
8.125000000000 16.875000000000 1.625999450684 104 104 104
7.968750000000 16.812500000000 1.659999847412 112 112 112
7.656250000000 16.562500000000 1.625999450684 94 94 94
7.531250000000 16.500000000000 1.835999488831 195 195 195
7.593750000000 16.562500000000 2.036999702454 77 77 77
7.656250000000 16.625000000000 2.123999595642 71 71 71
7.593750000000 16.562500000000 2.205999374390 74 74 74
7.593750000000 16.562500000000 2.290999412537 72 72 72
7.843750000000 16.750000000000 2.436999320984 69 69 69
7.843750000000 16.750000000000 2.515999794006 74 74 74
7.593750000000 16.562500000000 2.539999961853 87 87 87
7.593750000000 16.562500000000 2.621999740601 93 93 93
7.593750000000 16.562500000000 2.703000068665 111 111 111
7.593750000000 16.562500000000 2.785999298096 119 119 119
7.656250000000 16.625000000000 2.868000030518 126 126 126
7.593750000000 16.562500000000 2.946999549866 126 126 126
7.593750000000 16.562500000000 3.027999877930 131 131 131
7.593750000000 16.562500000000 3.107999801636 128 128 128
7.593750000000 16.562500000000 3.189000129700 130 130 130
7.656250000000 16.625000000000 3.270999908447 128 128 128
7.781250000000 16.687500000000 3.368000030518 61 61 61
7.750000000000 16.687500000000 3.441999435425 92 92 92
7.593750000000 16.562500000000 3.508999824524 125 125 125
7.593750000000 16.562500000000 3.589999198914 125 125 125
7.593750000000 16.562500000000 3.670000076294 128 128 128
7.593750000000 16.562500000000 3.750000000000 124 124 124
7.593750000000 16.562500000000 3.829999923706 131 131 131
7.593750000000 16.562500000000 3.908999443054 130 130 130
7.593750000000 16.562500000000 3.988999366760 134 134 134
7.593750000000 16.562500000000 4.068999290466 140 140 140
7.593750000000 16.562500000000 4.148999214172 128 128 128
7.593750000000 16.562500000000 4.229000091553 128 128 128
7.718750000000 16.625000000000 4.299999237061 100 100 100
7.718750000000 16.625000000000 4.376998901367 100 100 100
7.593750000000 16.562500000000 4.468999862671 133 133 133
7.593750000000 16.562500000000 4.548999786377 138 138 138
7.593750000000 16.562500000000 4.629999160767 136 136 136
7.593750000000 16.562500000000 4.711000442505 129 129 129
7.593750000000 16.562500000000 4.792999267578 131 131 131
7.593750000000 16.562500000000 4.872999191284 131 131 131
7.656250000000 16.625000000000 4.951999664307 127 127 127
7.656250000000 16.625000000000 5.032999038696 133 133 133
7.656250000000 16.625000000000 5.114000320435 135 135 135
7.656250000000 16.625000000000 5.197000503540 125 125 125
7.656250000000 16.625000000000 5.277000427246 122 122 122
7.656250000000 16.625000000000 5.360000610352 114 114 114
7.656250000000 16.625000000000 5.437000274658 99 99 99
7.656250000000 16.625000000000 5.525999069214 109 109 109
7.656250000000 16.625000000000 5.612998962402 109 109 109
7.656250000000 16.625000000000 5.698999404907 116 116 116
7.656250000000 16.625000000000 5.778999328613 110 110 110
7.656250000000 16.625000000000 5.864999771118 104 104 104
7.656250000000 16.625000000000 5.951000213623 107 107 107
7.656250000000 16.625000000000 6.034999847412 99 99 99
7.656250000000 16.625000000000 6.124000549316 88 88 88
7.656250000000 16.625000000000 6.222000122070 78 78 78
7.656250000000 16.625000000000 6.308000564575 73 73 73
7.656250000000 16.625000000000 6.399000167847 65 65 65
7.625000000000 16.625000000000 6.500999450684 57 57 57
7.656250000000 16.625000000000 6.583999633789 28 28 28
7.937500000000 16.937500000000 1.638999938965 87 87 87
7.656250000000 16.750000000000 1.614999771118 97 97 97
7.593750000000 16.687500000000 1.673999786377 116 116 116
7.593750000000 16.687500000000 1.764999389648 131 131 131
7.593750000000 16.687500000000 1.849999427795 129 129 129
7.593750000000 16.687500000000 1.934999465942 130 130 130
7.593750000000 16.687500000000 2.020999908447 129 129 129
7.593750000000 16.687500000000 2.109999656677 121 121 121
7.593750000000 16.687500000000 2.192999839783 119 119 119
7.593750000000 16.687500000000 2.281000137329 104 104 104
7.593750000000 16.687500000000 2.368999481201 94 94 94
7.593750000000 16.687500000000 2.453999519348 66 66 66
7.593750000000 16.687500000000 2.535999298096 67 67 67
7.593750000000 16.687500000000 2.615999221802 88 88 88
7.593750000000 16.687500000000 2.697999954224 66 66 66
7.593750000000 16.687500000000 2.778999328613 64 64 64
7.593750000000 16.687500000000 2.862999916077 54 54 54
7.593750000000 16.687500000000 2.942999839783 57 57 57
7.593750000000 16.687500000000 3.022999763489 53 53 53
7.593750000000 16.687500000000 3.104999542236 44 44 44
7.593750000000 16.687500000000 3.185999870300 22 22 22
7.625000000000 16.875000000000 1.604999542236 107 107 107
7.562500000000 16.875000000000 1.672999382019 109 109 109
8.156250000000 4.625000000000 1.638999938965 201 201 201
8.218750000000 4.750000000000 1.653999328613 184 184 184
8.312500000000 4.687500000000 1.625999450684 159 159 159
8.343750000000 4.687500000000 1.564999580383 174 174 174
8.093750000000 4.812500000000 8.916999816895 80 80 80
8.093750000000 4.750000000000 8.784000396729 85 85 85
8.093750000000 4.750000000000 8.670999526978 86 86 86
8.093750000000 4.750000000000 8.558000564575 81 81 81
8.125000000000 4.750000000000 8.409999847412 88 88 88
8.093750000000 4.750000000000 8.320999145508 70 70 70
8.093750000000 4.750000000000 8.215999603271 92 92 92
8.093750000000 4.750000000000 8.107999801636 97 97 97
8.093750000000 4.750000000000 7.999000549316 99 99 99
8.093750000000 4.750000000000 7.895999908447 102 102 102
8.093750000000 4.750000000000 7.802000045776 96 96 96
8.093750000000 4.750000000000 7.688999176025 104 104 104
8.093750000000 4.750000000000 7.595998764038 102 102 102
8.093750000000 4.750000000000 7.500000000000 101 101 101
8.093750000000 4.750000000000 7.407999038696 101 101 101
8.093750000000 4.750000000000 7.316999435425 109 109 109
8.093750000000 4.750000000000 7.219999313354 111 111 111
8.093750000000 4.750000000000 7.128000259399 113 113 113
8.093750000000 4.750000000000 7.038000106812 114 114 114
8.093750000000 4.750000000000 6.945999145508 116 116 116
8.093750000000 4.875000000000 6.862998962402 126 126 126
8.156250000000 4.750000000000 6.751998901367 108 108 108
8.093750000000 4.875000000000 6.692998886108 120 120 120
8.093750000000 4.875000000000 6.610000610352 123 123 123
8.125000000000 4.812500000000 6.510000228882 114 114 114
8.093750000000 4.875000000000 6.440999984741 128 128 128
8.093750000000 4.875000000000 6.358999252319 128 128 128
8.093750000000 4.875000000000 6.281000137329 135 135 135
8.093750000000 4.875000000000 6.202999114990 133 133 133
8.093750000000 4.875000000000 6.122999191284 129 129 129
8.093750000000 4.875000000000 6.045000076294 123 123 123
8.093750000000 4.875000000000 5.970998764038 131 131 131
8.093750000000 4.875000000000 5.892000198364 137 137 137
8.093750000000 4.875000000000 5.816999435425 134 134 134
8.093750000000 4.875000000000 5.735000610352 137 137 137
8.093750000000 4.875000000000 5.667999267578 136 136 136
8.093750000000 4.875000000000 5.590000152588 135 135 135
8.093750000000 4.875000000000 5.520999908447 132 132 132
8.093750000000 4.812500000000 5.435998916626 129 129 129
8.125000000000 4.812500000000 5.354999542236 87 87 87
8.125000000000 4.812500000000 5.286998748779 104 104 104
8.093750000000 4.875000000000 5.227998733521 140 140 140
8.093750000000 4.875000000000 5.156999588013 142 142 142
8.093750000000 4.875000000000 5.086000442505 146 146 146
8.093750000000 4.875000000000 5.014999389648 144 144 144
8.093750000000 4.875000000000 4.944000244141 146 146 146
8.093750000000 4.875000000000 4.875000000000 151 151 151
8.093750000000 4.875000000000 4.805000305176 147 147 147
8.093750000000 4.875000000000 4.736000061035 143 143 143
8.093750000000 4.875000000000 4.666000366211 152 152 152
8.093750000000 4.875000000000 4.597999572754 156 156 156
8.093750000000 4.875000000000 4.529998779297 150 150 150
8.093750000000 4.875000000000 4.461999893188 148 148 148
8.093750000000 4.875000000000 4.392999649048 140 140 140
8.062500000000 4.875000000000 4.326999664307 143 143 143
8.156250000000 4.812500000000 4.250000000000 129 129 129
8.156250000000 4.812500000000 4.182999610901 113 113 113
8.093750000000 4.875000000000 4.122999191284 139 139 139
8.062500000000 4.875000000000 4.055999755859 139 139 139
8.093750000000 4.937500000000 3.988999366760 141 141 141
8.093750000000 4.937500000000 3.921999931335 145 145 145
8.093750000000 4.937500000000 3.854000091553 150 150 150
8.093750000000 4.937500000000 3.786999702454 145 145 145
8.093750000000 4.937500000000 3.719999313354 140 140 140
8.093750000000 4.937500000000 3.651999473572 138 138 138
8.093750000000 4.937500000000 3.585000038147 139 139 139
8.093750000000 4.937500000000 3.517999649048 142 142 142
8.093750000000 4.937500000000 3.449999809265 142 142 142
8.093750000000 4.937500000000 3.382999420166 138 138 138
8.156250000000 4.812500000000 3.322999954224 102 102 102
8.187500000000 4.875000000000 3.255999565125 103 103 103
8.093750000000 4.937500000000 3.179999351501 136 136 136
8.093750000000 4.937500000000 3.111999511719 137 137 137
8.093750000000 4.937500000000 3.041999816895 136 136 136
8.093750000000 4.937500000000 2.974999427795 134 134 134
8.093750000000 4.937500000000 2.906000137329 138 138 138
8.093750000000 4.937500000000 2.836999893188 129 129 129
8.093750000000 4.937500000000 2.769000053406 132 132 132
8.093750000000 4.937500000000 2.698999404907 135 135 135
8.093750000000 4.937500000000 2.628999710083 144 144 144
8.093750000000 4.937500000000 2.557999610901 139 139 139
8.093750000000 4.937500000000 2.488999366760 134 134 134
8.156250000000 4.875000000000 2.439999580383 111 111 111
8.218750000000 4.875000000000 2.384999275208 101 101 101
8.218750000000 4.875000000000 2.311999320984 110 110 110
8.093750000000 4.937500000000 2.203000068665 149 149 149
8.093750000000 4.937500000000 2.131999969482 148 148 148
8.093750000000 4.937500000000 2.059999465942 153 153 153
8.093750000000 4.937500000000 1.983999252319 158 158 158
8.093750000000 4.937500000000 1.911999702454 154 154 154
8.093750000000 4.937500000000 1.837999343872 151 151 151
8.093750000000 4.937500000000 1.762999534607 158 158 158
8.093750000000 4.937500000000 1.689999580383 150 150 150
8.093750000000 4.937500000000 1.615999221802 151 151 151
8.156250000000 4.875000000000 1.567999839783 128 128 128
8.250000000000 4.750000000000 8.931999206543 114 114 114
8.281250000000 4.750000000000 8.802999496460 114 114 114
8.281250000000 4.812500000000 8.687000274658 113 113 113
8.281250000000 4.812500000000 8.572999954224 120 120 120
8.312500000000 4.812500000000 8.448999404907 106 106 106
8.281250000000 4.812500000000 8.343999862671 110 110 110
8.281250000000 4.812500000000 8.239000320435 117 117 117
8.281250000000 4.812500000000 8.125999450684 117 117 117
8.312500000000 4.812500000000 8.017000198364 120 120 120
8.281250000000 4.812500000000 7.921998977661 119 119 119
8.312500000000 4.812500000000 7.815999984741 114 114 114
8.312500000000 4.812500000000 7.715999603271 125 125 125
8.312500000000 4.812500000000 7.611000061035 121 121 121
8.312500000000 4.812500000000 7.524000167847 119 119 119
8.281250000000 4.812500000000 7.435998916626 126 126 126
8.312500000000 4.812500000000 7.336999893188 123 123 123
8.281250000000 4.812500000000 7.247999191284 123 123 123
8.281250000000 4.812500000000 7.163000106812 122 122 122
8.281250000000 4.812500000000 7.077999114990 123 123 123
8.281250000000 4.812500000000 6.987998962402 120 120 120
8.281250000000 4.812500000000 6.895000457764 124 124 124
8.281250000000 4.812500000000 6.815999984741 107 107 107
8.343750000000 4.812500000000 6.709999084473 104 104 104
8.281250000000 4.812500000000 6.653999328613 126 126 126
8.343750000000 4.812500000000 6.549999237061 130 130 130
8.343750000000 4.812500000000 6.468000411987 131 131 131
8.281250000000 4.812500000000 6.411998748779 127 127 127
8.281250000000 4.812500000000 6.331998825073 111 111 111
8.312500000000 4.812500000000 6.239999771118 100 100 100
8.281250000000 4.812500000000 6.167999267578 99 99 99
8.312500000000 4.812500000000 6.088998794556 90 90 90
8.312500000000 4.812500000000 6.013000488281 84 84 84
8.312500000000 4.812500000000 5.934999465942 76 76 76
8.312500000000 4.812500000000 5.861999511719 72 72 72
8.343750000000 4.812500000000 5.782999038696 61 61 61
8.343750000000 4.812500000000 5.711999893188 43 43 43
8.343750000000 4.812500000000 5.633998870850 36 36 36
8.343750000000 4.812500000000 5.418998718262 89 89 89
8.343750000000 4.812500000000 5.350999832153 127 127 127
8.343750000000 4.812500000000 5.288000106812 135 135 135
8.187500000000 4.937500000000 5.270000457764 100 100 100
8.406250000000 4.875000000000 4.288999557495 117 117 117
8.406250000000 4.875000000000 4.225000381470 134 134 134
8.343750000000 4.875000000000 4.166999816895 137 137 137
8.406250000000 4.875000000000 3.339999198914 119 119 119
8.406250000000 4.875000000000 3.276000022888 133 133 133
8.281250000000 5.000000000000 2.462999343872 61 61 61
8.406250000000 4.875000000000 2.439999580383 119 119 119
8.437500000000 4.812500000000 2.375999450684 117 117 117
8.437500000000 4.812500000000 2.311999320984 59 59 59
8.593750000000 4.750000000000 1.613999366760 123 123 123
8.656250000000 4.750000000000 1.571000099182 143 143 143
8.281250000000 4.875000000000 8.909999847412 26 26 26
8.281250000000 4.875000000000 8.781000137329 41 41 41
8.281250000000 4.875000000000 8.659000396729 48 48 48
8.343750000000 4.937500000000 8.552999496460 50 50 50
8.343750000000 4.937500000000 8.428998947144 85 85 85
8.312500000000 5.000000000000 8.333000183105 87 87 87
8.312500000000 5.000000000000 8.239000320435 99 99 99
8.343750000000 4.937500000000 8.095998764038 81 81 81
8.343750000000 4.937500000000 7.996999740601 86 86 86
8.343750000000 4.937500000000 7.888000488281 87 87 87
8.343750000000 4.937500000000 7.788999557495 91 91 91
8.343750000000 4.937500000000 7.683000564575 95 95 95
8.343750000000 4.937500000000 7.583000183105 94 94 94
8.343750000000 4.937500000000 7.489000320435 104 104 104
8.375000000000 4.937500000000 7.389999389648 111 111 111
8.343750000000 4.937500000000 7.302000045776 119 119 119
8.375000000000 4.937500000000 7.205999374390 117 117 117
8.375000000000 4.937500000000 7.115999221802 122 122 122
8.375000000000 4.937500000000 7.028999328613 125 125 125
8.375000000000 4.937500000000 6.937999725342 136 136 136
8.406250000000 4.937500000000 6.851999282837 139 139 139
8.375000000000 4.937500000000 6.771999359131 142 142 142
8.406250000000 4.937500000000 6.680000305176 143 143 143
8.406250000000 4.937500000000 6.600999832153 138 138 138
8.406250000000 4.937500000000 6.514999389648 142 142 142
8.406250000000 4.937500000000 6.435998916626 153 153 153
8.406250000000 4.937500000000 6.361000061035 145 145 145
8.406250000000 4.937500000000 6.275999069214 143 143 143
8.406250000000 4.937500000000 6.201000213623 147 147 147
8.406250000000 4.937500000000 6.121000289917 149 149 149
8.406250000000 4.937500000000 6.045000076294 142 142 142
8.406250000000 4.937500000000 5.975000381470 154 154 154
8.406250000000 4.937500000000 5.895999908447 149 149 149
8.406250000000 4.937500000000 5.826999664307 162 162 162
8.406250000000 4.937500000000 5.750000000000 161 161 161
8.406250000000 4.937500000000 5.676000595093 156 156 156
8.406250000000 4.937500000000 5.608999252319 156 156 156
8.406250000000 4.937500000000 5.534000396729 160 160 160
8.437500000000 4.937500000000 5.461999893188 158 158 158
8.406250000000 4.937500000000 5.395000457764 160 160 160
8.437500000000 4.937500000000 5.322000503540 157 157 157
8.406250000000 4.937500000000 5.258998870850 163 163 163
8.406250000000 4.937500000000 5.191999435425 161 161 161
8.406250000000 4.937500000000 5.122999191284 160 160 160
8.437500000000 4.937500000000 5.053998947144 160 160 160
8.437500000000 4.937500000000 4.987998962402 160 160 160
8.437500000000 4.937500000000 4.921998977661 163 163 163
8.437500000000 4.937500000000 4.857999801636 164 164 164
8.468750000000 4.937500000000 4.788000106812 160 160 160
8.437500000000 4.937500000000 4.726999282837 166 166 166
8.468750000000 4.937500000000 4.659999847412 163 163 163
8.468750000000 4.937500000000 4.594999313354 161 161 161
8.468750000000 4.937500000000 4.531000137329 165 165 165
8.468750000000 4.875000000000 4.465999603271 162 162 162
8.500000000000 4.937500000000 4.402999877930 159 159 159
8.500000000000 4.937500000000 4.340000152588 162 162 162
8.468750000000 5.000000000000 4.277999877930 159 159 159
8.500000000000 4.937500000000 4.213998794556 165 165 165
8.500000000000 4.937500000000 4.151000022888 164 164 164
8.500000000000 4.937500000000 4.088999748230 163 163 163
8.500000000000 4.937500000000 4.026000022888 162 162 162
8.500000000000 4.937500000000 3.963999748230 165 165 165
8.500000000000 4.937500000000 3.901999473572 167 167 167
8.500000000000 4.937500000000 3.839999198914 164 164 164
8.500000000000 4.937500000000 3.777999877930 163 163 163
8.500000000000 4.937500000000 3.715999603271 169 169 169
8.500000000000 4.937500000000 3.654999732971 166 166 166
8.500000000000 4.937500000000 3.592999458313 163 163 163
8.500000000000 4.937500000000 3.531000137329 161 161 161
8.531250000000 4.937500000000 3.468999862671 161 161 161
8.500000000000 4.937500000000 3.406999588013 162 162 162
8.531250000000 4.937500000000 3.345999717712 158 158 158
8.531250000000 4.937500000000 3.283999443054 154 154 154
8.531250000000 4.937500000000 3.222000122070 163 163 163
8.531250000000 4.937500000000 3.159999847412 156 156 156
8.531250000000 4.937500000000 3.097999572754 154 154 154
8.531250000000 4.937500000000 3.034999847412 155 155 155
8.531250000000 4.937500000000 2.972999572754 158 158 158
8.531250000000 4.937500000000 2.908999443054 159 159 159
8.531250000000 4.937500000000 2.847000122070 162 162 162
8.531250000000 4.937500000000 2.784999847412 160 160 160
8.531250000000 4.937500000000 2.722000122070 159 159 159
8.531250000000 4.937500000000 2.658999443054 161 161 161
8.531250000000 4.937500000000 2.594999313354 153 153 153
8.531250000000 4.937500000000 2.531000137329 158 158 158
8.531250000000 4.937500000000 2.468999862671 150 150 150
8.562500000000 4.937500000000 2.406999588013 156 156 156
8.531250000000 4.937500000000 2.340999603271 159 159 159
8.531250000000 4.937500000000 2.274999618530 156 156 156
8.531250000000 4.937500000000 2.208999633789 157 157 157
8.562500000000 4.937500000000 2.145999908447 151 151 151
8.562500000000 4.937500000000 2.076999664307 151 151 151
8.562500000000 4.937500000000 2.010999679565 156 156 156
8.531250000000 4.937500000000 1.940999984741 157 157 157
8.562500000000 4.937500000000 1.873999595642 159 159 159
8.531250000000 4.937500000000 1.803999900818 149 149 149
8.562500000000 4.937500000000 1.739999771118 149 149 149
8.562500000000 4.937500000000 1.667999267578 156 156 156
8.562500000000 4.937500000000 1.598999977112 141 141 141
8.656250000000 4.875000000000 1.576999664307 160 160 160
8.218750000000 5.187500000000 8.350999832153 105 105 105
8.218750000000 5.187500000000 6.709999084473 22 22 22
8.156250000000 5.250000000000 8.253999710083 109 109 109
8.218750000000 5.250000000000 6.711999893188 72 72 72
8.187500000000 5.437500000000 8.150999069214 101 101 101
8.218750000000 5.375000000000 6.712999343872 130 130 130
8.187500000000 5.562500000000 8.059999465942 101 101 101
8.218750000000 5.562500000000 6.719999313354 137 137 137
8.156250000000 5.750000000000 7.961999893188 101 101 101
8.218750000000 5.750000000000 6.732000350952 131 131 131
8.187500000000 5.875000000000 7.865999221802 68 68 68
8.218750000000 5.937500000000 6.737998962402 102 102 102
8.250000000000 6.000000000000 6.747999191284 79 79 79
8.156250000000 6.187500000000 7.618000030518 17 17 17
8.218750000000 6.187500000000 6.756999969482 18 18 18
8.187500000000 6.312500000000 7.511999130249 79 79 79
8.187500000000 6.312500000000 6.701999664307 49 49 49
8.156250000000 6.500000000000 7.428998947144 112 112 112
8.187500000000 6.500000000000 6.699998855591 84 84 84
8.218750000000 6.625000000000 7.329999923706 117 117 117
8.218750000000 6.625000000000 6.701000213623 100 100 100
8.187500000000 6.750000000000 7.229999542236 98 98 98
8.156250000000 6.750000000000 6.705999374390 128 128 128
8.156250000000 6.875000000000 7.152999877930 20 20 20
8.187500000000 6.875000000000 6.705999374390 129 129 129
8.156250000000 7.062500000000 6.993000030518 18 18 18
8.218750000000 7.000000000000 6.711000442505 143 143 143
8.156250000000 7.187500000000 6.907999038696 110 110 110
8.156250000000 7.187500000000 6.715000152588 141 141 141
8.156250000000 7.312500000000 6.815000534058 78 78 78
8.156250000000 7.312500000000 6.725999832153 153 153 153
8.187500000000 7.437500000000 6.733999252319 108 108 108
8.187500000000 7.437500000000 6.236999511719 83 83 83
8.156250000000 7.562500000000 6.739999771118 84 84 84
8.093750000000 7.625000000000 6.691999435425 31 31 31
8.156250000000 7.562500000000 6.250999450684 34 34 34
8.156250000000 7.750000000000 6.760999679565 29 29 29
8.125000000000 7.750000000000 6.691999435425 87 87 87
8.125000000000 7.875000000000 6.690999984741 104 104 104
8.156250000000 8.062500000000 6.687000274658 105 105 105
8.093750000000 8.187500000000 6.698999404907 138 138 138
8.093750000000 8.250000000000 6.701000213623 137 137 137
8.125000000000 8.437500000000 6.701999664307 148 148 148
8.093750000000 8.562500000000 6.708999633789 155 155 155
8.093750000000 8.750000000000 6.715999603271 156 156 156
8.125000000000 8.812500000000 6.215000152588 16 16 16
8.156250000000 8.875000000000 6.718999862671 137 137 137
8.093750000000 8.875000000000 6.479999542236 85 85 85
8.093750000000 8.875000000000 6.397998809814 206 206 206
8.125000000000 8.875000000000 6.312000274658 200 200 200
8.125000000000 8.875000000000 6.229000091553 79 79 79
8.093750000000 9.062500000000 6.733999252319 150 150 150
8.093750000000 9.062500000000 6.496000289917 49 49 49
8.093750000000 9.062500000000 6.410999298096 147 147 147
8.093750000000 9.062500000000 6.323999404907 127 127 127
8.093750000000 9.062500000000 6.239999771118 100 100 100
8.125000000000 9.187500000000 6.736000061035 111 111 111
8.093750000000 9.187500000000 6.420999526978 173 173 173
8.093750000000 9.187500000000 6.329999923706 167 167 167
8.093750000000 9.187500000000 6.246999740601 122 122 122
8.125000000000 9.375000000000 6.744998931885 111 111 111
8.093750000000 9.375000000000 6.424999237061 146 146 146
8.093750000000 9.375000000000 6.343000411987 186 186 186
8.093750000000 9.375000000000 6.250999450684 129 129 129
8.093750000000 9.500000000000 6.757999420166 94 94 94
8.031250000000 9.500000000000 6.440999984741 163 163 163
8.031250000000 9.500000000000 6.355998992920 112 112 112
8.062500000000 9.500000000000 6.265998840332 146 146 146
8.093750000000 9.625000000000 6.764999389648 63 63 63
8.031250000000 9.687500000000 6.697999954224 19 19 19
8.031250000000 9.687500000000 6.442998886108 195 195 195
8.031250000000 9.687500000000 6.361000061035 195 195 195
8.062500000000 9.687500000000 6.268999099731 161 161 161
8.093750000000 9.750000000000 6.772998809814 78 78 78
8.062500000000 9.750000000000 6.708000183105 106 106 106
8.031250000000 9.750000000000 6.625999450684 93 93 93
8.031250000000 9.750000000000 6.542999267578 104 104 104
8.062500000000 9.750000000000 6.449998855591 169 169 169
8.062500000000 9.750000000000 6.362998962402 178 178 178
8.062500000000 9.750000000000 6.272998809814 161 161 161
8.062500000000 9.937500000000 6.712999343872 79 79 79
8.031250000000 9.937500000000 6.461000442505 175 175 175
8.062500000000 9.937500000000 6.368999481201 177 177 177
8.093750000000 9.875000000000 6.281999588013 177 177 177
8.031250000000 10.062500000000 6.715000152588 87 87 87
8.031250000000 10.062500000000 6.459999084473 199 199 199
8.031250000000 10.062500000000 6.372999191284 198 198 198
8.031250000000 10.062500000000 6.285999298096 176 176 176
8.031250000000 10.250000000000 6.725000381470 99 99 99
8.031250000000 10.250000000000 6.473999023438 184 184 184
8.031250000000 10.250000000000 6.383998870850 169 169 169
8.031250000000 10.187500000000 6.292999267578 182 182 182
8.031250000000 10.375000000000 6.725999832153 119 119 119
8.031250000000 10.375000000000 6.475000381470 187 187 187
8.031250000000 10.375000000000 6.393999099731 171 171 171
8.031250000000 10.375000000000 6.302000045776 190 190 190
8.031250000000 10.437500000000 6.730998992920 133 133 133
8.031250000000 10.437500000000 6.482999801636 186 186 186
8.031250000000 10.437500000000 6.395999908447 143 143 143
8.031250000000 10.437500000000 6.310998916626 193 193 193
8.031250000000 10.625000000000 6.740999221802 142 142 142
8.000000000000 10.625000000000 6.489999771118 175 175 175
8.031250000000 10.625000000000 6.399000167847 196 196 196
8.031250000000 10.625000000000 6.312999725342 201 201 201
8.031250000000 10.750000000000 6.744998931885 149 149 149
8.000000000000 10.750000000000 6.499000549316 175 175 175
8.000000000000 10.750000000000 6.411998748779 185 185 185
8.031250000000 10.750000000000 6.326000213623 203 203 203
8.031250000000 10.937500000000 6.758998870850 156 156 156
8.031250000000 11.000000000000 6.508998870850 147 147 147
8.000000000000 11.000000000000 6.428998947144 180 180 180
8.031250000000 11.000000000000 6.337999343872 201 201 201
8.000000000000 11.062500000000 6.764999389648 145 145 145
8.031250000000 11.250000000000 6.775999069214 158 158 158
8.031250000000 11.375000000000 6.781999588013 144 144 144
8.000000000000 11.500000000000 6.791000366211 153 153 153
8.031250000000 11.687500000000 6.796998977661 160 160 160
8.031250000000 11.812500000000 6.802999496460 161 161 161
7.968750000000 11.937500000000 6.812000274658 162 162 162
7.968750000000 12.062500000000 6.819999694824 151 151 151
7.968750000000 12.250000000000 6.823999404907 146 146 146
7.968750000000 12.375000000000 6.833999633789 155 155 155
7.968750000000 12.562500000000 6.840000152588 137 137 137
7.968750000000 12.625000000000 6.850999832153 138 138 138
7.968750000000 12.812500000000 6.858999252319 141 141 141
7.937500000000 12.937500000000 6.865999221802 122 122 122
7.906250000000 12.937500000000 6.789999008179 64 64 64
7.937500000000 13.125000000000 6.879999160767 105 105 105
7.937500000000 13.250000000000 6.885000228882 105 105 105
7.906250000000 13.375000000000 6.893999099731 112 112 112
7.906250000000 13.500000000000 6.896999359131 115 115 115
7.906250000000 13.625000000000 6.902999877930 124 124 124
7.906250000000 13.812500000000 6.904998779297 121 121 121
7.875000000000 13.937500000000 6.913000106812 118 118 118
7.843750000000 14.000000000000 6.841999053955 25 25 25
7.906250000000 14.125000000000 6.926000595093 113 113 113
7.906250000000 14.187500000000 6.931999206543 113 113 113
7.875000000000 14.437500000000 6.947999954224 99 99 99
7.906250000000 14.562500000000 6.951999664307 82 82 82
7.843750000000 14.750000000000 7.458000183105 40 40 40
7.875000000000 14.750000000000 6.968000411987 71 71 71
7.843750000000 14.812500000000 7.556999206543 60 60 60
7.843750000000 14.812500000000 6.970998764038 68 68 68
7.843750000000 15.000000000000 7.673000335693 74 74 74
7.843750000000 15.000000000000 6.979000091553 72 72 72
7.812500000000 15.062500000000 7.785999298096 66 66 66
7.843750000000 15.125000000000 6.982999801636 82 82 82
7.843750000000 15.187500000000 7.889999389648 50 50 50
7.843750000000 15.250000000000 6.986999511719 85 85 85
7.843750000000 15.437500000000 6.992000579834 94 94 94
7.843750000000 15.562500000000 7.000000000000 83 83 83
7.781250000000 15.687500000000 7.008998870850 82 82 82
7.781250000000 15.875000000000 8.271999359131 21 21 21
7.812500000000 15.812500000000 7.015998840332 56 56 56
7.781250000000 16.000000000000 8.388999938965 61 61 61
7.781250000000 16.000000000000 7.031000137329 19 19 19
7.781250000000 16.125000000000 8.517000198364 24 24 24
7.718750000000 16.312500000000 8.551000595093 79 79 79
7.718750000000 16.312500000000 6.982000350952 12 12 12
7.468750000000 16.625000000000 1.641999244690 160 160 160
7.781250000000 16.375000000000 9.008998870850 104 104 104
7.656250000000 16.437500000000 9.001998901367 125 125 125
7.656250000000 16.437500000000 8.878999710083 117 117 117
7.718750000000 16.375000000000 8.677999496460 120 120 120
7.718750000000 16.437500000000 8.586999893188 109 109 109
7.625000000000 16.437500000000 8.524000167847 120 120 120
7.593750000000 16.437500000000 8.416000366211 119 119 119
7.625000000000 16.437500000000 8.299999237061 122 122 122
7.625000000000 16.437500000000 8.187000274658 124 124 124
7.593750000000 16.437500000000 8.084999084473 119 119 119
7.625000000000 16.437500000000 7.965999603271 104 104 104
7.718750000000 16.375000000000 7.788999557495 109 109 109
7.625000000000 16.437500000000 7.753999710083 122 122 122
7.593750000000 16.437500000000 7.653999328613 118 118 118
7.593750000000 16.437500000000 7.556999206543 118 118 118
7.593750000000 16.437500000000 7.458999633789 117 117 117
7.593750000000 16.500000000000 7.360000610352 121 121 121
7.625000000000 16.500000000000 7.256999969482 130 130 130
7.656250000000 16.437500000000 7.118999481201 123 123 123
7.718750000000 16.437500000000 7.006000518799 110 110 110
7.625000000000 16.562500000000 6.966999053955 115 115 115
7.625000000000 16.562500000000 6.875000000000 112 112 112
