13.343750000000 6.000000000000 8.293998718262 49 49 49
13.281250000000 6.125000000000 8.282999038696 47 47 47
13.312500000000 6.250000000000 8.288999557495 48 48 48
13.343750000000 6.437500000000 8.286998748779 42 42 42
13.343750000000 6.500000000000 8.299999237061 32 32 32
13.406250000000 7.875000000000 8.352998733521 44 44 44
13.531250000000 10.250000000000 8.413000106812 35 35 35
13.531250000000 10.375000000000 8.407999038696 37 37 37
13.531250000000 10.562500000000 8.406999588013 53 53 53
13.531250000000 10.687500000000 8.426000595093 64 64 64
13.531250000000 10.750000000000 8.423000335693 76 76 76
13.531250000000 10.937500000000 8.430000305176 84 84 84
13.562500000000 11.062500000000 8.434000015259 79 79 79
13.531250000000 11.187500000000 8.444999694824 84 84 84
13.562500000000 11.375000000000 8.447999954224 95 95 95
13.562500000000 11.437500000000 8.452999114990 87 87 87
13.562500000000 11.562500000000 8.458999633789 87 87 87
13.562500000000 11.750000000000 8.470998764038 72 72 72
13.593750000000 11.875000000000 8.476999282837 70 70 70
13.593750000000 12.062500000000 8.469999313354 63 63 63
13.562500000000 12.125000000000 8.473999023438 59 59 59
13.593750000000 12.250000000000 8.482000350952 51 51 51
13.593750000000 12.437500000000 8.493999481201 48 48 48
13.593750000000 12.562500000000 8.489999771118 44 44 44
13.593750000000 12.687500000000 8.507999420166 27 27 27
13.750000000000 15.000000000000 8.597000122070 66 66 66
13.750000000000 15.187500000000 8.611999511719 77 77 77
13.718750000000 15.312500000000 8.618000030518 84 84 84
13.750000000000 15.500000000000 8.628999710083 78 78 78
13.781250000000 15.625000000000 8.614999771118 84 84 84
13.750000000000 15.687500000000 8.621999740601 71 71 71
13.781250000000 15.875000000000 8.645000457764 68 68 68
13.781250000000 16.000000000000 8.642000198364 78 78 78
13.781250000000 16.125000000000 8.649999618530 85 85 85
13.781250000000 16.312500000000 8.653999328613 78 78 78
13.781250000000 16.375000000000 8.670999526978 77 77 77
13.781250000000 16.500000000000 8.678998947144 50 50 50
13.906250000000 20.062500000000 8.697000503540 45 45 45
13.906250000000 20.187500000000 8.694000244141 65 65 65
13.906250000000 20.375000000000 8.697000503540 70 70 70
13.906250000000 20.500000000000 8.681999206543 64 64 64
13.937500000000 20.687500000000 8.688999176025 38 38 38
13.968750000000 23.312500000000 8.607999801636 27 27 27
13.968750000000 23.500000000000 8.597999572754 56 56 56
13.968750000000 23.562500000000 8.600999832153 56 56 56
13.968750000000 23.687500000000 8.601999282837 76 76 76
15.375000000000 0.062500000000 7.520000457764 137 137 137
15.375000000000 0.187500000000 7.520000457764 134 134 134
15.375000000000 0.375000000000 7.511999130249 134 134 134
15.406250000000 0.500000000000 7.521999359131 128 128 128
15.406250000000 0.625000000000 7.531000137329 136 136 136
16.343750000000 0.062500000000 6.572000503540 92 92 92
15.406250000000 0.812500000000 7.529998779297 135 135 135
16.406250000000 0.125000000000 7.584999084473 44 44 44
16.406250000000 0.187500000000 6.580999374390 86 86 86
15.406250000000 0.937500000000 7.531000137329 114 114 114
16.406250000000 0.250000000000 7.581998825073 92 92 92
16.406250000000 0.312500000000 6.591999053955 34 34 34
15.406250000000 1.062500000000 7.527000427246 114 114 114
16.437500000000 0.375000000000 7.586999893188 98 98 98
15.437500000000 1.187500000000 7.531999588013 100 100 100
16.437500000000 0.500000000000 7.602998733521 114 114 114
15.468750000000 1.312500000000 7.524999618530 87 87 87
16.437500000000 0.625000000000 7.600999832153 126 126 126
15.468750000000 1.437500000000 7.536998748779 65 65 65
16.468750000000 0.750000000000 7.607000350952 125 125 125
16.531250000000 0.812500000000 7.105998992920 49 49 49
15.468750000000 1.625000000000 7.527999877930 55 55 55
16.468750000000 0.875000000000 7.612998962402 117 117 117
16.500000000000 0.937500000000 7.111000061035 64 64 64
15.468750000000 1.750000000000 7.538000106812 44 44 44
16.500000000000 1.125000000000 7.617000579834 118 118 118
16.500000000000 1.125000000000 7.107999801636 86 86 86
16.406250000000 1.187500000000 6.635999679565 26 26 26
15.468750000000 1.812500000000 7.558000564575 46 46 46
16.531250000000 1.250000000000 7.607999801636 101 101 101
16.531250000000 1.250000000000 7.111000061035 97 97 97
16.406250000000 1.312500000000 6.638000488281 36 36 36
15.468750000000 2.000000000000 7.538999557495 58 58 58
16.500000000000 1.375000000000 7.617000579834 119 119 119
16.500000000000 1.375000000000 7.111999511719 90 90 90
16.406250000000 1.375000000000 6.636999130249 37 37 37
15.500000000000 2.125000000000 7.560998916626 44 44 44
16.500000000000 1.500000000000 7.618000030518 97 97 97
16.531250000000 1.500000000000 7.121999740601 108 108 108
16.406250000000 1.562500000000 6.640998840332 57 57 57
15.468750000000 2.250000000000 7.548000335693 42 42 42
16.531250000000 1.625000000000 7.628000259399 96 96 96
16.531250000000 1.625000000000 7.122999191284 112 112 112
16.406250000000 1.687500000000 6.638000488281 60 60 60
15.468750000000 2.437500000000 7.562999725342 61 61 61
16.531250000000 1.812500000000 7.636999130249 103 103 103
16.531250000000 1.812500000000 7.135999679565 107 107 107
16.406250000000 1.875000000000 6.645999908447 54 54 54
15.500000000000 2.500000000000 7.552000045776 53 53 53
16.531250000000 1.937500000000 7.635999679565 103 103 103
16.531250000000 1.937500000000 7.135000228882 113 113 113
16.406250000000 2.000000000000 6.652999877930 70 70 70
15.531250000000 2.625000000000 7.583000183105 33 33 33
16.531250000000 2.000000000000 7.635999679565 66 66 66
16.531250000000 2.000000000000 7.140998840332 125 125 125
16.437500000000 2.062500000000 6.649000167847 115 115 115
16.562500000000 2.187500000000 7.638999938965 42 42 42
16.593750000000 2.187500000000 7.142999649048 127 127 127
16.468750000000 2.187500000000 6.656999588013 130 130 130
16.562500000000 2.312500000000 7.139999389648 117 117 117
16.468750000000 2.375000000000 6.661998748779 136 136 136
16.562500000000 2.437500000000 7.138999938965 103 103 103
16.468750000000 2.500000000000 6.663999557495 138 138 138
16.593750000000 2.625000000000 7.145999908447 86 86 86
16.468750000000 2.625000000000 6.663000106812 129 129 129
16.593750000000 2.750000000000 7.157999038696 80 80 80
16.500000000000 2.812500000000 6.664999008179 133 133 133
16.593750000000 2.812500000000 7.149999618530 70 70 70
16.531250000000 2.937500000000 6.670999526978 125 125 125
16.593750000000 3.000000000000 7.159999847412 52 52 52
16.531250000000 3.125000000000 6.671998977661 110 110 110
13.281250000000 5.125000000000 8.257999420166 33 33 33
16.593750000000 3.125000000000 7.168998718262 49 49 49
16.531250000000 3.250000000000 6.678998947144 114 114 114
13.281250000000 5.312500000000 8.271999359131 75 75 75
16.593750000000 3.250000000000 7.163999557495 56 56 56
16.531250000000 3.375000000000 6.680999755859 114 114 114
16.531250000000 3.500000000000 6.683000564575 90 90 90
16.531250000000 3.625000000000 6.690999984741 65 65 65
16.531250000000 3.750000000000 6.688999176025 46 46 46
16.593750000000 3.812500000000 7.727998733521 21 21 21
15.593750000000 4.687500000000 7.646999359131 25 25 25
16.593750000000 4.000000000000 7.722000122070 49 49 49
13.312500000000 6.125000000000 8.329999923706 85 85 85
15.593750000000 4.750000000000 7.628999710083 39 39 39
16.593750000000 4.125000000000 7.722999572754 75 75 75
16.593750000000 4.187500000000 7.727998733521 72 72 72
13.343750000000 6.437500000000 8.350999832153 80 80 80
15.593750000000 5.062500000000 7.629999160767 63 63 63
16.593750000000 4.375000000000 7.732999801636 90 90 90
16.656250000000 4.312500000000 7.246999740601 30 30 30
15.593750000000 5.187500000000 7.638000488281 72 72 72
16.625000000000 4.500000000000 7.739000320435 106 106 106
16.656250000000 4.562500000000 7.232999801636 68 68 68
15.593750000000 5.375000000000 7.638000488281 70 70 70
16.625000000000 4.625000000000 7.754999160767 119 119 119
16.656250000000 4.687500000000 7.244998931885 96 96 96
16.531250000000 4.750000000000 6.747999191284 49 49 49
15.625000000000 5.437500000000 7.650999069214 96 96 96
16.625000000000 4.812500000000 7.751998901367 125 125 125
16.687500000000 4.875000000000 7.253999710083 114 114 114
16.593750000000 4.875000000000 6.756000518799 76 76 76
15.593750000000 5.625000000000 7.649999618530 89 89 89
16.656250000000 4.875000000000 7.767000198364 116 116 116
16.687500000000 4.937500000000 7.250000000000 127 127 127
16.593750000000 5.000000000000 6.756000518799 99 99 99
15.593750000000 5.750000000000 7.659000396729 106 106 106
16.656250000000 5.000000000000 7.768999099731 122 122 122
16.687500000000 5.062500000000 7.256999969482 129 129 129
16.593750000000 5.125000000000 6.767999649048 123 123 123
15.656250000000 5.875000000000 7.656999588013 108 108 108
16.656250000000 5.187500000000 7.770000457764 108 108 108
16.718750000000 5.250000000000 7.264999389648 125 125 125
16.593750000000 5.250000000000 6.761999130249 129 129 129
15.625000000000 6.000000000000 7.668998718262 126 126 126
16.656250000000 5.312500000000 7.777000427246 103 103 103
16.718750000000 5.375000000000 7.265998840332 124 124 124
16.593750000000 5.437500000000 6.767999649048 129 129 129
15.625000000000 6.125000000000 7.673000335693 129 129 129
16.687500000000 5.500000000000 7.767000198364 68 68 68
16.718750000000 5.500000000000 7.268999099731 101 101 101
16.593750000000 5.562500000000 6.777999877930 132 132 132
15.656250000000 6.250000000000 7.663999557495 119 119 119
16.718750000000 5.625000000000 7.789999008179 70 70 70
16.718750000000 5.625000000000 7.277000427246 95 95 95
16.593750000000 5.625000000000 6.772998809814 133 133 133
15.656250000000 6.375000000000 7.681999206543 145 145 145
16.750000000000 5.750000000000 7.284999847412 40 40 40
16.625000000000 5.812500000000 6.777999877930 103 103 103
15.656250000000 6.562500000000 7.684000015259 147 147 147
16.593750000000 5.937500000000 6.781999588013 85 85 85
15.656250000000 6.687500000000 7.678998947144 149 149 149
16.625000000000 6.062500000000 6.788000106812 49 49 49
15.687500000000 6.812500000000 7.690000534058 149 149 149
15.656250000000 6.937500000000 7.702999114990 148 148 148
15.656250000000 7.062500000000 7.701999664307 153 153 153
15.718750000000 7.250000000000 7.697999954224 147 147 147
15.687500000000 7.375000000000 7.705999374390 145 145 145
15.687500000000 7.500000000000 7.708000183105 149 149 149
16.718750000000 6.875000000000 7.854000091553 50 50 50
16.718750000000 6.875000000000 7.347000122070 78 78 78
16.656250000000 6.937500000000 6.851999282837 21 21 21
15.718750000000 7.625000000000 7.715000152588 144 144 144
16.718750000000 7.062500000000 7.857999801636 71 71 71
16.750000000000 7.000000000000 7.357000350952 99 99 99
16.656250000000 7.062500000000 6.871000289917 52 52 52
15.687500000000 7.750000000000 7.715999603271 140 140 140
16.750000000000 7.125000000000 7.864000320435 84 84 84
16.781250000000 7.125000000000 7.361999511719 113 113 113
16.656250000000 7.125000000000 6.864999771118 80 80 80
15.718750000000 7.875000000000 7.725000381470 145 145 145
16.718750000000 7.250000000000 7.871999740601 98 98 98
16.781250000000 7.250000000000 7.371000289917 127 127 127
16.687500000000 7.375000000000 6.868999481201 104 104 104
15.718750000000 8.062500000000 7.729999542236 142 142 142
16.750000000000 7.437500000000 7.888999938965 116 116 116
16.781250000000 7.375000000000 7.372999191284 132 132 132
16.718750000000 7.500000000000 6.868999481201 122 122 122
15.718750000000 8.187500000000 7.720998764038 140 140 140
16.781250000000 7.562500000000 7.889999389648 116 116 116
16.781250000000 7.562500000000 7.378999710083 128 128 128
16.718750000000 7.625000000000 6.876998901367 133 133 133
15.718750000000 8.250000000000 7.732999801636 130 130 130
16.781250000000 7.687500000000 7.890998840332 118 118 118
16.843750000000 7.687500000000 7.381999969482 104 104 104
16.687500000000 7.750000000000 6.875000000000 132 132 132
15.750000000000 8.437500000000 7.729999542236 132 132 132
16.781250000000 7.812500000000 7.899000167847 115 115 115
16.812500000000 7.750000000000 7.389999389648 96 96 96
16.718750000000 7.875000000000 6.885999679565 132 132 132
15.750000000000 8.562500000000 7.735000610352 112 112 112
16.781250000000 7.937500000000 7.900999069214 99 99 99
16.812500000000 7.937500000000 7.392000198364 52 52 52
16.718750000000 8.062500000000 6.875999450684 107 107 107
15.718750000000 8.750000000000 7.740999221802 120 120 120
16.812500000000 8.062500000000 7.904998779297 96 96 96
16.843750000000 8.062500000000 7.409000396729 45 45 45
16.750000000000 8.187500000000 6.889999389648 96 96 96
15.750000000000 8.875000000000 7.743000030518 123 123 123
16.781250000000 8.250000000000 7.909999847412 79 79 79
16.718750000000 8.312500000000 6.893999099731 82 82 82
15.781250000000 8.937500000000 7.760000228882 132 132 132
16.781250000000 8.375000000000 7.921998977661 79 79 79
16.750000000000 8.500000000000 6.899999618530 72 72 72
15.781250000000 9.187500000000 7.756999969482 135 135 135
16.812500000000 8.437500000000 7.920999526978 74 74 74
16.781250000000 8.562500000000 6.903999328613 50 50 50
15.781250000000 9.312500000000 7.768999099731 129 129 129
16.843750000000 8.625000000000 7.931999206543 50 50 50
16.781250000000 8.687500000000 6.916000366211 31 31 31
15.812500000000 9.437500000000 7.767999649048 135 135 135
16.812500000000 8.750000000000 7.931999206543 45 45 45
16.781250000000 8.875000000000 6.923999786377 22 22 22
15.812500000000 9.625000000000 7.770999908447 121 121 121
15.812500000000 9.687500000000 7.781999588013 117 117 117
15.843750000000 9.812500000000 7.774000167847 103 103 103
16.843750000000 9.125000000000 7.487998962402 21 21 21
15.843750000000 10.000000000000 7.781999588013 89 89 89
16.843750000000 9.312500000000 7.482999801636 75 75 75
16.781250000000 9.375000000000 6.979000091553 47 47 47
15.812500000000 10.125000000000 7.786998748779 89 89 89
16.843750000000 9.437500000000 7.486999511719 99 99 99
16.781250000000 9.562500000000 6.983999252319 76 76 76
15.843750000000 10.250000000000 7.785999298096 96 96 96
16.843750000000 9.562500000000 7.493000030518 104 104 104
16.781250000000 9.687500000000 6.982999801636 86 86 86
15.843750000000 10.375000000000 7.795999526978 97 97 97
16.875000000000 9.750000000000 7.503999710083 122 122 122
16.781250000000 9.812500000000 6.989999771118 103 103 103
15.843750000000 10.500000000000 7.798999786377 104 104 104
16.906250000000 9.875000000000 7.520999908447 128 128 128
16.812500000000 9.937500000000 6.999000549316 115 115 115
15.843750000000 10.687500000000 7.812000274658 104 104 104
16.843750000000 10.000000000000 8.024000167847 32 32 32
16.906250000000 10.000000000000 7.520000457764 128 128 128
16.781250000000 10.062500000000 7.007999420166 129 129 129
15.843750000000 10.812500000000 7.819000244141 119 119 119
16.875000000000 10.187500000000 8.038000106812 35 35 35
16.906250000000 10.187500000000 7.532999038696 132 132 132
16.812500000000 10.187500000000 7.020000457764 129 129 129
15.875000000000 10.937500000000 7.822000503540 112 112 112
16.875000000000 10.312500000000 8.038999557495 63 63 63
16.937500000000 10.312500000000 7.534999847412 129 129 129
16.843750000000 10.375000000000 7.013999938965 134 134 134
15.843750000000 11.062500000000 7.816999435425 102 102 102
16.906250000000 10.500000000000 8.062000274658 83 83 83
16.968750000000 10.437500000000 7.543998718262 121 121 121
16.843750000000 10.500000000000 7.032999038696 131 131 131
15.875000000000 11.187500000000 7.836000442505 114 114 114
16.906250000000 10.562500000000 8.069999694824 82 82 82
16.937500000000 10.562500000000 7.548999786377 116 116 116
16.843750000000 10.562500000000 7.039999008179 129 129 129
15.906250000000 11.312500000000 7.833000183105 77 77 77
16.906250000000 10.687500000000 8.072000503540 112 112 112
16.968750000000 10.687500000000 7.552999496460 72 72 72
16.843750000000 10.750000000000 7.039999008179 97 97 97
15.875000000000 11.500000000000 7.840999603271 83 83 83
16.906250000000 10.875000000000 8.074998855591 118 118 118
16.968750000000 10.812500000000 7.565000534058 47 47 47
16.843750000000 10.875000000000 7.034999847412 70 70 70
15.906250000000 11.625000000000 7.838998794556 72 72 72
16.937500000000 10.937500000000 8.087999343872 112 112 112
16.843750000000 11.000000000000 7.052999496460 22 22 22
15.906250000000 11.750000000000 7.854999542236 86 86 86
16.906250000000 11.062500000000 8.090000152588 120 120 120
15.906250000000 11.875000000000 7.850000381470 85 85 85
16.968750000000 11.312500000000 8.102998733521 106 106 106
15.906250000000 12.000000000000 7.861999511719 96 96 96
16.937500000000 11.375000000000 8.108999252319 112 112 112
15.906250000000 12.187500000000 7.860000610352 108 108 108
16.968750000000 11.500000000000 8.107999801636 108 108 108
15.937500000000 12.312500000000 7.868999481201 85 85 85
16.968750000000 11.687500000000 8.112998962402 85 85 85
15.906250000000 12.437500000000 7.871999740601 77 77 77
16.968750000000 11.812500000000 8.135000228882 76 76 76
15.906250000000 12.562500000000 7.885000228882 83 83 83
16.968750000000 11.937500000000 8.132999420166 65 65 65
16.875000000000 12.000000000000 7.145000457764 27 27 27
15.968750000000 12.687500000000 7.903999328613 58 58 58
16.968750000000 12.062500000000 8.140998840332 22 22 22
16.968750000000 12.062500000000 7.657999038696 71 71 71
16.906250000000 12.062500000000 7.138000488281 101 101 101
15.937500000000 12.812500000000 7.899999618530 44 44 44
17.000000000000 12.187500000000 7.663000106812 110 110 110
16.906250000000 12.250000000000 7.142000198364 133 133 133
15.937500000000 13.000000000000 7.888999938965 28 28 28
17.000000000000 12.312500000000 7.666999816895 124 124 124
16.906250000000 12.375000000000 7.153999328613 138 138 138
17.031250000000 12.500000000000 7.681999206543 131 131 131
16.906250000000 12.500000000000 7.157999038696 133 133 133
17.031250000000 12.625000000000 7.690999984741 128 128 128
16.937500000000 12.687500000000 7.163999557495 113 113 113
17.000000000000 12.750000000000 8.208000183105 28 28 28
17.062500000000 12.687500000000 7.691999435425 122 122 122
16.968750000000 12.750000000000 7.170000076294 103 103 103
16.968750000000 12.875000000000 8.229000091553 37 37 37
17.031250000000 12.875000000000 7.701000213623 98 98 98
16.937500000000 12.875000000000 7.170999526978 73 73 73
17.000000000000 13.000000000000 8.222000122070 60 60 60
17.031250000000 13.000000000000 7.699998855591 84 84 84
16.968750000000 13.062500000000 7.180999755859 54 54 54
17.031250000000 13.187500000000 8.235000610352 75 75 75
17.093750000000 13.125000000000 7.711000442505 63 63 63
17.000000000000 13.312500000000 8.246000289917 85 85 85
17.062500000000 13.312500000000 7.727998733521 25 25 25
17.031250000000 13.375000000000 8.253999710083 105 105 105
17.031250000000 13.562500000000 8.257999420166 107 107 107
17.031250000000 13.687500000000 8.257999420166 98 98 98
16.968750000000 13.812500000000 7.246000289917 88 88 88
15.968750000000 14.500000000000 7.982000350952 68 68 68
17.031250000000 13.812500000000 8.268999099731 93 93 93
17.031250000000 13.812500000000 7.784999847412 67 67 67
17.000000000000 13.937500000000 7.258998870850 137 137 137
15.968750000000 14.625000000000 7.982999801636 88 88 88
17.093750000000 14.000000000000 8.277000427246 51 51 51
17.093750000000 14.000000000000 7.789999008179 108 108 108
16.968750000000 14.000000000000 7.264999389648 144 144 144
15.968750000000 14.750000000000 7.990999221802 101 101 101
17.093750000000 14.125000000000 8.284999847412 17 17 17
17.093750000000 14.125000000000 7.806999206543 131 131 131
17.000000000000 14.187500000000 7.264999389648 138 138 138
16.000000000000 14.875000000000 7.997999191284 95 95 95
17.093750000000 14.187500000000 7.815000534058 132 132 132
17.031250000000 14.312500000000 7.267999649048 119 119 119
16.000000000000 15.000000000000 7.996999740601 104 104 104
17.093750000000 14.375000000000 7.819000244141 123 123 123
17.031250000000 14.437500000000 7.282999038696 90 90 90
16.031250000000 15.250000000000 8.003999710083 110 110 110
17.125000000000 14.500000000000 7.822000503540 118 118 118
17.031250000000 14.625000000000 7.291999816895 61 61 61
16.031250000000 15.312500000000 8.013000488281 116 116 116
17.093750000000 14.625000000000 7.829999923706 88 88 88
17.062500000000 14.750000000000 7.312000274658 24 24 24
16.031250000000 15.500000000000 8.006999969482 125 125 125
17.125000000000 14.812500000000 7.843000411987 55 55 55
13.781250000000 16.812500000000 8.733999252319 96 96 96
16.031250000000 15.625000000000 8.013000488281 175 175 175
13.781250000000 17.125000000000 8.753000259399 77 77 77
16.031250000000 15.750000000000 8.017999649048 147 147 147
17.093750000000 15.062500000000 8.375000000000 39 39 39
13.781250000000 17.187500000000 8.729999542236 77 77 77
16.093750000000 15.875000000000 8.038000106812 140 140 140
17.093750000000 15.187500000000 8.378999710083 72 72 72
17.031250000000 15.312500000000 7.355998992920 75 75 75
13.781250000000 17.375000000000 8.716999053955 77 77 77
16.062500000000 16.062500000000 8.051000595093 153 153 153
17.093750000000 15.312500000000 8.399999618530 96 96 96
17.062500000000 15.437500000000 7.360000610352 125 125 125
16.093750000000 16.125000000000 8.048000335693 155 155 155
17.125000000000 15.500000000000 8.393999099731 145 145 145
17.156250000000 15.500000000000 7.907999038696 73 73 73
17.031250000000 15.562500000000 7.368000030518 139 139 139
13.812500000000 17.625000000000 8.716999053955 69 69 69
16.062500000000 16.250000000000 8.059999465942 157 157 157
17.125000000000 15.562500000000 8.404998779297 163 163 163
17.125000000000 15.562500000000 7.911998748779 92 92 92
17.093750000000 15.687500000000 7.382999420166 138 138 138
13.812500000000 17.812500000000 8.739000320435 78 78 78
16.093750000000 16.437500000000 8.066999435425 133 133 133
17.125000000000 15.750000000000 8.403999328613 167 167 167
17.156250000000 15.687500000000 7.930000305176 123 123 123
17.093750000000 15.812500000000 7.376998901367 124 124 124
13.843750000000 17.875000000000 8.729999542236 75 75 75
16.093750000000 16.562500000000 8.070999145508 149 149 149
17.156250000000 15.875000000000 8.421998977661 130 130 130
17.156250000000 15.875000000000 7.927999496460 125 125 125
17.093750000000 15.937500000000 7.376998901367 137 137 137
16.093750000000 16.750000000000 8.073999404907 138 138 138
17.156250000000 16.000000000000 8.435998916626 53 53 53
17.156250000000 16.000000000000 7.927999496460 179 179 179
17.093750000000 16.125000000000 7.388000488281 100 100 100
16.125000000000 16.812500000000 8.079999923706 144 144 144
17.156250000000 16.125000000000 8.438999176025 34 34 34
17.156250000000 16.125000000000 7.945999145508 155 155 155
17.093750000000 16.250000000000 7.403999328613 84 84 84
16.125000000000 16.937500000000 8.090000152588 136 136 136
17.187500000000 16.250000000000 7.956998825073 115 115 115
13.843750000000 18.500000000000 8.739000320435 74 74 74
16.156250000000 17.125000000000 8.104000091553 129 129 129
17.218750000000 16.375000000000 7.966999053955 75 75 75
13.843750000000 18.562500000000 8.742000579834 100 100 100
16.156250000000 17.250000000000 8.111000061035 120 120 120
17.218750000000 16.500000000000 7.992000579834 29 29 29
13.843750000000 18.750000000000 8.732999801636 84 84 84
16.156250000000 17.375000000000 8.108999252319 107 107 107
17.093750000000 16.812500000000 7.466999053955 51 51 51
13.843750000000 18.875000000000 8.729000091553 78 78 78
16.156250000000 17.500000000000 8.121000289917 87 87 87
17.125000000000 16.937500000000 7.476999282837 106 106 106
13.843750000000 19.000000000000 8.754999160767 69 69 69
16.156250000000 17.625000000000 8.122999191284 74 74 74
17.156250000000 17.000000000000 8.534000396729 54 54 54
17.093750000000 17.000000000000 7.486999511719 123 123 123
13.843750000000 19.187500000000 8.756000518799 74 74 74
16.156250000000 17.750000000000 8.112998962402 52 52 52
17.156250000000 17.062500000000 8.539999008179 86 86 86
17.218750000000 17.062500000000 8.048999786377 80 80 80
17.156250000000 17.187500000000 7.501998901367 120 120 120
13.875000000000 19.250000000000 8.779998779297 83 83 83
16.156250000000 17.937500000000 8.143999099731 58 58 58
17.187500000000 17.187500000000 8.542999267578 101 101 101
17.218750000000 17.187500000000 8.056999206543 98 98 98
17.156250000000 17.312500000000 7.501998901367 103 103 103
17.187500000000 17.375000000000 8.562999725342 114 114 114
17.218750000000 17.375000000000 8.072999954224 120 120 120
17.156250000000 17.437500000000 7.500999450684 79 79 79
17.218750000000 17.500000000000 8.570999145508 110 110 110
17.218750000000 17.500000000000 8.080999374390 132 132 132
17.250000000000 17.625000000000 8.090000152588 117 117 117
17.250000000000 17.750000000000 8.590000152588 103 103 103
16.218750000000 18.562500000000 8.164999008179 100 100 100
16.218750000000 18.750000000000 8.166999816895 140 140 140
16.218750000000 18.875000000000 8.180000305176 154 154 154
16.218750000000 19.000000000000 8.138000488281 107 107 107
16.218750000000 19.125000000000 8.131000518799 112 112 112
16.187500000000 19.250000000000 8.119998931885 141 141 141
16.218750000000 19.437500000000 8.107999801636 172 172 172
16.218750000000 19.562500000000 8.107999801636 144 144 144
17.281250000000 18.937500000000 8.602998733521 75 75 75
16.218750000000 19.687500000000 8.111000061035 157 157 157
17.281250000000 19.062500000000 8.600000381470 85 85 85
17.312500000000 19.062500000000 8.104999542236 93 93 93
17.218750000000 19.125000000000 7.539999008179 26 26 26
16.218750000000 19.812500000000 8.125000000000 122 122 122
17.281250000000 19.187500000000 8.588998794556 96 96 96
17.343750000000 19.125000000000 8.098999023438 98 98 98
17.218750000000 19.187500000000 7.532999038696 67 67 67
16.218750000000 19.937500000000 8.117000579834 109 109 109
17.281250000000 19.312500000000 8.583000183105 87 87 87
17.281250000000 19.312500000000 8.090000152588 87 87 87
17.187500000000 19.375000000000 7.517999649048 96 96 96
16.218750000000 20.125000000000 8.104000091553 77 77 77
17.281250000000 19.437500000000 8.587999343872 56 56 56
17.312500000000 19.437500000000 8.093999862671 35 35 35
17.218750000000 19.500000000000 7.518999099731 96 96 96
16.218750000000 20.250000000000 8.100000381470 81 81 81
17.281250000000 19.625000000000 8.565000534058 38 38 38
17.218750000000 19.625000000000 7.506999969482 76 76 76
16.218750000000 20.375000000000 8.104999542236 47 47 47
17.187500000000 19.812500000000 7.506999969482 29 29 29
16.218750000000 20.500000000000 8.102998733521 34 34 34
17.343750000000 20.125000000000 8.028999328613 36 36 36
17.343750000000 20.250000000000 8.506999969482 16 16 16
17.343750000000 20.250000000000 8.024000167847 64 64 64
17.343750000000 20.437500000000 8.496999740601 70 70 70
17.343750000000 20.437500000000 8.020000457764 100 100 100
17.250000000000 20.500000000000 7.451999664307 63 63 63
17.343750000000 20.500000000000 8.493999481201 76 76 76
17.343750000000 20.500000000000 8.006000518799 103 103 103
17.281250000000 20.562500000000 7.451999664307 74 74 74
17.343750000000 20.687500000000 8.486999511719 94 94 94
17.343750000000 20.625000000000 7.997999191284 100 100 100
17.218750000000 20.687500000000 7.434000015259 97 97 97
17.343750000000 20.812500000000 8.482999801636 102 102 102
17.343750000000 20.812500000000 7.989000320435 90 90 90
17.250000000000 20.875000000000 7.438999176025 96 96 96
17.343750000000 20.937500000000 8.473999023438 93 93 93
17.343750000000 20.937500000000 7.999000549316 53 53 53
17.250000000000 21.000000000000 7.427999496460 75 75 75
17.312500000000 21.125000000000 8.472999572754 87 87 87
17.218750000000 21.125000000000 7.423000335693 56 56 56
16.281250000000 21.875000000000 8.045000076294 62 62 62
17.343750000000 21.250000000000 8.465000152588 47 47 47
16.281250000000 22.000000000000 8.035999298096 50 50 50
17.343750000000 21.375000000000 8.452999114990 18 18 18
16.281250000000 22.125000000000 8.038999557495 66 66 66
16.281250000000 22.312500000000 8.034000396729 84 84 84
16.281250000000 22.437500000000 8.024999618530 82 82 82
17.406250000000 21.750000000000 7.937000274658 25 25 25
16.281250000000 22.500000000000 8.024999618530 98 98 98
17.406250000000 21.937500000000 7.927000045776 67 67 67
17.281250000000 22.000000000000 7.371000289917 59 59 59
16.281250000000 22.687500000000 8.017999649048 101 101 101
17.406250000000 22.000000000000 7.917999267578 90 90 90
17.312500000000 22.125000000000 7.365999221802 77 77 77
16.312500000000 22.812500000000 8.027000427246 112 112 112
17.375000000000 22.187500000000 8.388000488281 22 22 22
17.406250000000 22.187500000000 7.913999557495 99 99 99
17.312500000000 22.250000000000 7.354999542236 96 96 96
16.281250000000 23.000000000000 8.008998870850 102 102 102
17.406250000000 22.312500000000 8.395999908447 33 33 33
17.406250000000 22.312500000000 7.903999328613 100 100 100
17.312500000000 22.437500000000 7.345998764038 93 93 93
16.312500000000 23.125000000000 8.015998840332 111 111 111
17.375000000000 22.437500000000 8.382999420166 69 69 69
17.375000000000 22.437500000000 7.900999069214 93 93 93
17.312500000000 22.562500000000 7.348999023438 95 95 95
16.312500000000 23.187500000000 8.008998870850 125 125 125
17.375000000000 22.625000000000 8.375000000000 91 91 91
17.406250000000 22.625000000000 7.895999908447 77 77 77
17.312500000000 22.750000000000 7.344999313354 61 61 61
16.312500000000 23.375000000000 8.011999130249 117 117 117
17.406250000000 22.687500000000 8.371000289917 93 93 93
17.406250000000 22.687500000000 7.882999420166 57 57 57
17.312500000000 22.812500000000 7.340999603271 46 46 46
16.343750000000 23.562500000000 8.003999710083 128 128 128
17.406250000000 22.875000000000 8.361000061035 85 85 85
16.343750000000 23.750000000000 8.006000518799 131 131 131
17.343750000000 23.000000000000 8.361999511719 67 67 67
17.375000000000 23.187500000000 8.354000091553 60 60 60
17.437500000000 23.500000000000 7.836000442505 26 26 26
17.343750000000 23.625000000000 7.284000396729 53 53 53
17.468750000000 23.687500000000 7.826000213623 41 41 41
16.343750000000 23.750000000000 8.006000518799 69 69 69
16.343750000000 23.562500000000 8.013999938965 101 101 101
16.343750000000 23.375000000000 8.014999389648 96 96 96
16.343750000000 23.187500000000 8.014999389648 100 100 100
17.437500000000 23.687500000000 7.813999176025 58 58 58
17.437500000000 23.687500000000 8.301000595093 106 106 106
16.312500000000 23.125000000000 8.013000488281 122 122 122
17.343750000000 23.500000000000 7.275999069214 60 60 60
17.406250000000 23.500000000000 7.829000473022 80 80 80
17.406250000000 23.500000000000 8.295999526978 88 88 88
16.312500000000 22.937500000000 8.027000427246 133 133 133
17.343750000000 23.375000000000 7.284999847412 86 86 86
17.406250000000 23.375000000000 7.823999404907 101 101 101
17.406250000000 23.375000000000 8.306999206543 73 73 73
16.343750000000 22.812500000000 8.028999328613 133 133 133
17.312500000000 23.187500000000 7.291999816895 117 117 117
17.468750000000 23.250000000000 7.833999633789 115 115 115
17.437500000000 23.312500000000 8.312000274658 57 57 57
16.281250000000 22.625000000000 8.032999038696 137 137 137
17.312500000000 23.062500000000 7.292999267578 114 114 114
17.437500000000 23.125000000000 7.840000152588 101 101 101
16.281250000000 22.437500000000 8.020999908447 141 141 141
17.343750000000 22.875000000000 7.288999557495 101 101 101
17.437500000000 23.000000000000 7.843000411987 86 86 86
16.343750000000 22.375000000000 8.034999847412 143 143 143
17.343750000000 22.750000000000 7.303998947144 61 61 61
17.437500000000 22.750000000000 7.840999603271 56 56 56
16.312500000000 22.187500000000 8.045000076294 138 138 138
16.281250000000 22.062500000000 8.034999847412 129 129 129
17.343750000000 22.500000000000 8.381999969482 52 52 52
16.281250000000 21.812500000000 8.041999816895 112 112 112
17.406250000000 22.312500000000 8.381999969482 82 82 82
16.281250000000 21.750000000000 8.041999816895 102 102 102
17.375000000000 22.187500000000 8.388000488281 105 105 105
16.281250000000 21.625000000000 8.038000106812 81 81 81
17.281250000000 22.000000000000 7.358999252319 81 81 81
17.406250000000 22.000000000000 7.913999557495 40 40 40
17.375000000000 22.000000000000 8.395000457764 114 114 114
16.312500000000 21.437500000000 8.053998947144 69 69 69
17.281250000000 21.812500000000 7.361999511719 115 115 115
17.406250000000 21.937500000000 7.916999816895 98 98 98
17.343750000000 21.875000000000 8.388999938965 99 99 99
17.281250000000 21.687500000000 7.358999252319 108 108 108
17.406250000000 21.750000000000 7.923999786377 105 105 105
17.343750000000 21.687500000000 8.402000427246 93 93 93
17.281250000000 21.500000000000 7.362998962402 94 94 94
17.375000000000 21.562500000000 7.918998718262 111 111 111
17.343750000000 21.562500000000 8.413999557495 71 71 71
17.281250000000 21.375000000000 7.362998962402 74 74 74
17.406250000000 21.375000000000 7.921998977661 97 97 97
17.406250000000 21.375000000000 8.418998718262 27 27 27
17.406250000000 21.250000000000 7.923000335693 42 42 42
17.375000000000 21.187500000000 7.937999725342 27 27 27
16.218750000000 20.375000000000 8.100000381470 34 34 34
17.250000000000 20.750000000000 7.428998947144 42 42 42
17.343750000000 20.812500000000 8.470998764038 65 65 65
16.187500000000 20.187500000000 8.097999572754 61 61 61
13.843750000000 18.937500000000 8.771999359131 77 77 77
17.250000000000 20.562500000000 7.430999755859 87 87 87
17.312500000000 20.625000000000 8.479999542236 89 89 89
16.218750000000 20.062500000000 8.100999832153 77 77 77
13.906250000000 18.750000000000 8.750999450684 85 85 85
17.250000000000 20.500000000000 7.435998916626 110 110 110
17.375000000000 20.500000000000 8.003999710083 70 70 70
17.343750000000 20.500000000000 8.482999801636 108 108 108
16.218750000000 19.875000000000 8.100999832153 88 88 88
13.843750000000 18.562500000000 8.727998733521 100 100 100
17.218750000000 20.312500000000 7.434000015259 104 104 104
17.343750000000 20.375000000000 7.996000289917 102 102 102
17.343750000000 20.375000000000 8.493000030518 118 118 118
16.218750000000 19.750000000000 8.107999801636 175 175 175
13.875000000000 18.500000000000 8.730998992920 79 79 79
17.218750000000 20.187500000000 7.440999984741 88 88 88
17.343750000000 20.187500000000 8.015998840332 112 112 112
17.312500000000 20.187500000000 8.485000610352 115 115 115
16.218750000000 19.562500000000 8.100999832153 162 162 162
17.250000000000 20.000000000000 7.434000015259 45 45 45
17.343750000000 20.062500000000 8.011999130249 112 112 112
17.343750000000 20.062500000000 8.500999450684 98 98 98
16.187500000000 19.437500000000 8.086999893188 184 184 184
17.343750000000 19.875000000000 8.028999328613 95 95 95
17.343750000000 19.875000000000 8.499000549316 65 65 65
16.187500000000 19.250000000000 8.107000350952 184 184 184
17.343750000000 19.812500000000 8.024999618530 58 58 58
16.218750000000 19.125000000000 8.125999450684 134 134 134
13.843750000000 17.812500000000 8.718000411987 96 96 96
16.218750000000 19.000000000000 8.131000518799 146 146 146
13.843750000000 17.750000000000 8.718000411987 93 93 93
17.218750000000 19.437500000000 7.520000457764 66 66 66
16.218750000000 18.875000000000 8.129999160767 131 131 131
13.843750000000 17.562500000000 8.718999862671 90 90 90
17.218750000000 19.187500000000 7.503000259399 106 106 106
17.250000000000 19.250000000000 8.576000213623 27 27 27
16.218750000000 18.687500000000 8.129999160767 145 145 145
17.218750000000 19.125000000000 7.514999389648 109 109 109
17.343750000000 19.125000000000 8.094999313354 51 51 51
17.281250000000 19.062500000000 8.584999084473 69 69 69
13.812500000000 17.187500000000 8.736000061035 90 90 90
17.218750000000 18.937500000000 7.515998840332 92 92 92
17.281250000000 19.000000000000 8.097000122070 89 89 89
17.281250000000 19.000000000000 8.590000152588 95 95 95
16.218750000000 18.000000000000 8.161998748779 165 165 165
16.187500000000 17.750000000000 8.159000396729 179 179 179
16.156250000000 17.625000000000 8.108999252319 121 121 121
16.125000000000 17.500000000000 8.107000350952 117 117 117
16.156250000000 17.312500000000 8.100000381470 119 119 119
17.156250000000 17.687500000000 7.520000457764 53 53 53
17.281250000000 17.750000000000 8.090000152588 103 103 103
17.250000000000 17.750000000000 8.583000183105 94 94 94
16.156250000000 17.187500000000 8.097000122070 121 121 121
17.156250000000 17.625000000000 7.515998840332 98 98 98
17.250000000000 17.625000000000 8.084999084473 89 89 89
17.218750000000 17.625000000000 8.579999923706 84 84 84
16.093750000000 16.937500000000 8.080999374390 124 124 124
17.093750000000 17.375000000000 7.489999771118 100 100 100
17.250000000000 17.500000000000 8.069000244141 51 51 51
17.218750000000 17.437500000000 8.562999725342 48 48 48
16.093750000000 16.812500000000 8.086000442505 122 122 122
17.156250000000 17.250000000000 7.500000000000 79 79 79
16.093750000000 16.750000000000 8.080999374390 117 117 117
17.125000000000 17.062500000000 7.486000061035 59 59 59
16.093750000000 16.562500000000 8.069000244141 119 119 119
16.093750000000 16.375000000000 8.058000564575 98 98 98
16.093750000000 16.187500000000 8.059999465942 81 81 81
17.218750000000 16.750000000000 7.977998733521 54 54 54
16.093750000000 16.062500000000 8.056999206543 67 67 67
17.093750000000 16.500000000000 7.416000366211 34 34 34
17.218750000000 16.500000000000 7.975999832153 85 85 85
17.187500000000 16.500000000000 8.455999374390 49 49 49
16.062500000000 15.937500000000 8.038999557495 47 47 47
17.125000000000 16.312500000000 7.392999649048 83 83 83
17.218750000000 16.375000000000 7.959999084473 88 88 88
17.218750000000 16.375000000000 8.452999114990 71 71 71
16.031250000000 15.750000000000 8.027999877930 76 76 76
17.093750000000 16.187500000000 7.393999099731 128 128 128
17.218750000000 16.250000000000 7.949998855591 112 112 112
17.218750000000 16.250000000000 8.447999954224 77 77 77
16.031250000000 15.625000000000 8.010000228882 122 122 122
17.093750000000 16.062500000000 7.385999679565 154 154 154
17.156250000000 16.062500000000 7.938999176025 109 109 109
17.156250000000 16.062500000000 8.435998916626 87 87 87
16.031250000000 15.500000000000 8.006999969482 83 83 83
17.093750000000 15.875000000000 7.386999130249 156 156 156
17.156250000000 15.937500000000 7.934000015259 91 91 91
17.156250000000 15.937500000000 8.431999206543 108 108 108
16.031250000000 15.312500000000 8.013000488281 70 70 70
17.093750000000 15.750000000000 7.382999420166 117 117 117
17.156250000000 15.750000000000 7.920000076294 41 41 41
17.125000000000 15.750000000000 8.407999038696 118 118 118
17.125000000000 15.562500000000 8.406000137329 117 117 117
17.125000000000 15.500000000000 8.385999679565 89 89 89
17.156250000000 15.187500000000 7.858999252319 48 48 48
17.031250000000 14.937500000000 7.286998748779 64 64 64
17.156250000000 15.000000000000 7.840999603271 80 80 80
17.031250000000 14.812500000000 7.295999526978 110 110 110
17.156250000000 14.812500000000 7.836999893188 101 101 101
17.031250000000 14.687500000000 7.277999877930 118 118 118
17.093750000000 14.750000000000 7.831998825073 101 101 101
17.093750000000 14.750000000000 8.313999176025 41 41 41
17.031250000000 14.500000000000 7.279998779297 123 123 123
17.156250000000 14.562500000000 7.822999954224 106 106 106
17.156250000000 14.562500000000 8.315999984741 60 60 60
17.000000000000 14.312500000000 7.275999069214 107 107 107
17.125000000000 14.437500000000 7.816999435425 89 89 89
17.093750000000 14.375000000000 8.296998977661 87 87 87
17.000000000000 14.187500000000 7.260000228882 84 84 84
17.093750000000 14.187500000000 7.813999176025 72 72 72
17.093750000000 14.187500000000 8.286998748779 87 87 87
16.968750000000 14.000000000000 7.254999160767 29 29 29
17.093750000000 14.125000000000 7.799999237061 41 41 41
17.093750000000 14.125000000000 8.275999069214 99 99 99
16.000000000000 13.500000000000 7.920999526978 35 35 35
17.062500000000 13.937500000000 8.279998779297 96 96 96
15.968750000000 13.312500000000 7.906999588013 28 28 28
17.031250000000 13.750000000000 8.268999099731 95 95 95
15.968750000000 13.187500000000 7.900999069214 45 45 45
17.093750000000 13.625000000000 8.264999389648 86 86 86
15.968750000000 13.062500000000 7.890998840332 43 43 43
17.031250000000 13.375000000000 8.257999420166 76 76 76
15.968750000000 12.875000000000 7.909999847412 40 40 40
16.937500000000 13.250000000000 7.171998977661 63 63 63
17.031250000000 13.312500000000 8.233999252319 47 47 47
15.968750000000 12.687500000000 7.882999420166 67 67 67
16.968750000000 13.125000000000 7.167999267578 91 91 91
17.093750000000 13.187500000000 7.711000442505 51 51 51
15.937500000000 12.562500000000 7.888999938965 82 82 82
16.968750000000 13.000000000000 7.159999847412 114 114 114
17.031250000000 13.000000000000 7.697999954224 86 86 86
15.937500000000 12.437500000000 7.875000000000 76 76 76
16.937500000000 12.750000000000 7.153999328613 122 122 122
17.031250000000 12.875000000000 7.704000473022 103 103 103
15.906250000000 12.250000000000 7.868999481201 87 87 87
16.937500000000 12.687500000000 7.149000167847 116 116 116
17.062500000000 12.687500000000 7.680000305176 103 103 103
15.906250000000 12.062500000000 7.862998962402 88 88 88
16.906250000000 12.500000000000 7.139999389648 99 99 99
17.031250000000 12.562500000000 7.681999206543 111 111 111
15.906250000000 11.937500000000 7.854000091553 98 98 98
16.906250000000 12.375000000000 7.135999679565 78 78 78
17.031250000000 12.375000000000 7.676000595093 98 98 98
15.906250000000 11.812500000000 7.847999572754 101 101 101
16.906250000000 12.187500000000 7.126998901367 39 39 39
17.031250000000 12.250000000000 7.656999588013 75 75 75
15.906250000000 11.625000000000 7.851999282837 110 110 110
17.000000000000 12.062500000000 7.663999557495 59 59 59
16.968750000000 12.062500000000 8.125000000000 39 39 39
15.875000000000 11.500000000000 7.838998794556 110 110 110
16.968750000000 11.937500000000 8.124000549316 72 72 72
15.906250000000 11.312500000000 7.833000183105 120 120 120
17.000000000000 11.812500000000 8.115999221802 79 79 79
15.843750000000 11.125000000000 7.829000473022 119 119 119
16.968750000000 11.625000000000 8.114000320435 92 92 92
15.843750000000 11.062500000000 7.822999954224 117 117 117
16.875000000000 11.375000000000 7.055000305176 49 49 49
16.968750000000 11.437500000000 8.104000091553 98 98 98
15.875000000000 10.875000000000 7.820999145508 121 121 121
16.906250000000 11.312500000000 7.041999816895 90 90 90
16.968750000000 11.312500000000 8.101999282837 100 100 100
15.875000000000 10.750000000000 7.819999694824 130 130 130
16.843750000000 11.125000000000 7.034999847412 106 106 106
16.968750000000 11.187500000000 7.569999694824 21 21 21
16.906250000000 11.125000000000 8.088998794556 98 98 98
15.843750000000 10.500000000000 7.813999176025 128 128 128
16.875000000000 10.937500000000 7.031000137329 117 117 117
16.968750000000 11.062500000000 7.565999984741 58 58 58
16.906250000000 11.000000000000 8.083999633789 92 92 92
15.843750000000 10.375000000000 7.796998977661 133 133 133
16.843750000000 10.812500000000 7.028999328613 119 119 119
16.968750000000 10.812500000000 7.552000045776 84 84 84
16.937500000000 10.875000000000 8.077999114990 82 82 82
15.843750000000 10.250000000000 7.813999176025 136 136 136
16.843750000000 10.625000000000 7.024000167847 104 104 104
16.968750000000 10.687500000000 7.552999496460 99 99 99
16.906250000000 10.625000000000 8.065000534058 57 57 57
15.843750000000 10.125000000000 7.799999237061 136 136 136
16.843750000000 10.500000000000 7.024000167847 91 91 91
16.937500000000 10.562500000000 7.552000045776 111 111 111
16.906250000000 10.562500000000 8.055000305176 32 32 32
15.843750000000 9.937500000000 7.799999237061 137 137 137
16.843750000000 10.375000000000 7.010000228882 53 53 53
16.906250000000 10.375000000000 7.534999847412 108 108 108
15.812500000000 9.750000000000 7.789999008179 140 140 140
16.812500000000 10.187500000000 7.000000000000 44 44 44
16.906250000000 10.250000000000 7.532999038696 111 111 111
15.781250000000 9.625000000000 7.784000396729 132 132 132
16.906250000000 10.062500000000 7.531999588013 83 83 83
15.843750000000 9.500000000000 7.786998748779 142 142 142
16.906250000000 9.937500000000 7.518999099731 58 58 58
15.781250000000 9.312500000000 7.778999328613 143 143 143
16.906250000000 9.812500000000 7.510000228882 28 28 28
15.781250000000 9.187500000000 7.772998809814 138 138 138
15.781250000000 9.000000000000 7.768999099731 138 138 138
15.781250000000 8.937500000000 7.767000198364 142 142 142
16.781250000000 9.250000000000 6.926000595093 81 81 81
16.843750000000 9.250000000000 7.969999313354 51 51 51
15.750000000000 8.687500000000 7.757999420166 129 129 129
16.781250000000 9.125000000000 6.918998718262 101 101 101
16.843750000000 9.125000000000 7.954000473022 71 71 71
15.781250000000 8.562500000000 7.750000000000 126 126 126
16.781250000000 9.000000000000 6.918998718262 116 116 116
16.906250000000 9.000000000000 7.434000015259 32 32 32
16.875000000000 9.062500000000 7.958999633789 89 89 89
15.750000000000 8.437500000000 7.743000030518 123 123 123
16.750000000000 8.812500000000 6.916999816895 118 118 118
16.875000000000 8.875000000000 7.437000274658 80 80 80
16.843750000000 8.812500000000 7.940999984741 98 98 98
15.718750000000 8.187500000000 7.737998962402 115 115 115
16.781250000000 8.625000000000 6.899999618530 107 107 107
16.843750000000 8.750000000000 7.427000045776 92 92 92
16.812500000000 8.687500000000 7.945999145508 106 106 106
15.718750000000 8.125000000000 7.730998992920 100 100 100
16.750000000000 8.500000000000 6.909000396729 95 95 95
16.843750000000 8.500000000000 7.414999008179 95 95 95
16.843750000000 8.500000000000 7.934999465942 105 105 105
15.718750000000 8.000000000000 7.725000381470 98 98 98
16.750000000000 8.375000000000 6.906000137329 62 62 62
16.843750000000 8.437500000000 7.414999008179 103 103 103
16.843750000000 8.437500000000 7.927999496460 96 96 96
15.687500000000 7.750000000000 7.725999832153 93 93 93
13.375000000000 6.500000000000 8.345998764038 90 90 90
16.843750000000 8.312500000000 7.416000366211 115 115 115
16.781250000000 8.250000000000 7.920000076294 88 88 88
15.718750000000 7.625000000000 7.727998733521 93 93 93
13.343750000000 6.375000000000 8.312000274658 81 81 81
16.843750000000 8.125000000000 7.407999038696 97 97 97
16.812500000000 8.062500000000 7.916999816895 69 69 69
15.718750000000 7.500000000000 7.722000122070 78 78 78
13.343750000000 6.187500000000 8.312000274658 83 83 83
16.812500000000 7.937500000000 7.400999069214 83 83 83
16.781250000000 7.937500000000 7.907999038696 49 49 49
15.687500000000 7.375000000000 7.711999893188 72 72 72
13.343750000000 6.062500000000 8.298999786377 82 82 82
16.781250000000 7.750000000000 7.395000457764 56 56 56
15.687500000000 7.125000000000 7.711999893188 59 59 59
13.343750000000 5.875000000000 8.260000228882 72 72 72
15.656250000000 7.000000000000 7.709999084473 46 46 46
13.281250000000 5.750000000000 8.263000488281 66 66 66
16.718750000000 7.437500000000 6.826999664307 58 58 58
15.656250000000 6.875000000000 7.698999404907 38 38 38
13.343750000000 5.625000000000 8.247999191284 64 64 64
16.656250000000 7.312500000000 6.810998916626 90 90 90
13.312500000000 5.437500000000 8.253999710083 62 62 62
16.718750000000 7.125000000000 6.820999145508 114 114 114
13.312500000000 5.312500000000 8.229000091553 60 60 60
16.656250000000 7.000000000000 6.815999984741 117 117 117
13.281250000000 5.062500000000 8.243000030518 42 42 42
16.687500000000 6.812500000000 6.813999176025 117 117 117
16.718750000000 6.875000000000 7.822999954224 41 41 41
13.281250000000 5.000000000000 8.239999771118 38 38 38
16.656250000000 6.687500000000 6.805999755859 115 115 115
16.781250000000 6.687500000000 7.319999694824 34 34 34
16.781250000000 6.750000000000 7.824998855591 61 61 61
13.281250000000 4.875000000000 8.235000610352 33 33 33
16.656250000000 6.500000000000 6.798000335693 95 95 95
