29.234375000000 32.890625000000 2.858993530273 122 122 122
29.968750000000 33.468750000000 2.573989868164 170 170 170
29.968750000000 33.468750000000 2.608001708984 177 177 177
29.968750000000 33.468750000000 2.640991210938 174 174 174
29.968750000000 33.468750000000 2.673995971680 175 175 175
29.968750000000 33.468750000000 2.705001831055 173 173 173
29.968750000000 33.468750000000 2.738998413086 174 174 174
29.984375000000 33.468750000000 2.772003173828 164 164 164
29.953125000000 33.453125000000 2.796997070313 145 145 145
29.859375000000 33.406250000000 2.802993774414 98 98 98
28.984375000000 32.906250000000 2.623992919922 80 80 80
28.984375000000 32.906250000000 2.662002563477 178 178 178
28.984375000000 32.906250000000 2.699996948242 179 179 179
28.984375000000 32.906250000000 2.737991333008 178 178 178
28.984375000000 32.906250000000 2.776992797852 182 182 182
28.953125000000 32.906250000000 2.810989379883 37 37 37
28.953125000000 33.078125000000 2.634994506836 124 124 124
28.953125000000 33.062500000000 2.669998168945 146 146 146
28.953125000000 33.062500000000 2.709991455078 143 143 143
28.953125000000 33.062500000000 2.746994018555 146 146 146
28.953125000000 33.062500000000 2.785995483398 140 140 140
28.921875000000 33.218750000000 2.608993530273 142 142 142
28.937500000000 33.218750000000 2.652999877930 144 144 144
28.953125000000 33.250000000000 2.694000244141 150 150 150
28.953125000000 33.250000000000 2.731994628906 149 149 149
28.937500000000 33.218750000000 2.769989013672 155 155 155
28.921875000000 33.218750000000 2.800003051758 160 160 160
28.921875000000 33.375000000000 2.586990356445 142 142 142
28.953125000000 33.406250000000 2.638992309570 150 150 150
28.953125000000 33.406250000000 2.679000854492 152 152 152
28.953125000000 33.406250000000 2.718002319336 150 150 150
28.953125000000 33.406250000000 2.755996704102 148 148 148
28.921875000000 33.375000000000 2.785995483398 141 141 141
28.890625000000 33.375000000000 2.817993164063 132 132 132
28.890625000000 33.531250000000 2.599990844727 136 136 136
28.890625000000 33.531250000000 2.642990112305 131 131 131
28.890625000000 33.531250000000 2.681991577148 129 129 129
28.906250000000 33.546875000000 2.722991943359 132 132 132
28.890625000000 33.531250000000 2.759994506836 140 140 140
28.890625000000 33.531250000000 2.798995971680 140 140 140
28.781250000000 33.468750000000 2.807998657227 131 131 131
29.171875000000 25.859375000000 2.927993774414 167 167 167
29.171875000000 25.859375000000 2.895996093750 172 172 172
29.171875000000 25.859375000000 2.863998413086 172 172 172
29.171875000000 25.859375000000 2.833999633789 152 152 152
29.171875000000 26.031250000000 2.940994262695 168 168 168
29.203125000000 26.031250000000 2.912002563477 209 209 209
29.203125000000 26.031250000000 2.880996704102 221 221 221
29.203125000000 26.031250000000 2.848999023438 207 207 207
29.171875000000 26.031250000000 2.815002441406 212 212 212
29.171875000000 26.031250000000 2.781997680664 198 198 198
29.203125000000 26.218750000000 2.927001953125 211 211 211
29.203125000000 26.218750000000 2.895996093750 217 217 217
29.203125000000 26.218750000000 2.864990234375 214 214 214
29.203125000000 26.218750000000 2.832992553711 208 208 208
29.187500000000 26.375000000000 2.936996459961 166 166 166
29.203125000000 26.390625000000 2.912002563477 216 216 216
29.203125000000 26.390625000000 2.880996704102 216 216 216
29.203125000000 26.390625000000 2.847991943359 217 217 217
29.203125000000 26.390625000000 2.817001342773 171 171 171
29.203125000000 26.562500000000 2.927001953125 206 206 206
29.234375000000 26.562500000000 2.901992797852 213 213 213
29.234375000000 26.562500000000 2.867996215820 179 179 179
29.234375000000 26.562500000000 2.835998535156 218 218 218
29.203125000000 26.562500000000 2.800003051758 49 49 49
29.140625000000 26.718750000000 2.935989379883 128 128 128
29.234375000000 26.734375000000 2.918991088867 210 210 210
29.250000000000 26.718750000000 2.888992309570 207 207 207
29.250000000000 26.718750000000 2.858001708984 212 212 212
29.234375000000 26.734375000000 2.825988769531 216 216 216
29.156250000000 26.906250000000 2.922988891602 199 199 199
29.265625000000 26.906250000000 2.908996582031 217 217 217
29.265625000000 26.906250000000 2.878997802734 198 198 198
29.265625000000 26.906250000000 2.847991943359 204 204 204
29.265625000000 26.906250000000 2.817001342773 195 195 195
29.140625000000 27.078125000000 2.931991577148 133 133 133
29.250000000000 27.078125000000 2.919998168945 212 212 212
29.281250000000 27.062500000000 2.897994995117 215 215 215
29.281250000000 27.062500000000 2.866989135742 186 186 186
29.281250000000 27.062500000000 2.833999633789 219 219 219
29.265625000000 27.093750000000 2.800994873047 126 126 126
29.140625000000 27.250000000000 2.914993286133 210 210 210
29.296875000000 27.250000000000 2.912994384766 215 215 215
29.296875000000 27.250000000000 2.881988525391 218 218 218
29.296875000000 27.250000000000 2.850997924805 221 221 221
29.296875000000 27.250000000000 2.819992065430 214 214 214
29.109375000000 27.421875000000 2.925003051758 162 162 162
29.203125000000 27.421875000000 2.910995483398 215 215 215
29.312500000000 27.406250000000 2.899993896484 220 220 220
29.328125000000 27.421875000000 2.869003295898 200 200 200
29.312500000000 27.406250000000 2.836990356445 217 217 217
29.328125000000 27.421875000000 2.807998657227 192 192 192
29.109375000000 27.593750000000 2.910003662109 210 210 210
29.296875000000 27.593750000000 2.910995483398 218 218 218
29.343750000000 27.593750000000 2.888992309570 213 213 213
29.343750000000 27.593750000000 2.858993530273 209 209 209
29.328125000000 27.593750000000 2.825988769531 222 222 222
29.312500000000 27.593750000000 2.794998168945 157 157 157
29.078125000000 27.781250000000 2.920989990234 45 45 45
29.109375000000 27.781250000000 2.895996093750 216 216 216
29.328125000000 27.750000000000 2.906997680664 214 214 214
29.359375000000 27.765625000000 2.878997802734 188 188 188
29.328125000000 27.750000000000 2.847000122070 171 171 171
29.359375000000 27.765625000000 2.817001342773 219 219 219
29.328125000000 27.750000000000 2.783996582031 102 102 102
29.109375000000 27.937500000000 2.908996582031 205 205 205
29.218750000000 27.937500000000 2.899993896484 221 221 221
29.359375000000 27.937500000000 2.893997192383 219 219 219
29.359375000000 27.937500000000 2.862991333008 164 164 164
29.359375000000 27.937500000000 2.832000732422 207 207 207
29.359375000000 27.937500000000 2.802001953125 208 208 208
29.078125000000 28.125000000000 2.919998168945 100 100 100
29.109375000000 28.125000000000 2.889999389648 220 220 220
29.343750000000 28.109375000000 2.905990600586 222 222 222
29.359375000000 28.109375000000 2.878997802734 220 220 220
29.359375000000 28.125000000000 2.845993041992 223 223 223
29.359375000000 28.109375000000 2.817001342773 218 218 218
29.375000000000 28.125000000000 2.789001464844 160 160 160
29.109375000000 28.312500000000 2.902999877930 205 205 205
29.171875000000 28.281250000000 2.888000488281 220 220 220
29.375000000000 28.281250000000 2.891998291016 224 224 224
29.375000000000 28.281250000000 2.861999511719 224 224 224
29.375000000000 28.281250000000 2.832000732422 219 219 219
29.390625000000 28.281250000000 2.804000854492 217 217 217
29.078125000000 28.468750000000 2.916000366211 65 65 65
29.093750000000 28.468750000000 2.884994506836 222 222 222
29.328125000000 28.468750000000 2.902999877930 224 224 224
29.390625000000 28.468750000000 2.879989624023 219 219 219
29.390625000000 28.453125000000 2.850997924805 220 220 220
29.390625000000 28.453125000000 2.819992065430 219 219 219
29.390625000000 28.453125000000 2.791000366211 207 207 207
29.109375000000 28.640625000000 2.903991699219 196 196 196
29.109375000000 28.640625000000 2.875000000000 210 210 210
29.421875000000 28.625000000000 2.903991699219 216 216 216
29.421875000000 28.625000000000 2.873992919922 215 215 215
29.421875000000 28.625000000000 2.845993041992 222 222 222
29.421875000000 28.625000000000 2.813995361328 215 215 215
29.437500000000 28.625000000000 2.787002563477 193 193 193
29.078125000000 28.812500000000 2.889999389648 213 213 213
29.203125000000 28.812500000000 2.877990722656 186 186 186
29.421875000000 28.796875000000 2.893997192383 220 220 220
29.421875000000 28.796875000000 2.862991333008 220 220 220
29.453125000000 28.812500000000 2.833999633789 222 222 222
29.453125000000 28.812500000000 2.804000854492 220 220 220
29.453125000000 28.812500000000 2.774002075195 184 184 184
29.093750000000 28.984375000000 2.905990600586 142 142 142
29.093750000000 28.984375000000 2.875991821289 220 220 220
29.359375000000 28.968750000000 2.897003173828 217 217 217
29.453125000000 28.968750000000 2.884002685547 222 222 222
29.453125000000 28.968750000000 2.851989746094 224 224 224
29.453125000000 28.968750000000 2.824996948242 219 219 219
29.453125000000 28.968750000000 2.792999267578 220 220 220
29.453125000000 28.968750000000 2.764999389648 107 107 107
29.078125000000 29.156250000000 2.886993408203 206 206 206
29.062500000000 29.156250000000 2.851989746094 227 227 227
29.406250000000 29.156250000000 2.889999389648 230 230 230
29.468750000000 29.140625000000 2.869995117188 220 220 220
29.453125000000 29.156250000000 2.837997436523 224 224 224
29.468750000000 29.140625000000 2.809997558594 223 223 223
29.468750000000 29.140625000000 2.778991699219 218 218 218
29.062500000000 29.343750000000 2.899002075195 111 111 111
29.078125000000 29.328125000000 2.869003295898 214 214 214
29.078125000000 29.328125000000 2.836990356445 227 227 227
29.468750000000 29.312500000000 2.886001586914 220 220 220
29.468750000000 29.312500000000 2.853988647461 223 223 223
29.468750000000 29.312500000000 2.825988769531 221 221 221
29.468750000000 29.312500000000 2.794998168945 221 221 221
29.500000000000 29.312500000000 2.767990112305 199 199 199
29.062500000000 29.500000000000 2.881988525391 199 199 199
29.062500000000 29.500000000000 2.847991943359 223 223 223
29.234375000000 29.500000000000 2.852996826172 222 222 222
29.484375000000 29.500000000000 2.869995117188 224 224 224
29.484375000000 29.500000000000 2.841003417969 221 221 221
29.484375000000 29.484375000000 2.813003540039 221 221 221
29.484375000000 29.500000000000 2.780990600586 218 218 218
29.500000000000 29.500000000000 2.751998901367 154 154 154
29.078125000000 29.687500000000 2.866989135742 209 209 209
29.046875000000 29.656250000000 2.832000732422 225 225 225
29.453125000000 29.671875000000 2.877990722656 228 228 228
29.484375000000 29.671875000000 2.858993530273 224 224 224
29.500000000000 29.656250000000 2.830001831055 220 220 220
29.500000000000 29.656250000000 2.800003051758 220 220 220
29.500000000000 29.656250000000 2.768997192383 223 223 223
29.515625000000 29.671875000000 2.741989135742 88 88 88
29.046875000000 29.843750000000 2.882995605469 155 155 155
29.062500000000 29.843750000000 2.852996826172 212 212 212
29.062500000000 29.843750000000 2.819992065430 214 214 214
29.500000000000 29.828125000000 2.877990722656 222 222 222
29.515625000000 29.828125000000 2.851989746094 221 221 221
29.515625000000 29.828125000000 2.822998046875 217 217 217
29.515625000000 29.843750000000 2.791000366211 219 219 219
29.515625000000 29.843750000000 2.759994506836 221 221 221
29.515625000000 29.843750000000 2.728988647461 40 40 40
29.078125000000 30.015625000000 2.871002197266 195 195 195
29.078125000000 30.015625000000 2.837997436523 215 215 215
29.078125000000 30.015625000000 2.808990478516 215 215 215
29.515625000000 30.000000000000 2.869003295898 225 225 225
29.531250000000 30.000000000000 2.841003417969 221 221 221
29.546875000000 30.000000000000 2.813995361328 217 217 217
29.531250000000 30.000000000000 2.780990600586 224 224 224
29.531250000000 30.000000000000 2.750991821289 219 219 219
29.031250000000 30.187500000000 2.879989624023 80 80 80
29.046875000000 30.187500000000 2.852996826172 213 213 213
29.046875000000 30.187500000000 2.817993164063 226 226 226
29.062500000000 30.187500000000 2.789001464844 220 220 220
29.531250000000 30.171875000000 2.856002807617 227 227 227
29.546875000000 30.187500000000 2.828994750977 219 219 219
29.546875000000 30.187500000000 2.798995971680 222 222 222
29.546875000000 30.187500000000 2.769989013672 221 221 221
29.546875000000 30.187500000000 2.742996215820 201 201 201
29.062500000000 30.375000000000 2.865997314453 187 187 187
29.046875000000 30.343750000000 2.832000732422 218 218 218
29.046875000000 30.343750000000 2.798995971680 225 225 225
29.453125000000 30.343750000000 2.853988647461 252 252 252
29.562500000000 30.343750000000 2.845001220703 218 218 218
29.562500000000 30.343750000000 2.813995361328 220 220 220
29.562500000000 30.343750000000 2.782989501953 223 223 223
29.562500000000 30.343750000000 2.755996704102 219 219 219
29.578125000000 30.343750000000 2.728988647461 174 174 174
29.015625000000 30.531250000000 2.873001098633 40 40 40
29.046875000000 30.531250000000 2.848999023438 210 210 210
29.046875000000 30.531250000000 2.813003540039 222 222 222
29.046875000000 30.531250000000 2.782989501953 225 225 225
29.578125000000 30.531250000000 2.860992431641 220 220 220
29.578125000000 30.531250000000 2.830993652344 220 220 220
29.578125000000 30.515625000000 2.804000854492 216 216 216
29.578125000000 30.531250000000 2.772003173828 220 220 220
29.578125000000 30.515625000000 2.742996215820 218 218 218
29.593750000000 30.531250000000 2.716003417969 73 73 73
29.031250000000 30.703125000000 2.862991333008 147 147 147
29.062500000000 30.687500000000 2.833999633789 210 210 210
29.031250000000 30.703125000000 2.797988891602 226 226 226
29.062500000000 30.687500000000 2.769989013672 223 223 223
29.578125000000 30.687500000000 2.849990844727 220 220 220
29.578125000000 30.703125000000 2.822998046875 220 220 220
29.578125000000 30.703125000000 2.791992187500 223 223 223
29.578125000000 30.703125000000 2.761993408203 219 219 219
29.609375000000 30.687500000000 2.735000610352 218 218 218
29.578125000000 30.687500000000 2.701995849609 33 33 33
29.046875000000 30.875000000000 2.852996826172 187 187 187
29.046875000000 30.875000000000 2.821990966797 217 217 217
29.046875000000 30.875000000000 2.787002563477 224 224 224
29.062500000000 30.875000000000 2.759002685547 219 219 219
29.593750000000 30.875000000000 2.843002319336 223 223 223
29.609375000000 30.843750000000 2.813995361328 221 221 221
29.609375000000 30.843750000000 2.783996582031 220 220 220
29.609375000000 30.843750000000 2.753997802734 222 222 222
29.609375000000 30.859375000000 2.726989746094 217 217 217
29.593750000000 30.875000000000 2.692001342773 28 28 28
29.046875000000 31.031250000000 2.841003417969 206 206 206
29.046875000000 31.031250000000 2.807998657227 186 186 186
29.078125000000 31.046875000000 2.777999877930 163 163 163
29.546875000000 31.031250000000 2.849990844727 207 207 207
29.609375000000 31.031250000000 2.832000732422 222 222 222
29.609375000000 31.031250000000 2.804000854492 219 219 219
29.609375000000 31.031250000000 2.774002075195 220 220 220
29.609375000000 31.031250000000 2.741989135742 222 222 222
29.609375000000 31.015625000000 2.718002319336 212 212 212
29.046875000000 31.218750000000 2.852996826172 157 157 157
29.046875000000 31.218750000000 2.819992065430 217 217 217
29.031250000000 31.218750000000 2.785003662109 226 226 226
29.031250000000 31.218750000000 2.753997802734 226 226 226
29.562500000000 31.187500000000 2.835998535156 240 240 240
29.609375000000 31.218750000000 2.817993164063 221 221 221
29.625000000000 31.187500000000 2.789993286133 221 221 221
29.625000000000 31.187500000000 2.761001586914 219 219 219
29.609375000000 31.218750000000 2.728988647461 220 220 220
29.625000000000 31.187500000000 2.701995849609 187 187 187
29.046875000000 31.375000000000 2.834991455078 200 200 200
29.046875000000 31.406250000000 2.800994873047 221 221 221
29.046875000000 31.406250000000 2.768997192383 222 222 222
29.062500000000 31.406250000000 2.738998413086 222 222 222
29.640625000000 31.375000000000 2.833999633789 219 219 219
29.640625000000 31.375000000000 2.804000854492 219 219 219
29.609375000000 31.375000000000 2.770996093750 225 225 225
29.625000000000 31.390625000000 2.742996215820 219 219 219
29.609375000000 31.375000000000 2.712997436523 220 220 220
29.640625000000 31.375000000000 2.688003540039 108 108 108
29.015625000000 31.562500000000 2.845001220703 60 60 60
29.046875000000 31.578125000000 2.817993164063 213 213 213
29.046875000000 31.562500000000 2.785003662109 223 223 223
29.046875000000 31.562500000000 2.754989624023 222 222 222
29.015625000000 31.562500000000 2.714996337891 209 209 209
29.640625000000 31.546875000000 2.819992065430 220 220 220
29.640625000000 31.546875000000 2.789993286133 221 221 221
29.640625000000 31.546875000000 2.759002685547 220 220 220
29.640625000000 31.562500000000 2.731994628906 218 218 218
29.640625000000 31.546875000000 2.699996948242 218 218 218
29.640625000000 31.562500000000 2.673995971680 44 44 44
29.046875000000 31.750000000000 2.837997436523 148 148 148
29.046875000000 31.750000000000 2.805999755859 220 220 220
29.062500000000 31.718750000000 2.772994995117 225 225 225
29.062500000000 31.718750000000 2.739990234375 223 223 223
29.015625000000 31.734375000000 2.700988769531 208 208 208
29.640625000000 31.718750000000 2.810989379883 216 216 216
29.640625000000 31.718750000000 2.779998779297 220 220 220
29.640625000000 31.718750000000 2.750000000000 221 221 221
29.640625000000 31.718750000000 2.722000122070 220 220 220
29.656250000000 31.703125000000 2.692993164063 215 215 215
29.046875000000 31.906250000000 2.828002929688 190 190 190
29.046875000000 31.906250000000 2.795989990234 222 222 222
29.046875000000 31.906250000000 2.761993408203 224 224 224
29.046875000000 31.906250000000 2.729995727539 222 222 222
29.546875000000 31.875000000000 2.808990478516 11 11 11
29.640625000000 31.890625000000 2.800003051758 222 222 222
29.640625000000 31.875000000000 2.770996093750 220 220 220
29.640625000000 31.890625000000 2.740997314453 219 219 219
29.640625000000 31.875000000000 2.713989257813 218 218 218
29.640625000000 31.890625000000 2.681991577148 216 216 216
29.046875000000 32.062500000000 2.811996459961 210 210 210
29.062500000000 32.078125000000 2.780990600586 207 207 207
29.078125000000 32.062500000000 2.752990722656 200 200 200
29.062500000000 32.078125000000 2.714996337891 214 214 214
29.640625000000 32.062500000000 2.813003540039 222 222 222
29.671875000000 32.062500000000 2.787994384766 217 217 217
29.671875000000 32.062500000000 2.757995605469 219 219 219
29.671875000000 32.062500000000 2.728988647461 219 219 219
29.671875000000 32.062500000000 2.697998046875 220 220 220
29.671875000000 32.062500000000 2.670989990234 201 201 201
29.046875000000 32.250000000000 2.823989868164 154 154 154
29.062500000000 32.250000000000 2.792999267578 171 171 171
29.062500000000 32.250000000000 2.761993408203 169 169 169
29.046875000000 32.234375000000 2.724990844727 172 172 172
29.609375000000 32.218750000000 2.817001342773 160 160 160
29.687500000000 32.218750000000 2.806991577148 166 166 166
29.671875000000 32.234375000000 2.772994995117 170 170 170
29.687500000000 32.218750000000 2.744995117188 169 169 169
29.687500000000 32.218750000000 2.716003417969 170 170 170
29.687500000000 32.218750000000 2.686996459961 170 170 170
29.687500000000 32.218750000000 2.655990600586 139 139 139
29.015625000000 32.421875000000 2.830993652344 56 56 56
29.078125000000 32.421875000000 2.804992675781 165 165 165
29.046875000000 32.406250000000 2.768997192383 166 166 166
29.046875000000 32.406250000000 2.735992431641 168 168 168
29.046875000000 32.406250000000 2.703994750977 171 171 171
29.671875000000 32.406250000000 2.813995361328 164 164 164
29.703125000000 32.406250000000 2.785995483398 170 170 170
29.703125000000 32.406250000000 2.756988525391 173 173 173
29.703125000000 32.406250000000 2.728988647461 170 170 170
29.703125000000 32.406250000000 2.697998046875 168 168 168
29.703125000000 32.406250000000 2.668991088867 171 171 171
29.718750000000 32.406250000000 2.644989013672 92 92 92
29.296875000000 32.578125000000 2.869003295898 115 115 115
29.437500000000 32.593750000000 2.866989135742 109 109 109
29.531250000000 32.578125000000 2.856994628906 156 156 156
29.562500000000 32.562500000000 2.833999633789 169 169 169
29.546875000000 32.578125000000 2.802001953125 172 172 172
29.687500000000 32.562500000000 2.802001953125 170 170 170
29.703125000000 32.578125000000 2.776992797852 175 175 175
29.703125000000 32.578125000000 2.746994018555 176 176 176
29.703125000000 32.578125000000 2.718002319336 171 171 171
29.703125000000 32.578125000000 2.688003540039 175 175 175
29.703125000000 32.578125000000 2.658996582031 166 166 166
29.609375000000 32.562500000000 2.602996826172 165 165 165
29.546875000000 32.578125000000 2.558990478516 166 166 166
29.546875000000 32.578125000000 2.527999877930 168 168 168
29.546875000000 32.578125000000 2.498001098633 165 165 165
29.546875000000 32.578125000000 2.466003417969 165 165 165
29.546875000000 32.578125000000 2.434997558594 167 167 167
29.546875000000 32.578125000000 2.404998779297 164 164 164
29.546875000000 32.578125000000 2.371994018555 166 166 166
29.562500000000 32.562500000000 2.343994140625 165 165 165
29.546875000000 32.578125000000 2.310989379883 166 166 166
29.546875000000 32.578125000000 2.278991699219 169 169 169
29.546875000000 32.578125000000 2.244995117188 167 167 167
29.546875000000 32.578125000000 2.213989257813 168 168 168
29.546875000000 32.578125000000 2.181991577148 168 168 168
29.546875000000 32.578125000000 2.151992797852 164 164 164
29.203125000000 32.750000000000 2.871002197266 75 75 75
29.312500000000 32.750000000000 2.862991333008 150 150 150
29.484375000000 32.750000000000 2.866989135742 117 117 117
29.546875000000 32.750000000000 2.850997924805 166 166 166
29.578125000000 32.750000000000 2.825988769531 170 170 170
29.578125000000 32.750000000000 2.794998168945 170 170 170
29.703125000000 32.718750000000 2.796997070313 161 161 161
29.703125000000 32.718750000000 2.766998291016 162 162 162
29.687500000000 32.734375000000 2.735000610352 173 173 173
29.687500000000 32.734375000000 2.703002929688 180 180 180
29.687500000000 32.734375000000 2.675003051758 176 176 176
29.703125000000 32.718750000000 2.651992797852 158 158 158
29.640625000000 32.750000000000 2.595993041992 168 168 168
29.578125000000 32.734375000000 2.548995971680 166 166 166
29.546875000000 32.750000000000 2.517990112305 167 167 167
29.578125000000 32.734375000000 2.487991333008 166 166 166
29.578125000000 32.734375000000 2.458999633789 163 163 163
29.546875000000 32.750000000000 2.425003051758 169 169 169
29.578125000000 32.734375000000 2.393997192383 161 161 161
29.546875000000 32.750000000000 2.361999511719 167 167 167
29.546875000000 32.750000000000 2.330001831055 165 165 165
29.578125000000 32.734375000000 2.300994873047 167 167 167
29.578125000000 32.734375000000 2.267990112305 166 166 166
29.578125000000 32.734375000000 2.237991333008 166 166 166
29.578125000000 32.734375000000 2.205001831055 167 167 167
29.578125000000 32.734375000000 2.173995971680 167 167 167
29.546875000000 32.750000000000 2.131988525391 171 171 171
29.453125000000 32.750000000000 2.067993164063 152 152 152
29.453125000000 32.750000000000 2.037002563477 148 148 148
29.453125000000 32.750000000000 2.001998901367 145 145 145
29.453125000000 32.750000000000 1.966003417969 141 141 141
29.453125000000 32.750000000000 1.933990478516 141 141 141
29.453125000000 32.750000000000 1.901000976563 145 145 145
29.140625000000 32.921875000000 2.847991943359 94 94 94
29.296875000000 32.906250000000 2.849990844727 134 134 134
29.453125000000 32.906250000000 2.845993041992 129 129 129
29.531250000000 32.906250000000 2.834991455078 151 151 151
29.546875000000 32.906250000000 2.807998657227 157 157 157
29.546875000000 32.906250000000 2.777999877930 153 153 153
29.640625000000 32.906250000000 2.769989013672 139 139 139
29.765625000000 32.906250000000 2.767990112305 143 143 143
29.765625000000 32.906250000000 2.740997314453 147 147 147
29.765625000000 32.906250000000 2.710998535156 142 142 142
29.765625000000 32.906250000000 2.683990478516 140 140 140
29.765625000000 32.906250000000 2.649002075195 140 140 140
29.765625000000 32.906250000000 2.625000000000 132 132 132
29.609375000000 32.906250000000 2.547988891602 163 163 163
29.562500000000 32.906250000000 2.507995605469 160 160 160
29.578125000000 32.906250000000 2.478988647461 162 162 162
29.562500000000 32.906250000000 2.444000244141 162 162 162
29.562500000000 32.906250000000 2.414993286133 168 168 168
29.562500000000 32.906250000000 2.382995605469 166 166 166
29.578125000000 32.906250000000 2.354995727539 167 167 167
29.578125000000 32.906250000000 2.323989868164 166 166 166
29.578125000000 32.906250000000 2.289993286133 165 165 165
29.578125000000 32.906250000000 2.259002685547 169 169 169
29.578125000000 32.906250000000 2.227996826172 167 167 167
29.562500000000 32.906250000000 2.192993164063 167 167 167
29.578125000000 32.906250000000 2.164001464844 172 172 172
29.578125000000 32.906250000000 2.132995605469 81 81 81
28.953125000000 33.093750000000 2.792999267578 169 169 169
28.953125000000 33.093750000000 2.761001586914 174 174 174
28.953125000000 33.093750000000 2.722991943359 176 176 176
28.953125000000 33.093750000000 2.690994262695 170 170 170
28.953125000000 33.093750000000 2.656997680664 170 170 170
28.953125000000 33.093750000000 2.625991821289 79 79 79
29.812500000000 33.062500000000 2.793991088867 53 53 53
29.812500000000 33.062500000000 2.765991210938 168 168 168
29.812500000000 33.062500000000 2.735992431641 167 167 167
29.812500000000 33.062500000000 2.707992553711 166 166 166
29.796875000000 33.078125000000 2.677993774414 165 165 165
29.796875000000 33.078125000000 2.647994995117 167 167 167
29.812500000000 33.062500000000 2.621002197266 155 155 155
28.890625000000 33.265625000000 2.825988769531 131 131 131
28.921875000000 33.281250000000 2.800003051758 159 159 159
28.953125000000 33.250000000000 2.772994995117 171 171 171
28.953125000000 33.281250000000 2.738998413086 170 170 170
28.968750000000 33.265625000000 2.707992553711 171 171 171
28.953125000000 33.281250000000 2.672988891602 171 171 171
28.953125000000 33.281250000000 2.638000488281 159 159 159
29.843750000000 33.250000000000 2.813995361328 86 86 86
29.937500000000 33.250000000000 2.810989379883 149 149 149
29.968750000000 33.218750000000 2.789001464844 187 187 187
29.968750000000 33.218750000000 2.761001586914 191 191 191
29.968750000000 33.218750000000 2.733993530273 181 181 181
29.984375000000 33.250000000000 2.707000732422 167 167 167
29.984375000000 33.250000000000 2.679992675781 162 162 162
29.953125000000 33.234375000000 2.647994995117 166 166 166
29.968750000000 33.218750000000 2.619995117188 183 183 183
29.968750000000 33.218750000000 2.593002319336 183 183 183
28.875000000000 33.281250000000 2.585998535156 131 131 131
28.828125000000 33.437500000000 2.832992553711 66 66 66
28.921875000000 33.437500000000 2.813995361328 157 157 157
28.953125000000 33.437500000000 2.787994384766 154 154 154
28.953125000000 33.437500000000 2.755996704102 168 168 168
28.984375000000 33.437500000000 2.723999023438 168 168 168
28.984375000000 33.437500000000 2.690002441406 166 166 166
28.984375000000 33.437500000000 2.655990600586 176 176 176
28.953125000000 33.437500000000 2.619003295898 164 164 164
29.828125000000 33.406250000000 2.795989990234 166 166 166
29.968750000000 33.406250000000 2.802001953125 156 156 156
29.984375000000 33.406250000000 2.776000976563 169 169 169
29.984375000000 33.406250000000 2.746994018555 177 177 177
29.984375000000 33.406250000000 2.718002319336 175 175 175
29.984375000000 33.406250000000 2.692993164063 165 165 165
29.984375000000 33.406250000000 2.664993286133 164 164 164
29.984375000000 33.406250000000 2.634002685547 176 176 176
29.984375000000 33.406250000000 2.606002807617 188 188 188
29.984375000000 33.406250000000 2.578994750977 168 168 168
29.171875000000 25.859375000000 2.930999755859 124 124 124
29.171875000000 25.875000000000 2.894989013672 135 135 135
29.171875000000 25.875000000000 2.858001708984 136 136 136
29.171875000000 25.859375000000 2.822998046875 87 87 87
29.171875000000 26.031250000000 2.950988769531 15 15 15
29.171875000000 26.031250000000 2.920989990234 199 199 199
29.171875000000 26.031250000000 2.884002685547 210 210 210
29.171875000000 26.031250000000 2.845993041992 198 198 198
29.171875000000 26.031250000000 2.805999755859 205 205 205
29.171875000000 26.031250000000 2.769989013672 183 183 183
29.171875000000 26.187500000000 2.938003540039 125 125 125
29.203125000000 26.187500000000 2.910995483398 205 205 205
29.203125000000 26.187500000000 2.873001098633 211 211 211
29.203125000000 26.187500000000 2.836990356445 206 206 206
29.203125000000 26.359375000000 2.929000854492 193 193 193
29.218750000000 26.343750000000 2.894989013672 207 207 207
29.218750000000 26.343750000000 2.860000610352 208 208 208
29.203125000000 26.359375000000 2.819992065430 178 178 178
29.140625000000 26.562500000000 2.932998657227 148 148 148
29.234375000000 26.515625000000 2.914001464844 201 201 201
29.218750000000 26.531250000000 2.876998901367 183 183 183
29.218750000000 26.531250000000 2.841003417969 206 206 206
29.218750000000 26.531250000000 2.804000854492 42 42 42
29.140625000000 26.765625000000 2.940994262695 14 14 14
29.218750000000 26.718750000000 2.923995971680 198 198 198
29.234375000000 26.687500000000 2.894989013672 202 202 202
29.234375000000 26.687500000000 2.856994628906 173 173 173
29.234375000000 26.687500000000 2.820999145508 187 187 187
29.156250000000 26.921875000000 2.923995971680 168 168 168
29.265625000000 26.859375000000 2.914001464844 204 204 204
29.265625000000 26.859375000000 2.876998901367 185 185 185
29.265625000000 26.859375000000 2.839996337891 208 208 208
29.265625000000 26.859375000000 2.804000854492 145 145 145
29.171875000000 27.093750000000 2.912994384766 201 201 201
29.281250000000 27.031250000000 2.901000976563 214 214 214
29.265625000000 27.015625000000 2.862991333008 174 174 174
29.265625000000 27.015625000000 2.828994750977 211 211 211
29.125000000000 27.281250000000 2.921997070313 154 154 154
29.234375000000 27.218750000000 2.912002563477 207 207 207
29.296875000000 27.187500000000 2.888992309570 208 208 208
29.281250000000 27.187500000000 2.849990844727 193 193 193
29.296875000000 27.187500000000 2.815994262695 202 202 202
29.109375000000 27.468750000000 2.901000976563 205 205 205
29.312500000000 27.343750000000 2.907989501953 208 208 208
29.296875000000 27.359375000000 2.869995117188 186 186 186
29.296875000000 27.359375000000 2.833999633789 199 199 199
29.312500000000 27.343750000000 2.798995971680 160 160 160
29.109375000000 27.656250000000 2.910995483398 180 180 180
29.250000000000 27.562500000000 2.908996582031 211 211 211
29.328125000000 27.515625000000 2.889999389648 209 209 209
29.328125000000 27.515625000000 2.854995727539 188 188 188
29.328125000000 27.515625000000 2.819000244141 208 208 208
29.078125000000 27.843750000000 2.919998168945 92 92 92
29.109375000000 27.812500000000 2.890991210938 208 208 208
29.343750000000 27.687500000000 2.907989501953 209 209 209
29.328125000000 27.687500000000 2.871002197266 202 202 202
29.359375000000 27.687500000000 2.837997436523 195 195 195
29.328125000000 27.687500000000 2.798995971680 178 178 178
29.109375000000 28.000000000000 2.904998779297 183 183 183
29.218750000000 27.937500000000 2.894989013672 216 216 216
29.359375000000 27.843750000000 2.890991210938 211 211 211
29.359375000000 27.843750000000 2.854995727539 201 201 201
29.359375000000 27.843750000000 2.820999145508 206 206 206
29.359375000000 27.843750000000 2.782989501953 108 108 108
29.078125000000 28.187500000000 2.920989990234 21 21 21
29.109375000000 28.187500000000 2.886993408203 208 208 208
29.328125000000 28.031250000000 2.903991699219 208 208 208
29.375000000000 28.031250000000 2.876998901367 206 206 206
29.375000000000 28.031250000000 2.841995239258 200 200 200
29.375000000000 28.031250000000 2.806991577148 207 207 207
29.109375000000 28.343750000000 2.903991699219 168 168 168
29.109375000000 28.343750000000 2.871994018555 208 208 208
29.375000000000 28.187500000000 2.897994995117 209 209 209
29.375000000000 28.187500000000 2.863998413086 213 213 213
29.375000000000 28.187500000000 2.826995849609 211 211 211
29.375000000000 28.187500000000 2.791992187500 192 192 192
29.109375000000 28.515625000000 2.886993408203 205 205 205
29.296875000000 28.406250000000 2.895996093750 218 218 218
29.390625000000 28.343750000000 2.884002685547 211 211 211
29.375000000000 28.359375000000 2.847000122070 213 213 213
29.390625000000 28.343750000000 2.813003540039 210 210 210
29.375000000000 28.359375000000 2.774993896484 123 123 123
29.109375000000 28.718750000000 2.901000976563 175 175 175
29.109375000000 28.718750000000 2.865997314453 208 208 208
29.390625000000 28.515625000000 2.901000976563 208 208 208
29.421875000000 28.531250000000 2.867996215820 214 214 214
29.390625000000 28.515625000000 2.830001831055 212 212 212
29.421875000000 28.531250000000 2.795989990234 210 210 210
29.062500000000 28.906250000000 2.910995483398 35 35 35
29.109375000000 28.890625000000 2.882995605469 197 197 197
29.296875000000 28.750000000000 2.897003173828 157 157 157
29.437500000000 28.687500000000 2.890991210938 209 209 209
29.437500000000 28.687500000000 2.856002807617 212 212 212
29.437500000000 28.687500000000 2.819992065430 211 211 211
29.453125000000 28.687500000000 2.787002563477 197 197 197
29.078125000000 29.078125000000 2.895996093750 164 164 164
29.093750000000 29.062500000000 2.860000610352 204 204 204
29.406250000000 28.875000000000 2.899993896484 211 211 211
29.437500000000 28.843750000000 2.875000000000 211 211 211
29.437500000000 28.843750000000 2.839996337891 214 214 214
29.437500000000 28.843750000000 2.804992675781 211 211 211
29.437500000000 28.843750000000 2.770996093750 165 165 165
29.062500000000 29.250000000000 2.875000000000 198 198 198
29.078125000000 29.250000000000 2.841003417969 215 215 215
29.453125000000 29.031250000000 2.895996093750 203 203 203
29.453125000000 29.000000000000 2.862991333008 203 203 203
29.453125000000 29.000000000000 2.826995849609 211 211 211
29.453125000000 29.000000000000 2.793991088867 187 187 187
29.453125000000 29.031250000000 2.754989624023 101 101 101
29.046875000000 29.421875000000 2.893997192383 112 112 112
29.078125000000 29.406250000000 2.861999511719 204 204 204
29.078125000000 29.406250000000 2.826995849609 219 219 219
29.468750000000 29.171875000000 2.888992309570 211 211 211
29.453125000000 29.187500000000 2.850997924805 211 211 211
29.453125000000 29.187500000000 2.815994262695 213 213 213
29.468750000000 29.171875000000 2.781997680664 210 210 210
29.078125000000 29.593750000000 2.879989624023 179 179 179
29.078125000000 29.593750000000 2.843002319336 211 211 211
29.125000000000 29.562500000000 2.819000244141 214 214 214
29.484375000000 29.343750000000 2.873992919922 211 211 211
29.484375000000 29.343750000000 2.837997436523 213 213 213
29.484375000000 29.343750000000 2.802993774414 213 213 213
29.484375000000 29.343750000000 2.769989013672 198 198 198
29.062500000000 29.781250000000 2.858993530273 199 199 199
29.062500000000 29.781250000000 2.819992065430 217 217 217
29.437500000000 29.531250000000 2.876998901367 228 228 228
29.515625000000 29.515625000000 2.856002807617 214 214 214
29.515625000000 29.515625000000 2.822998046875 208 208 208
29.515625000000 29.515625000000 2.787002563477 212 212 212
29.515625000000 29.515625000000 2.752990722656 175 175 175
29.062500000000 29.953125000000 2.871002197266 183 183 183
29.062500000000 29.953125000000 2.834991455078 159 159 159
29.218750000000 29.859375000000 2.834991455078 136 136 136
29.515625000000 29.671875000000 2.875000000000 210 210 210
29.500000000000 29.687500000000 2.837997436523 211 211 211
29.500000000000 29.687500000000 2.804000854492 211 211 211
29.500000000000 29.687500000000 2.768997192383 209 209 209
29.046875000000 30.125000000000 2.852996826172 198 198 198
29.046875000000 30.125000000000 2.813995361328 219 219 219
29.078125000000 30.125000000000 2.779998779297 212 212 212
29.515625000000 29.843750000000 2.860000610352 213 213 213
29.515625000000 29.843750000000 2.824996948242 203 203 203
29.515625000000 29.843750000000 2.789993286133 203 203 203
29.531250000000 29.843750000000 2.756988525391 203 203 203
29.046875000000 30.312500000000 2.869003295898 146 146 146
29.046875000000 30.312500000000 2.833999633789 207 207 207
29.046875000000 30.312500000000 2.795989990234 219 219 219
29.468750000000 30.062500000000 2.864990234375 231 231 231
29.546875000000 30.015625000000 2.848999023438 213 213 213
29.546875000000 30.015625000000 2.813003540039 212 212 212
29.546875000000 30.015625000000 2.778991699219 210 210 210
29.546875000000 30.015625000000 2.744003295898 197 197 197
29.046875000000 30.468750000000 2.852996826172 190 190 190
29.046875000000 30.468750000000 2.815002441406 211 211 211
29.046875000000 30.468750000000 2.778991699219 213 213 213
29.546875000000 30.187500000000 2.867996215820 218 218 218
29.546875000000 30.187500000000 2.836990356445 212 212 212
29.546875000000 30.187500000000 2.800994873047 213 213 213
29.546875000000 30.187500000000 2.766998291016 212 212 212
29.546875000000 30.187500000000 2.733001708984 163 163 163
29.031250000000 30.656250000000 2.864990234375 124 124 124
29.046875000000 30.656250000000 2.830001831055 205 205 205
29.046875000000 30.656250000000 2.792999267578 216 216 216
29.046875000000 30.656250000000 2.753997802734 205 205 205
29.578125000000 30.343750000000 2.854995727539 212 212 212
29.562500000000 30.343750000000 2.817993164063 209 209 209
29.578125000000 30.343750000000 2.785003662109 211 211 211
29.578125000000 30.343750000000 2.750000000000 211 211 211
29.562500000000 30.343750000000 2.713989257813 30 30 30
29.046875000000 30.828125000000 2.847000122070 191 191 191
29.046875000000 30.828125000000 2.806991577148 211 211 211
29.046875000000 30.828125000000 2.768997192383 212 212 212
29.515625000000 30.546875000000 2.856002807617 232 232 232
29.578125000000 30.515625000000 2.836990356445 213 213 213
29.578125000000 30.515625000000 2.802001953125 214 214 214
29.593750000000 30.500000000000 2.769989013672 213 213 213
29.593750000000 30.500000000000 2.733993530273 198 198 198
29.015625000000 31.015625000000 2.858993530273 77 77 77
29.046875000000 31.031250000000 2.824996948242 191 191 191
29.046875000000 31.031250000000 2.783996582031 156 156 156
29.046875000000 31.000000000000 2.750991821289 157 157 157
29.593750000000 30.671875000000 2.854995727539 212 212 212
29.593750000000 30.671875000000 2.820999145508 215 215 215
29.593750000000 30.671875000000 2.787002563477 213 213 213
29.593750000000 30.671875000000 2.752990722656 211 211 211
29.593750000000 30.671875000000 2.718994140625 177 177 177
29.046875000000 31.187500000000 2.845001220703 168 168 168
29.046875000000 31.187500000000 2.805999755859 216 216 216
29.046875000000 31.187500000000 2.767990112305 220 220 220
29.078125000000 31.156250000000 2.735000610352 209 209 209
29.609375000000 30.843750000000 2.843002319336 212 212 212
29.609375000000 30.843750000000 2.808990478516 211 211 211
29.609375000000 30.843750000000 2.774993896484 211 211 211
29.609375000000 30.843750000000 2.739990234375 213 213 213
29.609375000000 30.843750000000 2.707000732422 135 135 135
29.046875000000 31.343750000000 2.828994750977 196 196 196
29.046875000000 31.343750000000 2.791000366211 214 214 214
29.046875000000 31.343750000000 2.753997802734 218 218 218
29.046875000000 31.343750000000 2.710998535156 200 200 200
29.625000000000 31.000000000000 2.830993652344 213 213 213
29.609375000000 31.000000000000 2.795989990234 214 214 214
29.609375000000 31.000000000000 2.759994506836 210 210 210
29.625000000000 31.000000000000 2.729995727539 211 211 211
29.625000000000 31.000000000000 2.694000244141 74 74 74
29.015625000000 31.531250000000 2.845993041992 87 87 87
29.062500000000 31.531250000000 2.813003540039 204 204 204
29.062500000000 31.531250000000 2.776000976563 216 216 216
29.062500000000 31.531250000000 2.738998413086 214 214 214
29.578125000000 31.187500000000 2.841995239258 226 226 226
29.640625000000 31.171875000000 2.819000244141 211 211 211
29.609375000000 31.156250000000 2.783996582031 213 213 213
29.640625000000 31.171875000000 2.750000000000 211 211 211
29.640625000000 31.171875000000 2.716003417969 203 203 203
29.046875000000 31.687500000000 2.830993652344 172 172 172
29.062500000000 31.687500000000 2.794998168945 214 214 214
29.046875000000 31.687500000000 2.756988525391 216 216 216
29.062500000000 31.687500000000 2.718994140625 211 211 211
29.625000000000 31.343750000000 2.835998535156 204 204 204
29.640625000000 31.343750000000 2.804992675781 213 213 213
29.640625000000 31.343750000000 2.770996093750 214 214 214
29.640625000000 31.343750000000 2.736999511719 208 208 208
29.640625000000 31.343750000000 2.701995849609 196 196 196
29.046875000000 31.875000000000 2.813995361328 206 206 206
29.046875000000 31.859375000000 2.774002075195 215 215 215
29.046875000000 31.859375000000 2.735992431641 215 215 215
29.046875000000 31.875000000000 2.694992065430 199 199 199
29.640625000000 31.500000000000 2.820999145508 212 212 212
29.640625000000 31.515625000000 2.787002563477 214 214 214
29.640625000000 31.500000000000 2.752990722656 213 213 213
29.640625000000 31.500000000000 2.718994140625 211 211 211
29.640625000000 31.515625000000 2.681991577148 160 160 160
29.046875000000 32.062500000000 2.825988769531 148 148 148
29.046875000000 32.031250000000 2.792999267578 189 189 189
29.109375000000 32.015625000000 2.763000488281 203 203 203
29.078125000000 32.031250000000 2.723999023438 202 202 202
29.046875000000 32.062500000000 2.675003051758 171 171 171
29.640625000000 31.671875000000 2.804000854492 211 211 211
29.640625000000 31.671875000000 2.768997192383 212 212 212
29.640625000000 31.671875000000 2.735992431641 210 210 210
29.640625000000 31.671875000000 2.700988769531 207 207 207
29.640625000000 31.687500000000 2.660995483398 43 43 43
29.046875000000 32.218750000000 2.807998657227 143 143 143
29.062500000000 32.218750000000 2.772003173828 145 145 145
29.062500000000 32.218750000000 2.733001708984 143 143 143
29.078125000000 32.203125000000 2.698989868164 153 153 153
29.656250000000 31.843750000000 2.820999145508 202 202 202
29.656250000000 31.843750000000 2.787994384766 214 214 214
29.656250000000 31.843750000000 2.754989624023 213 213 213
29.656250000000 31.843750000000 2.718002319336 210 210 210
29.656250000000 31.843750000000 2.685989379883 204 204 204
29.046875000000 32.406250000000 2.830001831055 68 68 68
29.062500000000 32.390625000000 2.793991088867 142 142 142
29.046875000000 32.406250000000 2.753997802734 146 146 146
29.046875000000 32.406250000000 2.716003417969 143 143 143
29.062500000000 32.390625000000 2.680999755859 157 157 157
29.671875000000 32.000000000000 2.810989379883 206 206 206
29.671875000000 32.000000000000 2.776000976563 212 212 212
29.671875000000 32.000000000000 2.741989135742 212 212 212
29.640625000000 32.015625000000 2.707000732422 212 212 212
29.671875000000 32.000000000000 2.672988891602 198 198 198
29.046875000000 32.562500000000 2.815994262695 112 112 112
29.078125000000 32.531250000000 2.785003662109 134 134 134
29.078125000000 32.531250000000 2.748992919922 140 140 140
29.109375000000 32.531250000000 2.714996337891 140 140 140
29.578125000000 32.234375000000 2.804992675781 164 164 164
29.671875000000 32.187500000000 2.798995971680 141 141 141
29.671875000000 32.171875000000 2.763992309570 144 144 144
29.671875000000 32.187500000000 2.731002807617 143 143 143
29.671875000000 32.171875000000 2.694992065430 143 143 143
29.671875000000 32.187500000000 2.662002563477 129 129 129
29.203125000000 32.468750000000 2.475997924805 104 104 104
29.203125000000 32.468750000000 2.438995361328 111 111 111
29.156250000000 32.500000000000 2.384994506836 216 216 216
29.171875000000 32.468750000000 2.350997924805 187 187 187
29.171875000000 32.468750000000 2.313995361328 167 167 167
29.203125000000 32.468750000000 2.281997680664 147 147 147
29.203125000000 32.468750000000 2.244995117188 143 143 143
29.203125000000 32.468750000000 2.205001831055 148 148 148
29.203125000000 32.468750000000 2.169998168945 146 146 146
29.109375000000 32.687500000000 2.852996826172 171 171 171
29.328125000000 32.562500000000 2.866989135742 116 116 116
29.421875000000 32.500000000000 2.853988647461 134 134 134
29.453125000000 32.484375000000 2.823989868164 142 142 142
29.453125000000 32.468750000000 2.791000366211 140 140 140
29.656250000000 32.375000000000 2.809997558594 130 130 130
29.671875000000 32.343750000000 2.785003662109 143 143 143
29.671875000000 32.343750000000 2.750991821289 142 142 142
29.687500000000 32.343750000000 2.716995239258 143 143 143
29.687500000000 32.343750000000 2.683990478516 143 143 143
29.671875000000 32.375000000000 2.642990112305 133 133 133
29.468750000000 32.468750000000 2.544998168945 144 144 144
29.468750000000 32.468750000000 2.511993408203 141 141 141
29.484375000000 32.468750000000 2.477996826172 143 143 143
29.484375000000 32.468750000000 2.440994262695 145 145 145
29.500000000000 32.468750000000 2.410003662109 138 138 138
29.500000000000 32.468750000000 2.373992919922 143 143 143
29.500000000000 32.468750000000 2.334991455078 146 146 146
29.500000000000 32.468750000000 2.302001953125 143 143 143
29.500000000000 32.468750000000 2.264999389648 148 148 148
29.515625000000 32.453125000000 2.229995727539 142 142 142
29.515625000000 32.453125000000 2.194000244141 147 147 147
29.515625000000 32.453125000000 2.155990600586 152 152 152
29.265625000000 32.781250000000 2.865997314453 147 147 147
29.390625000000 32.703125000000 2.861999511719 131 131 131
29.531250000000 32.625000000000 2.862991333008 137 137 137
29.546875000000 32.593750000000 2.833999633789 157 157 157
29.546875000000 32.593750000000 2.800003051758 158 158 158
29.687500000000 32.531250000000 2.802993774414 133 133 133
29.687500000000 32.531250000000 2.768997192383 142 142 142
29.687500000000 32.531250000000 2.735000610352 133 133 133
29.687500000000 32.531250000000 2.701995849609 135 135 135
29.703125000000 32.515625000000 2.668991088867 137 137 137
29.625000000000 32.562500000000 2.610992431641 151 151 151
29.578125000000 32.593750000000 2.556991577148 160 160 160
29.578125000000 32.593750000000 2.520996093750 162 162 162
29.546875000000 32.593750000000 2.481994628906 162 162 162
29.546875000000 32.593750000000 2.447998046875 163 163 163
29.546875000000 32.593750000000 2.410003662109 162 162 162
29.578125000000 32.593750000000 2.376998901367 163 163 163
29.546875000000 32.593750000000 2.335998535156 165 165 165
29.546875000000 32.593750000000 2.302001953125 165 165 165
29.546875000000 32.593750000000 2.265991210938 164 164 164
29.546875000000 32.593750000000 2.227996826172 147 147 147
29.578125000000 32.593750000000 2.192993164063 164 164 164
29.546875000000 32.593750000000 2.153991699219 155 155 155
29.453125000000 32.656250000000 2.078994750977 159 159 159
29.453125000000 32.656250000000 2.037994384766 160 160 160
29.453125000000 32.656250000000 1.998992919922 157 157 157
29.453125000000 32.671875000000 1.958999633789 158 158 158
29.453125000000 32.656250000000 1.925003051758 158 158 158
29.453125000000 32.656250000000 1.882995605469 156 156 156
28.859375000000 33.203125000000 2.821990966797 129 129 129
28.921875000000 33.171875000000 2.795989990234 126 126 126
29.109375000000 33.031250000000 2.806991577148 151 151 151
29.484375000000 32.828125000000 2.863998413086 116 116 116
29.562500000000 32.781250000000 2.848999023438 155 155 155
29.562500000000 32.781250000000 2.817001342773 158 158 158
29.609375000000 32.734375000000 2.793991088867 147 147 147
