40.953125000000 25.250000000000 5.498992919922 119 119 119
40.921875000000 25.218750000000 5.535003662109 153 153 153
40.921875000000 25.218750000000 5.580001831055 100 100 100
40.953125000000 25.250000000000 5.631988525391 119 119 119
40.890625000000 25.187500000000 5.660003662109 128 128 128
40.921875000000 25.203125000000 5.705993652344 112 112 112
40.953125000000 25.250000000000 5.766998291016 93 93 93
41.109375000000 25.031250000000 4.009994506836 39 39 39
41.109375000000 25.031250000000 4.052993774414 84 84 84
41.078125000000 25.000000000000 4.097000122070 74 74 74
41.046875000000 25.000000000000 4.140991210938 76 76 76
41.078125000000 25.000000000000 4.183990478516 86 86 86
41.078125000000 25.000000000000 4.227996826172 93 93 93
41.078125000000 25.000000000000 4.270996093750 110 110 110
41.078125000000 25.000000000000 4.313995361328 84 84 84
41.046875000000 24.984375000000 4.356994628906 109 109 109
41.046875000000 24.984375000000 4.399993896484 104 104 104
41.078125000000 25.000000000000 4.444992065430 114 114 114
41.109375000000 25.015625000000 4.489990234375 97 97 97
41.109375000000 25.031250000000 4.535003662109 109 109 109
41.093750000000 25.000000000000 4.576995849609 57 57 57
40.765625000000 24.812500000000 4.722000122070 118 118 118
40.781250000000 24.843750000000 4.763992309570 98 98 98
40.765625000000 24.843750000000 4.804000854492 115 115 115
40.765625000000 24.812500000000 4.847000122070 150 150 150
40.765625000000 24.828125000000 4.886993408203 114 114 114
40.781250000000 24.843750000000 4.931991577148 44 44 44
40.765625000000 24.812500000000 5.309997558594 101 101 101
40.765625000000 24.812500000000 5.351989746094 159 159 159
40.765625000000 24.812500000000 5.393997192383 170 170 170
40.734375000000 24.812500000000 5.430999755859 124 124 124
40.750000000000 24.796875000000 5.477996826172 103 103 103
40.765625000000 24.812500000000 5.522994995117 73 73 73
40.218750000000 11.890625000000 4.483993530273 22 22 22
40.187500000000 11.875000000000 4.520996093750 97 97 97
40.203125000000 11.906250000000 4.560989379883 100 100 100
40.125000000000 11.843750000000 5.013992309570 114 114 114
40.140625000000 11.843750000000 5.054000854492 124 124 124
40.125000000000 11.843750000000 5.091003417969 128 128 128
40.125000000000 11.843750000000 5.130996704102 128 128 128
40.109375000000 11.812500000000 5.166992187500 117 117 117
40.109375000000 11.812500000000 5.205001831055 115 115 115
39.859375000000 11.437500000000 2.172988891602 118 118 118
39.921875000000 11.468750000000 2.199996948242 199 199 199
39.859375000000 11.437500000000 2.251998901367 118 118 118
39.921875000000 11.468750000000 2.280990600586 219 219 219
39.921875000000 11.453125000000 2.317993164063 222 222 222
39.921875000000 11.453125000000 2.358001708984 227 227 227
39.859375000000 11.421875000000 2.412994384766 125 125 125
39.859375000000 11.421875000000 2.455001831055 131 131 131
39.843750000000 11.406250000000 2.802993774414 141 141 141
39.828125000000 11.406250000000 2.841995239258 145 145 145
39.843750000000 11.406250000000 2.877990722656 148 148 148
39.828125000000 11.406250000000 2.916992187500 150 150 150
39.843750000000 11.406250000000 2.953994750977 155 155 155
39.843750000000 11.406250000000 2.990997314453 154 154 154
39.828125000000 11.406250000000 3.028991699219 160 160 160
39.828125000000 11.406250000000 3.065994262695 160 160 160
39.843750000000 11.406250000000 3.101989746094 159 159 159
39.843750000000 11.406250000000 3.139999389648 155 155 155
39.828125000000 11.406250000000 3.177993774414 157 157 157
39.828125000000 11.406250000000 3.213989257813 157 157 157
39.859375000000 11.406250000000 3.250000000000 154 154 154
39.828125000000 11.406250000000 3.287002563477 156 156 156
39.843750000000 11.406250000000 3.323989868164 161 161 161
39.828125000000 11.406250000000 3.360992431641 155 155 155
39.859375000000 11.406250000000 3.397003173828 152 152 152
39.828125000000 11.406250000000 3.433990478516 154 154 154
39.828125000000 11.406250000000 3.472000122070 143 143 143
39.828125000000 11.406250000000 3.507995605469 153 153 153
39.828125000000 11.390625000000 3.544998168945 153 153 153
39.828125000000 11.406250000000 3.580993652344 154 154 154
39.828125000000 11.390625000000 3.617996215820 155 155 155
39.828125000000 11.390625000000 3.653991699219 151 151 151
39.828125000000 11.406250000000 3.690002441406 155 155 155
39.828125000000 11.390625000000 3.726989746094 154 154 154
39.859375000000 11.390625000000 3.761993408203 156 156 156
39.828125000000 11.390625000000 3.798995971680 159 159 159
39.828125000000 11.390625000000 3.834991455078 158 158 158
39.828125000000 11.390625000000 3.871002197266 155 155 155
39.828125000000 11.390625000000 3.906997680664 153 153 153
39.828125000000 11.390625000000 3.942993164063 153 153 153
39.843750000000 11.375000000000 3.978988647461 152 152 152
39.843750000000 11.375000000000 4.014999389648 152 152 152
39.843750000000 11.375000000000 4.050994873047 148 148 148
39.843750000000 11.375000000000 4.086990356445 149 149 149
39.843750000000 11.375000000000 4.123992919922 159 159 159
39.843750000000 11.375000000000 4.160003662109 148 148 148
39.843750000000 11.375000000000 4.195999145508 151 151 151
39.843750000000 11.375000000000 4.231994628906 146 146 146
39.828125000000 11.375000000000 4.267990112305 149 149 149
39.843750000000 11.375000000000 4.304000854492 144 144 144
39.828125000000 11.375000000000 4.339996337891 150 150 150
39.843750000000 11.375000000000 4.375991821289 152 152 152
39.843750000000 11.375000000000 4.412002563477 156 156 156
39.843750000000 11.375000000000 4.447998046875 147 147 147
39.843750000000 11.375000000000 4.483993530273 153 153 153
39.843750000000 11.375000000000 4.520996093750 152 152 152
39.843750000000 11.375000000000 4.556991577148 153 153 153
39.828125000000 11.375000000000 4.593002319336 156 156 156
39.843750000000 11.375000000000 4.629989624023 150 150 150
39.828125000000 11.375000000000 4.664993286133 151 151 151
39.843750000000 11.375000000000 4.701995849609 145 145 145
39.828125000000 11.375000000000 4.737991333008 147 147 147
39.828125000000 11.375000000000 4.774002075195 147 147 147
39.828125000000 11.375000000000 4.810989379883 148 148 148
39.843750000000 11.375000000000 4.847991943359 152 152 152
39.843750000000 11.375000000000 4.884994506836 154 154 154
39.843750000000 11.375000000000 4.920989990234 158 158 158
39.828125000000 11.375000000000 4.957000732422 155 155 155
39.843750000000 11.375000000000 4.994995117188 153 153 153
39.828125000000 11.375000000000 5.029998779297 152 152 152
39.843750000000 11.375000000000 5.067993164063 154 154 154
39.859375000000 11.375000000000 5.104995727539 156 156 156
39.859375000000 11.375000000000 5.141998291016 156 156 156
39.953125000000 11.156250000000 3.515991210938 98 98 98
39.953125000000 11.156250000000 3.554000854492 156 156 156
39.968750000000 11.156250000000 3.591003417969 170 170 170
39.968750000000 11.156250000000 3.627990722656 158 158 158
39.984375000000 11.156250000000 3.664001464844 167 167 167
39.984375000000 11.156250000000 3.701995849609 167 167 167
39.984375000000 11.156250000000 3.738998413086 162 162 162
39.953125000000 11.140625000000 3.776992797852 182 182 182
39.968750000000 11.156250000000 3.813995361328 149 149 149
39.921875000000 11.125000000000 3.852996826172 131 131 131
39.921875000000 11.125000000000 3.888992309570 108 108 108
39.921875000000 11.125000000000 3.925994873047 86 86 86
39.921875000000 11.125000000000 3.962997436523 94 94 94
39.984375000000 11.140625000000 3.998001098633 171 171 171
39.984375000000 11.156250000000 4.035003662109 182 182 182
40.000000000000 11.156250000000 4.071990966797 171 171 171
40.000000000000 11.156250000000 4.108993530273 132 132 132
39.703125000000 11.000000000000 4.427001953125 116 116 116
39.703125000000 11.000000000000 4.461990356445 152 152 152
39.703125000000 11.000000000000 4.498001098633 132 132 132
39.703125000000 11.000000000000 4.532989501953 131 131 131
39.703125000000 10.984375000000 4.567993164063 125 125 125
39.703125000000 11.000000000000 4.602996826172 124 124 124
39.703125000000 10.984375000000 4.638992309570 116 116 116
39.734375000000 11.000000000000 4.891998291016 60 60 60
39.703125000000 11.000000000000 4.923995971680 140 140 140
39.703125000000 10.984375000000 4.958999633789 134 134 134
39.703125000000 11.000000000000 4.996994018555 137 137 137
39.703125000000 10.984375000000 5.030990600586 144 144 144
39.703125000000 11.000000000000 5.069000244141 124 124 124
39.703125000000 10.984375000000 5.101989746094 148 148 148
39.703125000000 10.968750000000 5.136001586914 92 92 92
41.406250000000 25.656250000000 5.530990600586 232 232 232
41.406250000000 25.656250000000 5.483993530273 219 219 219
41.406250000000 25.656250000000 5.435989379883 226 226 226
41.437500000000 25.656250000000 5.389999389648 237 237 237
41.437500000000 25.656250000000 5.341995239258 224 224 224
41.437500000000 25.656250000000 5.295989990234 90 90 90
41.453125000000 25.656250000000 4.968994140625 163 163 163
41.453125000000 25.656250000000 4.921997070313 239 239 239
41.453125000000 25.656250000000 4.873992919922 239 239 239
41.453125000000 25.656250000000 4.828002929688 237 237 237
41.453125000000 25.656250000000 4.781997680664 239 239 239
41.453125000000 25.656250000000 4.735000610352 213 213 213
41.234375000000 25.468750000000 5.655990600586 39 39 39
41.250000000000 25.437500000000 5.377990722656 208 208 208
41.265625000000 25.437500000000 5.332992553711 235 235 235
41.250000000000 25.437500000000 5.287002563477 233 233 233
41.265625000000 25.437500000000 5.241989135742 237 237 237
41.250000000000 25.437500000000 5.194000244141 234 234 234
41.250000000000 25.437500000000 5.147994995117 203 203 203
41.265625000000 25.437500000000 5.102996826172 210 210 210
41.265625000000 25.437500000000 5.058990478516 234 234 234
41.265625000000 25.437500000000 5.013992309570 236 236 236
41.265625000000 25.437500000000 4.966995239258 239 239 239
41.265625000000 25.437500000000 4.921997070313 233 233 233
41.265625000000 25.437500000000 4.875991821289 184 184 184
41.421875000000 25.343750000000 4.567001342773 95 95 95
41.421875000000 25.343750000000 4.520996093750 108 108 108
41.421875000000 25.343750000000 4.473999023438 116 116 116
41.421875000000 25.343750000000 4.427993774414 112 112 112
41.390625000000 25.359375000000 4.380996704102 109 109 109
41.390625000000 25.359375000000 4.334991455078 111 111 111
41.421875000000 25.343750000000 4.289993286133 119 119 119
41.390625000000 25.375000000000 4.242996215820 79 79 79
41.359375000000 25.375000000000 4.196990966797 70 70 70
41.359375000000 25.375000000000 4.151000976563 55 55 55
41.359375000000 25.375000000000 4.104995727539 35 35 35
40.953125000000 25.312500000000 5.746002197266 90 90 90
40.859375000000 25.375000000000 5.682998657227 101 101 101
40.984375000000 25.281250000000 5.666000366211 108 108 108
40.953125000000 25.312500000000 5.616989135742 101 101 101
40.953125000000 25.312500000000 5.565994262695 122 122 122
40.953125000000 25.312500000000 5.524993896484 140 140 140
41.046875000000 25.250000000000 5.501998901367 128 128 128
41.015625000000 25.281250000000 5.447998046875 135 135 135
41.078125000000 25.234375000000 5.414001464844 126 126 126
41.078125000000 25.234375000000 5.369995117188 126 126 126
40.984375000000 25.281250000000 5.309997558594 163 163 163
41.078125000000 25.234375000000 5.278991699219 135 135 135
41.078125000000 25.234375000000 5.235000610352 134 134 134
41.078125000000 25.218750000000 5.190994262695 139 139 139
41.078125000000 25.218750000000 5.145996093750 159 159 159
41.078125000000 25.218750000000 5.100997924805 155 155 155
41.078125000000 25.218750000000 5.057998657227 156 156 156
41.078125000000 25.218750000000 5.011001586914 156 156 156
41.078125000000 25.218750000000 4.966995239258 147 147 147
41.078125000000 25.218750000000 4.922988891602 147 147 147
41.078125000000 25.218750000000 4.878997802734 146 146 146
41.078125000000 25.218750000000 4.834991455078 152 152 152
41.078125000000 25.218750000000 4.789993286133 157 157 157
41.078125000000 25.234375000000 4.746002197266 164 164 164
41.078125000000 25.234375000000 4.701995849609 165 165 165
41.109375000000 25.218750000000 4.657989501953 164 164 164
41.078125000000 25.218750000000 4.612991333008 162 162 162
41.109375000000 25.218750000000 4.569992065430 153 153 153
41.078125000000 25.234375000000 4.526000976563 156 156 156
41.109375000000 25.218750000000 4.481994628906 149 149 149
41.078125000000 25.234375000000 4.436996459961 148 148 148
41.109375000000 25.218750000000 4.393997192383 157 157 157
41.078125000000 25.234375000000 4.348999023438 156 156 156
41.109375000000 25.218750000000 4.305999755859 140 140 140
41.109375000000 25.218750000000 4.261993408203 145 145 145
41.109375000000 25.218750000000 4.216995239258 158 158 158
41.109375000000 25.218750000000 4.172988891602 154 154 154
41.109375000000 25.218750000000 4.128997802734 134 134 134
41.109375000000 25.218750000000 4.084991455078 142 142 142
41.109375000000 25.218750000000 4.041000366211 137 137 137
41.109375000000 25.218750000000 3.996994018555 142 142 142
41.109375000000 25.218750000000 3.953002929688 144 144 144
41.109375000000 25.218750000000 3.908996582031 153 153 153
41.109375000000 25.218750000000 3.864990234375 147 147 147
41.109375000000 25.218750000000 3.820999145508 144 144 144
41.109375000000 25.218750000000 3.776992797852 140 140 140
41.109375000000 25.218750000000 3.733001708984 129 129 129
41.109375000000 25.218750000000 3.688995361328 133 133 133
41.109375000000 25.218750000000 3.643997192383 132 132 132
41.109375000000 25.218750000000 3.599990844727 127 127 127
41.109375000000 25.218750000000 3.554992675781 128 128 128
41.109375000000 25.218750000000 3.511993408203 135 135 135
41.109375000000 25.218750000000 3.466995239258 125 125 125
41.109375000000 25.218750000000 3.422988891602 115 115 115
41.109375000000 25.218750000000 3.378997802734 120 120 120
41.109375000000 25.218750000000 3.332992553711 126 126 126
41.109375000000 25.218750000000 3.287994384766 134 134 134
41.109375000000 25.218750000000 3.244003295898 123 123 123
41.109375000000 25.218750000000 3.199996948242 119 119 119
41.109375000000 25.218750000000 3.153991699219 110 110 110
41.109375000000 25.218750000000 3.108993530273 111 111 111
41.109375000000 25.218750000000 3.065994262695 118 118 118
41.109375000000 25.218750000000 3.019989013672 112 112 112
41.109375000000 25.218750000000 2.974990844727 109 109 109
41.125000000000 25.203125000000 2.927001953125 106 106 106
41.109375000000 25.218750000000 2.886001586914 111 111 111
40.921875000000 25.015625000000 5.408996582031 209 209 209
40.921875000000 25.000000000000 5.366989135742 235 235 235
40.921875000000 25.000000000000 5.322998046875 235 235 235
40.921875000000 25.015625000000 5.277999877930 217 217 217
40.921875000000 25.000000000000 5.235000610352 212 212 212
40.921875000000 25.015625000000 5.190002441406 219 219 219
40.921875000000 25.000000000000 5.059997558594 193 193 193
40.921875000000 25.015625000000 5.014999389648 234 234 234
40.921875000000 25.000000000000 4.972991943359 203 203 203
40.921875000000 25.015625000000 4.927993774414 234 234 234
40.921875000000 25.000000000000 4.886001586914 209 209 209
40.921875000000 25.015625000000 4.841995239258 238 238 238
40.953125000000 25.000000000000 4.802001953125 53 53 53
41.046875000000 24.937500000000 4.547988891602 64 64 64
41.046875000000 24.937500000000 4.503997802734 130 130 130
41.046875000000 24.937500000000 4.459991455078 122 122 122
41.046875000000 24.937500000000 4.416992187500 126 126 126
41.046875000000 24.937500000000 4.371994018555 133 133 133
41.046875000000 24.937500000000 4.328994750977 127 127 127
41.046875000000 24.937500000000 4.285003662109 126 126 126
41.046875000000 24.937500000000 4.240997314453 127 127 127
41.046875000000 24.937500000000 4.197998046875 90 90 90
40.750000000000 24.796875000000 5.485000610352 166 166 166
40.750000000000 24.796875000000 5.442001342773 225 225 225
40.750000000000 24.796875000000 5.399002075195 221 221 221
40.750000000000 24.796875000000 5.356002807617 224 224 224
40.765625000000 24.781250000000 5.317993164063 40 40 40
40.750000000000 24.796875000000 4.886993408203 224 224 224
40.765625000000 24.781250000000 4.845993041992 247 247 247
40.765625000000 24.781250000000 4.804000854492 237 237 237
40.765625000000 24.781250000000 4.761993408203 172 172 172
40.109375000000 11.796875000000 5.203002929688 235 235 235
40.109375000000 11.796875000000 5.164001464844 12 12 12
40.140625000000 11.812500000000 5.125991821289 11 11 11
40.140625000000 11.796875000000 5.086990356445 10 10 10
40.140625000000 11.796875000000 5.048995971680 255 255 255
40.140625000000 11.796875000000 5.009002685547 251 251 251
40.140625000000 11.796875000000 4.970993041992 226 226 226
40.171875000000 11.781250000000 4.664001464844 160 160 160
40.171875000000 11.781250000000 4.625000000000 253 253 253
40.171875000000 11.781250000000 4.585998535156 18 18 18
40.171875000000 11.781250000000 4.547988891602 6 6 6
40.171875000000 11.781250000000 4.507995605469 25 25 25
40.171875000000 11.781250000000 4.470001220703 25 25 25
40.171875000000 11.781250000000 4.430999755859 253 253 253
40.015625000000 11.531250000000 5.045989990234 165 165 165
40.015625000000 11.531250000000 5.007995605469 248 248 248
40.015625000000 11.531250000000 4.970001220703 255 255 255
40.015625000000 11.531250000000 4.931991577148 0 0 0
40.015625000000 11.531250000000 4.893997192383 2 2 2
40.015625000000 11.531250000000 4.856002807617 252 252 252
40.031250000000 11.531250000000 4.819000244141 2 2 2
40.046875000000 11.531250000000 4.781997680664 232 232 232
40.046875000000 11.531250000000 4.742996215820 1 1 1
40.046875000000 11.531250000000 4.705993652344 12 12 12
40.046875000000 11.531250000000 4.667999267578 11 11 11
40.046875000000 11.531250000000 4.629989624023 19 19 19
40.046875000000 11.531250000000 4.591995239258 249 249 249
40.078125000000 11.515625000000 4.555999755859 66 66 66
40.140625000000 11.468750000000 4.138000488281 113 113 113
40.156250000000 11.468750000000 4.099990844727 195 195 195
40.140625000000 11.468750000000 4.060989379883 187 187 187
40.140625000000 11.468750000000 4.022994995117 192 192 192
40.109375000000 11.468750000000 3.985000610352 119 119 119
40.109375000000 11.484375000000 3.947998046875 97 97 97
40.109375000000 11.484375000000 3.908996582031 111 111 111
40.125000000000 11.500000000000 3.871002197266 131 131 131
40.140625000000 11.484375000000 3.832000732422 177 177 177
40.140625000000 11.484375000000 3.792999267578 187 187 187
40.109375000000 11.468750000000 3.755996704102 172 172 172
40.109375000000 11.484375000000 3.718002319336 172 172 172
40.093750000000 11.500000000000 3.680999755859 175 175 175
40.093750000000 11.500000000000 3.641998291016 173 173 173
40.140625000000 11.484375000000 3.600997924805 178 178 178
40.140625000000 11.484375000000 3.563003540039 146 146 146
40.125000000000 11.500000000000 3.524002075195 95 95 95
39.890625000000 11.312500000000 5.152999877930 100 100 100
39.859375000000 11.312500000000 5.114990234375 112 112 112
39.890625000000 11.312500000000 5.078994750977 105 105 105
39.890625000000 11.312500000000 5.041992187500 99 99 99
39.890625000000 11.296875000000 5.004989624023 92 92 92
39.890625000000 11.296875000000 4.968994140625 110 110 110
39.890625000000 11.296875000000 4.930999755859 228 228 228
39.890625000000 11.296875000000 4.893997192383 235 235 235
39.890625000000 11.296875000000 4.856994628906 235 235 235
39.906250000000 11.281250000000 4.819992065430 245 245 245
39.890625000000 11.296875000000 4.781997680664 248 248 248
39.890625000000 11.296875000000 4.744995117188 251 251 251
39.890625000000 11.296875000000 4.707000732422 253 253 253
39.890625000000 11.296875000000 4.670989990234 0 0 0
39.890625000000 11.296875000000 4.634002685547 230 230 230
40.046875000000 11.203125000000 4.116989135742 162 162 162
40.031250000000 11.218750000000 4.080001831055 198 198 198
40.046875000000 11.203125000000 4.041992187500 196 196 196
40.046875000000 11.203125000000 4.003997802734 187 187 187
40.031250000000 11.218750000000 3.966995239258 189 189 189
40.015625000000 11.218750000000 3.929000854492 196 196 196
39.890625000000 11.296875000000 3.897003173828 172 172 172
39.953125000000 11.250000000000 3.856994628906 193 193 193
39.984375000000 11.234375000000 3.817993164063 197 197 197
39.937500000000 11.281250000000 3.783996582031 184 184 184
39.906250000000 11.281250000000 3.748992919922 175 175 175
39.953125000000 11.265625000000 3.708999633789 187 187 187
40.015625000000 11.218750000000 3.666000366211 189 189 189
40.015625000000 11.218750000000 3.627990722656 189 189 189
40.015625000000 11.218750000000 3.589996337891 190 190 190
40.015625000000 11.218750000000 3.552001953125 195 195 195
40.015625000000 11.218750000000 3.514999389648 199 199 199
39.984375000000 11.218750000000 3.477996826172 189 189 189
39.984375000000 11.218750000000 3.440994262695 92 92 92
39.796875000000 11.062500000000 5.117996215820 51 51 51
39.765625000000 11.062500000000 5.076995849609 236 236 236
39.765625000000 11.062500000000 5.041992187500 239 239 239
39.765625000000 11.062500000000 5.003997802734 243 243 243
39.765625000000 11.062500000000 4.968002319336 239 239 239
39.765625000000 11.062500000000 4.930999755859 247 247 247
39.765625000000 11.062500000000 4.893997192383 244 244 244
39.765625000000 11.062500000000 4.858001708984 192 192 192
39.765625000000 11.062500000000 4.712997436523 136 136 136
39.765625000000 11.062500000000 4.675994873047 17 17 17
39.765625000000 11.062500000000 4.638992309570 21 21 21
39.765625000000 11.062500000000 4.602996826172 21 21 21
39.765625000000 11.062500000000 4.567993164063 21 21 21
39.765625000000 11.062500000000 4.531997680664 21 21 21
39.765625000000 11.062500000000 4.494995117188 21 21 21
39.765625000000 11.062500000000 4.458999633789 221 221 221
39.921875000000 10.953125000000 4.024993896484 78 78 78
39.921875000000 10.953125000000 3.987991333008 173 173 173
39.921875000000 10.953125000000 3.950988769531 194 194 194
39.921875000000 10.953125000000 3.914001464844 201 201 201
39.921875000000 10.953125000000 3.876998901367 200 200 200
39.921875000000 10.953125000000 3.839996337891 179 179 179
39.921875000000 10.953125000000 3.802993774414 84 84 84
39.640625000000 10.812500000000 5.110992431641 135 135 135
39.640625000000 10.812500000000 5.072998046875 224 224 224
39.640625000000 10.843750000000 5.037002563477 239 239 239
39.640625000000 10.843750000000 5.001998901367 171 171 171
39.640625000000 10.812500000000 4.539993286133 182 182 182
39.640625000000 10.812500000000 4.505996704102 243 243 243
39.640625000000 10.812500000000 4.470993041992 154 154 154
39.671875000000 10.875000000000 5.267990112305 61 61 61
39.671875000000 10.875000000000 5.235000610352 178 178 178
39.671875000000 10.875000000000 5.203002929688 181 181 181
39.703125000000 10.890625000000 5.170989990234 182 182 182
39.703125000000 10.890625000000 5.138992309570 186 186 186
39.703125000000 10.890625000000 5.106994628906 211 211 211
39.703125000000 10.890625000000 5.075988769531 207 207 207
39.703125000000 10.890625000000 5.044998168945 186 186 186
39.703125000000 10.875000000000 5.014999389648 132 132 132
39.703125000000 10.890625000000 4.668991088867 140 140 140
39.703125000000 10.890625000000 4.636993408203 181 181 181
39.703125000000 10.890625000000 4.606994628906 179 179 179
39.703125000000 10.890625000000 4.574996948242 179 179 179
39.703125000000 10.890625000000 4.544998168945 187 187 187
39.703125000000 10.906250000000 4.513992309570 215 215 215
39.703125000000 10.906250000000 4.483001708984 212 212 212
39.703125000000 10.890625000000 4.451995849609 179 179 179
39.671875000000 10.906250000000 4.419998168945 48 48 48
39.921875000000 10.906250000000 3.994995117188 34 34 34
39.921875000000 10.906250000000 3.962997436523 18 18 18
39.859375000000 11.203125000000 5.063003540039 70 70 70
39.859375000000 11.203125000000 5.031997680664 181 181 181
39.890625000000 11.203125000000 5.000991821289 184 184 184
39.859375000000 11.218750000000 4.966995239258 182 182 182
39.859375000000 11.218750000000 4.933990478516 182 182 182
39.859375000000 11.218750000000 4.902999877930 187 187 187
39.859375000000 11.218750000000 4.869995117188 178 178 178
39.859375000000 11.218750000000 4.837997436523 183 183 183
39.859375000000 11.203125000000 4.804000854492 183 183 183
39.859375000000 11.218750000000 4.772994995117 181 181 181
39.859375000000 11.218750000000 4.740997314453 185 185 185
39.890625000000 11.203125000000 4.709991455078 183 183 183
39.859375000000 11.218750000000 4.677001953125 185 185 185
39.859375000000 11.218750000000 4.644989013672 84 84 84
40.046875000000 11.218750000000 4.177001953125 181 181 181
40.046875000000 11.218750000000 4.143997192383 192 192 192
40.046875000000 11.218750000000 4.110992431641 185 185 185
40.046875000000 11.218750000000 4.078994750977 185 185 185
40.046875000000 11.218750000000 4.045989990234 186 186 186
40.046875000000 11.218750000000 4.013992309570 183 183 183
39.984375000000 11.218750000000 3.981002807617 179 179 179
40.031250000000 11.218750000000 3.948989868164 183 183 183
39.984375000000 11.218750000000 3.916000366211 180 180 180
39.984375000000 11.218750000000 3.884002685547 174 174 174
39.984375000000 11.218750000000 3.851989746094 163 163 163
40.031250000000 11.218750000000 3.819000244141 183 183 183
39.984375000000 11.218750000000 3.787002563477 174 174 174
40.015625000000 11.218750000000 3.753997802734 184 184 184
40.015625000000 11.218750000000 3.722000122070 186 186 186
40.031250000000 11.218750000000 3.688995361328 184 184 184
40.031250000000 11.218750000000 3.655990600586 185 185 185
40.015625000000 11.218750000000 3.623992919922 187 187 187
40.015625000000 11.218750000000 3.591995239258 185 185 185
40.015625000000 11.218750000000 3.559997558594 186 186 186
40.015625000000 11.218750000000 3.526992797852 181 181 181
40.015625000000 11.218750000000 3.494003295898 42 42 42
40.000000000000 11.515625000000 5.108993530273 105 105 105
40.015625000000 11.515625000000 5.078994750977 187 187 187
40.015625000000 11.515625000000 5.045989990234 182 182 182
40.031250000000 11.531250000000 5.013000488281 188 188 188
40.015625000000 11.515625000000 4.977996826172 184 184 184
40.031250000000 11.531250000000 4.946990966797 182 182 182
40.031250000000 11.531250000000 4.914001464844 188 188 188
40.031250000000 11.531250000000 4.880996704102 167 167 167
40.046875000000 11.531250000000 4.849990844727 160 160 160
40.046875000000 11.515625000000 4.815994262695 181 181 181
40.046875000000 11.515625000000 4.782989501953 182 182 182
40.046875000000 11.531250000000 4.750991821289 179 179 179
40.046875000000 11.515625000000 4.716003417969 183 183 183
40.046875000000 11.531250000000 4.684997558594 185 185 185
40.046875000000 11.531250000000 4.651992797852 184 184 184
40.046875000000 11.531250000000 4.619003295898 148 148 148
40.203125000000 11.531250000000 4.164993286133 115 115 115
40.203125000000 11.531250000000 4.130996704102 182 182 182
40.203125000000 11.531250000000 4.097991943359 181 181 181
40.171875000000 11.531250000000 4.063995361328 183 183 183
40.171875000000 11.531250000000 4.030990600586 183 183 183
40.171875000000 11.531250000000 3.998001098633 184 184 184
40.171875000000 11.531250000000 3.963989257813 182 182 182
40.171875000000 11.531250000000 3.930999755859 180 180 180
40.171875000000 11.531250000000 3.897994995117 179 179 179
40.171875000000 11.531250000000 3.864990234375 184 184 184
40.140625000000 11.531250000000 3.832000732422 178 178 178
40.109375000000 11.531250000000 3.798995971680 153 153 153
40.140625000000 11.531250000000 3.765991210938 79 79 79
40.140625000000 11.843750000000 5.291000366211 114 114 114
40.140625000000 11.843750000000 5.257995605469 154 154 154
40.140625000000 11.843750000000 5.223999023438 181 181 181
40.171875000000 11.843750000000 5.190994262695 182 182 182
40.156250000000 11.812500000000 5.155990600586 182 182 182
40.140625000000 11.843750000000 5.121002197266 182 182 182
40.171875000000 11.843750000000 5.089996337891 157 157 157
40.203125000000 11.843750000000 4.651000976563 160 160 160
40.203125000000 11.843750000000 4.617996215820 182 182 182
40.203125000000 11.843750000000 4.582992553711 180 180 180
40.234375000000 11.843750000000 4.550994873047 172 172 172
40.234375000000 11.843750000000 4.516998291016 139 139 139
40.875000000000 24.937500000000 5.503997802734 140 140 140
40.890625000000 24.937500000000 5.468002319336 167 167 167
40.890625000000 24.937500000000 5.427993774414 161 161 161
40.890625000000 24.937500000000 5.388992309570 185 185 185
40.890625000000 24.937500000000 5.350997924805 201 201 201
40.890625000000 24.937500000000 5.315002441406 183 183 183
40.906250000000 24.937500000000 5.279998779297 129 129 129
40.890625000000 24.937500000000 5.085998535156 153 153 153
40.890625000000 24.937500000000 5.047988891602 184 184 184
40.890625000000 24.937500000000 5.009002685547 181 181 181
40.875000000000 24.937500000000 4.970001220703 170 170 170
40.890625000000 24.937500000000 4.933990478516 195 195 195
40.890625000000 24.937500000000 4.895996093750 180 180 180
40.890625000000 24.937500000000 4.858001708984 103 103 103
41.078125000000 24.937500000000 4.616989135742 110 110 110
41.062500000000 24.953125000000 4.576995849609 101 101 101
41.062500000000 24.953125000000 4.539001464844 101 101 101
41.062500000000 24.953125000000 4.500000000000 123 123 123
41.078125000000 24.937500000000 4.462997436523 116 116 116
41.062500000000 24.953125000000 4.425003051758 122 122 122
41.062500000000 24.953125000000 4.386993408203 102 102 102
41.062500000000 24.953125000000 4.348999023438 112 112 112
41.062500000000 24.953125000000 4.310989379883 118 118 118
41.062500000000 24.953125000000 4.272994995117 109 109 109
41.062500000000 24.953125000000 4.235000610352 105 105 105
41.078125000000 24.937500000000 4.197998046875 76 76 76
41.140625000000 24.937500000000 4.162002563477 34 34 34
40.953125000000 25.234375000000 5.817001342773 100 100 100
40.859375000000 25.250000000000 5.753997802734 100 100 100
40.953125000000 25.250000000000 5.740997314453 128 128 128
40.984375000000 25.250000000000 5.705001831055 118 118 118
40.921875000000 25.250000000000 5.651992797852 92 92 92
40.921875000000 25.250000000000 5.613998413086 147 147 147
40.953125000000 25.250000000000 5.580001831055 137 137 137
41.000000000000 25.250000000000 5.552993774414 124 124 124
40.984375000000 25.234375000000 5.509002685547 155 155 155
41.015625000000 25.250000000000 5.474990844727 131 131 131
41.015625000000 25.250000000000 5.438995361328 112 112 112
41.000000000000 25.250000000000 5.392990112305 156 156 156
41.015625000000 25.250000000000 5.360000610352 112 112 112
41.046875000000 25.250000000000 5.323989868164 110 110 110
41.046875000000 25.250000000000 5.285003662109 112 112 112
41.015625000000 25.250000000000 5.244003295898 102 102 102
41.046875000000 25.250000000000 5.207000732422 106 106 106
41.015625000000 25.250000000000 5.166000366211 97 97 97
41.015625000000 25.250000000000 5.127990722656 105 105 105
41.046875000000 25.250000000000 5.091003417969 113 113 113
41.046875000000 25.250000000000 5.052001953125 110 110 110
41.046875000000 25.250000000000 5.013992309570 97 97 97
41.031250000000 25.265625000000 4.972991943359 97 97 97
41.031250000000 25.265625000000 4.934997558594 108 108 108
41.046875000000 25.250000000000 4.897994995117 99 99 99
41.046875000000 25.250000000000 4.858993530273 109 109 109
41.046875000000 25.250000000000 4.820999145508 112 112 112
41.046875000000 25.250000000000 4.782989501953 123 123 123
41.046875000000 25.250000000000 4.744995117188 122 122 122
41.046875000000 25.250000000000 4.707000732422 134 134 134
41.046875000000 25.250000000000 4.668991088867 134 134 134
41.046875000000 25.250000000000 4.630996704102 130 130 130
41.046875000000 25.265625000000 4.593994140625 138 138 138
41.046875000000 25.265625000000 4.555999755859 145 145 145
41.046875000000 25.250000000000 4.516998291016 133 133 133
41.046875000000 25.250000000000 4.479995727539 130 130 130
41.046875000000 25.250000000000 4.442001342773 136 136 136
41.046875000000 25.265625000000 4.403991699219 132 132 132
41.046875000000 25.265625000000 4.365997314453 131 131 131
41.046875000000 25.265625000000 4.328994750977 123 123 123
41.046875000000 25.265625000000 4.291000366211 129 129 129
41.046875000000 25.265625000000 4.252990722656 140 140 140
41.046875000000 25.265625000000 4.214996337891 147 147 147
41.046875000000 25.265625000000 4.177993774414 143 143 143
41.046875000000 25.265625000000 4.139999389648 150 150 150
41.046875000000 25.265625000000 4.102996826172 144 144 144
41.046875000000 25.265625000000 4.065002441406 147 147 147
41.046875000000 25.265625000000 4.026992797852 139 139 139
41.046875000000 25.265625000000 3.988998413086 135 135 135
41.046875000000 25.265625000000 3.951995849609 136 136 136
41.046875000000 25.265625000000 3.914001464844 141 141 141
41.046875000000 25.265625000000 3.875991821289 135 135 135
41.046875000000 25.265625000000 3.838989257813 133 133 133
41.046875000000 25.265625000000 3.800994873047 130 130 130
41.078125000000 25.281250000000 3.763000488281 140 140 140
41.046875000000 25.265625000000 3.725997924805 132 132 132
41.062500000000 25.281250000000 3.686996459961 133 133 133
41.062500000000 25.281250000000 3.649993896484 132 132 132
41.062500000000 25.281250000000 3.611999511719 132 132 132
41.062500000000 25.281250000000 3.573989868164 127 127 127
41.062500000000 25.281250000000 3.535995483398 124 124 124
41.078125000000 25.281250000000 3.496994018555 130 130 130
41.062500000000 25.281250000000 3.459991455078 119 119 119
41.078125000000 25.281250000000 3.420989990234 127 127 127
41.062500000000 25.281250000000 3.384002685547 122 122 122
41.062500000000 25.281250000000 3.345001220703 130 130 130
41.078125000000 25.281250000000 3.306991577148 131 131 131
41.062500000000 25.281250000000 3.269989013672 130 130 130
41.078125000000 25.281250000000 3.229995727539 122 122 122
41.062500000000 25.281250000000 3.192993164063 122 122 122
41.062500000000 25.281250000000 3.153991699219 125 125 125
41.062500000000 25.281250000000 3.115997314453 126 126 126
41.078125000000 25.281250000000 3.075988769531 124 124 124
41.078125000000 25.281250000000 3.037002563477 125 125 125
41.078125000000 25.281250000000 2.998992919922 121 121 121
41.078125000000 25.281250000000 2.959991455078 116 116 116
41.078125000000 25.281250000000 2.569000244141 123 123 123
41.078125000000 25.281250000000 2.527999877930 133 133 133
41.078125000000 25.281250000000 2.487991333008 125 125 125
41.078125000000 25.281250000000 2.449996948242 121 121 121
41.093750000000 25.296875000000 2.406997680664 111 111 111
41.078125000000 25.281250000000 2.369003295898 108 108 108
41.078125000000 25.281250000000 2.328994750977 103 103 103
41.093750000000 25.296875000000 2.285995483398 123 123 123
41.140625000000 25.281250000000 2.593994140625 119 119 119
41.390625000000 25.562500000000 5.587997436523 18 18 18
41.359375000000 25.562500000000 5.541992187500 157 157 157
41.359375000000 25.562500000000 5.500991821289 180 180 180
41.359375000000 25.562500000000 5.457992553711 156 156 156
41.359375000000 25.562500000000 5.417999267578 204 204 204
41.359375000000 25.562500000000 5.375000000000 185 185 185
41.359375000000 25.562500000000 5.334991455078 99 99 99
41.359375000000 25.562500000000 5.050994873047 125 125 125
41.390625000000 25.562500000000 5.013000488281 162 162 162
41.390625000000 25.562500000000 4.972000122070 153 153 153
41.390625000000 25.562500000000 4.932998657227 167 167 167
41.421875000000 25.562500000000 4.892990112305 157 157 157
41.390625000000 25.562500000000 4.850997924805 160 160 160
41.421875000000 25.562500000000 4.813003540039 96 96 96
39.671875000000 10.812500000000 5.216995239258 23 23 23
39.671875000000 10.812500000000 5.179000854492 197 197 197
39.640625000000 10.812500000000 5.142990112305 236 236 236
39.671875000000 10.812500000000 5.108001708984 237 237 237
39.640625000000 10.812500000000 5.070999145508 190 190 190
39.640625000000 10.812500000000 4.610992431641 241 241 241
39.640625000000 10.812500000000 4.574996948242 19 19 19
39.671875000000 10.812500000000 4.541000366211 5 5 5
39.671875000000 10.812500000000 4.505996704102 76 76 76
39.796875000000 11.046875000000 5.180999755859 21 21 21
39.796875000000 11.062500000000 5.142990112305 233 233 233
39.796875000000 11.062500000000 5.106002807617 242 242 242
39.796875000000 11.062500000000 5.069992065430 245 245 245
39.796875000000 11.046875000000 5.033996582031 247 247 247
39.796875000000 11.062500000000 4.996994018555 254 254 254
39.796875000000 11.046875000000 4.961990356445 252 252 252
39.796875000000 11.062500000000 4.923995971680 204 204 204
39.796875000000 11.062500000000 4.777999877930 231 231 231
39.796875000000 11.062500000000 4.741989135742 21 21 21
39.796875000000 11.062500000000 4.705001831055 21 21 21
39.796875000000 11.062500000000 4.668991088867 21 21 21
39.796875000000 11.046875000000 4.634002685547 21 21 21
39.796875000000 11.062500000000 4.597991943359 21 21 21
39.796875000000 11.062500000000 4.560989379883 11 11 11
39.828125000000 11.031250000000 4.527999877930 39 39 39
39.968750000000 10.953125000000 4.127990722656 107 107 107
39.953125000000 10.968750000000 4.091003417969 191 191 191
39.953125000000 10.968750000000 4.054000854492 209 209 209
39.953125000000 10.968750000000 4.016998291016 206 206 206
39.953125000000 10.968750000000 3.979995727539 201 201 201
39.953125000000 10.968750000000 3.942993164063 204 204 204
39.953125000000 10.968750000000 3.905990600586 205 205 205
39.953125000000 10.968750000000 3.869003295898 190 190 190
39.953125000000 10.968750000000 3.832000732422 126 126 126
39.890625000000 11.296875000000 5.216003417969 138 138 138
39.890625000000 11.296875000000 5.179000854492 147 147 147
39.890625000000 11.296875000000 5.140991210938 149 149 149
39.890625000000 11.312500000000 5.104995727539 155 155 155
39.890625000000 11.312500000000 5.067001342773 140 140 140
39.921875000000 11.281250000000 5.029998779297 146 146 146
39.921875000000 11.281250000000 4.992996215820 200 200 200
39.921875000000 11.281250000000 4.955993652344 206 206 206
39.921875000000 11.281250000000 4.918991088867 197 197 197
39.921875000000 11.281250000000 4.881988525391 209 209 209
39.890625000000 11.312500000000 4.843002319336 207 207 207
39.921875000000 11.281250000000 4.806991577148 202 202 202
39.890625000000 11.312500000000 4.768997192383 212 212 212
39.921875000000 11.281250000000 4.733993530273 201 201 201
39.921875000000 11.281250000000 4.696990966797 169 169 169
39.921875000000 11.281250000000 4.658996582031 164 164 164
39.921875000000 11.281250000000 4.621994018555 156 156 156
39.921875000000 11.281250000000 4.585998535156 153 153 153
39.921875000000 11.281250000000 4.548995971680 158 158 158
39.921875000000 11.281250000000 4.511993408203 156 156 156
39.921875000000 11.281250000000 4.474990844727 160 160 160
39.921875000000 11.281250000000 4.438995361328 161 161 161
39.921875000000 11.281250000000 4.401992797852 163 163 163
39.921875000000 11.281250000000 4.364990234375 164 164 164
39.921875000000 11.281250000000 4.328002929688 159 159 159
39.921875000000 11.281250000000 4.291000366211 159 159 159
39.921875000000 11.281250000000 4.253997802734 163 163 163
39.921875000000 11.281250000000 4.218002319336 160 160 160
39.921875000000 11.281250000000 4.180999755859 164 164 164
39.921875000000 11.312500000000 4.143997192383 172 172 172
39.921875000000 11.312500000000 4.106994628906 169 169 169
39.937500000000 11.296875000000 4.069992065430 171 171 171
39.937500000000 11.296875000000 4.033996582031 168 168 168
39.921875000000 11.312500000000 3.996994018555 168 168 168
39.921875000000 11.312500000000 3.959991455078 164 164 164
39.937500000000 11.296875000000 3.922988891602 169 169 169
39.937500000000 11.296875000000 3.886001586914 169 169 169
39.937500000000 11.296875000000 3.848999023438 167 167 167
39.921875000000 11.312500000000 3.813003540039 166 166 166
39.937500000000 11.296875000000 3.774993896484 164 164 164
39.937500000000 11.296875000000 3.737991333008 162 162 162
39.953125000000 11.281250000000 3.699996948242 163 163 163
39.937500000000 11.296875000000 3.664001464844 163 163 163
39.937500000000 11.296875000000 3.625991821289 167 167 167
39.921875000000 11.312500000000 3.589996337891 171 171 171
39.921875000000 11.312500000000 3.552993774414 170 170 170
39.921875000000 11.312500000000 3.515991210938 170 170 170
39.937500000000 11.296875000000 3.477996826172 168 168 168
39.937500000000 11.296875000000 3.440002441406 169 169 169
39.937500000000 11.296875000000 3.402999877930 173 173 173
39.921875000000 11.312500000000 3.366989135742 170 170 170
39.921875000000 11.312500000000 3.328002929688 172 172 172
39.937500000000 11.296875000000 3.289993286133 169 169 169
39.921875000000 11.312500000000 3.252990722656 171 171 171
39.937500000000 11.296875000000 3.214996337891 165 165 165
39.937500000000 11.296875000000 3.177001953125 168 168 168
39.953125000000 11.312500000000 3.138992309570 170 170 170
39.953125000000 11.312500000000 3.100997924805 168 168 168
39.953125000000 11.312500000000 3.061996459961 173 173 173
39.937500000000 11.312500000000 3.026000976563 162 162 162
39.953125000000 11.312500000000 2.985000610352 167 167 167
39.953125000000 11.312500000000 2.946990966797 162 162 162
39.953125000000 11.312500000000 2.910003662109 162 162 162
39.953125000000 11.312500000000 2.871002197266 161 161 161
39.953125000000 11.312500000000 2.830993652344 161 161 161
39.984375000000 11.265625000000 2.780990600586 147 147 147
40.031250000000 11.546875000000 5.112991333008 224 224 224
40.046875000000 11.531250000000 5.074996948242 0 0 0
40.046875000000 11.531250000000 5.037002563477 5 5 5
40.046875000000 11.531250000000 4.998992919922 2 2 2
40.046875000000 11.531250000000 4.960998535156 251 251 251
40.046875000000 11.531250000000 4.923995971680 1 1 1
40.062500000000 11.531250000000 4.886001586914 232 232 232
40.062500000000 11.531250000000 4.848999023438 201 201 201
40.062500000000 11.531250000000 4.810989379883 237 237 237
40.078125000000 11.531250000000 4.774002075195 17 17 17
40.078125000000 11.531250000000 4.735000610352 253 253 253
40.078125000000 11.531250000000 4.697998046875 24 24 24
40.062500000000 11.531250000000 4.658996582031 16 16 16
40.078125000000 11.531250000000 4.621994018555 236 236 236
40.187500000000 11.468750000000 4.167999267578 186 186 186
40.171875000000 11.484375000000 4.128997802734 192 192 192
40.171875000000 11.484375000000 4.091003417969 203 203 203
40.171875000000 11.484375000000 4.052001953125 194 194 194
40.140625000000 11.500000000000 4.013992309570 177 177 177
40.156250000000 11.468750000000 3.975997924805 184 184 184
40.171875000000 11.484375000000 3.936996459961 182 182 182
40.171875000000 11.500000000000 3.899002075195 190 190 190
40.171875000000 11.500000000000 3.860000610352 188 188 188
40.109375000000 11.500000000000 3.824996948242 175 175 175
40.109375000000 11.515625000000 3.787002563477 174 174 174
40.109375000000 11.500000000000 3.748001098633 182 182 182
40.140625000000 11.500000000000 3.707000732422 157 157 157
40.171875000000 11.500000000000 3.666992187500 63 63 63
40.171875000000 11.812500000000 5.317993164063 70 70 70
40.140625000000 11.796875000000 5.274993896484 254 254 254
40.171875000000 11.812500000000 5.237991333008 12 12 12
40.171875000000 11.812500000000 5.197998046875 12 12 12
40.140625000000 11.812500000000 5.157989501953 2 2 2
40.171875000000 11.812500000000 5.121002197266 0 0 0
40.171875000000 11.812500000000 5.082000732422 250 250 250
40.171875000000 11.812500000000 5.042999267578 124 124 124
40.187500000000 11.781250000000 4.696990966797 230 230 230
40.203125000000 11.781250000000 4.657989501953 10 10 10
40.203125000000 11.781250000000 4.619995117188 25 25 25
40.203125000000 11.781250000000 4.580993652344 20 20 20
40.203125000000 11.781250000000 4.541992187500 25 25 25
40.203125000000 11.781250000000 4.503997802734 25 25 25
40.203125000000 11.781250000000 4.464996337891 181 181 181
40.859375000000 24.875000000000 5.556991577148 210 210 210
40.859375000000 24.875000000000 5.513000488281 234 234 234
40.859375000000 24.875000000000 5.468994140625 233 233 233
40.859375000000 24.875000000000 5.427993774414 231 231 231
40.859375000000 24.875000000000 5.384994506836 206 206 206
40.859375000000 24.875000000000 5.339996337891 225 225 225
40.859375000000 24.875000000000 5.039993286133 231 231 231
40.859375000000 24.875000000000 4.996994018555 221 221 221
40.859375000000 24.875000000000 4.955001831055 218 218 218
40.859375000000 24.875000000000 4.912002563477 242 242 242
40.859375000000 24.875000000000 4.869995117188 246 246 246
40.859375000000 24.875000000000 4.828002929688 237 237 237
41.015625000000 25.093750000000 5.751998901367 113 113 113
41.109375000000 25.031250000000 5.725997924805 23 23 23
41.015625000000 25.093750000000 5.390991210938 222 222 222
41.015625000000 25.093750000000 5.347991943359 235 235 235
41.015625000000 25.093750000000 5.304000854492 233 233 233
41.015625000000 25.093750000000 5.259994506836 237 237 237
41.015625000000 25.093750000000 5.214996337891 233 233 233
41.015625000000 25.093750000000 5.169998168945 215 215 215
41.015625000000 25.093750000000 5.125991821289 207 207 207
41.015625000000 25.109375000000 5.082000732422 226 226 226
41.031250000000 25.093750000000 5.039001464844 197 197 197
41.015625000000 25.109375000000 4.994003295898 236 236 236
41.171875000000 25.031250000000 4.654998779297 71 71 71
41.156250000000 25.031250000000 4.610000610352 121 121 121
41.140625000000 25.015625000000 4.565994262695 119 119 119
41.140625000000 25.031250000000 4.520996093750 98 98 98
41.109375000000 25.062500000000 4.474990844727 79 79 79
41.109375000000 25.046875000000 4.430999755859 93 93 93
41.125000000000 25.031250000000 4.388000488281 100 100 100
41.140625000000 25.046875000000 4.343994140625 121 121 121
41.140625000000 25.046875000000 4.300003051758 149 149 149
41.140625000000 25.046875000000 4.255996704102 145 145 145
41.140625000000 25.046875000000 4.210998535156 106 106 106
41.156250000000 25.031250000000 4.166992187500 100 100 100
41.140625000000 25.062500000000 4.123001098633 101 101 101
41.140625000000 25.062500000000 4.078994750977 120 120 120
41.140625000000 25.062500000000 4.035003662109 101 101 101
41.046875000000 25.406250000000 5.819992065430 64 64 64
40.968750000000 25.437500000000 5.759002685547 97 97 97
41.171875000000 25.296875000000 5.763992309570 138 138 138
41.156250000000 25.312500000000 5.711990356445 124 124 124
41.046875000000 25.375000000000 5.640991210938 86 86 86
41.046875000000 25.375000000000 5.597991943359 115 115 115
41.140625000000 25.343750000000 5.569000244141 15 15 15
41.203125000000 25.296875000000 5.401000976563 22 22 22
41.171875000000 25.312500000000 5.349990844727 227 227 227
41.171875000000 25.312500000000 5.304992675781 238 238 238
41.187500000000 25.312500000000 5.259994506836 232 232 232
41.187500000000 25.312500000000 5.214996337891 237 237 237
41.171875000000 25.312500000000 5.168991088867 232 232 232
41.187500000000 25.312500000000 5.125991821289 235 235 235
41.187500000000 25.312500000000 5.080993652344 237 237 237
41.203125000000 25.296875000000 5.035995483398 219 219 219
41.203125000000 25.281250000000 4.994003295898 37 37 37
41.343750000000 25.218750000000 4.641998291016 106 106 106
41.328125000000 25.234375000000 4.595001220703 117 117 117
41.328125000000 25.234375000000 4.550003051758 111 111 111
41.328125000000 25.250000000000 4.503997802734 107 107 107
41.218750000000 25.312500000000 4.453994750977 132 132 132
41.218750000000 25.312500000000 4.408996582031 139 139 139
41.234375000000 25.312500000000 4.364990234375 146 146 146
41.234375000000 25.312500000000 4.319992065430 153 153 153
41.218750000000 25.312500000000 4.274993896484 155 155 155
