27.234375000000 24.343750000000 7.080993652344 35 35 35
27.265625000000 24.359375000000 7.126998901367 144 144 144
27.421875000000 24.437500000000 7.119995117188 88 88 88
27.578125000000 24.531250000000 7.103988647461 113 113 113
27.609375000000 24.546875000000 7.134002685547 117 117 117
27.421875000000 24.437500000000 7.276000976563 18 18 18
27.234375000000 24.031250000000 6.632995605469 158 158 158
27.234375000000 24.031250000000 6.688003540039 197 197 197
27.218750000000 24.015625000000 6.744995117188 178 178 178
27.203125000000 24.031250000000 6.798995971680 93 93 93
27.218750000000 24.015625000000 6.848999023438 176 176 176
27.250000000000 24.031250000000 7.102996826172 137 137 137
27.265625000000 24.046875000000 7.149993896484 37 37 37
27.609375000000 24.218750000000 7.110000610352 141 141 141
27.406250000000 24.125000000000 7.354995727539 18 18 18
27.218750000000 23.718750000000 6.611999511719 94 94 94
27.218750000000 23.718750000000 6.664001464844 167 167 167
27.234375000000 23.718750000000 6.713989257813 157 157 157
27.218750000000 23.718750000000 6.769989013672 140 140 140
27.218750000000 23.718750000000 6.822998046875 130 130 130
27.218750000000 23.718750000000 6.876998901367 119 119 119
27.218750000000 23.718750000000 6.930999755859 107 107 107
27.203125000000 23.687500000000 6.985992431641 100 100 100
27.203125000000 23.687500000000 7.039001464844 90 90 90
27.234375000000 23.718750000000 7.083999633789 105 105 105
27.265625000000 23.734375000000 7.126998901367 136 136 136
27.578125000000 23.906250000000 7.095993041992 92 92 92
27.609375000000 23.906250000000 7.134994506836 105 105 105
27.421875000000 23.812500000000 7.491989135742 40 40 40
27.203125000000 23.375000000000 6.639999389648 111 111 111
27.218750000000 23.406250000000 7.110000610352 130 130 130
27.250000000000 23.406250000000 7.160995483398 20 20 20
27.578125000000 23.609375000000 7.114990234375 146 146 146
27.421875000000 23.500000000000 7.623992919922 14 14 14
27.203125000000 23.093750000000 6.612991333008 58 58 58
27.203125000000 23.062500000000 6.666992187500 20 20 20
27.203125000000 23.093750000000 7.086990356445 14 14 14
27.234375000000 23.078125000000 7.131988525391 137 137 137
27.578125000000 23.281250000000 7.093002319336 47 47 47
27.593750000000 23.281250000000 7.136993408203 117 117 117
27.203125000000 22.750000000000 6.644989013672 104 104 104
27.234375000000 22.750000000000 7.108001708984 117 117 117
27.359375000000 22.843750000000 7.100997924805 92 92 92
27.468750000000 22.906250000000 7.108993530273 130 130 130
27.578125000000 22.953125000000 7.117996215820 132 132 132
27.578125000000 22.953125000000 7.169998168945 12 12 12
27.421875000000 22.875000000000 7.843002319336 11 11 11
27.171875000000 22.437500000000 6.617996215820 88 88 88
27.203125000000 22.421875000000 7.087997436523 33 33 33
27.234375000000 22.437500000000 7.129989624023 121 121 121
27.546875000000 22.625000000000 7.097991943359 62 62 62
27.578125000000 22.656250000000 7.138000488281 117 117 117
27.375000000000 22.531250000000 7.338989257813 11 11 11
27.406250000000 22.531250000000 7.987991333008 55 55 55
27.218750000000 22.125000000000 7.111999511719 129 129 129
27.328125000000 22.187500000000 7.121002197266 85 85 85
27.406250000000 22.234375000000 7.141998291016 13 13 13
27.578125000000 22.312500000000 7.121002197266 130 130 130
27.390625000000 22.218750000000 7.526992797852 19 19 19
27.203125000000 21.812500000000 7.097000122070 103 103 103
27.218750000000 21.812500000000 7.141998291016 64 64 64
27.578125000000 22.000000000000 7.101989746094 111 111 111
27.578125000000 22.000000000000 7.149993896484 43 43 43
27.375000000000 21.906250000000 7.724990844727 41 41 41
27.406250000000 21.906250000000 8.227996826172 14 14 14
27.218750000000 21.500000000000 7.113998413086 136 136 136
27.531250000000 21.671875000000 7.087997436523 23 23 23
27.578125000000 21.703125000000 7.125000000000 127 127 127
27.359375000000 21.578125000000 7.923995971680 37 37 37
27.406250000000 21.593750000000 8.376998901367 59 59 59
27.203125000000 21.171875000000 7.095001220703 119 119 119
27.218750000000 21.187500000000 7.142990112305 71 71 71
27.546875000000 21.375000000000 7.101989746094 130 130 130
27.546875000000 21.375000000000 7.151992797852 49 49 49
27.390625000000 21.265625000000 8.119003295898 20 20 20
27.421875000000 21.281250000000 8.516998291016 18 18 18
27.171875000000 20.843750000000 7.071990966797 41 41 41
27.203125000000 20.875000000000 7.113998413086 137 137 137
27.515625000000 21.015625000000 7.097000122070 108 108 108
27.562500000000 21.062500000000 7.119003295898 126 126 126
27.421875000000 20.953125000000 8.668991088867 17 17 17
27.203125000000 20.531250000000 7.093002319336 142 142 142
27.546875000000 20.750000000000 7.101989746094 147 147 147
27.390625000000 20.625000000000 8.474990844727 43 43 43
27.406250000000 20.656250000000 8.763000488281 52 52 52
27.203125000000 20.234375000000 7.074996948242 109 109 109
27.203125000000 20.234375000000 7.123001098633 98 98 98
27.515625000000 20.421875000000 7.087997436523 120 120 120
27.546875000000 20.421875000000 7.131988525391 76 76 76
27.156250000000 19.890625000000 7.063003540039 6 6 6
27.203125000000 19.921875000000 7.102996826172 122 122 122
27.515625000000 20.093750000000 7.071990966797 50 50 50
27.546875000000 20.109375000000 7.110992431641 119 119 119
27.375000000000 20.000000000000 8.845001220703 12 12 12
27.406250000000 20.015625000000 9.029998779297 5 5 5
27.265625000000 19.656250000000 5.819000244141 9 9 9
27.265625000000 19.656250000000 5.865997314453 9 9 9
27.265625000000 19.656250000000 5.914993286133 10 10 10
27.265625000000 19.656250000000 5.966995239258 12 12 12
27.281250000000 19.656250000000 6.009994506836 12 12 12
27.265625000000 19.656250000000 6.063003540039 12 12 12
27.265625000000 19.656250000000 6.117996215820 15 15 15
27.265625000000 19.656250000000 6.164001464844 15 15 15
27.265625000000 19.656250000000 6.216003417969 15 15 15
27.265625000000 19.656250000000 6.264999389648 18 18 18
27.265625000000 19.656250000000 6.311996459961 15 15 15
27.265625000000 19.625000000000 6.365997314453 20 20 20
27.265625000000 19.625000000000 6.416992187500 18 18 18
27.265625000000 19.656250000000 6.464996337891 16 16 16
27.265625000000 19.656250000000 6.516998291016 16 16 16
27.265625000000 19.656250000000 6.565002441406 18 18 18
27.281250000000 19.656250000000 6.612991333008 14 14 14
27.265625000000 19.656250000000 6.668991088867 14 14 14
27.265625000000 19.656250000000 6.722000122070 14 14 14
27.265625000000 19.656250000000 6.776000976563 13 13 13
27.265625000000 19.625000000000 6.828994750977 14 14 14
27.281250000000 19.656250000000 6.873001098633 14 14 14
27.281250000000 19.656250000000 6.927993774414 14 14 14
27.265625000000 19.625000000000 6.988998413086 75 75 75
27.281250000000 19.656250000000 7.031997680664 139 139 139
27.328125000000 19.687500000000 7.065994262695 114 114 114
27.296875000000 19.656250000000 7.134994506836 16 16 16
27.531250000000 19.781250000000 7.086990356445 143 143 143
27.390625000000 19.718750000000 7.199996948242 41 41 41
27.296875000000 19.656250000000 7.295989990234 20 20 20
27.296875000000 19.656250000000 7.350997924805 20 20 20
27.296875000000 19.656250000000 7.408996582031 22 22 22
27.296875000000 19.656250000000 7.457992553711 24 24 24
27.296875000000 19.656250000000 7.514999389648 26 26 26
27.296875000000 19.656250000000 7.569992065430 27 27 27
27.296875000000 19.656250000000 7.621994018555 30 30 30
27.296875000000 19.656250000000 7.680999755859 30 30 30
27.296875000000 19.656250000000 7.735992431641 28 28 28
27.296875000000 19.656250000000 7.792999267578 30 30 30
27.296875000000 19.656250000000 7.850997924805 30 30 30
27.296875000000 19.656250000000 7.901992797852 33 33 33
27.296875000000 19.656250000000 7.958999633789 36 36 36
27.328125000000 19.656250000000 8.009002685547 36 36 36
27.296875000000 19.656250000000 8.074996948242 38 38 38
27.328125000000 19.656250000000 8.125991821289 43 43 43
27.328125000000 19.656250000000 8.179992675781 48 48 48
27.328125000000 19.656250000000 8.235000610352 36 36 36
27.328125000000 19.656250000000 8.302993774414 39 39 39
27.328125000000 19.656250000000 8.358993530273 43 43 43
27.328125000000 19.656250000000 8.417999267578 49 49 49
27.328125000000 19.687500000000 8.470001220703 49 49 49
27.328125000000 19.656250000000 8.537994384766 54 54 54
27.328125000000 19.687500000000 8.593994140625 41 41 41
27.328125000000 19.656250000000 8.658996582031 53 53 53
27.359375000000 19.656250000000 8.711990356445 44 44 44
27.328125000000 19.656250000000 8.778991699219 51 51 51
27.359375000000 19.656250000000 8.835998535156 58 58 58
27.359375000000 19.656250000000 8.902999877930 64 64 64
27.359375000000 19.656250000000 8.957000732422 65 65 65
27.359375000000 19.671875000000 9.015991210938 74 74 74
27.390625000000 19.687500000000 9.063003540039 91 91 91
27.359375000000 19.656250000000 9.149002075195 70 70 70
27.359375000000 19.671875000000 9.207000732422 81 81 81
27.390625000000 19.687500000000 9.264999389648 79 79 79
27.171875000000 19.312500000000 2.574996948242 57 57 57
27.171875000000 19.312500000000 2.621994018555 67 67 67
27.281250000000 19.359375000000 2.692001342773 121 121 121
27.296875000000 19.390625000000 2.742996215820 151 151 151
27.296875000000 19.375000000000 2.789993286133 153 153 153
27.281250000000 19.359375000000 2.835998535156 143 143 143
27.203125000000 19.312500000000 2.869995117188 87 87 87
27.171875000000 19.312500000000 2.916992187500 91 91 91
27.171875000000 19.312500000000 2.966003417969 93 93 93
27.203125000000 19.312500000000 3.015991210938 97 97 97
27.203125000000 19.312500000000 3.065002441406 101 101 101
27.203125000000 19.328125000000 3.114990234375 101 101 101
27.203125000000 19.312500000000 3.162002563477 116 116 116
27.203125000000 19.312500000000 3.209991455078 115 115 115
27.203125000000 19.312500000000 3.257995605469 127 127 127
27.203125000000 19.312500000000 3.305999755859 127 127 127
27.203125000000 19.312500000000 3.353988647461 135 135 135
27.203125000000 19.312500000000 3.401992797852 140 140 140
27.203125000000 19.328125000000 3.450988769531 136 136 136
27.203125000000 19.312500000000 3.498001098633 133 133 133
27.203125000000 19.328125000000 3.545989990234 135 135 135
27.218750000000 19.312500000000 3.593994140625 136 136 136
27.218750000000 19.312500000000 3.641998291016 136 136 136
27.218750000000 19.312500000000 3.688995361328 142 142 142
27.218750000000 19.312500000000 3.736999511719 138 138 138
27.218750000000 19.312500000000 3.783996582031 142 142 142
27.312500000000 19.375000000000 3.882995605469 146 146 146
27.296875000000 19.375000000000 3.929000854492 147 147 147
27.343750000000 19.390625000000 3.976989746094 148 148 148
27.234375000000 19.343750000000 4.022003173828 137 137 137
27.359375000000 19.390625000000 5.912002563477 113 113 113
27.359375000000 19.375000000000 5.961990356445 114 114 114
27.359375000000 19.375000000000 6.009994506836 112 112 112
27.375000000000 19.375000000000 6.054992675781 106 106 106
27.359375000000 19.390625000000 6.106002807617 99 99 99
27.359375000000 19.375000000000 6.157989501953 93 93 93
27.375000000000 19.375000000000 6.205001831055 84 84 84
27.375000000000 19.375000000000 6.254989624023 80 80 80
27.359375000000 19.390625000000 6.305999755859 66 66 66
27.375000000000 19.375000000000 6.354995727539 35 35 35
27.375000000000 19.375000000000 6.404998779297 16 16 16
27.156250000000 19.250000000000 7.055999755859 21 21 21
27.171875000000 19.281250000000 7.095993041992 147 147 147
27.500000000000 19.468750000000 7.069000244141 81 81 81
27.531250000000 19.468750000000 7.108993530273 116 116 116
27.171875000000 18.937500000000 7.074996948242 130 130 130
27.171875000000 18.953125000000 7.123001098633 26 26 26
27.531250000000 19.140625000000 7.084991455078 141 141 141
27.515625000000 18.812500000000 7.063003540039 110 110 110
27.515625000000 18.843750000000 7.108993530273 85 85 85
27.843750000000 35.015625000000 7.093994140625 166 166 166
27.843750000000 34.687500000000 7.114990234375 123 123 123
27.828125000000 34.703125000000 7.074996948242 102 102 102
27.484375000000 34.906250000000 7.121994018555 153 153 153
27.484375000000 34.921875000000 7.071990966797 15 15 15
27.828125000000 34.390625000000 7.097000122070 172 172 172
27.484375000000 34.593750000000 7.140991210938 72 72 72
27.484375000000 34.593750000000 7.089996337891 114 114 114
27.656250000000 34.156250000000 9.278991699219 69 69 69
27.656250000000 34.156250000000 9.084991455078 88 88 88
27.609375000000 34.187500000000 8.507995605469 12 12 12
27.593750000000 34.203125000000 8.457992553711 22 22 22
27.593750000000 34.203125000000 8.391998291016 33 33 33
27.593750000000 34.203125000000 8.337997436523 42 42 42
27.593750000000 34.203125000000 8.279998779297 52 52 52
27.593750000000 34.203125000000 8.218994140625 62 62 62
27.593750000000 34.203125000000 8.162002563477 75 75 75
27.593750000000 34.203125000000 8.100997924805 81 81 81
27.593750000000 34.203125000000 8.041992187500 81 81 81
27.593750000000 34.203125000000 7.983993530273 88 88 88
27.593750000000 34.203125000000 7.929992675781 95 95 95
27.593750000000 34.203125000000 7.871002197266 90 90 90
27.609375000000 34.187500000000 7.813995361328 99 99 99
27.609375000000 34.187500000000 7.752990722656 98 98 98
27.609375000000 34.187500000000 7.700988769531 109 109 109
27.593750000000 34.203125000000 7.649993896484 115 115 115
27.609375000000 34.187500000000 7.588989257813 113 113 113
27.609375000000 34.187500000000 7.533996582031 124 124 124
27.609375000000 34.187500000000 7.478988647461 125 125 125
27.609375000000 34.187500000000 7.425994873047 135 135 135
27.609375000000 34.187500000000 7.375000000000 135 135 135
27.609375000000 34.187500000000 7.317993164063 136 136 136
27.609375000000 34.203125000000 7.261993408203 141 141 141
27.796875000000 34.093750000000 7.126998901367 164 164 164
27.734375000000 34.125000000000 7.097991943359 133 133 133
27.671875000000 34.156250000000 7.078994750977 115 115 115
27.640625000000 34.171875000000 7.039001464844 126 126 126
27.625000000000 34.187500000000 6.996994018555 125 125 125
27.625000000000 34.187500000000 6.945999145508 126 126 126
27.625000000000 34.187500000000 6.893997192383 130 130 130
27.625000000000 34.187500000000 6.838989257813 133 133 133
27.640625000000 34.187500000000 6.785003662109 134 134 134
27.640625000000 34.187500000000 6.736999511719 134 134 134
27.640625000000 34.187500000000 6.684997558594 138 138 138
27.640625000000 34.187500000000 6.632995605469 139 139 139
27.640625000000 34.187500000000 6.580993652344 137 137 137
27.640625000000 34.171875000000 6.528991699219 139 139 139
27.640625000000 34.171875000000 6.478988647461 143 143 143
27.640625000000 34.171875000000 6.429992675781 136 136 136
27.640625000000 34.171875000000 6.379989624023 143 143 143
27.640625000000 34.187500000000 6.332000732422 146 146 146
27.640625000000 34.171875000000 6.280990600586 152 152 152
27.640625000000 34.187500000000 6.235000610352 154 154 154
27.640625000000 34.171875000000 6.181991577148 157 157 157
27.640625000000 34.187500000000 6.136993408203 151 151 151
27.640625000000 34.187500000000 6.086990356445 157 157 157
27.640625000000 34.171875000000 6.037002563477 156 156 156
27.640625000000 34.187500000000 5.991989135742 154 154 154
27.640625000000 34.171875000000 5.940994262695 159 159 159
27.640625000000 34.171875000000 5.892990112305 160 160 160
27.640625000000 34.171875000000 5.843994140625 161 161 161
27.640625000000 34.187500000000 5.797988891602 163 163 163
27.640625000000 34.187500000000 5.750000000000 167 167 167
27.640625000000 34.187500000000 5.703002929688 162 162 162
27.640625000000 34.187500000000 5.655990600586 160 160 160
27.640625000000 34.171875000000 5.606994628906 158 158 158
27.640625000000 34.187500000000 5.559997558594 159 159 159
27.640625000000 34.187500000000 5.513000488281 151 151 151
27.640625000000 34.187500000000 5.466995239258 153 153 153
27.640625000000 34.187500000000 5.419998168945 143 143 143
27.640625000000 34.187500000000 5.371994018555 141 141 141
27.640625000000 34.187500000000 5.324996948242 134 134 134
27.656250000000 34.187500000000 5.276992797852 127 127 127
27.656250000000 34.187500000000 5.231002807617 149 149 149
27.656250000000 34.187500000000 5.043991088867 116 116 116
27.640625000000 34.187500000000 4.998992919922 120 120 120
27.640625000000 34.187500000000 4.951995849609 116 116 116
27.640625000000 34.187500000000 4.906997680664 105 105 105
27.640625000000 34.187500000000 4.860000610352 107 107 107
27.625000000000 34.187500000000 4.815994262695 92 92 92
27.640625000000 34.187500000000 4.767990112305 75 75 75
27.625000000000 34.187500000000 4.722000122070 33 33 33
27.578125000000 34.234375000000 4.078002929688 44 44 44
27.609375000000 34.203125000000 4.031997680664 162 162 162
27.609375000000 34.203125000000 3.985992431641 161 161 161
27.609375000000 34.203125000000 3.940002441406 165 165 165
27.578125000000 34.250000000000 2.907989501953 170 170 170
27.593750000000 34.218750000000 2.863998413086 163 163 163
27.609375000000 34.218750000000 2.819000244141 155 155 155
27.609375000000 34.234375000000 2.769989013672 131 131 131
27.640625000000 33.843750000000 9.125991821289 28 28 28
27.640625000000 33.843750000000 8.873992919922 19 19 19
27.812500000000 33.750000000000 7.144989013672 10 10 10
27.796875000000 33.781250000000 7.098999023438 169 169 169
27.671875000000 33.843750000000 7.104995727539 108 108 108
27.515625000000 33.937500000000 7.125991821289 106 106 106
27.453125000000 33.968750000000 7.097000122070 124 124 124
27.640625000000 33.531250000000 8.976989746094 18 18 18
27.609375000000 33.531250000000 8.677993774414 13 13 13
27.796875000000 33.437500000000 7.121994018555 139 139 139
27.781250000000 33.468750000000 7.082992553711 99 99 99
27.453125000000 33.656250000000 7.121002197266 159 159 159
27.453125000000 33.671875000000 7.075988769531 12 12 12
27.625000000000 33.218750000000 8.522994995117 16 16 16
27.796875000000 33.140625000000 7.099990844727 172 172 172
27.453125000000 33.343750000000 7.147994995117 84 84 84
27.453125000000 33.343750000000 7.097000122070 118 118 118
27.609375000000 32.906250000000 8.733993530273 18 18 18
27.609375000000 32.906250000000 8.309997558594 20 20 20
27.796875000000 32.812500000000 7.121994018555 168 168 168
27.781250000000 32.828125000000 7.075988769531 70 70 70
27.437500000000 33.031250000000 7.121994018555 149 149 149
27.578125000000 32.593750000000 8.117996215820 18 18 18
27.796875000000 32.500000000000 7.139999389648 103 103 103
27.781250000000 32.500000000000 7.089996337891 147 147 147
27.484375000000 32.687500000000 7.121002197266 113 113 113
27.421875000000 32.718750000000 7.091995239258 87 87 87
27.593750000000 32.281250000000 8.486999511719 32 32 32
27.578125000000 32.281250000000 7.916000366211 13 13 13
27.796875000000 32.187500000000 7.114990234375 153 153 153
27.734375000000 32.203125000000 7.084991455078 79 79 79
27.453125000000 32.375000000000 7.157989501953 13 13 13
27.421875000000 32.390625000000 7.114990234375 146 146 146
27.578125000000 31.968750000000 8.348999023438 13 13 13
27.546875000000 32.000000000000 7.731994628906 6 6 6
27.765625000000 31.875000000000 7.147994995117 72 72 72
27.765625000000 31.875000000000 7.099990844727 120 120 120
27.421875000000 32.078125000000 7.136993408203 132 132 132
27.421875000000 32.078125000000 7.085998535156 114 114 114
27.562500000000 31.671875000000 7.533996582031 21 21 21
27.765625000000 31.562500000000 7.126998901367 136 136 136
27.734375000000 31.593750000000 7.089996337891 29 29 29
27.421875000000 31.781250000000 7.121994018555 149 149 149
27.359375000000 31.812500000000 6.670989990234 15 15 15
27.328125000000 31.812500000000 6.623001098633 80 80 80
27.578125000000 31.375000000000 8.121994018555 10 10 10
27.578125000000 31.375000000000 7.345993041992 18 18 18
27.765625000000 31.250000000000 7.147994995117 42 42 42
27.734375000000 31.250000000000 7.106002807617 132 132 132
27.453125000000 31.437500000000 7.130996704102 117 117 117
27.406250000000 31.468750000000 7.098999023438 94 94 94
27.359375000000 31.500000000000 6.644989013672 126 126 126
27.562500000000 31.031250000000 7.975997924805 36 36 36
27.765625000000 30.937500000000 7.123992919922 139 139 139
27.656250000000 31.000000000000 7.116989135742 135 135 135
27.593750000000 31.031250000000 7.091995239258 127 127 127
27.390625000000 31.125000000000 7.119995117188 144 144 144
27.359375000000 31.156250000000 6.662994384766 58 58 58
27.343750000000 31.187500000000 6.614990234375 28 28 28
27.546875000000 30.718750000000 7.847991943359 37 37 37
27.750000000000 30.625000000000 7.151992797852 61 61 61
27.734375000000 30.625000000000 7.102996826172 122 122 122
27.390625000000 30.828125000000 7.147003173828 96 96 96
27.375000000000 30.828125000000 7.100997924805 99 99 99
27.359375000000 30.843750000000 6.634994506836 115 115 115
27.515625000000 30.421875000000 7.709991455078 33 33 33
27.734375000000 30.296875000000 7.126998901367 131 131 131
27.703125000000 30.312500000000 7.089996337891 64 64 64
27.390625000000 30.500000000000 7.123001098633 138 138 138
27.328125000000 30.531250000000 7.082992553711 8 8 8
27.359375000000 30.531250000000 6.871994018555 111 111 111
27.328125000000 30.531250000000 6.822998046875 190 190 190
27.328125000000 30.531250000000 6.769989013672 161 161 161
27.328125000000 30.531250000000 6.716995239258 162 162 162
27.359375000000 30.531250000000 6.660003662109 201 201 201
27.359375000000 30.531250000000 6.608001708984 51 51 51
27.515625000000 30.109375000000 7.575988769531 20 20 20
27.703125000000 30.000000000000 7.108001708984 139 139 139
27.375000000000 30.203125000000 7.101989746094 140 140 140
27.328125000000 30.218750000000 6.852996826172 166 166 166
27.328125000000 30.218750000000 6.800994873047 178 178 178
27.328125000000 30.218750000000 6.748001098633 199 199 199
27.328125000000 30.218750000000 6.694992065430 184 184 184
27.328125000000 30.218750000000 6.642990112305 180 180 180
27.500000000000 29.812500000000 7.453002929688 17 17 17
27.703125000000 29.671875000000 7.139999389648 70 70 70
27.703125000000 29.671875000000 7.089996337891 118 118 118
27.359375000000 29.875000000000 7.130996704102 90 90 90
27.343750000000 29.906250000000 7.087997436523 104 104 104
27.328125000000 29.921875000000 6.884994506836 6 6 6
27.328125000000 29.906250000000 6.830001831055 190 190 190
27.328125000000 29.906250000000 6.776992797852 166 166 166
27.328125000000 29.906250000000 6.722991943359 127 127 127
27.328125000000 29.906250000000 6.671997070313 206 206 206
27.343750000000 29.906250000000 6.614990234375 131 131 131
27.484375000000 29.500000000000 7.322998046875 12 12 12
27.703125000000 29.359375000000 7.114990234375 135 135 135
27.687500000000 29.375000000000 7.072998046875 21 21 21
27.375000000000 29.562500000000 7.106002807617 137 137 137
27.328125000000 29.593750000000 7.063003540039 7 7 7
27.312500000000 29.593750000000 6.860000610352 105 105 105
27.312500000000 29.593750000000 6.807998657227 186 186 186
27.312500000000 29.593750000000 6.755996704102 163 163 163
27.328125000000 29.593750000000 6.699996948242 170 170 170
27.328125000000 29.593750000000 6.647003173828 201 201 201
27.328125000000 29.593750000000 6.595001220703 56 56 56
27.671875000000 29.062500000000 7.155990600586 44 44 44
27.687500000000 29.062500000000 7.091995239258 139 139 139
27.546875000000 29.140625000000 7.106994628906 101 101 101
27.406250000000 29.234375000000 7.111999511719 78 78 78
27.359375000000 29.250000000000 7.080001831055 126 126 126
27.296875000000 29.281250000000 6.832992553711 176 176 176
27.312500000000 29.281250000000 6.778991699219 198 198 198
27.312500000000 29.281250000000 6.726989746094 198 198 198
27.312500000000 29.281250000000 6.675003051758 188 188 188
27.328125000000 29.281250000000 6.617996215820 164 164 164
27.687500000000 28.718750000000 7.112991333008 133 133 133
27.656250000000 28.750000000000 7.075988769531 23 23 23
27.296875000000 28.968750000000 7.186996459961 41 41 41
27.359375000000 28.937500000000 7.099990844727 119 119 119
27.328125000000 28.953125000000 7.057998657227 79 79 79
27.328125000000 28.968750000000 6.851989746094 84 84 84
27.296875000000 28.968750000000 6.804992675781 179 179 179
27.296875000000 28.968750000000 6.753997802734 141 141 141
27.296875000000 28.968750000000 6.700988769531 165 165 165
27.296875000000 28.968750000000 6.644989013672 205 205 205
27.328125000000 28.968750000000 6.589996337891 92 92 92
27.671875000000 28.421875000000 7.095001220703 141 141 141
27.328125000000 28.640625000000 7.085998535156 147 147 147
27.281250000000 28.656250000000 6.836990356445 137 137 137
27.281250000000 28.656250000000 6.783996582031 186 186 186
27.281250000000 28.656250000000 6.731002807617 154 154 154
27.296875000000 28.656250000000 6.675994873047 177 177 177
27.281250000000 28.656250000000 6.625000000000 192 192 192
27.281250000000 28.656250000000 6.572998046875 11 11 11
27.671875000000 28.125000000000 7.126998901367 36 36 36
27.671875000000 28.125000000000 7.078994750977 125 125 125
27.312500000000 28.328125000000 7.125991821289 41 41 41
27.328125000000 28.312500000000 7.067993164063 116 116 116
27.312500000000 28.328125000000 6.597000122070 119 119 119
27.640625000000 27.812500000000 7.110000610352 111 111 111
27.640625000000 27.812500000000 7.067001342773 68 68 68
27.437500000000 27.953125000000 7.102996826172 47 47 47
27.359375000000 28.000000000000 7.083999633789 97 97 97
27.296875000000 28.031250000000 7.052993774414 40 40 40
27.296875000000 28.031250000000 6.841995239258 77 77 77
27.296875000000 28.031250000000 6.787002563477 203 203 203
27.296875000000 28.031250000000 6.735992431641 194 194 194
27.296875000000 28.031250000000 6.682998657227 150 150 150
27.312500000000 28.015625000000 6.625991821289 208 208 208
27.312500000000 28.015625000000 6.572998046875 56 56 56
27.640625000000 27.500000000000 7.085998535156 145 145 145
27.312500000000 27.703125000000 7.073989868164 142 142 142
27.296875000000 27.718750000000 6.813003540039 188 188 188
27.296875000000 27.718750000000 6.759002685547 159 159 159
27.296875000000 27.718750000000 6.707000732422 159 159 159
27.312500000000 27.703125000000 6.651992797852 195 195 195
27.312500000000 27.703125000000 6.599990844727 166 166 166
27.640625000000 27.187500000000 7.108993530273 129 129 129
27.640625000000 27.187500000000 7.067001342773 77 77 77
27.328125000000 27.375000000000 7.095001220703 125 125 125
27.296875000000 27.375000000000 7.048995971680 44 44 44
27.296875000000 27.375000000000 6.833999633789 85 85 85
27.265625000000 27.390625000000 6.787002563477 196 196 196
27.296875000000 27.406250000000 6.731994628906 196 196 196
27.296875000000 27.406250000000 6.679000854492 183 183 183
27.296875000000 27.375000000000 6.623001098633 205 205 205
27.296875000000 27.406250000000 6.575988769531 69 69 69
27.640625000000 26.859375000000 7.082000732422 148 148 148
27.296875000000 27.062500000000 7.072998046875 141 141 141
27.265625000000 27.093750000000 6.817993164063 174 174 174
27.234375000000 27.093750000000 6.769989013672 178 178 178
27.265625000000 27.093750000000 6.711990356445 155 155 155
27.265625000000 27.093750000000 6.657989501953 200 200 200
27.281250000000 27.078125000000 6.599990844727 172 172 172
27.625000000000 26.562500000000 7.115997314453 110 110 110
27.625000000000 26.562500000000 7.063003540039 104 104 104
27.296875000000 26.750000000000 7.099990844727 104 104 104
27.265625000000 26.750000000000 7.054000854492 85 85 85
27.250000000000 26.765625000000 6.847991943359 22 22 22
27.234375000000 26.781250000000 6.796997070313 201 201 201
27.234375000000 26.781250000000 6.744003295898 216 216 216
27.250000000000 26.765625000000 6.688995361328 202 202 202
27.250000000000 26.765625000000 6.636001586914 211 211 211
27.265625000000 26.750000000000 6.580001831055 113 113 113
27.609375000000 26.250000000000 7.095993041992 156 156 156
27.593750000000 26.250000000000 7.054992675781 15 15 15
27.281250000000 26.437500000000 7.080993652344 142 142 142
27.234375000000 26.484375000000 6.832992553711 118 118 118
27.234375000000 26.484375000000 6.780990600586 180 180 180
27.234375000000 26.484375000000 6.728988647461 132 132 132
27.234375000000 26.484375000000 6.672988891602 205 205 205
27.234375000000 26.468750000000 6.619995117188 197 197 197
27.234375000000 26.468750000000 6.563003540039 15 15 15
27.609375000000 25.921875000000 7.117996215820 99 99 99
27.609375000000 25.937500000000 7.070999145508 129 129 129
27.265625000000 26.140625000000 7.112991333008 89 89 89
27.265625000000 26.140625000000 7.059997558594 102 102 102
27.234375000000 26.156250000000 6.809997558594 189 189 189
27.203125000000 26.171875000000 6.759002685547 141 141 141
27.234375000000 26.156250000000 6.703994750977 176 176 176
27.234375000000 26.171875000000 6.647994995117 203 203 203
27.234375000000 26.156250000000 6.593994140625 132 132 132
27.593750000000 25.625000000000 7.095001220703 151 151 151
27.484375000000 25.687500000000 7.093994140625 94 94 94
27.359375000000 25.750000000000 7.099990844727 38 38 38
27.265625000000 25.812500000000 7.084991455078 140 140 140
27.203125000000 25.875000000000 7.050994873047 100 100 100
27.203125000000 25.875000000000 7.000000000000 102 102 102
27.218750000000 25.843750000000 6.940002441406 96 96 96
27.218750000000 25.843750000000 6.886993408203 93 93 93
27.234375000000 25.843750000000 6.828994750977 137 137 137
27.234375000000 25.843750000000 6.776000976563 194 194 194
27.234375000000 25.843750000000 6.720001220703 195 195 195
27.234375000000 25.843750000000 6.666992187500 198 198 198
27.234375000000 25.843750000000 6.612991333008 166 166 166
27.625000000000 25.281250000000 7.104995727539 126 126 126
27.593750000000 25.281250000000 7.069000244141 98 98 98
27.250000000000 25.500000000000 7.106002807617 137 137 137
27.234375000000 25.500000000000 7.061996459961 72 72 72
27.203125000000 25.531250000000 6.853988647461 86 86 86
27.203125000000 25.531250000000 6.800003051758 204 204 204
27.234375000000 25.515625000000 6.746002197266 157 157 157
27.234375000000 25.515625000000 6.690002441406 186 186 186
27.234375000000 25.515625000000 6.636993408203 208 208 208
27.234375000000 25.500000000000 6.582000732422 62 62 62
27.578125000000 24.984375000000 7.089996337891 152 152 152
27.234375000000 25.187500000000 7.132995605469 60 60 60
27.234375000000 25.187500000000 7.078994750977 125 125 125
27.203125000000 25.203125000000 6.825988769531 162 162 162
27.203125000000 25.203125000000 6.774993896484 158 158 158
27.218750000000 25.187500000000 6.713989257813 163 163 163
27.218750000000 25.187500000000 6.662994384766 210 210 210
27.218750000000 25.187500000000 6.608001708984 145 145 145
27.578125000000 24.656250000000 7.114990234375 140 140 140
27.453125000000 24.750000000000 7.119003295898 139 139 139
27.406250000000 24.765625000000 7.088989257813 114 114 114
27.265625000000 24.843750000000 7.098999023438 144 144 144
27.203125000000 24.875000000000 6.852996826172 116 116 116
27.203125000000 24.875000000000 6.800003051758 210 210 210
27.203125000000 24.890625000000 6.744003295898 214 214 214
27.203125000000 24.890625000000 6.692993164063 180 180 180
27.218750000000 24.875000000000 6.636993408203 201 201 201
27.203125000000 24.906250000000 6.589996337891 13 13 13
27.515625000000 24.390625000000 7.175994873047 88 88 88
27.578125000000 24.359375000000 7.095001220703 132 132 132
27.406250000000 24.453125000000 7.116989135742 104 104 104
27.234375000000 24.562500000000 7.128997802734 82 82 82
27.203125000000 24.562500000000 7.086990356445 120 120 120
27.171875000000 24.593750000000 7.058990478516 1 1 1
27.187500000000 24.593750000000 6.828002929688 189 189 189
27.187500000000 24.593750000000 6.774993896484 206 206 206
27.203125000000 24.578125000000 6.720001220703 202 202 202
27.203125000000 24.578125000000 6.667999267578 208 208 208
27.203125000000 24.578125000000 6.610992431641 132 132 132
27.375000000000 24.156250000000 7.367996215820 40 40 40
27.578125000000 24.031250000000 7.115997314453 146 146 146
27.546875000000 24.062500000000 7.080993652344 22 22 22
27.234375000000 24.250000000000 7.110000610352 150 150 150
27.187500000000 24.281250000000 6.854995727539 116 116 116
27.203125000000 24.265625000000 6.800994873047 193 193 193
27.203125000000 24.265625000000 6.746002197266 191 191 191
27.203125000000 24.265625000000 6.694000244141 193 193 193
27.203125000000 24.265625000000 6.640991210938 192 192 192
27.359375000000 23.843750000000 7.450988769531 30 30 30
27.578125000000 23.718750000000 7.139999389648 46 46 46
27.546875000000 23.718750000000 7.097000122070 126 126 126
27.218750000000 23.921875000000 7.138000488281 95 95 95
27.203125000000 23.937500000000 7.085998535156 103 103 103
27.171875000000 23.953125000000 6.881988525391 20 20 20
27.171875000000 23.953125000000 6.826995849609 193 193 193
27.171875000000 23.953125000000 6.774002075195 145 145 145
27.203125000000 23.937500000000 6.718002319336 103 103 103
27.203125000000 23.937500000000 6.664993286133 213 213 213
27.203125000000 23.937500000000 6.610992431641 104 104 104
27.390625000000 23.500000000000 7.569000244141 67 67 67
27.562500000000 23.390625000000 7.112991333008 130 130 130
27.234375000000 23.593750000000 7.100997924805 154 154 154
27.171875000000 23.625000000000 6.631988525391 118 118 118
27.390625000000 23.187500000000 7.709991455078 68 68 68
27.562500000000 23.062500000000 7.136993408203 104 104 104
27.546875000000 23.093750000000 7.087997436523 84 84 84
27.296875000000 23.218750000000 7.139999389648 12 12 12
27.234375000000 23.281250000000 7.114990234375 105 105 105
27.203125000000 23.312500000000 7.080993652344 51 51 51
27.171875000000 23.312500000000 6.655990600586 15 15 15
27.171875000000 23.312500000000 6.610992431641 58 58 58
27.390625000000 22.859375000000 7.843994140625 50 50 50
27.546875000000 22.750000000000 7.113998413086 132 132 132
27.468750000000 22.828125000000 7.101989746094 134 134 134
27.359375000000 22.875000000000 7.086990356445 104 104 104
27.203125000000 22.968750000000 7.106002807617 147 147 147
27.171875000000 23.000000000000 6.639999389648 103 103 103
27.359375000000 22.562500000000 7.948989868164 58 58 58
27.359375000000 22.562500000000 7.332992553711 12 12 12
27.343750000000 22.578125000000 7.291000366211 30 30 30
27.546875000000 22.468750000000 7.147003173828 74 74 74
27.546875000000 22.453125000000 7.097000122070 109 109 109
27.203125000000 22.656250000000 7.134994506836 96 96 96
27.187500000000 22.671875000000 7.086990356445 79 79 79
27.156250000000 22.703125000000 6.619003295898 108 108 108
27.359375000000 22.234375000000 8.086990356445 68 68 68
27.359375000000 22.250000000000 7.526992797852 8 8 8
27.328125000000 22.250000000000 7.485992431641 23 23 23
27.546875000000 22.140625000000 7.119995117188 139 139 139
27.484375000000 22.171875000000 7.088989257813 15 15 15
27.203125000000 22.343750000000 7.110000610352 134 134 134
27.140625000000 22.375000000000 6.647994995117 79 79 79
27.375000000000 21.906250000000 8.222991943359 56 56 56
27.359375000000 21.937500000000 7.716003417969 15 15 15
27.343750000000 21.937500000000 7.664993286133 23 23 23
27.531250000000 21.812500000000 7.141998291016 70 70 70
27.531250000000 21.812500000000 7.093002319336 105 105 105
27.203125000000 22.031250000000 7.129989624023 96 96 96
27.171875000000 22.046875000000 7.088989257813 77 77 77
27.390625000000 21.562500000000 8.358993530273 43 43 43
27.343750000000 21.593750000000 7.912002563477 11 11 11
27.343750000000 21.593750000000 7.858001708984 37 37 37
27.515625000000 21.500000000000 7.113998413086 143 143 143
27.187500000000 21.703125000000 7.099990844727 129 129 129
27.359375000000 21.281250000000 8.466003417969 62 62 62
27.343750000000 21.281250000000 8.058990478516 61 61 61
27.531250000000 21.187500000000 7.142990112305 27 27 27
27.531250000000 21.187500000000 7.091995239258 134 134 134
27.187500000000 21.406250000000 7.132995605469 78 78 78
27.171875000000 21.390625000000 7.082992553711 97 97 97
27.359375000000 20.937500000000 8.619995117188 66 66 66
27.359375000000 20.937500000000 8.259994506836 32 32 32
27.515625000000 20.875000000000 7.125000000000 105 105 105
27.484375000000 20.875000000000 7.082992553711 113 113 113
27.312500000000 21.000000000000 7.108993530273 90 90 90
27.171875000000 21.062500000000 7.110992431641 132 132 132
27.140625000000 21.093750000000 7.067001342773 65 65 65
27.359375000000 20.656250000000 8.731994628906 57 57 57
27.359375000000 20.656250000000 8.425003051758 53 53 53
27.515625000000 20.562500000000 7.104995727539 137 137 137
27.484375000000 20.593750000000 7.067993164063 23 23 23
27.171875000000 20.781250000000 7.097000122070 148 148 148
27.359375000000 20.343750000000 8.879989624023 31 31 31
27.359375000000 20.343750000000 8.630996704102 46 46 46
27.500000000000 20.265625000000 7.140991210938 13 13 13
27.515625000000 20.250000000000 7.082992553711 135 135 135
27.171875000000 20.468750000000 7.125991821289 89 89 89
27.156250000000 20.468750000000 7.074996948242 111 111 111
27.328125000000 20.000000000000 9.042999267578 24 24 24
27.359375000000 20.000000000000 8.832992553711 8 8 8
27.515625000000 19.921875000000 7.102996826172 137 137 137
27.484375000000 19.937500000000 7.061996459961 30 30 30
27.171875000000 20.125000000000 7.089996337891 147 147 147
27.359375000000 19.656250000000 9.184997558594 79 79 79
27.359375000000 19.671875000000 9.048995971680 30 30 30
27.328125000000 19.687500000000 9.006988525391 54 54 54
27.484375000000 19.609375000000 7.130996704102 33 33 33
27.500000000000 19.593750000000 7.073989868164 150 150 150
27.484375000000 19.609375000000 7.024993896484 155 155 155
27.421875000000 19.656250000000 7.009994506836 133 133 133
27.125000000000 19.812500000000 7.069992065430 84 84 84
27.265625000000 19.406250000000 8.155990600586 19 19 19
27.265625000000 19.421875000000 8.101989746094 32 32 32
27.265625000000 19.406250000000 8.039993286133 44 44 44
27.265625000000 19.406250000000 7.978988647461 61 61 61
27.265625000000 19.406250000000 7.921997070313 70 70 70
27.265625000000 19.406250000000 7.860992431641 80 80 80
27.265625000000 19.406250000000 7.804000854492 81 81 81
27.281250000000 19.406250000000 7.744003295898 89 89 89
27.281250000000 19.406250000000 7.688003540039 94 94 94
27.296875000000 19.406250000000 7.627990722656 99 99 99
27.296875000000 19.406250000000 7.569000244141 106 106 106
27.281250000000 19.406250000000 7.518997192383 111 111 111
27.296875000000 19.406250000000 7.458999633789 115 115 115
27.296875000000 19.406250000000 7.404998779297 121 121 121
27.296875000000 19.406250000000 7.354995727539 127 127 127
27.296875000000 19.406250000000 7.295989990234 122 122 122
27.296875000000 19.406250000000 7.242996215820 126 126 126
27.468750000000 19.296875000000 7.110000610352 142 142 142
27.421875000000 19.312500000000 7.075988769531 130 130 130
27.296875000000 19.406250000000 7.074996948242 127 127 127
27.296875000000 19.406250000000 7.022003173828 133 133 133
27.312500000000 19.375000000000 6.964996337891 128 128 128
27.312500000000 19.375000000000 6.914001464844 129 129 129
27.312500000000 19.375000000000 6.858001708984 136 136 136
27.312500000000 19.375000000000 6.804992675781 139 139 139
27.296875000000 19.406250000000 6.759002685547 139 139 139
27.312500000000 19.375000000000 6.703002929688 139 139 139
27.312500000000 19.375000000000 6.651000976563 140 140 140
27.328125000000 19.375000000000 6.597000122070 135 135 135
27.312500000000 19.375000000000 6.546997070313 141 141 141
27.328125000000 19.375000000000 6.494003295898 144 144 144
27.328125000000 19.375000000000 6.444000244141 146 146 146
27.328125000000 19.375000000000 6.392990112305 150 150 150
27.328125000000 19.375000000000 6.341995239258 149 149 149
27.312500000000 19.375000000000 6.291992187500 159 159 159
27.328125000000 19.375000000000 6.241989135742 159 159 159
27.343750000000 19.390625000000 6.190994262695 154 154 154
27.312500000000 19.375000000000 6.142990112305 157 157 157
27.312500000000 19.375000000000 6.093002319336 155 155 155
27.328125000000 19.406250000000 6.041992187500 153 153 153
27.328125000000 19.406250000000 5.992996215820 151 151 151
27.312500000000 19.375000000000 5.945999145508 145 145 145
27.312500000000 19.375000000000 5.895996093750 139 139 139
27.343750000000 19.390625000000 5.843994140625 131 131 131
27.328125000000 19.406250000000 5.796997070313 128 128 128
27.328125000000 19.406250000000 5.748001098633 126 126 126
27.312500000000 19.375000000000 5.700988769531 119 119 119
27.328125000000 19.406250000000 5.649993896484 122 122 122
27.328125000000 19.406250000000 5.600997924805 120 120 120
27.328125000000 19.406250000000 5.554000854492 112 112 112
27.343750000000 19.390625000000 5.501998901367 134 134 134
27.359375000000 19.375000000000 5.450988769531 175 175 175
27.359375000000 19.375000000000 5.401000976563 172 172 172
27.359375000000 19.375000000000 5.354995727539 185 185 185
27.359375000000 19.375000000000 5.304992675781 195 195 195
27.359375000000 19.375000000000 5.259994506836 108 108 108
27.328125000000 19.406250000000 5.218002319336 14 14 14
27.328125000000 19.406250000000 5.169998168945 146 146 146
27.296875000000 19.406250000000 5.123001098633 152 152 152
27.328125000000 19.406250000000 5.074996948242 152 152 152
27.234375000000 19.437500000000 5.035995483398 99 99 99
27.406250000000 19.343750000000 4.919998168945 28 28 28
27.421875000000 19.343750000000 4.871994018555 194 194 194
27.421875000000 19.343750000000 4.824996948242 191 191 191
27.421875000000 19.328125000000 4.776992797852 192 192 192
27.421875000000 19.328125000000 4.731002807617 195 195 195
27.421875000000 19.343750000000 4.683990478516 183 183 183
27.265625000000 19.437500000000 3.983993530273 149 149 149
27.281250000000 19.437500000000 3.936996459961 157 157 157
27.281250000000 19.437500000000 3.889999389648 159 159 159
27.296875000000 19.437500000000 3.841995239258 91 91 91
27.265625000000 19.468750000000 2.830001831055 164 164 164
27.265625000000 19.453125000000 2.781997680664 155 155 155
27.265625000000 19.468750000000 2.731994628906 161 161 161
27.265625000000 19.453125000000 2.683990478516 19 19 19
27.484375000000 18.968750000000 7.083999633789 145 145 145
27.453125000000 19.000000000000 7.046997070313 9 9 9
27.140625000000 19.187500000000 7.126998901367 19 19 19
27.156250000000 19.171875000000 7.067993164063 138 138 138
27.484375000000 18.671875000000 7.063995361328 145 145 145
27.140625000000 18.875000000000 7.100997924805 102 102 102
27.125000000000 18.890625000000 7.056991577148 83 83 83
27.484375000000 34.937500000000 7.059997558594 122 122 122
27.515625000000 34.953125000000 7.099990844727 113 113 113
27.828125000000 34.937500000000 7.042999267578 101 101 101
27.859375000000 34.937500000000 7.083999633789 142 142 142
27.515625000000 34.625000000000 7.080001831055 158 158 158
27.828125000000 34.625000000000 7.067001342773 169 169 169
27.859375000000 34.625000000000 7.110992431641 40 40 40
27.609375000000 34.343750000000 2.742996215820 23 23 23
27.640625000000 34.343750000000 2.787002563477 170 170 170
27.625000000000 34.359375000000 2.826995849609 170 170 170
27.640625000000 34.343750000000 2.867996215820 175 175 175
27.593750000000 34.343750000000 2.903991699219 165 165 165
27.640625000000 34.343750000000 3.908996582031 170 170 170
27.640625000000 34.343750000000 3.947998046875 187 187 187
27.640625000000 34.343750000000 3.987991333008 182 182 182
27.640625000000 34.343750000000 4.026992797852 173 173 173
27.546875000000 34.328125000000 5.084991455078 71 71 71
27.656250000000 34.328125000000 5.106994628906 174 174 174
27.656250000000 34.328125000000 5.145996093750 170 170 170
27.656250000000 34.328125000000 5.186996459961 165 165 165
27.656250000000 34.328125000000 5.227996826172 166 166 166
27.578125000000 34.312500000000 6.322998046875 87 87 87
27.640625000000 34.312500000000 6.336990356445 159 159 159
27.671875000000 34.312500000000 6.375000000000 161 161 161
27.671875000000 34.312500000000 6.417999267578 159 159 159
27.671875000000 34.312500000000 6.463989257813 133 133 133
27.484375000000 34.312500000000 7.063003540039 113 113 113
27.515625000000 34.312500000000 7.100997924805 96 96 96
27.812500000000 34.312500000000 7.048995971680 91 91 91
27.859375000000 34.312500000000 7.083999633789 165 165 165
27.671875000000 34.312500000000 7.558990478516 22 22 22
27.640625000000 34.312500000000 7.638992309570 103 103 103
27.671875000000 34.312500000000 7.672988891602 148 148 148
27.671875000000 34.312500000000 7.708999633789 150 150 150
27.703125000000 34.296875000000 7.757995605469 141 141 141
27.703125000000 34.296875000000 7.806991577148 107 107 107
27.703125000000 34.296875000000 7.858993530273 98 98 98
27.703125000000 34.312500000000 7.905990600586 103 103 103
27.703125000000 34.296875000000 7.963989257813 110 110 110
27.718750000000 34.296875000000 8.011001586914 117 117 117
27.703125000000 34.296875000000 8.071990966797 123 123 123
27.703125000000 34.296875000000 8.126998901367 120 120 120
27.703125000000 34.296875000000 8.180999755859 132 132 132
27.703125000000 34.296875000000 8.236999511719 135 135 135
27.703125000000 34.296875000000 8.296997070313 140 140 140
27.703125000000 34.296875000000 8.343994140625 139 139 139
27.703125000000 34.296875000000 8.405990600586 145 145 145
27.703125000000 34.296875000000 8.458999633789 146 146 146
27.703125000000 34.296875000000 8.516998291016 145 145 145
27.703125000000 34.296875000000 8.572998046875 150 150 150
27.703125000000 34.296875000000 8.639999389648 155 155 155
27.703125000000 34.296875000000 8.694000244141 152 152 152
27.703125000000 34.296875000000 8.748992919922 154 154 154
27.703125000000 34.296875000000 8.808990478516 147 147 147
27.703125000000 34.281250000000 8.867996215820 147 147 147
27.703125000000 34.281250000000 8.927993774414 148 148 148
27.703125000000 34.296875000000 8.994003295898 142 142 142
27.703125000000 34.281250000000 9.054000854492 146 146 146
27.703125000000 34.281250000000 9.110992431641 133 133 133
27.703125000000 34.281250000000 9.173995971680 124 124 124
27.703125000000 34.281250000000 9.235000610352 108 108 108
27.703125000000 34.281250000000 9.306991577148 109 109 109
27.546875000000 34.031250000000 2.071990966797 25 25 25
27.484375000000 34.000000000000 7.082000732422 166 166 166
27.828125000000 33.984375000000 7.063995361328 172 172 172
27.843750000000 34.000000000000 7.106002807617 54 54 54
27.640625000000 33.984375000000 8.888992309570 61 61 61
27.671875000000 33.968750000000 8.919998168945 79 79 79
27.671875000000 33.968750000000 9.106994628906 94 94 94
27.671875000000 33.968750000000 9.160995483398 15 15 15
27.453125000000 33.687500000000 7.061996459961 74 74 74
27.468750000000 33.671875000000 7.106002807617 160 160 160
27.796875000000 33.656250000000 7.054992675781 43 43 43
27.828125000000 33.671875000000 7.086990356445 166 166 166
27.656250000000 33.656250000000 8.713989257813 18 18 18
27.640625000000 33.656250000000 8.961990356445 16 16 16
27.468750000000 33.359375000000 7.083999633789 161 161 161
27.812500000000 33.343750000000 7.069000244141 158 158 158
27.812500000000 33.343750000000 7.115997314453 62 62 62
27.640625000000 33.343750000000 8.518997192383 36 36 36
27.671875000000 33.343750000000 8.869003295898 15 15 15
27.453125000000 33.046875000000 7.069992065430 117 117 117
27.468750000000 33.046875000000 7.108001708984 110 110 110
27.781250000000 33.062500000000 7.056991577148 102 102 102
27.812500000000 33.031250000000 7.093002319336 154 154 154
27.625000000000 33.031250000000 8.332000732422 34 34 34
27.640625000000 33.031250000000 8.729995727539 62 62 62
27.421875000000 32.750000000000 7.057998657227 13 13 13
27.453125000000 32.750000000000 7.087997436523 147 147 147
27.531250000000 32.750000000000 7.099990844727 119 119 119
27.671875000000 32.718750000000 7.087997436523 112 112 112
27.796875000000 32.734375000000 7.073989868164 162 162 162
27.828125000000 32.718750000000 7.115997314453 69 69 69
