13.921875000000 12.718750000000 3.747997283936 207 207 207
13.921875000000 12.718750000000 3.716999053955 210 210 210
13.921875000000 12.718750000000 3.681999206543 212 212 212
13.921875000000 12.718750000000 3.649997711182 211 211 211
13.937500000000 12.718750000000 3.618000030518 125 125 125
13.718750000000 12.593750000000 3.750000000000 209 209 209
13.765625000000 12.578125000000 3.725997924805 204 204 204
13.937500000000 12.484375000000 3.742000579834 212 212 212
13.937500000000 12.484375000000 3.708000183105 212 212 212
13.937500000000 12.484375000000 3.674999237061 207 207 207
13.937500000000 12.500000000000 3.638999938965 209 209 209
13.687500000000 12.375000000000 3.763000488281 166 166 166
13.703125000000 12.375000000000 3.730998992920 191 191 191
13.890625000000 12.296875000000 3.743000030518 216 216 216
13.984375000000 12.250000000000 3.731998443604 208 208 208
13.984375000000 12.250000000000 3.697998046875 212 212 212
13.984375000000 12.250000000000 3.666000366211 208 208 208
13.984375000000 12.250000000000 3.632999420166 201 201 201
13.671875000000 12.171875000000 3.768997192383 148 148 148
13.687500000000 12.156250000000 3.739997863770 194 194 194
13.718750000000 12.156250000000 3.713996887207 217 217 217
14.000000000000 12.031250000000 3.747997283936 211 211 211
14.000000000000 12.031250000000 3.713996887207 210 210 210
14.000000000000 12.031250000000 3.680000305176 213 213 213
14.000000000000 12.031250000000 3.646999359131 208 208 208
14.000000000000 12.031250000000 3.612998962402 107 107 107
13.656250000000 11.984375000000 3.768997192383 137 137 137
13.671875000000 11.968750000000 3.737998962402 193 193 193
13.687500000000 11.968750000000 3.703998565674 215 215 215
14.015625000000 11.812500000000 3.756000518799 206 206 206
14.015625000000 11.812500000000 3.722999572754 213 213 213
14.015625000000 11.812500000000 3.691997528076 210 210 210
14.015625000000 11.812500000000 3.654998779297 212 212 212
14.015625000000 11.812500000000 3.621997833252 176 176 176
13.640625000000 11.796875000000 3.768997192383 103 103 103
13.656250000000 11.781250000000 3.739997863770 198 198 198
13.656250000000 11.781250000000 3.702999114990 212 212 212
13.968750000000 11.640625000000 3.747997283936 222 222 222
14.015625000000 11.609375000000 3.730998992920 212 212 212
14.031250000000 11.593750000000 3.698997497559 212 212 212
14.046875000000 11.609375000000 3.666000366211 213 213 213
14.046875000000 11.609375000000 3.632999420166 207 207 207
13.640625000000 11.578125000000 3.750000000000 206 206 206
13.640625000000 11.578125000000 3.713996887207 207 207 207
13.640625000000 11.578125000000 3.678997039795 215 215 215
14.062500000000 11.375000000000 3.750999450684 208 208 208
14.062500000000 11.375000000000 3.718997955322 211 211 211
14.062500000000 11.375000000000 3.687000274658 210 210 210
14.062500000000 11.375000000000 3.653999328613 210 210 210
14.062500000000 11.375000000000 3.619998931885 185 185 185
13.609375000000 11.125000000000 3.751998901367 194 194 194
13.609375000000 11.125000000000 3.715999603271 155 155 155
13.671875000000 11.093750000000 3.694000244141 124 124 124
14.015625000000 10.953125000000 3.746997833252 209 209 209
14.078125000000 10.906250000000 3.736000061035 211 211 211
14.109375000000 10.906250000000 3.703998565674 210 210 210
14.109375000000 10.906250000000 3.671997070313 211 211 211
14.109375000000 10.906250000000 3.638000488281 210 210 210
14.109375000000 10.906250000000 3.604999542236 128 128 128
13.609375000000 10.921875000000 3.761997222900 177 177 177
13.609375000000 10.921875000000 3.724998474121 202 202 202
13.593750000000 10.937500000000 3.687999725342 212 212 212
13.609375000000 10.937500000000 3.654998779297 216 216 216
14.109375000000 10.687500000000 3.752998352051 208 208 208
14.109375000000 10.687500000000 3.717998504639 211 211 211
14.109375000000 10.687500000000 3.687000274658 212 212 212
14.109375000000 10.687500000000 3.652999877930 211 211 211
14.125000000000 10.687500000000 3.620998382568 201 201 201
13.578125000000 10.734375000000 3.763999938965 168 168 168
13.578125000000 10.734375000000 3.729000091553 194 194 194
13.593750000000 10.734375000000 3.692996978760 214 214 214
13.593750000000 10.734375000000 3.656997680664 212 212 212
14.109375000000 10.484375000000 3.754997253418 224 224 224
14.140625000000 10.468750000000 3.730998992920 211 211 211
14.140625000000 10.468750000000 3.697998046875 215 215 215
14.140625000000 10.468750000000 3.662998199463 210 210 210
14.125000000000 10.484375000000 3.628997802734 209 209 209
14.125000000000 10.484375000000 3.593997955322 62 62 62
13.546875000000 10.546875000000 3.765998840332 139 139 139
13.578125000000 10.531250000000 3.735000610352 187 187 187
13.578125000000 10.531250000000 3.697998046875 215 215 215
13.578125000000 10.531250000000 3.661998748779 216 216 216
13.546875000000 10.546875000000 3.618999481201 186 186 186
14.156250000000 10.250000000000 3.740997314453 211 211 211
14.156250000000 10.265625000000 3.706996917725 212 212 212
14.156250000000 10.250000000000 3.674999237061 209 209 209
14.156250000000 10.265625000000 3.639999389648 212 212 212
14.156250000000 10.265625000000 3.606998443604 165 165 165
13.562500000000 10.312500000000 3.746997833252 197 197 197
13.562500000000 10.328125000000 3.706996917725 214 214 214
13.562500000000 10.312500000000 3.673999786377 213 213 213
13.562500000000 10.312500000000 3.635997772217 214 214 214
14.156250000000 10.062500000000 3.750999450684 221 221 221
14.171875000000 10.046875000000 3.723999023438 211 211 211
14.171875000000 10.046875000000 3.688999176025 213 213 213
14.171875000000 10.046875000000 3.655998229980 211 211 211
14.156250000000 10.046875000000 3.621997833252 209 209 209
14.078125000000 10.078125000000 3.563999176025 161 161 161
13.515625000000 10.125000000000 3.753997802734 103 103 103
13.562500000000 10.093750000000 3.729000091553 205 205 205
13.578125000000 10.093750000000 3.698997497559 197 197 197
13.578125000000 10.093750000000 3.661998748779 205 205 205
13.578125000000 10.093750000000 3.622997283936 162 162 162
14.203125000000 9.812500000000 3.745998382568 147 147 147
14.203125000000 9.812500000000 3.711997985840 148 148 148
14.171875000000 9.812500000000 3.677997589111 151 151 151
14.171875000000 9.812500000000 3.643997192383 147 147 147
14.187500000000 9.812500000000 3.611000061035 145 145 145
13.562500000000 9.875000000000 3.713996887207 147 147 147
13.562500000000 9.875000000000 3.675998687744 153 153 153
13.562500000000 9.890625000000 3.638999938965 151 151 151
14.140625000000 9.609375000000 3.754997253418 169 169 169
14.203125000000 9.593750000000 3.736000061035 144 144 144
14.203125000000 9.593750000000 3.699996948242 145 145 145
14.203125000000 9.593750000000 3.667999267578 151 151 151
14.203125000000 9.593750000000 3.635997772217 141 141 141
14.203125000000 9.593750000000 3.603000640869 149 149 149
14.000000000000 9.687500000000 3.293998718262 220 220 220
14.015625000000 9.671875000000 3.264999389648 220 220 220
14.031250000000 9.656250000000 3.235000610352 179 179 179
14.046875000000 9.656250000000 3.202999114990 170 170 170
14.046875000000 9.656250000000 3.170997619629 169 169 169
14.046875000000 9.656250000000 3.133998870850 170 170 170
14.046875000000 9.656250000000 3.092998504639 172 172 172
13.500000000000 9.921875000000 3.735000610352 137 137 137
13.765625000000 9.578125000000 3.815998077393 116 116 116
13.953125000000 9.500000000000 3.820999145508 116 116 116
14.046875000000 9.453125000000 3.810997009277 174 174 174
14.078125000000 9.437500000000 3.780998229980 185 185 185
14.093750000000 9.437500000000 3.750999450684 173 173 173
14.187500000000 9.375000000000 3.746997833252 143 143 143
14.187500000000 9.375000000000 3.712997436523 151 151 151
14.187500000000 9.390625000000 3.678997039795 148 148 148
14.171875000000 9.406250000000 3.638999938965 151 151 151
14.140625000000 9.406250000000 3.593997955322 124 124 124
13.765625000000 9.375000000000 3.816997528076 128 128 128
13.906250000000 9.328125000000 3.814998626709 116 116 116
14.046875000000 9.265625000000 3.812999725342 156 156 156
14.078125000000 9.250000000000 3.786998748779 184 184 184
14.078125000000 9.250000000000 3.753997802734 183 183 183
14.078125000000 9.250000000000 3.719997406006 184 184 184
14.296875000000 9.125000000000 3.747997283936 146 146 146
14.296875000000 9.125000000000 3.716999053955 153 153 153
14.296875000000 9.125000000000 3.681999206543 161 161 161
14.312500000000 9.125000000000 3.652000427246 159 159 159
14.296875000000 9.125000000000 3.617000579834 155 155 155
14.296875000000 9.140625000000 3.580997467041 147 147 147
14.078125000000 9.250000000000 3.479000091553 179 179 179
14.109375000000 9.218750000000 3.451000213623 184 184 184
14.156250000000 9.203125000000 3.435997009277 190 190 190
14.078125000000 9.234375000000 3.375000000000 182 182 182
14.078125000000 9.250000000000 3.337997436523 184 184 184
14.078125000000 9.234375000000 3.302997589111 186 186 186
14.125000000000 9.218750000000 3.278999328613 183 183 183
14.125000000000 9.218750000000 3.243000030518 185 185 185
14.125000000000 9.218750000000 3.209999084473 185 185 185
14.156250000000 9.203125000000 3.185997009277 194 194 194
14.125000000000 9.218750000000 3.136997222900 189 189 189
14.156250000000 9.203125000000 3.117000579834 165 165 165
13.671875000000 9.218750000000 3.810997009277 57 57 57
13.734375000000 9.187500000000 3.785999298096 150 150 150
13.750000000000 9.187500000000 3.753997802734 149 149 149
13.750000000000 9.187500000000 3.717998504639 152 152 152
13.750000000000 9.187500000000 3.680999755859 154 154 154
13.765625000000 9.187500000000 3.645999908447 151 151 151
14.421875000000 8.875000000000 3.785999298096 135 135 135
14.468750000000 8.843750000000 3.770000457764 158 158 158
14.468750000000 8.843750000000 3.737998962402 158 158 158
14.468750000000 8.843750000000 3.706996917725 158 158 158
14.468750000000 8.843750000000 3.674999237061 159 159 159
14.468750000000 8.843750000000 3.640998840332 151 151 151
14.468750000000 8.843750000000 3.610000610352 155 155 155
14.484375000000 8.843750000000 3.579998016357 156 156 156
13.734375000000 9.187500000000 3.305999755859 132 132 132
13.781250000000 9.171875000000 3.281997680664 160 160 160
13.781250000000 9.171875000000 3.245998382568 156 156 156
13.781250000000 9.171875000000 3.208000183105 158 158 158
13.781250000000 9.171875000000 3.171997070313 158 158 158
13.718750000000 9.187500000000 3.113998413086 159 159 159
13.437500000000 9.109375000000 3.738998413086 150 150 150
13.437500000000 9.109375000000 3.698997497559 145 145 145
13.437500000000 9.109375000000 3.661998748779 136 136 136
13.437500000000 9.109375000000 3.624000549316 139 139 139
13.421875000000 9.109375000000 3.581996917725 156 156 156
14.453125000000 8.640625000000 3.782997131348 120 120 120
14.484375000000 8.625000000000 3.757999420166 139 139 139
14.468750000000 8.625000000000 3.724998474121 138 138 138
14.468750000000 8.625000000000 3.691997528076 142 142 142
14.484375000000 8.625000000000 3.660999298096 135 135 135
14.468750000000 8.625000000000 3.627998352051 136 136 136
14.484375000000 8.625000000000 3.597000122070 138 138 138
14.453125000000 8.656250000000 3.552997589111 179 179 179
13.359375000000 8.921875000000 3.791000366211 46 46 46
13.390625000000 8.906250000000 3.760997772217 144 144 144
13.437500000000 8.890625000000 3.729999542236 152 152 152
13.421875000000 8.890625000000 3.688999176025 139 139 139
13.437500000000 8.875000000000 3.654998779297 123 123 123
13.437500000000 8.875000000000 3.614997863770 144 144 144
13.421875000000 8.890625000000 3.573997497559 134 134 134
13.359375000000 8.687500000000 3.777999877930 126 126 126
13.406250000000 8.671875000000 3.750000000000 137 137 137
13.421875000000 8.671875000000 3.715000152588 138 138 138
13.437500000000 8.671875000000 3.677997589111 119 119 119
13.421875000000 8.671875000000 3.636997222900 116 116 116
13.437500000000 8.671875000000 3.599998474121 126 126 126
13.375000000000 8.687500000000 3.546997070313 151 151 151
14.500000000000 8.875000000000 3.576000213623 159 159 159
14.500000000000 8.875000000000 3.603000640869 158 158 158
14.515625000000 8.906250000000 3.633998870850 159 159 159
14.515625000000 8.906250000000 3.662998199463 151 151 151
14.515625000000 8.906250000000 3.689998626709 148 148 148
14.500000000000 8.875000000000 3.706996917725 165 165 165
14.515625000000 8.906250000000 3.737998962402 166 166 166
14.500000000000 8.875000000000 3.763000488281 169 169 169
14.500000000000 8.875000000000 3.786998748779 161 161 161
14.437500000000 8.859375000000 3.798000335693 145 145 145
14.390625000000 8.828125000000 3.807998657227 59 59 59
14.296875000000 9.062500000000 3.564998626709 223 223 223
14.328125000000 9.093750000000 3.608997344971 159 159 159
14.328125000000 9.093750000000 3.638000488281 160 160 160
14.328125000000 9.093750000000 3.666000366211 161 161 161
14.328125000000 9.093750000000 3.694000244141 163 163 163
14.328125000000 9.093750000000 3.722000122070 161 161 161
14.343750000000 9.109375000000 3.751998901367 155 155 155
14.125000000000 8.968750000000 3.706996917725 9 9 9
14.125000000000 9.281250000000 3.181999206543 184 184 184
14.109375000000 9.265625000000 3.203998565674 191 191 191
14.093750000000 9.265625000000 3.293998718262 190 190 190
14.109375000000 9.265625000000 3.326000213623 193 193 193
14.093750000000 9.265625000000 3.354000091553 192 192 192
14.093750000000 9.265625000000 3.384998321533 190 190 190
14.093750000000 9.265625000000 3.416000366211 188 188 188
14.109375000000 9.265625000000 3.445999145508 189 189 189
14.109375000000 9.265625000000 3.476997375488 190 190 190
14.109375000000 9.265625000000 3.507999420166 187 187 187
14.156250000000 9.296875000000 3.557998657227 182 182 182
14.203125000000 9.328125000000 3.610000610352 161 161 161
14.218750000000 9.343750000000 3.641998291016 169 169 169
14.218750000000 9.343750000000 3.667999267578 171 171 171
14.218750000000 9.343750000000 3.697998046875 168 168 168
14.203125000000 9.328125000000 3.724998474121 164 164 164
14.218750000000 9.343750000000 3.752998352051 166 166 166
14.109375000000 9.281250000000 3.744998931885 183 183 183
14.109375000000 9.281250000000 3.770999908447 188 188 188
14.093750000000 9.265625000000 3.798000335693 189 189 189
14.078125000000 9.250000000000 3.820999145508 169 169 169
13.468750000000 8.906250000000 3.666000366211 138 138 138
13.468750000000 8.906250000000 3.699996948242 143 143 143
13.468750000000 8.906250000000 3.732997894287 148 148 148
13.437500000000 8.906250000000 3.759998321533 145 145 145
13.406250000000 8.875000000000 3.784999847412 142 142 142
14.109375000000 9.562500000000 3.218997955322 184 184 184
14.203125000000 9.625000000000 3.296997070313 197 197 197
14.140625000000 9.593750000000 3.300998687744 195 195 195
14.078125000000 9.562500000000 3.307998657227 188 188 188
14.078125000000 9.562500000000 3.337997436523 182 182 182
14.078125000000 9.562500000000 3.368999481201 183 183 183
14.078125000000 9.562500000000 3.398998260498 184 184 184
14.078125000000 9.562500000000 3.428997039795 181 181 181
14.078125000000 9.562500000000 3.458000183105 180 180 180
14.078125000000 9.562500000000 3.489997863770 178 178 178
14.078125000000 9.562500000000 3.516998291016 181 181 181
14.156250000000 9.593750000000 3.572998046875 172 172 172
14.218750000000 9.640625000000 3.625999450684 162 162 162
14.218750000000 9.640625000000 3.654998779297 159 159 159
14.218750000000 9.640625000000 3.682998657227 160 160 160
14.218750000000 9.640625000000 3.710998535156 160 160 160
14.218750000000 9.640625000000 3.737998962402 158 158 158
14.218750000000 9.640625000000 3.766998291016 153 153 153
14.078125000000 9.562500000000 3.753997802734 189 189 189
14.078125000000 9.562500000000 3.782997131348 190 190 190
14.078125000000 9.562500000000 3.808998107910 194 194 194
14.078125000000 9.562500000000 3.831996917725 163 163 163
13.953125000000 9.484375000000 3.828998565674 131 131 131
13.828125000000 9.406250000000 3.822998046875 138 138 138
13.734375000000 9.375000000000 3.823997497559 135 135 135
14.109375000000 9.578125000000 3.133998870850 162 162 162
14.078125000000 9.546875000000 3.139999389648 153 153 153
14.078125000000 9.562500000000 3.184997558594 174 174 174
14.171875000000 10.218750000000 3.633998870850 218 218 218
14.171875000000 10.218750000000 3.663997650146 216 216 216
14.171875000000 10.218750000000 3.691997528076 217 217 217
14.171875000000 10.218750000000 3.719997406006 215 215 215
14.171875000000 10.218750000000 3.749000549316 214 214 214
14.171875000000 10.218750000000 3.774997711182 178 178 178
13.578125000000 9.875000000000 3.617000579834 151 151 151
13.578125000000 9.875000000000 3.650997161865 153 153 153
13.578125000000 9.875000000000 3.681999206543 151 151 151
13.578125000000 9.875000000000 3.715000152588 150 150 150
13.578125000000 9.875000000000 3.747997283936 161 161 161
13.578125000000 9.875000000000 3.777000427246 139 139 139
14.031250000000 10.421875000000 3.564998626709 10 10 10
14.156250000000 10.500000000000 3.640998840332 217 217 217
14.156250000000 10.500000000000 3.669998168945 216 216 216
14.156250000000 10.500000000000 3.698997497559 217 217 217
14.156250000000 10.500000000000 3.729000091553 215 215 215
14.156250000000 10.500000000000 3.756000518799 215 215 215
14.031250000000 10.421875000000 3.743999481201 238 238 238
13.578125000000 10.171875000000 3.636997222900 203 203 203
13.578125000000 10.171875000000 3.668998718262 211 211 211
13.578125000000 10.171875000000 3.701000213623 212 212 212
13.593750000000 10.187500000000 3.735000610352 212 212 212
13.578125000000 10.171875000000 3.763999938965 195 195 195
14.046875000000 10.718750000000 3.581996917725 200 200 200
14.125000000000 10.781250000000 3.648998260498 216 216 216
14.125000000000 10.781250000000 3.678997039795 216 216 216
14.125000000000 10.781250000000 3.703998565674 218 218 218
14.125000000000 10.781250000000 3.733997344971 217 217 217
14.125000000000 10.781250000000 3.761997222900 217 217 217
13.578125000000 10.468750000000 3.621997833252 167 167 167
13.578125000000 10.468750000000 3.654998779297 213 213 213
13.593750000000 10.484375000000 3.688999176025 215 215 215
13.593750000000 10.484375000000 3.720996856689 216 216 216
13.593750000000 10.484375000000 3.754997253418 190 190 190
13.578125000000 10.468750000000 3.779998779297 173 173 173
14.015625000000 11.015625000000 3.593997955322 237 237 237
14.109375000000 11.062500000000 3.653999328613 217 217 217
14.109375000000 11.062500000000 3.682998657227 215 215 215
14.109375000000 11.062500000000 3.711997985840 216 216 216
14.109375000000 11.062500000000 3.743000030518 215 215 215
14.109375000000 11.062500000000 3.770000457764 215 215 215
13.625000000000 10.796875000000 3.647998809814 207 207 207
13.625000000000 10.796875000000 3.678997039795 214 214 214
13.609375000000 10.781250000000 3.709999084473 214 214 214
13.609375000000 10.781250000000 3.742000579834 199 199 199
13.609375000000 10.781250000000 3.773998260498 192 192 192
14.078125000000 11.359375000000 3.631000518799 161 161 161
14.078125000000 11.359375000000 3.660999298096 215 215 215
14.078125000000 11.359375000000 3.689998626709 217 217 217
14.078125000000 11.359375000000 3.720996856689 216 216 216
14.078125000000 11.359375000000 3.749000549316 217 217 217
14.062500000000 11.343750000000 3.774997711182 211 211 211
13.625000000000 11.109375000000 3.669998168945 180 180 180
13.625000000000 11.109375000000 3.704998016357 147 147 147
13.609375000000 11.093750000000 3.731998443604 154 154 154
13.625000000000 11.109375000000 3.764999389648 195 195 195
14.046875000000 11.640625000000 3.638000488281 166 166 166
14.046875000000 11.640625000000 3.667999267578 216 216 216
14.046875000000 11.640625000000 3.695999145508 217 217 217
14.046875000000 11.640625000000 3.726997375488 217 217 217
14.046875000000 11.640625000000 3.754997253418 216 216 216
14.015625000000 11.625000000000 3.777000427246 220 220 220
13.640625000000 11.406250000000 3.692996978760 215 215 215
13.640625000000 11.406250000000 3.723999023438 213 213 213
13.640625000000 11.406250000000 3.756000518799 191 191 191
13.640625000000 11.406250000000 3.787998199463 165 165 165
14.031250000000 11.921875000000 3.645000457764 204 204 204
14.031250000000 11.921875000000 3.674999237061 217 217 217
14.031250000000 11.921875000000 3.704998016357 218 218 218
14.015625000000 11.906250000000 3.732997894287 217 217 217
14.031250000000 11.921875000000 3.763999938965 216 216 216
13.765625000000 11.781250000000 3.712997436523 214 214 214
13.671875000000 11.718750000000 3.718997955322 215 215 215
13.671875000000 11.718750000000 3.750999450684 193 193 193
13.671875000000 11.718750000000 3.781997680664 183 183 183
14.000000000000 12.203125000000 3.650997161865 210 210 210
14.000000000000 12.203125000000 3.681999206543 216 216 216
14.000000000000 12.203125000000 3.710998535156 218 218 218
14.000000000000 12.203125000000 3.739997863770 214 214 214
14.000000000000 12.203125000000 3.770999908447 216 216 216
13.703125000000 12.046875000000 3.716999053955 215 215 215
13.687500000000 12.031250000000 3.742000579834 203 203 203
13.687500000000 12.031250000000 3.772998809814 203 203 203
13.953125000000 12.484375000000 3.659000396729 213 213 213
13.953125000000 12.484375000000 3.688999176025 217 217 217
13.953125000000 12.484375000000 3.717998504639 217 217 217
13.953125000000 12.484375000000 3.749000549316 216 216 216
13.953125000000 12.484375000000 3.777000427246 212 212 212
13.718750000000 12.343750000000 3.733997344971 213 213 213
13.718750000000 12.343750000000 3.764999389648 188 188 188
13.718750000000 12.343750000000 3.792999267578 92 92 92
13.937500000000 12.781250000000 3.664997100830 213 213 213
13.937500000000 12.781250000000 3.694000244141 215 215 215
13.937500000000 12.781250000000 3.724998474121 218 218 218
13.937500000000 12.781250000000 3.756000518799 214 214 214
13.921875000000 12.781250000000 3.778999328613 194 194 194
13.750000000000 12.671875000000 3.757999420166 177 177 177
13.734375000000 12.671875000000 3.784999847412 186 186 186
13.937500000000 13.062500000000 3.648998260498 150 150 150
13.921875000000 13.062500000000 3.675998687744 217 217 217
13.921875000000 13.062500000000 3.704998016357 216 216 216
13.921875000000 13.062500000000 3.736999511719 215 215 215
13.921875000000 13.062500000000 3.767997741699 215 215 215
13.796875000000 13.000000000000 3.759998321533 210 210 210
13.781250000000 12.968750000000 3.780998229980 197 197 197
13.906250000000 13.343750000000 3.657997131348 199 199 199
13.921875000000 13.359375000000 3.689998626709 192 192 192
13.906250000000 13.343750000000 3.717998504639 213 213 213
13.921875000000 13.359375000000 3.750999450684 195 195 195
13.906250000000 13.343750000000 3.778999328613 208 208 208
13.828125000000 13.312500000000 3.787998199463 165 165 165
13.859375000000 13.625000000000 3.653999328613 168 168 168
13.859375000000 13.625000000000 3.687999725342 210 210 210
13.859375000000 13.625000000000 3.718997955322 191 191 191
13.859375000000 13.625000000000 3.749000549316 193 193 193
13.859375000000 13.625000000000 3.778999328613 209 209 209
13.812500000000 13.593750000000 3.798999786377 54 54 54
13.859375000000 13.921875000000 3.669998168945 198 198 198
13.859375000000 13.921875000000 3.703998565674 197 197 197
13.859375000000 13.937500000000 3.736000061035 180 180 180
13.859375000000 13.937500000000 3.766998291016 211 211 211
13.843750000000 13.921875000000 3.791999816895 180 180 180
13.843750000000 14.218750000000 3.653999328613 106 106 106
13.859375000000 14.234375000000 3.688999176025 215 215 215
13.843750000000 14.234375000000 3.717998504639 180 180 180
13.843750000000 14.234375000000 3.749000549316 214 214 214
13.843750000000 14.218750000000 3.777999877930 208 208 208
13.812500000000 14.218750000000 3.799999237061 28 28 28
13.828125000000 14.515625000000 3.673000335693 195 195 195
13.843750000000 14.531250000000 3.708999633789 205 205 205
13.843750000000 14.531250000000 3.738998413086 187 187 187
13.843750000000 14.531250000000 3.770000457764 211 211 211
13.828125000000 14.515625000000 3.798000335693 164 164 164
13.828125000000 14.812500000000 3.661998748779 76 76 76
13.828125000000 14.812500000000 3.692996978760 205 205 205
13.843750000000 14.812500000000 3.725997924805 192 192 192
13.843750000000 14.812500000000 3.754997253418 206 206 206
13.828125000000 14.812500000000 3.784000396729 203 203 203
13.812500000000 15.093750000000 3.669998168945 155 155 155
13.828125000000 15.109375000000 3.704998016357 213 213 213
13.828125000000 15.109375000000 3.736000061035 180 180 180
13.843750000000 15.109375000000 3.768997192383 212 212 212
13.828125000000 15.109375000000 3.795997619629 174 174 174
13.796875000000 15.390625000000 3.678997039795 188 188 188
13.796875000000 15.406250000000 3.711997985840 212 212 212
13.796875000000 15.406250000000 3.743000030518 215 215 215
13.828125000000 15.406250000000 3.775997161865 214 214 214
13.796875000000 15.390625000000 3.799999237061 116 116 116
13.796875000000 15.687500000000 3.692996978760 208 208 208
13.796875000000 15.703125000000 3.725997924805 211 211 211
13.812500000000 15.703125000000 3.758998870850 213 213 213
13.796875000000 15.703125000000 3.786998748779 194 194 194
13.281250000000 8.718750000000 3.796997070313 89 89 89
13.390625000000 8.671875000000 3.788997650146 136 136 136
13.406250000000 8.671875000000 3.759998321533 138 138 138
13.406250000000 8.656250000000 3.726997375488 148 148 148
13.406250000000 8.671875000000 3.692996978760 139 139 139
13.421875000000 8.656250000000 3.662998199463 134 134 134
13.421875000000 8.671875000000 3.627998352051 136 136 136
13.406250000000 8.656250000000 3.592998504639 133 133 133
13.296875000000 8.718750000000 3.525997161865 216 216 216
13.390625000000 8.968750000000 3.773998260498 50 50 50
13.437500000000 8.937500000000 3.751998901367 159 159 159
13.437500000000 8.953125000000 3.717998504639 151 151 151
13.437500000000 8.937500000000 3.687000274658 141 141 141
13.437500000000 8.953125000000 3.649997711182 143 143 143
13.437500000000 8.968750000000 3.614997863770 146 146 146
13.453125000000 9.234375000000 3.773998260498 107 107 107
13.468750000000 9.218750000000 3.747997283936 179 179 179
13.484375000000 9.218750000000 3.715999603271 169 169 169
13.468750000000 9.218750000000 3.680999755859 170 170 170
13.468750000000 9.218750000000 3.647998809814 172 172 172
13.468750000000 9.218750000000 3.614997863770 170 170 170
14.390625000000 8.671875000000 3.796997070313 149 149 149
14.468750000000 8.625000000000 3.796997070313 136 136 136
14.484375000000 8.625000000000 3.771999359131 145 145 145
14.484375000000 8.625000000000 3.744998931885 148 148 148
14.468750000000 8.625000000000 3.717998504639 144 144 144
14.468750000000 8.625000000000 3.687999725342 144 144 144
14.484375000000 8.625000000000 3.663997650146 142 142 142
14.484375000000 8.625000000000 3.638000488281 143 143 143
14.484375000000 8.625000000000 3.611000061035 145 145 145
14.468750000000 8.625000000000 3.578998565674 150 150 150
13.734375000000 9.375000000000 3.829998016357 150 150 150
13.828125000000 9.312500000000 3.827999114990 143 143 143
13.937500000000 9.250000000000 3.829998016357 149 149 149
14.000000000000 9.218750000000 3.816997528076 179 179 179
14.031250000000 9.203125000000 3.796997070313 181 181 181
14.031250000000 9.187500000000 3.767997741699 181 181 181
14.031250000000 9.187500000000 3.738998413086 180 180 180
14.031250000000 9.187500000000 3.709999084473 178 178 178
14.125000000000 9.140625000000 3.710998535156 183 183 183
14.453125000000 8.937500000000 3.795997619629 155 155 155
14.484375000000 8.937500000000 3.778999328613 171 171 171
14.484375000000 8.937500000000 3.751998901367 167 167 167
14.484375000000 8.921875000000 3.726997375488 167 167 167
14.484375000000 8.921875000000 3.699996948242 166 166 166
14.515625000000 8.906250000000 3.684997558594 162 162 162
14.484375000000 8.921875000000 3.646999359131 166 166 166
14.484375000000 8.937500000000 3.615997314453 167 167 167
14.484375000000 8.921875000000 3.590999603271 172 172 172
14.406250000000 8.968750000000 3.531997680664 210 210 210
14.140625000000 9.125000000000 3.393997192383 206 206 206
14.187500000000 9.125000000000 3.375000000000 207 207 207
14.140625000000 9.125000000000 3.330997467041 204 204 204
14.171875000000 9.125000000000 3.305999755859 204 204 204
14.140625000000 9.140625000000 3.263999938965 205 205 205
14.187500000000 9.125000000000 3.218997955322 207 207 207
14.171875000000 9.125000000000 3.182998657227 206 206 206
13.531250000000 9.796875000000 3.786998748779 91 91 91
13.562500000000 9.781250000000 3.763000488281 181 181 181
13.890625000000 9.562500000000 3.829998016357 142 142 142
14.015625000000 9.500000000000 3.834999084473 150 150 150
14.078125000000 9.468750000000 3.820999145508 195 195 195
14.078125000000 9.468750000000 3.794998168945 197 197 197
14.078125000000 9.468750000000 3.763999938965 188 188 188
14.187500000000 9.406250000000 3.774997711182 147 147 147
14.187500000000 9.390625000000 3.747997283936 150 150 150
14.187500000000 9.390625000000 3.720996856689 153 153 153
14.187500000000 9.406250000000 3.689998626709 156 156 156
14.187500000000 9.390625000000 3.662998199463 157 157 157
14.187500000000 9.390625000000 3.633998870850 157 157 157
14.203125000000 9.390625000000 3.606998443604 149 149 149
14.093750000000 9.468750000000 3.534999847412 149 149 149
14.093750000000 9.468750000000 3.500000000000 147 147 147
14.078125000000 9.468750000000 3.463996887207 145 145 145
14.078125000000 9.484375000000 3.432998657227 150 150 150
14.078125000000 9.468750000000 3.403999328613 149 149 149
14.078125000000 9.468750000000 3.374000549316 156 156 156
14.078125000000 9.484375000000 3.340999603271 152 152 152
14.093750000000 9.468750000000 3.314998626709 164 164 164
14.093750000000 9.468750000000 3.291999816895 168 168 168
14.093750000000 9.468750000000 3.263999938965 166 166 166
14.125000000000 9.437500000000 3.245998382568 152 152 152
14.093750000000 9.468750000000 3.201999664307 163 163 163
14.093750000000 9.468750000000 3.170997619629 168 168 168
14.140625000000 9.437500000000 3.160999298096 155 155 155
14.125000000000 9.437500000000 3.088996887207 231 231 231
14.125000000000 9.453125000000 3.053997039795 231 231 231
13.562500000000 10.375000000000 3.765998840332 214 214 214
13.562500000000 10.375000000000 3.731998443604 219 219 219
13.562500000000 10.375000000000 3.698997497559 223 223 223
13.562500000000 10.375000000000 3.666999816895 224 224 224
13.562500000000 10.375000000000 3.633998870850 212 212 212
14.171875000000 10.031250000000 3.765998840332 212 212 212
14.171875000000 10.031250000000 3.737998962402 216 216 216
14.171875000000 10.015625000000 3.709999084473 217 217 217
14.171875000000 10.031250000000 3.680999755859 219 219 219
14.171875000000 10.031250000000 3.652000427246 217 217 217
14.171875000000 10.031250000000 3.622997283936 203 203 203
13.578125000000 10.671875000000 3.782997131348 167 167 167
13.578125000000 10.656250000000 3.751998901367 206 206 206
13.578125000000 10.656250000000 3.719997406006 221 221 221
13.578125000000 10.671875000000 3.685997009277 224 224 224
13.593750000000 10.671875000000 3.655998229980 219 219 219
13.593750000000 10.671875000000 3.625000000000 131 131 131
14.140625000000 10.343750000000 3.770999908447 207 207 207
14.156250000000 10.343750000000 3.742000579834 218 218 218
14.156250000000 10.328125000000 3.715000152588 219 219 219
14.156250000000 10.328125000000 3.687000274658 219 219 219
14.156250000000 10.328125000000 3.656997680664 218 218 218
14.156250000000 10.328125000000 3.628997802734 199 199 199
13.609375000000 10.968750000000 3.770999908447 215 215 215
13.609375000000 10.968750000000 3.738998413086 219 219 219
13.609375000000 10.968750000000 3.708000183105 221 221 221
13.609375000000 10.968750000000 3.673000335693 222 222 222
13.609375000000 10.968750000000 3.642997741699 211 211 211
14.109375000000 10.656250000000 3.772998809814 208 208 208
14.109375000000 10.656250000000 3.746997833252 217 217 217
14.109375000000 10.656250000000 3.715999603271 219 219 219
14.109375000000 10.656250000000 3.687000274658 220 220 220
14.109375000000 10.656250000000 3.657997131348 219 219 219
14.109375000000 10.656250000000 3.628997802734 190 190 190
13.609375000000 11.250000000000 3.784999847412 180 180 180
13.609375000000 11.250000000000 3.754997253418 204 204 204
13.609375000000 11.250000000000 3.722000122070 222 222 222
13.609375000000 11.250000000000 3.687999725342 220 220 220
13.625000000000 11.234375000000 3.664997100830 217 217 217
14.078125000000 10.968750000000 3.775997161865 213 213 213
14.109375000000 10.968750000000 3.750999450684 214 214 214
14.109375000000 10.968750000000 3.720996856689 216 216 216
14.109375000000 10.968750000000 3.691997528076 218 218 218
14.078125000000 10.968750000000 3.659999847412 219 219 219
14.109375000000 10.968750000000 3.632999420166 167 167 167
13.640625000000 11.843750000000 3.791999816895 94 94 94
13.671875000000 11.828125000000 3.765998840332 209 209 209
13.671875000000 11.828125000000 3.735000610352 222 222 222
13.640625000000 11.828125000000 3.699996948242 225 225 225
13.984375000000 11.640625000000 3.770000457764 224 224 224
14.031250000000 11.593750000000 3.756000518799 218 218 218
14.031250000000 11.593750000000 3.725997924805 220 220 220
14.046875000000 11.609375000000 3.697998046875 216 216 216
14.046875000000 11.609375000000 3.668998718262 219 219 219
14.046875000000 11.593750000000 3.639999389648 168 168 168
13.656250000000 12.125000000000 3.788997650146 184 184 184
13.687500000000 12.109375000000 3.759998321533 202 202 202
13.671875000000 12.125000000000 3.725997924805 223 223 223
13.890625000000 12.000000000000 3.759998321533 224 224 224
14.015625000000 11.921875000000 3.763999938965 218 218 218
14.000000000000 11.921875000000 3.730998992920 218 218 218
14.015625000000 11.937500000000 3.701999664307 218 218 218
14.015625000000 11.937500000000 3.673999786377 217 217 217
14.015625000000 11.921875000000 3.645999908447 176 176 176
13.703125000000 12.406250000000 3.782997131348 215 215 215
13.703125000000 12.406250000000 3.750000000000 213 213 213
13.781250000000 12.359375000000 3.740997314453 222 222 222
13.984375000000 12.250000000000 3.767997741699 218 218 218
13.984375000000 12.250000000000 3.737998962402 214 214 214
13.984375000000 12.250000000000 3.706996917725 218 218 218
13.984375000000 12.250000000000 3.677997589111 216 216 216
13.984375000000 12.250000000000 3.648998260498 184 184 184
13.703125000000 12.718750000000 3.794998168945 73 73 73
13.734375000000 12.687500000000 3.772998809814 215 215 215
13.750000000000 12.687500000000 3.745998382568 220 220 220
13.937500000000 12.562500000000 3.774997711182 217 217 217
13.937500000000 12.562500000000 3.743999481201 218 218 218
13.937500000000 12.562500000000 3.716999053955 216 216 216
13.937500000000 12.562500000000 3.681999206543 220 220 220
13.937500000000 12.578125000000 3.649997711182 195 195 195
13.906250000000 12.875000000000 3.963001251221 126 126 126
13.921875000000 12.875000000000 3.935001373291 172 172 172
13.906250000000 12.875000000000 3.902999877930 167 167 167
13.906250000000 12.875000000000 3.872997283936 167 167 167
13.921875000000 12.875000000000 3.843997955322 166 166 166
13.921875000000 12.859375000000 3.816997528076 160 160 160
13.921875000000 12.859375000000 3.787998199463 149 149 149
13.921875000000 12.875000000000 3.754997253418 165 165 165
13.921875000000 12.875000000000 3.722999572754 162 162 162
13.906250000000 12.875000000000 3.689998626709 211 211 211
13.906250000000 12.875000000000 3.659000396729 208 208 208
13.796875000000 13.250000000000 3.791999816895 169 169 169
13.890625000000 13.187500000000 3.786998748779 200 200 200
13.890625000000 13.187500000000 3.757999420166 216 216 216
13.890625000000 13.187500000000 3.728000640869 217 217 217
13.890625000000 13.187500000000 3.695999145508 219 219 219
13.890625000000 13.187500000000 3.664997100830 214 214 214
13.843750000000 13.515625000000 3.791000366211 183 183 183
13.875000000000 13.515625000000 3.766998291016 217 217 217
13.890625000000 13.500000000000 3.736999511719 216 216 216
13.875000000000 13.515625000000 3.704998016357 216 216 216
13.890625000000 13.500000000000 3.674999237061 215 215 215
13.859375000000 13.515625000000 3.640998840332 25 25 25
13.812500000000 13.843750000000 3.793998718262 174 174 174
13.828125000000 13.843750000000 3.768997192383 216 216 216
13.843750000000 13.828125000000 3.739997863770 190 190 190
13.843750000000 13.828125000000 3.708999633789 200 200 200
13.828125000000 13.843750000000 3.674999237061 213 213 213
13.781250000000 14.171875000000 3.803997039795 23 23 23
13.812500000000 14.140625000000 3.784000396729 214 214 214
13.828125000000 14.125000000000 3.756000518799 215 215 215
13.812500000000 14.140625000000 3.722999572754 168 168 168
13.828125000000 14.140625000000 3.692996978760 215 215 215
13.828125000000 14.140625000000 3.661998748779 101 101 101
13.796875000000 14.453125000000 3.798000335693 188 188 188
13.828125000000 14.437500000000 3.771999359131 218 218 218
13.828125000000 14.437500000000 3.737998962402 210 210 210
13.828125000000 14.437500000000 3.706996917725 216 216 216
13.796875000000 14.453125000000 3.669998168945 186 186 186
13.796875000000 14.765625000000 3.803997039795 119 119 119
13.812500000000 14.750000000000 3.782997131348 215 215 215
13.828125000000 14.750000000000 3.753997802734 184 184 184
13.812500000000 14.750000000000 3.719997406006 184 184 184
13.812500000000 14.750000000000 3.688999176025 210 210 210
13.812500000000 15.046875000000 3.792999267578 207 207 207
13.812500000000 15.046875000000 3.761997222900 194 194 194
13.812500000000 15.046875000000 3.730998992920 191 191 191
13.812500000000 15.062500000000 3.697998046875 215 215 215
13.781250000000 15.359375000000 3.796997070313 171 171 171
13.796875000000 15.359375000000 3.772998809814 217 217 217
13.796875000000 15.359375000000 3.740997314453 217 217 217
13.796875000000 15.359375000000 3.708000183105 218 218 218
13.796875000000 15.359375000000 3.674999237061 175 175 175
13.796875000000 15.671875000000 3.787998199463 211 211 211
13.796875000000 15.671875000000 3.756999969482 217 217 217
13.796875000000 15.671875000000 3.725997924805 218 218 218
13.765625000000 15.671875000000 3.692996978760 209 209 209
14.375000000000 8.625000000000 3.548999786377 2 2 2
14.437500000000 8.625000000000 3.594997406006 200 200 200
14.453125000000 8.625000000000 3.622997283936 189 189 189
14.437500000000 8.625000000000 3.641998291016 193 193 193
14.453125000000 8.625000000000 3.669998168945 184 184 184
14.468750000000 8.625000000000 3.696998596191 174 174 174
14.453125000000 8.625000000000 3.719997406006 174 174 174
14.453125000000 8.625000000000 3.743000030518 173 173 173
14.437500000000 8.625000000000 3.758998870850 201 201 201
14.359375000000 8.625000000000 3.754997253418 1 1 1
14.265625000000 8.625000000000 3.754997253418 2 2 2
13.406250000000 8.640625000000 3.576999664307 166 166 166
13.406250000000 8.640625000000 3.606998443604 169 169 169
13.406250000000 8.640625000000 3.635997772217 172 172 172
13.406250000000 8.640625000000 3.664997100830 174 174 174
13.406250000000 8.640625000000 3.692996978760 171 171 171
13.406250000000 8.640625000000 3.722000122070 173 173 173
13.406250000000 8.640625000000 3.750999450684 173 173 173
13.406250000000 8.640625000000 3.779998779297 168 168 168
13.328125000000 8.640625000000 3.791999816895 106 106 106
14.453125000000 8.937500000000 3.770999908447 160 160 160
14.468750000000 8.921875000000 3.800998687744 150 150 150
14.390625000000 8.937500000000 3.801998138428 146 146 146
13.437500000000 8.937500000000 3.597999572754 158 158 158
13.453125000000 8.937500000000 3.629997253418 165 165 165
13.453125000000 8.937500000000 3.659999847412 166 166 166
13.453125000000 8.937500000000 3.687999725342 168 168 168
13.437500000000 8.937500000000 3.715000152588 170 170 170
13.453125000000 8.937500000000 3.744998931885 175 175 175
13.421875000000 8.937500000000 3.765998840332 159 159 159
13.265625000000 8.937500000000 3.763999938965 242 242 242
14.453125000000 8.937500000000 3.722999572754 138 138 138
14.453125000000 8.937500000000 3.744998931885 149 149 149
14.031250000000 9.234375000000 3.076999664307 214 214 214
14.062500000000 9.234375000000 3.121997833252 187 187 187
14.109375000000 9.234375000000 3.159000396729 193 193 193
14.109375000000 9.234375000000 3.184997558594 192 192 192
14.109375000000 9.234375000000 3.212997436523 191 191 191
14.109375000000 9.234375000000 3.239997863770 191 191 191
14.109375000000 9.234375000000 3.267997741699 193 193 193
14.109375000000 9.234375000000 3.294998168945 191 191 191
14.109375000000 9.234375000000 3.319999694824 190 190 190
14.109375000000 9.234375000000 3.347000122070 191 191 191
14.109375000000 9.234375000000 3.376998901367 192 192 192
14.109375000000 9.234375000000 3.398998260498 193 193 193
14.109375000000 9.234375000000 3.425998687744 192 192 192
14.109375000000 9.234375000000 3.452999114990 191 191 191
14.109375000000 9.234375000000 3.479999542236 192 192 192
14.109375000000 9.234375000000 3.504997253418 189 189 189
14.218750000000 9.234375000000 3.571998596191 177 177 177
14.265625000000 9.218750000000 3.614997863770 153 153 153
14.296875000000 9.234375000000 3.641998291016 155 155 155
14.265625000000 9.218750000000 3.662998199463 153 153 153
14.296875000000 9.234375000000 3.689998626709 162 162 162
14.265625000000 9.234375000000 3.710998535156 159 159 159
14.265625000000 9.218750000000 3.736000061035 151 151 151
14.296875000000 9.234375000000 3.764999389648 149 149 149
14.109375000000 9.234375000000 3.737998962402 188 188 188
14.109375000000 9.234375000000 3.760997772217 193 193 193
14.093750000000 9.234375000000 3.784999847412 192 192 192
14.078125000000 9.234375000000 3.806999206543 192 192 192
14.046875000000 9.234375000000 3.824996948242 163 163 163
13.968750000000 9.234375000000 3.830997467041 126 126 126
13.859375000000 9.234375000000 3.829998016357 128 128 128
13.718750000000 9.234375000000 3.824996948242 151 151 151
14.109375000000 9.531250000000 3.159999847412 186 186 186
14.125000000000 9.531250000000 3.189998626709 182 182 182
14.093750000000 9.531250000000 3.202999114990 168 168 168
14.078125000000 9.531250000000 3.226997375488 178 178 178
14.109375000000 9.531250000000 3.261997222900 188 188 188
14.125000000000 9.531250000000 3.296997070313 190 190 190
14.140625000000 9.531250000000 3.331996917725 191 191 191
14.109375000000 9.531250000000 3.347000122070 189 189 189
14.078125000000 9.531250000000 3.356998443604 182 182 182
14.078125000000 9.531250000000 3.383998870850 183 183 183
14.078125000000 9.531250000000 3.411998748779 180 180 180
14.078125000000 9.531250000000 3.437000274658 180 180 180
14.078125000000 9.531250000000 3.462997436523 181 181 181
14.078125000000 9.531250000000 3.489997863770 180 180 180
14.078125000000 9.531250000000 3.515998840332 181 181 181
14.078125000000 9.531250000000 3.542999267578 181 181 181
14.203125000000 9.531250000000 3.604000091553 164 164 164
14.234375000000 9.531250000000 3.636997222900 174 174 174
14.234375000000 9.531250000000 3.661998748779 175 175 175
14.234375000000 9.531250000000 3.685997009277 176 176 176
14.218750000000 9.531250000000 3.708999633789 175 175 175
14.218750000000 9.531250000000 3.732997894287 171 171 171
14.218750000000 9.531250000000 3.757999420166 169 169 169
14.171875000000 9.531250000000 3.770999908447 169 169 169
14.078125000000 9.531250000000 3.771999359131 195 195 195
14.078125000000 9.531250000000 3.796997070313 193 193 193
14.078125000000 9.531250000000 3.820999145508 189 189 189
14.062500000000 9.531250000000 3.836997985840 154 154 154
13.937500000000 9.546875000000 3.835998535156 128 128 128
13.796875000000 9.546875000000 3.833000183105 131 131 131
13.734375000000 9.546875000000 3.841999053955 96 96 96
14.203125000000 9.843750000000 3.617000579834 159 159 159
14.203125000000 9.843750000000 3.641998291016 179 179 179
14.203125000000 9.843750000000 3.664997100830 176 176 176
14.203125000000 9.843750000000 3.691997528076 173 173 173
14.203125000000 9.843750000000 3.716999053955 176 176 176
14.187500000000 9.828125000000 3.737998962402 171 171 171
14.203125000000 9.843750000000 3.764999389648 173 173 173
14.187500000000 9.843750000000 3.784000396729 156 156 156
13.578125000000 9.843750000000 3.649997711182 170 170 170
13.578125000000 9.843750000000 3.678997039795 172 172 172
13.593750000000 9.843750000000 3.708999633789 173 173 173
13.578125000000 9.843750000000 3.735000610352 177 177 177
13.593750000000 9.843750000000 3.765998840332 181 181 181
13.515625000000 9.843750000000 3.779998779297 181 181 181
14.109375000000 10.125000000000 3.598999023438 204 204 204
14.187500000000 10.140625000000 3.641998291016 217 217 217
14.171875000000 10.125000000000 3.666999816895 217 217 217
14.171875000000 10.125000000000 3.689998626709 221 221 221
14.171875000000 10.125000000000 3.715000152588 219 219 219
14.171875000000 10.125000000000 3.738998413086 222 222 222
14.187500000000 10.140625000000 3.765998840332 217 217 217
13.531250000000 10.140625000000 3.625999450684 198 198 198
13.578125000000 10.140625000000 3.666999816895 210 210 210
13.609375000000 10.140625000000 3.697998046875 208 208 208
13.562500000000 10.140625000000 3.718997955322 213 213 213
13.562500000000 10.140625000000 3.745998382568 218 218 218
13.562500000000 10.140625000000 3.775997161865 199 199 199
14.140625000000 10.437500000000 3.617000579834 132 132 132
14.156250000000 10.437500000000 3.645000457764 217 217 217
14.156250000000 10.437500000000 3.670997619629 217 217 217
14.156250000000 10.437500000000 3.695999145508 218 218 218
14.156250000000 10.437500000000 3.720996856689 219 219 219
14.156250000000 10.437500000000 3.744998931885 218 218 218
14.156250000000 10.437500000000 3.768997192383 217 217 217
13.578125000000 10.437500000000 3.648998260498 212 212 212
13.578125000000 10.437500000000 3.677997589111 219 219 219
13.578125000000 10.437500000000 3.705997467041 222 222 222
13.578125000000 10.437500000000 3.733997344971 219 219 219
13.578125000000 10.437500000000 3.761997222900 206 206 206
13.546875000000 10.437500000000 3.779998779297 158 158 158
14.125000000000 10.734375000000 3.625000000000 148 148 148
14.125000000000 10.734375000000 3.652000427246 217 217 217
14.125000000000 10.734375000000 3.674999237061 220 220 220
14.125000000000 10.734375000000 3.702999114990 217 217 217
14.125000000000 10.734375000000 3.728000640869 215 215 215
14.125000000000 10.734375000000 3.750999450684 214 214 214
14.109375000000 10.734375000000 3.771999359131 216 216 216
13.609375000000 10.734375000000 3.670997619629 221 221 221
13.609375000000 10.734375000000 3.695999145508 219 219 219
13.609375000000 10.734375000000 3.724998474121 218 218 218
13.609375000000 10.734375000000 3.751998901367 197 197 197
13.609375000000 10.734375000000 3.779998779297 194 194 194
14.093750000000 11.031250000000 3.633998870850 162 162 162
14.093750000000 11.031250000000 3.657997131348 218 218 218
14.093750000000 11.031250000000 3.684997558594 206 206 206
14.093750000000 11.031250000000 3.706996917725 219 219 219
14.093750000000 11.031250000000 3.735000610352 202 202 202
14.093750000000 11.031250000000 3.759998321533 215 215 215
14.078125000000 11.031250000000 3.778999328613 210 210 210
13.609375000000 11.031250000000 3.690998077393 154 154 154
13.609375000000 11.046875000000 3.715999603271 152 152 152
13.609375000000 11.046875000000 3.743999481201 165 165 165
13.609375000000 11.046875000000 3.771999359131 214 214 214
14.093750000000 11.343750000000 3.640998840332 167 167 167
14.078125000000 11.343750000000 3.663997650146 219 219 219
14.078125000000 11.343750000000 3.687999725342 219 219 219
14.078125000000 11.343750000000 3.712997436523 219 219 219
14.078125000000 11.343750000000 3.738998413086 217 217 217
14.078125000000 11.343750000000 3.763000488281 220 220 220
