15.484375000000 10.359375000000 4.458995819092 170 170 170
15.468750000000 10.343750000000 4.476001739502 169 169 169
15.468750000000 10.343750000000 4.493999481201 169 169 169
15.468750000000 10.343750000000 4.510997772217 169 169 169
15.468750000000 10.343750000000 4.531002044678 169 169 169
15.468750000000 10.343750000000 4.548999786377 168 168 168
15.468750000000 10.343750000000 4.566997528076 168 168 168
15.468750000000 10.343750000000 4.583995819092 170 170 170
15.468750000000 10.343750000000 4.603000640869 170 170 170
15.468750000000 10.343750000000 4.619998931885 165 165 165
15.468750000000 10.343750000000 4.638996124268 167 167 167
15.468750000000 10.343750000000 4.656002044678 166 166 166
15.468750000000 10.343750000000 4.673999786377 166 166 166
15.468750000000 10.343750000000 4.691997528076 167 167 167
15.468750000000 10.343750000000 4.709995269775 166 166 166
15.484375000000 10.359375000000 4.730998992920 162 162 162
15.500000000000 10.375000000000 4.749996185303 165 165 165
15.500000000000 10.375000000000 4.765995025635 168 168 168
15.500000000000 10.375000000000 4.784000396729 151 151 151
15.531250000000 10.390625000000 4.803997039795 160 160 160
15.468750000000 10.343750000000 4.817996978760 152 152 152
15.468750000000 10.343750000000 4.834995269775 165 165 165
15.484375000000 10.359375000000 4.853000640869 161 161 161
15.468750000000 10.359375000000 4.870998382568 162 162 162
15.468750000000 10.359375000000 4.887996673584 159 159 159
15.468750000000 10.343750000000 4.906002044678 156 156 156
15.468750000000 10.343750000000 4.923000335693 164 164 164
15.453125000000 10.343750000000 4.940998077393 161 161 161
15.453125000000 10.343750000000 4.958995819092 162 162 162
15.468750000000 10.343750000000 4.976001739502 164 164 164
15.468750000000 10.359375000000 4.993999481201 165 165 165
15.468750000000 10.359375000000 5.011997222900 164 164 164
15.468750000000 10.343750000000 5.028995513916 165 165 165
15.453125000000 10.343750000000 5.047000885010 164 164 164
15.453125000000 10.343750000000 5.064998626709 164 164 164
15.453125000000 10.343750000000 5.082996368408 163 163 163
15.453125000000 10.343750000000 5.100002288818 165 165 165
15.453125000000 10.343750000000 5.118000030518 166 166 166
15.453125000000 10.343750000000 5.135997772217 163 163 163
15.468750000000 10.359375000000 5.153995513916 162 162 162
15.453125000000 10.343750000000 5.172000885010 161 161 161
15.453125000000 10.359375000000 5.188999176025 160 160 160
15.468750000000 10.359375000000 5.206996917725 159 159 159
15.468750000000 10.359375000000 5.223995208740 160 160 160
15.453125000000 10.343750000000 5.243000030518 162 162 162
15.453125000000 10.359375000000 5.260997772217 163 163 163
15.453125000000 10.359375000000 5.277996063232 162 162 162
15.453125000000 10.359375000000 5.297000885010 164 164 164
15.453125000000 10.359375000000 5.313999176025 165 165 165
15.453125000000 10.359375000000 5.331996917725 166 166 166
15.453125000000 10.359375000000 5.350002288818 164 164 164
15.453125000000 10.343750000000 5.368999481201 165 165 165
15.468750000000 10.359375000000 5.384998321533 163 163 163
15.453125000000 10.359375000000 5.404994964600 163 163 163
15.453125000000 10.359375000000 5.423000335693 164 164 164
15.453125000000 10.359375000000 5.439998626709 160 160 160
15.453125000000 10.359375000000 5.458995819092 162 162 162
15.453125000000 10.359375000000 5.476001739502 160 160 160
15.453125000000 10.359375000000 5.494998931885 160 160 160
15.453125000000 10.359375000000 5.511997222900 162 162 162
15.453125000000 10.359375000000 5.531002044678 160 160 160
15.453125000000 10.359375000000 5.549999237061 162 162 162
15.453125000000 10.359375000000 5.567996978760 162 162 162
15.453125000000 10.359375000000 5.587001800537 158 158 158
15.453125000000 10.359375000000 5.604999542236 161 161 161
15.453125000000 10.359375000000 5.623996734619 159 159 159
15.453125000000 10.359375000000 5.642002105713 160 160 160
15.578125000000 10.437500000000 5.630001068115 135 135 135
15.656250000000 10.468750000000 5.632999420166 77 77 77
15.671875000000 10.484375000000 5.645999908447 126 126 126
15.671875000000 10.484375000000 5.660999298096 106 106 106
15.687500000000 10.484375000000 5.674999237061 90 90 90
15.671875000000 10.484375000000 5.692996978760 98 98 98
15.687500000000 10.484375000000 5.708995819092 104 104 104
15.687500000000 10.500000000000 5.723995208740 87 87 87
15.687500000000 10.500000000000 5.741001129150 85 85 85
15.671875000000 10.484375000000 5.764995574951 77 77 77
15.531250000000 10.406250000000 5.822002410889 131 131 131
15.531250000000 10.406250000000 5.842998504639 139 139 139
15.453125000000 10.359375000000 5.886997222900 157 157 157
15.437500000000 10.343750000000 5.908000946045 159 159 159
15.453125000000 10.359375000000 5.923999786377 160 160 160
15.453125000000 10.359375000000 5.945995330811 158 158 158
15.437500000000 10.343750000000 5.965999603271 160 160 160
15.437500000000 10.343750000000 5.985996246338 161 161 161
15.453125000000 10.359375000000 6.004001617432 160 160 160
15.437500000000 10.343750000000 6.024997711182 159 159 159
15.453125000000 10.359375000000 6.042995452881 158 158 158
15.453125000000 10.359375000000 6.062999725342 158 158 158
15.437500000000 10.343750000000 6.083995819092 158 158 158
15.437500000000 10.343750000000 6.105998992920 158 158 158
15.437500000000 10.343750000000 6.123996734619 159 159 159
15.437500000000 10.343750000000 6.146999359131 159 159 159
15.437500000000 10.343750000000 6.166996002197 157 157 157
15.437500000000 10.343750000000 6.185001373291 154 154 154
15.437500000000 10.343750000000 6.205997467041 158 158 158
15.453125000000 10.359375000000 6.222995758057 156 156 156
15.437500000000 10.343750000000 6.245998382568 156 156 156
15.453125000000 10.359375000000 6.265995025635 153 153 153
15.437500000000 10.343750000000 6.286998748779 154 154 154
15.437500000000 10.343750000000 6.310001373291 154 154 154
15.437500000000 10.343750000000 6.331996917725 154 154 154
15.437500000000 10.343750000000 6.352001190186 153 153 153
15.437500000000 10.343750000000 6.372997283936 153 153 153
15.437500000000 10.359375000000 6.393001556396 152 152 152
15.437500000000 10.343750000000 6.416996002197 151 151 151
15.437500000000 10.359375000000 6.436000823975 152 152 152
15.437500000000 10.343750000000 6.463001251221 155 155 155
15.437500000000 10.343750000000 6.483997344971 154 154 154
15.437500000000 10.343750000000 6.506000518799 154 154 154
15.437500000000 10.359375000000 6.524997711182 154 154 154
15.437500000000 10.343750000000 6.548999786377 151 151 151
15.437500000000 10.359375000000 6.569995880127 152 152 152
15.437500000000 10.359375000000 6.593997955322 151 151 151
15.437500000000 10.359375000000 6.617000579834 151 151 151
15.437500000000 10.343750000000 6.640995025635 152 152 152
15.437500000000 10.359375000000 6.661998748779 145 145 145
15.437500000000 10.359375000000 6.686000823975 147 147 147
15.437500000000 10.359375000000 6.705997467041 150 150 150
15.437500000000 10.359375000000 6.729999542236 147 147 147
15.437500000000 10.359375000000 6.751995086670 148 148 148
15.484375000000 10.375000000000 6.747997283936 152 152 152
15.484375000000 10.390625000000 6.760997772217 168 168 168
15.453125000000 10.375000000000 6.804996490479 169 169 169
15.390625000000 10.593750000000 3.305999755859 206 206 206
15.328125000000 10.562500000000 3.282997131348 204 204 204
15.250000000000 10.515625000000 3.251998901367 205 205 205
15.187500000000 10.484375000000 3.243999481201 201 201 201
15.218750000000 10.500000000000 3.291000366211 213 213 213
15.203125000000 10.500000000000 3.306999206543 213 213 213
15.234375000000 10.500000000000 3.348999023438 206 206 206
15.281250000000 10.531250000000 3.395000457764 203 203 203
15.281250000000 10.531250000000 3.418998718262 185 185 185
15.265625000000 10.531250000000 3.434997558594 178 178 178
15.265625000000 10.515625000000 3.453998565674 177 177 177
15.171875000000 10.468750000000 3.434997558594 174 174 174
15.187500000000 10.484375000000 3.465000152588 157 157 157
15.265625000000 10.531250000000 3.528999328613 141 141 141
15.281250000000 10.531250000000 3.557998657227 134 134 134
15.265625000000 10.515625000000 3.569000244141 124 124 124
15.265625000000 10.515625000000 3.592998504639 133 133 133
15.265625000000 10.531250000000 3.618000030518 134 134 134
15.250000000000 10.515625000000 3.636997222900 138 138 138
15.265625000000 10.531250000000 3.662998199463 132 132 132
15.265625000000 10.515625000000 3.683998107910 132 132 132
15.375000000000 10.593750000000 3.767997741699 133 133 133
15.421875000000 10.625000000000 3.806999206543 135 135 135
15.421875000000 10.625000000000 3.828998565674 151 151 151
15.406250000000 10.609375000000 3.843997955322 152 152 152
15.406250000000 10.609375000000 3.864997863770 138 138 138
15.421875000000 10.625000000000 3.886997222900 128 128 128
15.406250000000 10.609375000000 3.906997680664 128 128 128
15.406250000000 10.609375000000 3.926998138428 157 157 157
15.359375000000 10.593750000000 3.927997589111 134 134 134
15.296875000000 10.562500000000 3.926998138428 137 137 137
15.296875000000 10.562500000000 3.948001861572 124 124 124
15.328125000000 10.578125000000 3.979000091553 127 127 127
15.359375000000 10.593750000000 4.008998870850 146 146 146
15.359375000000 10.593750000000 4.026996612549 151 151 151
15.359375000000 10.593750000000 4.049999237061 152 152 152
15.359375000000 10.593750000000 4.069995880127 150 150 150
15.343750000000 10.578125000000 4.086002349854 130 130 130
15.359375000000 10.593750000000 4.108997344971 127 127 127
15.390625000000 10.609375000000 4.140995025635 152 152 152
15.390625000000 10.609375000000 4.160999298096 153 153 153
15.390625000000 10.609375000000 4.179996490479 157 157 157
15.406250000000 10.609375000000 4.201000213623 157 157 157
15.390625000000 10.609375000000 4.216999053955 168 168 168
15.375000000000 10.593750000000 4.233997344971 142 142 142
15.328125000000 10.578125000000 4.242000579834 133 133 133
15.421875000000 10.625000000000 4.284000396729 153 153 153
15.421875000000 10.625000000000 4.302997589111 162 162 162
15.421875000000 10.625000000000 4.320995330811 163 163 163
15.421875000000 10.625000000000 4.340000152588 166 166 166
15.421875000000 10.625000000000 4.359996795654 166 166 166
15.421875000000 10.625000000000 4.378002166748 168 168 168
15.421875000000 10.625000000000 4.397998809814 169 169 169
15.421875000000 10.625000000000 4.415996551514 167 167 167
15.421875000000 10.625000000000 4.433002471924 165 165 165
15.421875000000 10.625000000000 4.451999664307 160 160 160
15.390625000000 10.609375000000 4.465999603271 152 152 152
15.312500000000 10.562500000000 4.470996856689 148 148 148
15.312500000000 10.562500000000 4.487995147705 151 151 151
15.312500000000 10.562500000000 4.507999420166 152 152 152
15.296875000000 10.562500000000 4.524997711182 144 144 144
15.218750000000 10.500000000000 4.526996612549 155 155 155
15.203125000000 10.500000000000 4.546001434326 154 154 154
15.218750000000 10.500000000000 4.565998077393 156 156 156
15.203125000000 10.500000000000 4.584995269775 154 154 154
15.203125000000 10.500000000000 4.604999542236 159 159 159
15.203125000000 10.500000000000 4.624996185303 156 156 156
15.203125000000 10.500000000000 4.645000457764 157 157 157
15.203125000000 10.500000000000 4.663997650146 157 157 157
15.203125000000 10.500000000000 4.684001922607 154 154 154
15.218750000000 10.500000000000 4.703998565674 151 151 151
15.218750000000 10.500000000000 4.723995208740 153 153 153
15.218750000000 10.500000000000 4.743999481201 154 154 154
15.203125000000 10.500000000000 4.762996673584 155 155 155
15.218750000000 10.500000000000 4.783000946045 155 155 155
15.218750000000 10.500000000000 4.801998138428 152 152 152
15.218750000000 10.500000000000 4.822002410889 153 153 153
15.218750000000 10.500000000000 4.840999603271 152 152 152
15.218750000000 10.500000000000 4.860996246338 148 148 148
15.203125000000 10.500000000000 4.880001068115 148 148 148
15.203125000000 10.500000000000 4.898998260498 146 146 146
15.218750000000 10.515625000000 4.919002532959 142 142 142
15.406250000000 10.625000000000 4.945995330811 137 137 137
15.406250000000 10.625000000000 4.964000701904 139 139 139
15.406250000000 10.625000000000 4.981998443604 141 141 141
15.406250000000 10.625000000000 4.999996185303 144 144 144
15.406250000000 10.625000000000 5.018001556396 140 140 140
15.406250000000 10.625000000000 5.035999298096 140 140 140
15.406250000000 10.625000000000 5.053997039795 141 141 141
15.406250000000 10.625000000000 5.072002410889 140 140 140
15.343750000000 10.593750000000 5.091999053955 144 144 144
15.203125000000 10.500000000000 5.114002227783 146 146 146
15.203125000000 10.500000000000 5.132999420166 147 147 147
15.203125000000 10.500000000000 5.152996063232 148 148 148
15.203125000000 10.500000000000 5.172000885010 148 148 148
15.218750000000 10.515625000000 5.190998077393 147 147 147
15.203125000000 10.500000000000 5.211002349854 149 149 149
15.203125000000 10.500000000000 5.230998992920 153 153 153
15.203125000000 10.500000000000 5.249996185303 159 159 159
15.203125000000 10.500000000000 5.270000457764 154 154 154
15.218750000000 10.515625000000 5.288997650146 154 154 154
15.203125000000 10.500000000000 5.310001373291 153 153 153
15.218750000000 10.515625000000 5.327999114990 153 153 153
15.203125000000 10.500000000000 5.347995758057 153 153 153
15.203125000000 10.500000000000 5.368000030518 153 153 153
15.203125000000 10.500000000000 5.387996673584 153 153 153
15.203125000000 10.500000000000 5.408000946045 153 153 153
15.203125000000 10.500000000000 5.426998138428 155 155 155
15.203125000000 10.500000000000 5.447002410889 152 152 152
15.203125000000 10.500000000000 5.466999053955 154 154 154
15.218750000000 10.515625000000 5.485996246338 151 151 151
15.218750000000 10.515625000000 5.505001068115 149 149 149
15.218750000000 10.515625000000 5.525997161865 153 153 153
15.218750000000 10.515625000000 5.545001983643 156 156 156
15.203125000000 10.500000000000 5.565998077393 155 155 155
15.218750000000 10.515625000000 5.586002349854 157 157 157
15.218750000000 10.515625000000 5.604999542236 159 159 159
15.375000000000 10.609375000000 5.591999053955 172 172 172
15.421875000000 10.640625000000 5.598995208740 174 174 174
15.406250000000 10.625000000000 5.622997283936 178 178 178
15.203125000000 10.515625000000 5.685001373291 155 155 155
15.203125000000 10.500000000000 5.707996368408 157 157 157
15.203125000000 10.515625000000 5.726001739502 156 156 156
15.218750000000 10.515625000000 5.746997833252 159 159 159
15.203125000000 10.515625000000 5.765995025635 158 158 158
15.203125000000 10.515625000000 5.786998748779 162 162 162
15.203125000000 10.515625000000 5.808002471924 165 165 165
15.203125000000 10.515625000000 5.827999114990 161 161 161
15.203125000000 10.500000000000 5.851001739502 162 162 162
15.203125000000 10.515625000000 5.869998931885 161 161 161
15.203125000000 10.515625000000 5.889995574951 163 163 163
15.203125000000 10.515625000000 5.910999298096 163 163 163
15.203125000000 10.515625000000 5.933002471924 163 163 163
15.203125000000 10.515625000000 5.952999114990 161 161 161
15.203125000000 10.515625000000 5.973995208740 163 163 163
15.203125000000 10.515625000000 5.993000030518 165 165 165
15.203125000000 10.515625000000 6.015995025635 162 162 162
15.203125000000 10.515625000000 6.036998748779 161 161 161
15.203125000000 10.515625000000 6.059001922607 162 162 162
15.203125000000 10.515625000000 6.080997467041 158 158 158
15.203125000000 10.515625000000 6.098995208740 153 153 153
15.203125000000 10.515625000000 6.126995086670 157 157 157
15.203125000000 10.515625000000 6.145000457764 162 162 162
15.203125000000 10.515625000000 6.163997650146 164 164 164
15.203125000000 10.515625000000 6.184001922607 160 160 160
15.375000000000 10.609375000000 6.142002105713 120 120 120
15.406250000000 10.625000000000 6.152996063232 128 128 128
15.421875000000 10.640625000000 6.157001495361 149 149 149
15.437500000000 10.656250000000 6.173000335693 153 153 153
15.437500000000 10.656250000000 6.191997528076 170 170 170
15.437500000000 10.656250000000 6.216999053955 163 163 163
15.437500000000 10.656250000000 6.232997894287 160 160 160
15.421875000000 10.640625000000 6.260997772217 152 152 152
15.281250000000 10.562500000000 6.345996856689 171 171 171
15.203125000000 10.515625000000 6.408000946045 167 167 167
15.218750000000 10.531250000000 6.426998138428 170 170 170
15.203125000000 10.515625000000 6.451999664307 172 172 172
15.203125000000 10.515625000000 6.475002288818 170 170 170
15.218750000000 10.531250000000 6.494998931885 170 170 170
15.203125000000 10.531250000000 6.521999359131 168 168 168
15.218750000000 10.531250000000 6.540996551514 169 169 169
15.218750000000 10.531250000000 6.563999176025 172 172 172
15.218750000000 10.531250000000 6.584995269775 175 175 175
15.218750000000 10.531250000000 6.610996246338 173 173 173
15.218750000000 10.531250000000 6.631000518799 175 175 175
15.218750000000 10.531250000000 6.657001495361 172 172 172
15.218750000000 10.531250000000 6.677997589111 171 171 171
15.218750000000 10.531250000000 6.702999114990 171 171 171
15.234375000000 10.531250000000 6.723995208740 170 170 170
15.234375000000 10.531250000000 6.750995635986 168 168 168
15.234375000000 10.531250000000 6.771999359131 171 171 171
15.234375000000 10.531250000000 6.798999786377 169 169 169
21.812500000000 10.734375000000 4.163997650146 40 40 40
21.812500000000 10.718750000000 4.134998321533 49 49 49
21.812500000000 10.718750000000 4.110996246338 79 79 79
21.812500000000 10.718750000000 4.089000701904 101 101 101
21.812500000000 10.718750000000 4.063999176025 120 120 120
21.812500000000 10.718750000000 4.038997650146 123 123 123
21.812500000000 10.718750000000 4.014995574951 132 132 132
21.812500000000 10.718750000000 3.989002227783 137 137 137
21.812500000000 10.734375000000 3.965000152588 144 144 144
21.812500000000 10.718750000000 3.938999176025 142 142 142
21.812500000000 10.718750000000 3.913997650146 145 145 145
21.812500000000 10.734375000000 3.889999389648 145 145 145
21.812500000000 10.734375000000 3.864997863770 146 146 146
21.796875000000 10.734375000000 3.841999053955 147 147 147
21.812500000000 10.734375000000 3.813999176025 147 147 147
21.812500000000 10.734375000000 3.786998748779 151 151 151
21.812500000000 10.734375000000 3.763999938965 149 149 149
21.812500000000 10.734375000000 3.736000061035 154 154 154
21.796875000000 10.734375000000 3.713996887207 152 152 152
21.812500000000 10.734375000000 3.684997558594 153 153 153
21.796875000000 10.734375000000 3.661998748779 148 148 148
21.796875000000 10.734375000000 3.635997772217 152 152 152
21.812500000000 10.734375000000 3.608997344971 147 147 147
21.812500000000 10.734375000000 3.583000183105 153 153 153
21.796875000000 10.734375000000 3.558998107910 156 156 156
21.812500000000 10.734375000000 3.529998779297 155 155 155
21.796875000000 10.734375000000 3.506000518799 153 153 153
21.812500000000 10.734375000000 3.474998474121 154 154 154
21.796875000000 10.734375000000 3.451999664307 154 154 154
21.812500000000 10.750000000000 3.421997070313 157 157 157
21.796875000000 10.734375000000 3.396999359131 154 154 154
21.781250000000 10.750000000000 3.375000000000 156 156 156
21.781250000000 10.750000000000 3.347000122070 157 157 157
21.781250000000 10.750000000000 3.319999694824 159 159 159
21.781250000000 10.750000000000 3.287998199463 158 158 158
21.781250000000 10.750000000000 3.264999389648 156 156 156
21.781250000000 10.750000000000 3.238998413086 157 157 157
21.781250000000 10.750000000000 3.210998535156 158 158 158
21.781250000000 10.750000000000 3.182998657227 157 157 157
21.781250000000 10.750000000000 3.155998229980 160 160 160
21.781250000000 10.750000000000 3.125999450684 160 160 160
21.781250000000 10.765625000000 3.099998474121 160 160 160
22.156250000000 10.750000000000 7.158000946045 170 170 170
22.156250000000 10.750000000000 7.125995635986 171 171 171
22.171875000000 10.765625000000 7.097995758057 169 169 169
22.156250000000 10.750000000000 7.063999176025 170 170 170
22.156250000000 10.765625000000 7.031002044678 173 173 173
22.156250000000 10.765625000000 6.999996185303 175 175 175
22.156250000000 10.765625000000 6.969997406006 176 176 176
22.171875000000 10.765625000000 6.940998077393 159 159 159
22.171875000000 10.765625000000 6.910999298096 169 169 169
22.156250000000 10.765625000000 6.876995086670 167 167 167
22.156250000000 10.765625000000 6.847995758057 175 175 175
22.171875000000 10.765625000000 6.819995880127 177 177 177
22.171875000000 10.765625000000 6.790996551514 172 172 172
22.171875000000 10.765625000000 6.759998321533 173 173 173
22.171875000000 10.765625000000 6.729999542236 174 174 174
22.171875000000 10.765625000000 6.701999664307 174 174 174
22.171875000000 10.765625000000 6.671001434326 170 170 170
22.156250000000 10.781250000000 6.638996124268 171 171 171
22.171875000000 10.765625000000 6.615001678467 173 173 173
22.171875000000 10.765625000000 6.583995819092 166 166 166
22.171875000000 10.765625000000 6.552997589111 170 170 170
22.171875000000 10.781250000000 6.523998260498 173 173 173
22.171875000000 10.781250000000 6.495998382568 174 174 174
22.171875000000 10.765625000000 6.469997406006 178 178 178
22.171875000000 10.765625000000 6.441997528076 174 174 174
22.171875000000 10.765625000000 6.411998748779 175 175 175
22.171875000000 10.765625000000 6.383998870850 165 165 165
22.171875000000 10.765625000000 6.357997894287 157 157 157
22.046875000000 10.843750000000 6.286998748779 158 158 158
21.968750000000 10.890625000000 6.236995697021 163 163 163
21.968750000000 10.890625000000 6.211002349854 172 172 172
21.984375000000 10.890625000000 6.186000823975 179 179 179
21.984375000000 10.890625000000 6.160999298096 160 160 160
22.031250000000 10.859375000000 6.145999908447 142 142 142
22.062500000000 10.843750000000 6.131999969482 162 162 162
22.171875000000 10.765625000000 6.135997772217 159 159 159
22.171875000000 10.781250000000 6.104999542236 159 159 159
22.171875000000 10.781250000000 6.079998016357 161 161 161
22.171875000000 10.781250000000 6.049999237061 165 165 165
22.171875000000 10.781250000000 6.023998260498 169 169 169
22.171875000000 10.781250000000 5.995998382568 171 171 171
22.171875000000 10.781250000000 5.969997406006 174 174 174
22.171875000000 10.781250000000 5.942996978760 175 175 175
22.171875000000 10.781250000000 5.915996551514 172 172 172
22.171875000000 10.781250000000 5.889995574951 169 169 169
22.171875000000 10.781250000000 5.864002227783 165 165 165
22.171875000000 10.781250000000 5.836002349854 170 170 170
22.171875000000 10.781250000000 5.808002471924 168 168 168
22.171875000000 10.781250000000 5.783000946045 173 173 173
22.171875000000 10.781250000000 5.756999969482 162 162 162
22.171875000000 10.781250000000 5.729999542236 164 164 164
22.171875000000 10.781250000000 5.703998565674 169 169 169
22.171875000000 10.781250000000 5.676998138428 161 161 161
22.171875000000 10.781250000000 5.650997161865 163 163 163
22.171875000000 10.781250000000 5.623996734619 162 162 162
22.171875000000 10.796875000000 5.597995758057 159 159 159
22.171875000000 10.781250000000 5.572002410889 160 160 160
22.187500000000 10.781250000000 5.547000885010 161 161 161
22.171875000000 10.796875000000 5.519001007080 168 168 168
22.171875000000 10.781250000000 5.493999481201 165 165 165
22.171875000000 10.796875000000 5.466999053955 166 166 166
22.171875000000 10.796875000000 5.440998077393 167 167 167
22.171875000000 10.796875000000 5.414997100830 158 158 158
22.171875000000 10.781250000000 5.389995574951 154 154 154
22.171875000000 10.781250000000 5.364002227783 156 156 156
22.171875000000 10.796875000000 5.337001800537 169 169 169
22.171875000000 10.781250000000 5.312000274658 169 169 169
22.171875000000 10.796875000000 5.284999847412 170 170 170
22.171875000000 10.796875000000 5.259998321533 169 169 169
22.171875000000 10.796875000000 5.233997344971 170 170 170
22.171875000000 10.796875000000 5.207996368408 169 169 169
22.171875000000 10.796875000000 5.181995391846 161 161 161
22.171875000000 10.781250000000 5.156002044678 162 162 162
22.171875000000 10.796875000000 5.131000518799 166 166 166
22.171875000000 10.796875000000 5.104999542236 165 165 165
22.078125000000 10.843750000000 5.077999114990 156 156 156
22.062500000000 10.859375000000 5.052997589111 161 161 161
22.062500000000 10.859375000000 5.027996063232 161 161 161
22.062500000000 10.859375000000 5.003002166748 159 159 159
22.062500000000 10.859375000000 4.977001190186 159 159 159
22.062500000000 10.875000000000 4.951999664307 155 155 155
22.093750000000 10.843750000000 4.925998687744 156 156 156
22.171875000000 10.796875000000 4.897998809814 152 152 152
22.125000000000 10.828125000000 4.873996734619 162 162 162
22.171875000000 10.796875000000 4.845996856689 154 154 154
22.171875000000 10.796875000000 4.820995330811 159 159 159
22.171875000000 10.812500000000 4.795001983643 161 161 161
22.171875000000 10.796875000000 4.768001556396 161 161 161
22.171875000000 10.812500000000 4.743000030518 165 165 165
22.171875000000 10.812500000000 4.716999053955 167 167 167
22.171875000000 10.796875000000 4.690998077393 156 156 156
22.171875000000 10.812500000000 4.664997100830 158 158 158
22.171875000000 10.796875000000 4.638996124268 155 155 155
22.171875000000 10.796875000000 4.612995147705 151 151 151
22.171875000000 10.812500000000 4.587001800537 151 151 151
22.171875000000 10.812500000000 4.561000823975 157 157 157
22.171875000000 10.812500000000 4.534999847412 162 162 162
22.171875000000 10.812500000000 4.508998870850 161 161 161
22.171875000000 10.812500000000 4.482997894287 156 156 156
22.171875000000 10.812500000000 4.456996917725 161 161 161
22.093750000000 10.843750000000 4.439998626709 158 158 158
22.171875000000 10.812500000000 4.403995513916 150 150 150
22.171875000000 10.812500000000 4.376995086670 145 145 145
22.187500000000 10.812500000000 4.347995758057 145 145 145
22.093750000000 10.843750000000 4.338001251221 158 158 158
22.093750000000 10.843750000000 4.311000823975 147 147 147
22.078125000000 10.859375000000 4.287998199463 154 154 154
22.093750000000 10.843750000000 4.258998870850 153 153 153
22.093750000000 10.843750000000 4.230998992920 156 156 156
22.140625000000 10.812500000000 4.195995330811 160 160 160
22.156250000000 10.812500000000 4.164997100830 155 155 155
22.171875000000 10.812500000000 4.137996673584 159 159 159
22.156250000000 10.812500000000 4.111995697021 156 156 156
22.156250000000 10.812500000000 4.086002349854 151 151 151
22.156250000000 10.812500000000 4.058002471924 152 152 152
22.171875000000 10.812500000000 4.028995513916 153 153 153
22.171875000000 10.812500000000 4.001995086670 153 153 153
22.171875000000 10.812500000000 3.973995208740 154 154 154
22.156250000000 10.812500000000 3.948001861572 159 159 159
22.156250000000 10.812500000000 3.922000885010 159 159 159
22.093750000000 10.843750000000 3.913997650146 151 151 151
22.093750000000 10.875000000000 3.889999389648 152 152 152
22.093750000000 10.859375000000 3.862998962402 150 150 150
22.093750000000 10.859375000000 3.833000183105 149 149 149
22.093750000000 10.875000000000 3.808998107910 151 151 151
22.093750000000 10.843750000000 3.777000427246 150 150 150
22.156250000000 10.828125000000 3.731998443604 151 151 151
22.156250000000 10.828125000000 3.704998016357 151 151 151
22.156250000000 10.828125000000 3.673999786377 148 148 148
22.156250000000 10.828125000000 3.645999908447 149 149 149
22.156250000000 10.828125000000 3.618999481201 148 148 148
22.156250000000 10.828125000000 3.592998504639 151 151 151
22.156250000000 10.828125000000 3.563999176025 160 160 160
22.140625000000 10.843750000000 3.539997100830 164 164 164
22.156250000000 10.828125000000 3.506000518799 166 166 166
22.140625000000 10.828125000000 3.479999542236 162 162 162
22.156250000000 10.828125000000 3.448997497559 165 165 165
22.156250000000 10.828125000000 3.418998718262 157 157 157
22.140625000000 10.843750000000 3.395999908447 159 159 159
22.140625000000 10.843750000000 3.364997863770 151 151 151
22.140625000000 10.843750000000 3.334999084473 156 156 156
22.140625000000 10.843750000000 3.309997558594 159 159 159
22.140625000000 10.843750000000 3.278999328613 160 160 160
22.140625000000 10.843750000000 3.245998382568 165 165 165
22.140625000000 10.843750000000 3.219997406006 162 162 162
22.140625000000 10.843750000000 3.188999176025 164 164 164
22.140625000000 10.843750000000 3.155998229980 161 161 161
22.156250000000 10.843750000000 3.124000549316 156 156 156
22.156250000000 10.843750000000 3.092998504639 155 155 155
21.843750000000 11.031250000000 3.111999511719 194 194 194
22.390625000000 10.953125000000 5.419002532959 29 29 29
22.406250000000 10.953125000000 5.394001007080 37 37 37
22.406250000000 10.953125000000 5.366001129150 31 31 31
22.437500000000 10.937500000000 5.340000152588 31 31 31
22.406250000000 10.953125000000 5.311000823975 27 27 27
22.406250000000 10.937500000000 5.284000396729 34 34 34
22.406250000000 10.937500000000 5.256999969482 34 34 34
22.437500000000 10.937500000000 5.229999542236 48 48 48
22.406250000000 10.937500000000 5.201999664307 73 73 73
22.406250000000 10.953125000000 5.173999786377 38 38 38
21.687500000000 11.421875000000 3.424999237061 121 121 121
21.687500000000 11.406250000000 3.395000457764 100 100 100
21.703125000000 11.406250000000 3.357997894287 96 96 96
21.875000000000 11.312500000000 3.159999847412 225 225 225
21.890625000000 11.281250000000 3.110000610352 216 216 216
15.281250000000 8.750000000000 3.431999206543 106 106 106
15.281250000000 8.765625000000 3.403999328613 180 180 180
15.312500000000 8.750000000000 3.395999908447 142 142 142
15.328125000000 8.734375000000 3.379997253418 136 136 136
15.328125000000 8.734375000000 3.362998962402 135 135 135
15.343750000000 8.734375000000 3.342998504639 132 132 132
15.359375000000 8.718750000000 3.327999114990 143 143 143
15.375000000000 8.718750000000 3.307998657227 158 158 158
15.375000000000 8.718750000000 3.289997100830 138 138 138
15.390625000000 8.718750000000 3.272998809814 142 142 142
15.390625000000 8.703125000000 3.252998352051 136 136 136
15.406250000000 8.687500000000 3.218997955322 131 131 131
15.421875000000 8.687500000000 3.197998046875 126 126 126
15.421875000000 8.687500000000 3.173999786377 137 137 137
15.437500000000 8.687500000000 3.157997131348 147 147 147
15.296875000000 9.031250000000 4.448001861572 99 99 99
15.296875000000 9.031250000000 4.427997589111 116 116 116
15.312500000000 9.031250000000 4.410999298096 134 134 134
15.312500000000 9.031250000000 4.392002105713 146 146 146
15.312500000000 9.015625000000 4.374996185303 145 145 145
15.328125000000 9.015625000000 4.356998443604 145 145 145
15.328125000000 9.015625000000 4.340000152588 146 146 146
15.328125000000 9.015625000000 4.318996429443 146 146 146
15.343750000000 9.000000000000 4.304996490479 149 149 149
15.359375000000 9.000000000000 4.286998748779 148 148 148
15.375000000000 8.984375000000 4.271999359131 140 140 140
15.375000000000 9.000000000000 4.255001068115 139 139 139
15.375000000000 8.984375000000 4.236995697021 138 138 138
15.375000000000 8.968750000000 4.218997955322 139 139 139
15.390625000000 8.968750000000 4.202999114990 143 143 143
15.390625000000 8.968750000000 4.186000823975 144 144 144
15.421875000000 8.968750000000 4.170001983643 150 150 150
15.421875000000 8.968750000000 4.149997711182 155 155 155
15.421875000000 8.968750000000 4.131000518799 165 165 165
15.421875000000 8.968750000000 4.111995697021 170 170 170
15.421875000000 8.968750000000 4.091999053955 175 175 175
15.421875000000 8.953125000000 4.074001312256 180 180 180
15.437500000000 8.953125000000 4.055995941162 182 182 182
15.421875000000 8.968750000000 4.034000396729 180 180 180
15.406250000000 8.968750000000 4.009998321533 165 165 165
15.421875000000 8.968750000000 3.992000579834 143 143 143
15.421875000000 8.968750000000 3.971996307373 136 136 136
15.281250000000 9.062500000000 3.891998291016 254 254 254
15.218750000000 9.093750000000 3.845996856689 255 255 255
15.640625000000 8.859375000000 3.222999572754 253 253 253
15.656250000000 8.843750000000 3.204998016357 239 239 239
15.656250000000 8.843750000000 3.189998626709 226 226 226
15.656250000000 8.843750000000 3.160999298096 229 229 229
15.984375000000 8.656250000000 3.167999267578 239 239 239
15.265625000000 9.328125000000 5.437000274658 78 78 78
15.281250000000 9.312500000000 5.415996551514 107 107 107
15.296875000000 9.296875000000 5.395000457764 122 122 122
15.296875000000 9.312500000000 5.375995635986 143 143 143
15.296875000000 9.312500000000 5.357997894287 149 149 149
15.296875000000 9.296875000000 5.337001800537 152 152 152
15.312500000000 9.281250000000 5.316997528076 156 156 156
15.312500000000 9.281250000000 5.297000885010 160 160 160
15.328125000000 9.296875000000 5.277996063232 157 157 157
15.359375000000 9.281250000000 5.257999420166 157 157 157
15.359375000000 9.281250000000 5.239002227783 160 160 160
15.375000000000 9.265625000000 5.218997955322 154 154 154
15.375000000000 9.250000000000 5.200000762939 155 155 155
15.390625000000 9.265625000000 5.181995391846 157 157 157
15.390625000000 9.250000000000 5.162998199463 162 162 162
15.406250000000 9.250000000000 5.145000457764 164 164 164
15.421875000000 9.250000000000 5.125995635986 166 166 166
15.406250000000 9.250000000000 5.107997894287 170 170 170
15.406250000000 9.250000000000 5.090000152588 166 166 166
15.406250000000 9.250000000000 5.072002410889 167 167 167
15.421875000000 9.250000000000 5.053997039795 171 171 171
15.421875000000 9.250000000000 5.035999298096 175 175 175
15.406250000000 9.250000000000 5.017002105713 175 175 175
15.421875000000 9.250000000000 4.998996734619 177 177 177
15.406250000000 9.250000000000 4.980998992920 170 170 170
15.421875000000 9.250000000000 4.963001251221 157 157 157
15.421875000000 9.250000000000 4.944995880127 144 144 144
15.406250000000 9.250000000000 4.926998138428 130 130 130
15.406250000000 9.250000000000 4.908000946045 74 74 74
15.265625000000 9.343750000000 4.802997589111 150 150 150
15.453125000000 9.234375000000 4.802997589111 163 163 163
15.421875000000 9.250000000000 4.782001495361 170 170 170
15.421875000000 9.250000000000 4.762996673584 178 178 178
15.421875000000 9.250000000000 4.744998931885 172 172 172
15.437500000000 9.234375000000 4.728000640869 80 80 80
15.250000000000 9.609375000000 6.459995269775 57 57 57
15.250000000000 9.609375000000 6.435001373291 104 104 104
15.265625000000 9.593750000000 6.402996063232 115 115 115
15.296875000000 9.593750000000 6.380001068115 149 149 149
15.296875000000 9.578125000000 6.350002288818 153 153 153
15.312500000000 9.578125000000 6.325000762939 151 151 151
15.328125000000 9.562500000000 6.291996002197 143 143 143
15.328125000000 9.562500000000 6.270000457764 148 148 148
15.359375000000 9.546875000000 6.242000579834 151 151 151
15.359375000000 9.546875000000 6.216999053955 151 151 151
15.375000000000 9.531250000000 6.188999176025 150 150 150
15.390625000000 9.531250000000 6.164997100830 164 164 164
15.390625000000 9.531250000000 6.140995025635 169 169 169
15.390625000000 9.531250000000 6.118999481201 168 168 168
15.406250000000 9.531250000000 6.097995758057 178 178 178
15.406250000000 9.531250000000 6.076000213623 177 177 177
15.406250000000 9.531250000000 6.055995941162 177 177 177
15.406250000000 9.531250000000 6.036998748779 179 179 179
15.406250000000 9.531250000000 6.018001556396 179 179 179
15.406250000000 9.531250000000 5.997997283936 178 178 178
15.406250000000 9.531250000000 5.977001190186 176 176 176
15.390625000000 9.531250000000 5.961002349854 166 166 166
15.406250000000 9.531250000000 5.936000823975 155 155 155
15.406250000000 9.531250000000 5.917995452881 141 141 141
15.406250000000 9.531250000000 5.896999359131 105 105 105
15.218750000000 9.671875000000 4.806995391846 109 109 109
15.328125000000 9.609375000000 4.798000335693 179 179 179
15.453125000000 9.531250000000 4.792995452881 158 158 158
15.437500000000 9.531250000000 4.772998809814 167 167 167
15.437500000000 9.531250000000 4.755001068115 169 169 169
15.437500000000 9.531250000000 4.736995697021 169 169 169
15.421875000000 9.812500000000 6.798000335693 178 178 178
15.453125000000 9.796875000000 6.760997772217 176 176 176
15.421875000000 9.812500000000 6.745998382568 166 166 166
15.406250000000 9.812500000000 6.735996246338 75 75 75
15.234375000000 9.906250000000 6.789997100830 171 171 171
15.234375000000 9.921875000000 6.762996673584 172 172 172
15.218750000000 9.921875000000 6.742000579834 174 174 174
15.187500000000 9.937500000000 6.743000030518 150 150 150
15.187500000000 10.000000000000 4.792995452881 175 175 175
15.500000000000 9.812500000000 4.801998138428 163 163 163
15.468750000000 9.843750000000 4.781002044678 166 166 166
15.468750000000 9.843750000000 4.762996673584 172 172 172
15.468750000000 9.843750000000 4.744998931885 176 176 176
15.468750000000 9.828125000000 4.728000640869 109 109 109
15.453125000000 10.078125000000 6.810001373291 166 166 166
15.421875000000 10.093750000000 6.789997100830 178 178 178
15.468750000000 10.078125000000 6.746997833252 173 173 173
15.421875000000 10.093750000000 6.741001129150 149 149 149
15.187500000000 10.250000000000 6.803997039795 175 175 175
15.187500000000 10.250000000000 6.779994964600 179 179 179
15.171875000000 10.250000000000 6.756000518799 177 177 177
15.156250000000 10.250000000000 6.745998382568 167 167 167
15.125000000000 10.281250000000 6.740001678467 38 38 38
15.156250000000 10.312500000000 4.797000885010 136 136 136
15.468750000000 10.125000000000 4.805995941162 171 171 171
15.468750000000 10.125000000000 4.788997650146 159 159 159
15.468750000000 10.125000000000 4.770999908447 174 174 174
15.468750000000 10.125000000000 4.753002166748 177 177 177
15.468750000000 10.125000000000 4.735996246338 166 166 166
15.031250000000 10.421875000000 3.341999053955 215 215 215
15.453125000000 10.375000000000 6.789997100830 178 178 178
15.500000000000 10.359375000000 6.742000579834 168 168 168
15.437500000000 10.390625000000 6.754001617432 169 169 169
15.187500000000 10.531250000000 6.786998748779 177 177 177
15.187500000000 10.531250000000 6.762996673584 168 168 168
15.187500000000 10.546875000000 6.743999481201 172 172 172
15.187500000000 10.546875000000 6.719997406006 176 176 176
15.187500000000 10.562500000000 6.698001861572 184 184 184
15.187500000000 10.546875000000 6.670001983643 183 183 183
15.187500000000 10.562500000000 6.648998260498 184 184 184
15.187500000000 10.546875000000 6.621997833252 181 181 181
15.187500000000 10.562500000000 6.602001190186 183 183 183
15.187500000000 10.562500000000 6.575000762939 182 182 182
15.187500000000 10.562500000000 6.555995941162 183 183 183
15.171875000000 10.562500000000 6.535999298096 184 184 184
15.187500000000 10.562500000000 6.509998321533 184 184 184
15.187500000000 10.562500000000 6.481998443604 181 181 181
15.187500000000 10.562500000000 6.462001800537 182 182 182
15.187500000000 10.562500000000 6.437999725342 185 185 185
15.171875000000 10.562500000000 6.419002532959 182 182 182
15.187500000000 10.562500000000 6.394001007080 183 183 183
15.171875000000 10.562500000000 6.371997833252 183 183 183
15.234375000000 10.531250000000 6.320995330811 179 179 179
15.296875000000 10.484375000000 6.270999908447 160 160 160
15.296875000000 10.484375000000 6.248996734619 162 162 162
15.296875000000 10.484375000000 6.227001190186 162 162 162
15.296875000000 10.484375000000 6.205997467041 163 163 163
15.296875000000 10.484375000000 6.185001373291 162 162 162
15.296875000000 10.484375000000 6.165996551514 163 163 163
15.281250000000 10.500000000000 6.148998260498 165 165 165
15.187500000000 10.562500000000 6.169002532959 176 176 176
15.171875000000 10.562500000000 6.149997711182 175 175 175
15.156250000000 10.562500000000 6.131000518799 175 175 175
15.171875000000 10.562500000000 6.106998443604 176 176 176
15.156250000000 10.562500000000 6.087001800537 179 179 179
15.171875000000 10.562500000000 6.063999176025 181 181 181
15.171875000000 10.562500000000 6.041996002197 179 179 179
15.171875000000 10.562500000000 6.020999908447 182 182 182
15.171875000000 10.562500000000 5.999996185303 183 183 183
15.156250000000 10.578125000000 5.979999542236 182 182 182
15.171875000000 10.562500000000 5.955997467041 182 182 182
15.171875000000 10.562500000000 5.936000823975 180 180 180
15.156250000000 10.578125000000 5.916996002197 181 181 181
15.578125000000 10.328125000000 5.778995513916 134 134 134
15.656250000000 10.281250000000 5.735996246338 91 91 91
15.578125000000 10.328125000000 5.741001129150 73 73 73
15.531250000000 10.359375000000 5.732997894287 78 78 78
15.531250000000 10.359375000000 5.715999603271 98 98 98
15.312500000000 10.484375000000 5.750995635986 177 177 177
15.171875000000 10.578125000000 5.770000457764 184 184 184
15.156250000000 10.578125000000 5.749996185303 184 184 184
15.156250000000 10.578125000000 5.729000091553 183 183 183
15.171875000000 10.578125000000 5.707996368408 181 181 181
15.171875000000 10.593750000000 5.687999725342 179 179 179
15.171875000000 10.562500000000 5.664997100830 177 177 177
15.343750000000 10.468750000000 5.606998443604 195 195 195
15.359375000000 10.468750000000 5.586002349854 195 195 195
15.171875000000 10.562500000000 5.604000091553 181 181 181
15.171875000000 10.578125000000 5.584995269775 176 176 176
15.171875000000 10.593750000000 5.564998626709 174 174 174
15.171875000000 10.593750000000 5.545001983643 177 177 177
15.218750000000 10.562500000000 5.518001556396 180 180 180
15.328125000000 10.484375000000 5.479000091553 171 171 171
15.171875000000 10.593750000000 5.483997344971 176 176 176
15.156250000000 10.593750000000 5.465000152588 179 179 179
15.171875000000 10.593750000000 5.443996429443 176 176 176
15.171875000000 10.593750000000 5.423999786377 175 175 175
15.171875000000 10.593750000000 5.402996063232 177 177 177
15.171875000000 10.593750000000 5.384998321533 177 177 177
15.156250000000 10.593750000000 5.365001678467 180 180 180
15.171875000000 10.593750000000 5.343997955322 178 178 178
15.171875000000 10.593750000000 5.324001312256 178 178 178
15.171875000000 10.593750000000 5.303997039795 174 174 174
15.171875000000 10.593750000000 5.284000396729 172 172 172
15.171875000000 10.593750000000 5.263996124268 170 170 170
15.171875000000 10.593750000000 5.243999481201 170 170 170
15.171875000000 10.593750000000 5.223995208740 169 169 169
15.171875000000 10.593750000000 5.203998565674 165 165 165
15.171875000000 10.593750000000 5.184001922607 166 166 166
15.171875000000 10.593750000000 5.163997650146 164 164 164
15.171875000000 10.593750000000 5.145000457764 166 166 166
15.171875000000 10.593750000000 5.124996185303 165 165 165
15.234375000000 10.562500000000 5.104000091553 165 165 165
15.328125000000 10.500000000000 5.082996368408 161 161 161
15.343750000000 10.500000000000 5.063999176025 158 158 158
15.343750000000 10.500000000000 5.046001434326 159 159 159
15.343750000000 10.484375000000 5.026996612549 160 160 160
15.343750000000 10.484375000000 5.008998870850 156 156 156
15.343750000000 10.484375000000 4.990001678467 157 157 157
15.343750000000 10.484375000000 4.970996856689 159 159 159
15.343750000000 10.484375000000 4.952999114990 154 154 154
15.187500000000 10.593750000000 4.926998138428 154 154 154
15.187500000000 10.593750000000 4.907001495361 154 154 154
15.187500000000 10.593750000000 4.886997222900 157 157 157
15.187500000000 10.593750000000 4.867000579834 160 160 160
15.187500000000 10.593750000000 4.847995758057 164 164 164
15.187500000000 10.593750000000 4.827999114990 166 166 166
15.187500000000 10.593750000000 4.808002471924 167 167 167
15.203125000000 10.578125000000 4.789997100830 170 170 170
15.515625000000 10.390625000000 4.800998687744 168 168 168
15.484375000000 10.421875000000 4.779994964600 175 175 175
15.500000000000 10.406250000000 4.762996673584 177 177 177
15.484375000000 10.421875000000 4.743999481201 177 177 177
15.406250000000 10.468750000000 4.715999603271 175 175 175
15.187500000000 10.593750000000 4.669002532959 161 161 161
15.187500000000 10.593750000000 4.647998809814 156 156 156
15.187500000000 10.593750000000 4.629001617432 152 152 152
15.187500000000 10.593750000000 4.608997344971 147 147 147
15.187500000000 10.593750000000 4.588001251221 145 145 145
15.187500000000 10.593750000000 4.568996429443 140 140 140
15.187500000000 10.593750000000 4.548999786377 141 141 141
15.187500000000 10.593750000000 4.527996063232 142 142 142
15.296875000000 10.531250000000 4.531002044678 152 152 152
15.312500000000 10.515625000000 4.513996124268 163 163 163
15.328125000000 10.515625000000 4.495998382568 158 158 158
15.343750000000 10.500000000000 4.480998992920 157 157 157
15.328125000000 10.500000000000 4.459995269775 159 159 159
15.343750000000 10.500000000000 4.441997528076 154 154 154
15.359375000000 10.500000000000 4.423000335693 158 158 158
15.359375000000 10.500000000000 4.407001495361 154 154 154
15.375000000000 10.484375000000 4.389995574951 156 156 156
15.375000000000 10.484375000000 4.371997833252 145 145 145
15.343750000000 10.515625000000 4.344997406006 150 150 150
15.359375000000 10.500000000000 4.326999664307 154 154 154
15.359375000000 10.500000000000 4.308002471924 152 152 152
15.359375000000 10.500000000000 4.289997100830 151 151 151
15.359375000000 10.500000000000 4.269001007080 153 153 153
15.359375000000 10.500000000000 4.247997283936 148 148 148
15.359375000000 10.500000000000 4.229999542236 153 153 153
15.359375000000 10.500000000000 4.207996368408 149 149 149
15.343750000000 10.515625000000 4.186000823975 151 151 151
15.343750000000 10.515625000000 4.166996002197 149 149 149
15.343750000000 10.515625000000 4.146999359131 148 148 148
15.343750000000 10.515625000000 4.128002166748 146 146 146
15.359375000000 10.500000000000 4.108997344971 140 140 140
15.359375000000 10.500000000000 4.089000701904 148 148 148
15.359375000000 10.500000000000 4.069995880127 152 152 152
15.375000000000 10.500000000000 4.056995391846 143 143 143
15.421875000000 10.468750000000 4.048000335693 143 143 143
15.375000000000 10.500000000000 4.015995025635 128 128 128
15.359375000000 10.500000000000 3.986995697021 125 125 125
15.343750000000 10.531250000000 3.961002349854 126 126 126
15.343750000000 10.515625000000 3.941997528076 147 147 147
15.390625000000 10.500000000000 3.937000274658 148 148 148
15.390625000000 10.500000000000 3.917995452881 143 143 143
15.390625000000 10.500000000000 3.897998809814 142 142 142
15.390625000000 10.484375000000 3.878997802734 141 141 141
15.390625000000 10.500000000000 3.854999542236 136 136 136
15.390625000000 10.484375000000 3.836997985840 137 137 137
15.390625000000 10.500000000000 3.815998077393 132 132 132
15.390625000000 10.500000000000 3.791999816895 118 118 118
15.343750000000 10.531250000000 3.750999450684 141 141 141
15.343750000000 10.531250000000 3.728000640869 150 150 150
15.343750000000 10.515625000000 3.709999084473 153 153 153
15.343750000000 10.531250000000 3.685997009277 158 158 158
15.343750000000 10.531250000000 3.663997650146 153 153 153
15.343750000000 10.531250000000 3.641998291016 155 155 155
15.343750000000 10.531250000000 3.617000579834 156 156 156
15.343750000000 10.531250000000 3.594997406006 144 144 144
15.390625000000 10.515625000000 3.586997985840 146 146 146
15.406250000000 10.500000000000 3.579998016357 139 139 139
15.406250000000 10.484375000000 3.558998107910 151 151 151
15.375000000000 10.515625000000 3.515998840332 153 153 153
15.281250000000 10.562500000000 3.446998596191 171 171 171
15.343750000000 10.531250000000 3.452999114990 123 123 123
15.281250000000 10.562500000000 3.395000457764 170 170 170
15.265625000000 10.578125000000 3.356998443604 180 180 180
15.453125000000 10.453125000000 3.449996948242 226 226 226
15.531250000000 10.437500000000 3.469997406006 208 208 208
