26.671875000000 10.734375000000 3.624000549316 226 226 226
26.656250000000 10.750000000000 3.567996978760 235 235 235
26.656250000000 10.734375000000 3.508998870850 223 223 223
26.656250000000 10.750000000000 3.452999114990 232 232 232
26.656250000000 10.750000000000 3.393997192383 227 227 227
26.671875000000 10.734375000000 3.330997467041 185 185 185
26.656250000000 10.750000000000 3.275997161865 190 190 190
26.671875000000 10.734375000000 2.979000091553 194 194 194
26.656250000000 10.750000000000 2.920997619629 193 193 193
26.656250000000 10.750000000000 2.862998962402 190 190 190
26.656250000000 10.750000000000 2.802997589111 191 191 191
26.656250000000 10.750000000000 2.743000030518 190 190 190
26.656250000000 10.750000000000 2.683998107910 190 190 190
26.656250000000 10.750000000000 2.624000549316 186 186 186
26.656250000000 10.750000000000 2.562999725342 190 190 190
26.640625000000 10.750000000000 2.506000518799 184 184 184
26.656250000000 10.750000000000 2.444000244141 188 188 188
26.640625000000 10.750000000000 2.384998321533 172 172 172
26.718750000000 10.718750000000 3.027000427246 113 113 113
26.781250000000 10.968750000000 8.764995574951 65 65 65
26.921875000000 10.875000000000 8.756999969482 30 30 30
26.796875000000 10.953125000000 7.825000762939 140 140 140
26.781250000000 10.953125000000 4.091999053955 108 108 108
26.781250000000 10.968750000000 4.034999847412 236 236 236
26.781250000000 10.968750000000 3.977001190186 238 238 238
26.781250000000 10.968750000000 3.920001983643 234 234 234
26.781250000000 10.968750000000 3.861000061035 232 232 232
26.781250000000 10.968750000000 3.802997589111 235 235 235
26.781250000000 10.968750000000 3.743999481201 236 236 236
26.765625000000 10.968750000000 3.687000274658 234 234 234
26.781250000000 10.968750000000 3.626998901367 233 233 233
26.765625000000 10.968750000000 3.569999694824 234 234 234
26.765625000000 10.968750000000 3.510997772217 234 234 234
26.765625000000 10.968750000000 3.453998565674 233 233 233
26.765625000000 10.968750000000 3.395000457764 223 223 223
26.781250000000 11.250000000000 8.658000946045 69 69 69
26.750000000000 11.281250000000 7.833995819092 115 115 115
26.781250000000 11.265625000000 7.781002044678 21 21 21
26.750000000000 11.578125000000 8.548999786377 70 70 70
26.718750000000 11.593750000000 7.852001190186 30 30 30
26.718750000000 11.593750000000 7.794002532959 111 111 111
26.718750000000 11.875000000000 8.449001312256 66 66 66
26.703125000000 11.890625000000 7.824001312256 114 114 114
26.750000000000 11.859375000000 7.776996612549 87 87 87
26.765625000000 11.859375000000 7.720996856689 85 85 85
26.765625000000 11.859375000000 7.657001495361 84 84 84
26.765625000000 11.859375000000 7.600002288818 74 74 74
26.765625000000 11.875000000000 7.535999298096 105 105 105
26.718750000000 12.187500000000 8.351001739502 63 63 63
26.671875000000 12.203125000000 7.850002288818 51 51 51
26.671875000000 12.203125000000 7.789997100830 100 100 100
26.718750000000 12.171875000000 7.499996185303 90 90 90
26.671875000000 12.484375000000 8.246997833252 59 59 59
26.640625000000 12.500000000000 7.804996490479 126 126 126
26.656250000000 12.500000000000 7.511997222900 100 100 100
26.625000000000 12.796875000000 8.129001617432 47 47 47
26.609375000000 12.812500000000 7.815998077393 127 127 127
26.609375000000 12.812500000000 7.756000518799 43 43 43
26.640625000000 12.796875000000 7.526996612549 70 70 70
26.609375000000 13.125000000000 8.022998809814 49 49 49
26.578125000000 13.125000000000 7.831996917725 106 106 106
26.593750000000 13.125000000000 7.776996612549 60 60 60
26.609375000000 13.125000000000 7.484996795654 77 77 77
26.593750000000 13.437500000000 7.929996490479 65 65 65
26.546875000000 13.453125000000 7.798999786377 123 123 123
26.609375000000 13.406250000000 7.757999420166 62 62 62
26.609375000000 13.421875000000 7.694995880127 205 205 205
26.609375000000 13.406250000000 7.636997222900 209 209 209
26.609375000000 13.421875000000 7.576000213623 211 211 211
26.593750000000 13.421875000000 7.513996124268 182 182 182
26.546875000000 13.750000000000 7.829998016357 103 103 103
26.562500000000 13.734375000000 7.778995513916 34 34 34
26.593750000000 13.718750000000 7.726001739502 172 172 172
26.593750000000 13.703125000000 7.670001983643 184 184 184
26.593750000000 13.718750000000 7.605998992920 183 183 183
26.578125000000 13.718750000000 7.546001434326 204 204 204
26.578125000000 13.718750000000 7.485996246338 83 83 83
26.500000000000 14.046875000000 7.845996856689 44 44 44
26.500000000000 14.046875000000 7.791996002197 94 94 94
26.531250000000 14.015625000000 7.743999481201 109 109 109
26.531250000000 14.015625000000 7.686000823975 196 196 196
26.531250000000 14.015625000000 7.626995086670 189 189 189
26.546875000000 14.015625000000 7.568996429443 197 197 197
26.531250000000 14.031250000000 7.505001068115 141 141 141
26.468750000000 14.343750000000 7.809001922607 129 129 129
26.500000000000 14.312500000000 7.761997222900 25 25 25
26.500000000000 14.312500000000 7.703998565674 210 210 210
26.500000000000 14.312500000000 7.644001007080 214 214 214
26.500000000000 14.328125000000 7.583995819092 147 147 147
26.515625000000 14.328125000000 7.526996612549 192 192 192
26.437500000000 14.671875000000 7.820995330811 124 124 124
26.468750000000 14.656250000000 7.775997161865 15 15 15
26.468750000000 14.640625000000 7.718997955322 192 192 192
26.500000000000 14.625000000000 7.663997650146 194 194 194
26.484375000000 14.640625000000 7.603000640869 188 188 188
26.468750000000 14.640625000000 7.540996551514 203 203 203
26.468750000000 14.640625000000 7.483997344971 67 67 67
26.421875000000 14.968750000000 7.848995208740 73 73 73
26.421875000000 14.984375000000 7.789997100830 86 86 86
26.437500000000 14.968750000000 7.737995147705 122 122 122
26.453125000000 14.953125000000 7.680995941162 191 191 191
26.453125000000 14.968750000000 7.623996734619 197 197 197
26.437500000000 14.968750000000 7.562999725342 213 213 213
26.437500000000 14.968750000000 7.503002166748 123 123 123
26.390625000000 15.281250000000 7.878002166748 89 89 89
26.375000000000 15.281250000000 7.812000274658 125 125 125
26.437500000000 15.265625000000 7.768001556396 83 83 83
26.437500000000 15.265625000000 7.713001251221 202 202 202
26.421875000000 15.265625000000 7.649997711182 61 61 61
26.421875000000 15.265625000000 7.590999603271 160 160 160
26.421875000000 15.265625000000 7.533000946045 193 193 193
26.375000000000 15.593750000000 8.018001556396 35 35 35
26.359375000000 15.593750000000 7.836002349854 118 118 118
26.421875000000 15.562500000000 7.794002532959 86 86 86
26.421875000000 15.562500000000 7.737995147705 71 71 71
26.421875000000 15.562500000000 7.676998138428 56 56 56
26.406250000000 15.562500000000 7.616001129150 34 34 34
26.390625000000 15.562500000000 7.556995391846 16 16 16
26.375000000000 15.578125000000 7.493999481201 91 91 91
26.343750000000 15.875000000000 8.102001190186 61 61 61
26.328125000000 15.890625000000 7.857997894287 73 73 73
26.343750000000 15.875000000000 7.804996490479 93 93 93
26.343750000000 15.875000000000 7.518001556396 112 112 112
26.312500000000 16.203125000000 8.237995147705 51 51 51
26.296875000000 16.203125000000 7.822002410889 123 123 123
26.328125000000 16.187500000000 7.545001983643 79 79 79
26.250000000000 16.531250000000 8.368000030518 10 10 10
26.265625000000 16.515625000000 7.840999603271 129 129 129
26.296875000000 16.500000000000 7.507999420166 51 51 51
26.250000000000 16.812500000000 8.453998565674 64 64 64
26.250000000000 16.812500000000 7.861995697021 114 114 114
26.265625000000 16.812500000000 7.809001922607 46 46 46
26.265625000000 16.812500000000 7.522998809814 91 91 91
26.203125000000 17.125000000000 8.590000152588 37 37 37
26.234375000000 17.109375000000 7.884998321533 62 62 62
26.234375000000 17.109375000000 7.828998565674 104 104 104
26.203125000000 17.421875000000 8.683002471924 70 70 70
26.187500000000 17.421875000000 7.850002288818 120 120 120
26.250000000000 17.375000000000 7.818996429443 18 18 18
26.140625000000 17.734375000000 8.826000213623 53 53 53
26.171875000000 17.718750000000 7.879001617432 93 93 93
26.171875000000 17.718750000000 7.826999664307 28 28 28
26.078125000000 18.078125000000 9.247997283936 151 151 151
26.078125000000 18.062500000000 9.190998077393 174 174 174
26.078125000000 18.078125000000 9.124996185303 175 175 175
26.078125000000 18.078125000000 9.062000274658 173 173 173
26.078125000000 18.062500000000 9.004001617432 169 169 169
26.078125000000 18.078125000000 8.938999176025 166 166 166
26.078125000000 18.078125000000 8.876995086670 149 149 149
26.078125000000 18.062500000000 8.820995330811 148 148 148
26.078125000000 18.078125000000 8.755001068115 135 135 135
26.078125000000 18.062500000000 8.698001861572 138 138 138
26.078125000000 18.062500000000 8.636997222900 132 132 132
26.078125000000 18.078125000000 8.575000762939 128 128 128
26.062500000000 18.078125000000 8.512996673584 129 129 129
26.062500000000 18.062500000000 8.453998565674 129 129 129
26.078125000000 18.078125000000 8.396999359131 129 129 129
26.078125000000 18.078125000000 8.340000152588 127 127 127
26.078125000000 18.062500000000 8.281002044678 124 124 124
26.078125000000 18.062500000000 8.223995208740 127 127 127
26.078125000000 18.078125000000 8.162998199463 116 116 116
26.078125000000 18.062500000000 8.110996246338 119 119 119
26.078125000000 18.062500000000 8.051998138428 110 110 110
26.078125000000 18.062500000000 7.993999481201 117 117 117
26.078125000000 18.078125000000 7.933002471924 109 109 109
26.078125000000 18.078125000000 7.874996185303 103 103 103
26.109375000000 18.062500000000 7.830997467041 137 137 137
26.078125000000 18.062500000000 7.764995574951 107 107 107
26.078125000000 18.062500000000 7.708995819092 59 59 59
26.078125000000 18.062500000000 7.651996612549 25 25 25
26.078125000000 18.062500000000 7.594997406006 11 11 11
26.093750000000 18.062500000000 7.545001983643 8 8 8
26.734375000000 10.750000000000 6.621997833252 188 188 188
26.765625000000 10.750000000000 6.673999786377 186 186 186
26.765625000000 10.750000000000 6.726001739502 190 190 190
26.765625000000 10.750000000000 6.777996063232 172 172 172
26.765625000000 10.750000000000 6.829998016357 175 175 175
26.765625000000 10.750000000000 6.881999969482 181 181 181
26.765625000000 10.750000000000 6.933002471924 183 183 183
26.765625000000 10.750000000000 6.983997344971 183 183 183
26.765625000000 10.750000000000 7.035999298096 182 182 182
26.765625000000 10.750000000000 7.090999603271 180 180 180
26.765625000000 10.750000000000 7.140995025635 183 183 183
26.765625000000 10.750000000000 7.194995880127 185 185 185
26.765625000000 10.750000000000 7.246997833252 181 181 181
26.781250000000 10.750000000000 7.302997589111 184 184 184
26.765625000000 10.750000000000 7.354000091553 169 169 169
26.765625000000 10.750000000000 7.407001495361 178 178 178
26.765625000000 10.750000000000 7.463001251221 185 185 185
26.765625000000 10.750000000000 7.512996673584 190 190 190
26.765625000000 10.750000000000 7.569995880127 188 188 188
26.765625000000 10.750000000000 7.624996185303 188 188 188
26.765625000000 10.765625000000 7.679996490479 188 188 188
26.765625000000 10.750000000000 7.730998992920 178 178 178
26.734375000000 10.750000000000 7.773998260498 122 122 122
26.765625000000 10.765625000000 8.294002532959 157 157 157
26.765625000000 10.765625000000 8.352001190186 174 174 174
26.765625000000 10.765625000000 8.406002044678 180 180 180
26.765625000000 10.765625000000 8.465999603271 179 179 179
26.765625000000 10.765625000000 8.524997711182 184 184 184
26.765625000000 10.765625000000 8.584995269775 181 181 181
26.765625000000 10.765625000000 8.645000457764 185 185 185
26.765625000000 10.765625000000 8.702999114990 180 180 180
26.765625000000 10.765625000000 8.759998321533 149 149 149
26.765625000000 10.765625000000 8.820995330811 175 175 175
26.796875000000 10.765625000000 8.881999969482 171 171 171
26.765625000000 10.765625000000 8.940998077393 171 171 171
26.796875000000 10.765625000000 9.004001617432 173 173 173
26.796875000000 10.765625000000 9.064998626709 166 166 166
26.796875000000 10.765625000000 9.128002166748 163 163 163
26.796875000000 10.765625000000 9.188999176025 168 168 168
26.796875000000 10.765625000000 9.247997283936 172 172 172
26.765625000000 10.781250000000 9.306995391846 42 42 42
26.703125000000 10.734375000000 4.595996856689 12 12 12
26.703125000000 10.750000000000 4.644001007080 25 25 25
26.703125000000 10.750000000000 4.692996978760 47 47 47
26.703125000000 10.734375000000 4.742000579834 71 71 71
26.703125000000 10.750000000000 4.790996551514 85 85 85
26.703125000000 10.750000000000 4.839000701904 90 90 90
26.703125000000 10.750000000000 4.887996673584 99 99 99
26.703125000000 10.750000000000 4.937000274658 94 94 94
26.703125000000 10.750000000000 4.984996795654 98 98 98
26.734375000000 10.750000000000 5.082996368408 109 109 109
26.703125000000 10.750000000000 5.131999969482 117 117 117
26.734375000000 10.750000000000 5.180995941162 129 129 129
26.750000000000 10.750000000000 5.229999542236 132 132 132
26.703125000000 10.750000000000 5.277996063232 126 126 126
26.734375000000 10.750000000000 5.326999664307 136 136 136
26.734375000000 10.750000000000 5.375995635986 137 137 137
26.734375000000 10.750000000000 5.424999237061 139 139 139
26.734375000000 10.750000000000 5.473995208740 144 144 144
26.703125000000 10.750000000000 5.521999359131 63 63 63
26.734375000000 10.750000000000 6.216999053955 116 116 116
26.734375000000 10.750000000000 6.267002105713 173 173 173
26.765625000000 10.750000000000 6.318996429443 174 174 174
26.734375000000 10.750000000000 6.368999481201 181 181 181
26.734375000000 10.750000000000 6.420001983643 186 186 186
26.765625000000 10.750000000000 6.470996856689 183 183 183
26.765625000000 10.750000000000 6.520999908447 167 167 167
26.765625000000 10.750000000000 6.573001861572 181 181 181
26.750000000000 10.765625000000 7.838001251221 157 157 157
26.765625000000 10.750000000000 7.895999908447 110 110 110
26.781250000000 10.750000000000 8.126995086670 45 45 45
26.796875000000 10.765625000000 8.185001373291 88 88 88
26.765625000000 10.765625000000 8.235996246338 129 129 129
26.781250000000 11.015625000000 3.375999450684 108 108 108
26.796875000000 11.031250000000 3.424999237061 87 87 87
26.781250000000 11.015625000000 3.476997375488 72 72 72
26.781250000000 11.031250000000 3.528999328613 29 29 29
26.781250000000 11.015625000000 3.578998565674 12 12 12
26.765625000000 11.046875000000 7.769001007080 150 150 150
26.796875000000 11.062500000000 8.689998626709 83 83 83
26.781250000000 11.343750000000 7.742000579834 88 88 88
26.750000000000 11.343750000000 7.789997100830 115 115 115
26.781250000000 11.343750000000 8.590999603271 90 90 90
26.734375000000 11.640625000000 7.756999969482 150 150 150
26.703125000000 11.656250000000 7.804996490479 10 10 10
26.734375000000 11.640625000000 8.485996246338 43 43 43
26.718750000000 11.921875000000 7.468997955322 110 110 110
26.718750000000 11.921875000000 7.733997344971 83 83 83
26.703125000000 11.921875000000 7.783000946045 131 131 131
26.718750000000 11.937500000000 8.399997711182 12 12 12
26.703125000000 12.203125000000 7.443996429443 88 88 88
26.687500000000 12.218750000000 7.756000518799 158 158 158
26.703125000000 12.218750000000 7.817996978760 12 12 12
26.703125000000 12.218750000000 8.264995574951 23 23 23
26.671875000000 12.500000000000 7.465999603271 112 112 112
26.671875000000 12.500000000000 7.732997894287 71 71 71
26.640625000000 12.500000000000 7.778995513916 148 148 148
26.687500000000 12.500000000000 8.178997039795 73 73 73
26.640625000000 12.796875000000 7.434001922607 38 38 38
26.640625000000 12.796875000000 7.485996246338 51 51 51
26.625000000000 12.796875000000 7.744998931885 128 128 128
26.593750000000 12.796875000000 7.791996002197 89 89 89
26.625000000000 12.796875000000 8.075000762939 64 64 64
26.609375000000 13.093750000000 7.445995330811 111 111 111
26.593750000000 13.093750000000 7.755001068115 161 161 161
26.578125000000 13.093750000000 7.808002471924 9 9 9
26.625000000000 13.093750000000 7.983997344971 68 68 68
26.593750000000 13.375000000000 7.466999053955 166 166 166
26.609375000000 13.375000000000 7.521999359131 194 194 194
26.609375000000 13.375000000000 7.577999114990 198 198 198
26.625000000000 13.375000000000 7.633998870850 200 200 200
26.625000000000 13.375000000000 7.688999176025 155 155 155
26.578125000000 13.375000000000 7.727001190186 97 97 97
26.546875000000 13.375000000000 7.772998809814 131 131 131
26.578125000000 13.390625000000 7.888996124268 85 85 85
26.562500000000 13.671875000000 7.437000274658 90 90 90
26.562500000000 13.671875000000 7.490001678467 209 209 209
26.578125000000 13.671875000000 7.545001983643 104 104 104
26.578125000000 13.671875000000 7.598995208740 202 202 202
26.578125000000 13.671875000000 7.653995513916 210 210 210
26.578125000000 13.671875000000 7.703998565674 92 92 92
26.546875000000 13.656250000000 7.746997833252 137 137 137
26.531250000000 13.671875000000 7.797000885010 76 76 76
26.546875000000 13.953125000000 7.459995269775 157 157 157
26.546875000000 13.953125000000 7.512996673584 205 205 205
26.546875000000 13.953125000000 7.565998077393 204 204 204
26.546875000000 13.953125000000 7.619998931885 196 196 196
26.546875000000 13.953125000000 7.671001434326 192 192 192
26.546875000000 13.968750000000 7.722995758057 6 6 6
26.515625000000 13.968750000000 7.762996673584 146 146 146
26.531250000000 14.250000000000 7.429996490479 40 40 40
26.531250000000 14.250000000000 7.480998992920 194 194 194
26.531250000000 14.250000000000 7.534000396729 193 193 193
26.531250000000 14.250000000000 7.588001251221 192 192 192
26.531250000000 14.250000000000 7.638996124268 196 196 196
26.515625000000 14.250000000000 7.689998626709 144 144 144
26.515625000000 14.250000000000 7.741001129150 65 65 65
26.468750000000 14.250000000000 7.782001495361 132 132 132
26.484375000000 14.546875000000 7.447002410889 101 101 101
26.484375000000 14.546875000000 7.497997283936 206 206 206
26.484375000000 14.546875000000 7.549999237061 211 211 211
26.484375000000 14.546875000000 7.602001190186 213 213 213
26.484375000000 14.562500000000 7.652996063232 207 207 207
26.484375000000 14.562500000000 7.705997467041 94 94 94
26.453125000000 14.546875000000 7.749996185303 130 130 130
26.437500000000 14.546875000000 7.798000335693 94 94 94
26.468750000000 14.843750000000 7.461002349854 144 144 144
26.468750000000 14.843750000000 7.510997772217 204 204 204
26.468750000000 14.843750000000 7.563999176025 202 202 202
26.468750000000 14.843750000000 7.616001129150 201 201 201
26.468750000000 14.843750000000 7.672000885010 199 199 199
26.484375000000 14.843750000000 7.729999542236 11 11 11
26.437500000000 14.843750000000 7.763996124268 144 144 144
26.437500000000 14.843750000000 7.815998077393 20 20 20
26.421875000000 15.125000000000 7.477001190186 182 182 182
26.421875000000 15.125000000000 7.529994964600 195 195 195
26.421875000000 15.125000000000 7.580997467041 176 176 176
26.453125000000 15.125000000000 7.636997222900 176 176 176
26.421875000000 15.125000000000 7.685001373291 168 168 168
26.421875000000 15.125000000000 7.739002227783 29 29 29
26.390625000000 15.125000000000 7.779994964600 147 147 147
26.406250000000 15.406250000000 7.448001861572 73 73 73
26.406250000000 15.406250000000 7.495998382568 203 203 203
26.406250000000 15.406250000000 7.548000335693 196 196 196
26.406250000000 15.406250000000 7.601001739502 211 211 211
26.406250000000 15.406250000000 7.653995513916 211 211 211
26.421875000000 15.421875000000 7.709995269775 96 96 96
26.390625000000 15.421875000000 7.751995086670 98 98 98
26.375000000000 15.421875000000 7.798000335693 114 114 114
26.406250000000 15.421875000000 7.912998199463 74 74 74
26.375000000000 15.718750000000 7.455997467041 90 90 90
26.359375000000 15.703125000000 7.765995025635 132 132 132
26.328125000000 15.718750000000 7.809001922607 68 68 68
26.375000000000 15.718750000000 7.982997894287 12 12 12
26.359375000000 15.703125000000 8.029994964600 34 34 34
26.328125000000 16.000000000000 7.477001190186 118 118 118
26.312500000000 16.000000000000 7.778995513916 149 149 149
26.296875000000 16.000000000000 7.828998565674 9 9 9
26.328125000000 16.015625000000 8.104000091553 49 49 49
26.312500000000 16.296875000000 7.491001129150 102 102 102
26.343750000000 16.296875000000 7.756999969482 29 29 29
26.281250000000 16.296875000000 7.790996551514 149 149 149
26.312500000000 16.296875000000 8.227001190186 75 75 75
26.296875000000 16.593750000000 7.456996917725 36 36 36
26.296875000000 16.593750000000 7.507999420166 30 30 30
26.296875000000 16.593750000000 7.761997222900 80 80 80
26.265625000000 16.593750000000 7.806995391846 127 127 127
26.265625000000 16.593750000000 8.343997955322 65 65 65
26.265625000000 16.890625000000 7.469997406006 72 72 72
26.250000000000 16.875000000000 7.775997161865 121 121 121
26.250000000000 16.890625000000 7.824001312256 103 103 103
26.265625000000 16.890625000000 8.422000885010 28 28 28
26.250000000000 16.890625000000 8.470996856689 19 19 19
26.234375000000 17.171875000000 7.795001983643 140 140 140
26.203125000000 17.171875000000 7.834995269775 50 50 50
26.250000000000 17.171875000000 8.548000335693 78 78 78
26.187500000000 17.468750000000 7.805995941162 140 140 140
26.187500000000 17.468750000000 8.665996551514 83 83 83
26.203125000000 17.750000000000 7.784999847412 21 21 21
26.156250000000 17.750000000000 7.822002410889 124 124 124
26.171875000000 17.765625000000 8.800998687744 69 69 69
26.140625000000 18.046875000000 7.177997589111 16 16 16
26.156250000000 18.046875000000 7.230998992920 37 37 37
26.140625000000 18.046875000000 7.276996612549 52 52 52
26.140625000000 18.046875000000 7.328998565674 67 67 67
26.140625000000 18.046875000000 7.378002166748 81 81 81
26.140625000000 18.046875000000 7.425998687744 90 90 90
26.109375000000 18.046875000000 7.471996307373 97 97 97
26.125000000000 18.031250000000 7.523998260498 104 104 104
26.125000000000 18.031250000000 7.574001312256 108 108 108
26.140625000000 18.046875000000 7.629001617432 119 119 119
26.109375000000 18.046875000000 7.673999786377 114 114 114
26.109375000000 18.046875000000 7.720996856689 124 124 124
26.109375000000 18.046875000000 7.775997161865 141 141 141
26.078125000000 18.046875000000 7.814998626709 127 127 127
26.078125000000 18.062500000000 7.864002227783 115 115 115
26.093750000000 18.046875000000 7.923999786377 128 128 128
26.109375000000 18.046875000000 7.981998443604 136 136 136
26.093750000000 18.046875000000 8.027996063232 136 136 136
26.093750000000 18.046875000000 8.079998016357 142 142 142
26.093750000000 18.046875000000 8.135997772217 144 144 144
26.109375000000 18.062500000000 8.189998626709 144 144 144
26.109375000000 18.062500000000 8.243999481201 155 155 155
26.093750000000 18.046875000000 8.294002532959 156 156 156
26.093750000000 18.046875000000 8.344997406006 157 157 157
26.093750000000 18.046875000000 8.400997161865 152 152 152
26.093750000000 18.062500000000 8.451000213623 163 163 163
26.093750000000 18.046875000000 8.506999969482 162 162 162
26.093750000000 18.046875000000 8.562999725342 165 165 165
26.093750000000 18.046875000000 8.618000030518 157 157 157
26.078125000000 18.062500000000 8.670001983643 160 160 160
26.078125000000 18.062500000000 8.726001739502 164 164 164
26.093750000000 18.062500000000 8.784000396729 169 169 169
26.078125000000 18.062500000000 8.836002349854 152 152 152
26.078125000000 18.062500000000 8.887996673584 170 170 170
26.078125000000 18.062500000000 8.951999664307 173 173 173
26.078125000000 18.062500000000 9.006000518799 169 169 169
26.078125000000 18.062500000000 9.064998626709 169 169 169
26.078125000000 18.062500000000 9.119998931885 170 170 170
26.093750000000 18.062500000000 9.184001922607 151 151 151
26.062500000000 18.062500000000 9.231998443604 31 31 31
26.125000000000 18.312500000000 3.062999725342 44 44 44
26.140625000000 18.312500000000 3.105998992920 54 54 54
26.156250000000 18.312500000000 3.152000427246 67 67 67
26.125000000000 18.312500000000 3.203998565674 97 97 97
26.140625000000 18.312500000000 3.250000000000 79 79 79
26.234375000000 18.281250000000 7.536998748779 13 13 13
26.234375000000 18.281250000000 7.480998992920 37 37 37
26.234375000000 18.296875000000 7.423000335693 54 54 54
26.234375000000 18.296875000000 7.368999481201 68 68 68
26.203125000000 18.296875000000 7.310001373291 88 88 88
26.203125000000 18.296875000000 7.255001068115 103 103 103
26.203125000000 18.296875000000 7.201000213623 116 116 116
26.218750000000 18.281250000000 7.148998260498 131 131 131
26.203125000000 18.296875000000 7.092998504639 138 138 138
26.203125000000 18.296875000000 7.038997650146 138 138 138
26.187500000000 18.296875000000 6.984996795654 139 139 139
26.203125000000 18.296875000000 6.933002471924 144 144 144
26.203125000000 18.296875000000 6.879001617432 148 148 148
26.203125000000 18.296875000000 6.826999664307 149 149 149
26.187500000000 18.296875000000 6.770000457764 151 151 151
26.187500000000 18.296875000000 6.717998504639 158 158 158
26.187500000000 18.296875000000 6.664997100830 164 164 164
26.187500000000 18.296875000000 6.612995147705 162 162 162
26.203125000000 18.281250000000 6.561000823975 160 160 160
26.203125000000 18.281250000000 6.509998321533 160 160 160
26.203125000000 18.281250000000 6.457996368408 158 158 158
26.187500000000 18.296875000000 6.403995513916 161 161 161
26.187500000000 18.296875000000 6.351001739502 172 172 172
26.187500000000 18.296875000000 6.299999237061 171 171 171
26.171875000000 18.296875000000 6.245998382568 181 181 181
26.171875000000 18.296875000000 6.194995880127 193 193 193
26.171875000000 18.296875000000 6.143001556396 194 194 194
26.171875000000 18.296875000000 6.091999053955 197 197 197
26.171875000000 18.296875000000 6.040996551514 201 201 201
26.171875000000 18.296875000000 5.989002227783 204 204 204
26.171875000000 18.296875000000 5.937000274658 201 201 201
26.171875000000 18.296875000000 5.884998321533 200 200 200
26.171875000000 18.296875000000 5.836002349854 201 201 201
26.171875000000 18.296875000000 5.784000396729 202 202 202
26.156250000000 18.312500000000 5.730998992920 205 205 205
26.171875000000 18.296875000000 5.681995391846 206 206 206
26.171875000000 18.296875000000 5.630001068115 207 207 207
26.156250000000 18.296875000000 5.578998565674 205 205 205
26.156250000000 18.312500000000 5.527996063232 202 202 202
26.156250000000 18.296875000000 5.477001190186 207 207 207
26.156250000000 18.296875000000 5.426998138428 207 207 207
26.156250000000 18.296875000000 5.375995635986 209 209 209
26.156250000000 18.296875000000 5.325000762939 208 208 208
26.156250000000 18.296875000000 5.274997711182 208 208 208
26.156250000000 18.312500000000 5.223995208740 208 208 208
26.156250000000 18.312500000000 5.173000335693 202 202 202
26.156250000000 18.312500000000 5.122997283936 211 211 211
26.140625000000 18.296875000000 5.072002410889 209 209 209
26.156250000000 18.312500000000 5.020999908447 213 213 213
26.140625000000 18.296875000000 4.970996856689 211 211 211
26.140625000000 18.296875000000 4.920001983643 213 213 213
26.140625000000 18.312500000000 4.869998931885 210 210 210
26.140625000000 18.312500000000 4.819995880127 214 214 214
26.140625000000 18.296875000000 4.769001007080 219 219 219
26.140625000000 18.312500000000 4.717998504639 211 211 211
26.140625000000 18.312500000000 4.667995452881 207 207 207
26.140625000000 18.312500000000 4.618000030518 210 210 210
26.140625000000 18.312500000000 4.566997528076 210 210 210
26.140625000000 18.296875000000 4.515995025635 204 204 204
26.140625000000 18.312500000000 4.465999603271 209 209 209
26.140625000000 18.312500000000 4.414997100830 211 211 211
26.140625000000 18.312500000000 4.364002227783 209 209 209
26.140625000000 18.312500000000 4.313999176025 212 212 212
26.125000000000 18.312500000000 4.262996673584 207 207 207
26.125000000000 18.312500000000 4.212001800537 203 203 203
26.125000000000 18.312500000000 4.161998748779 208 208 208
26.140625000000 18.296875000000 4.109996795654 199 199 199
26.125000000000 18.312500000000 4.060001373291 203 203 203
26.125000000000 18.312500000000 4.009998321533 202 202 202
26.125000000000 18.312500000000 3.956996917725 198 198 198
26.125000000000 18.312500000000 3.906997680664 199 199 199
26.140625000000 18.296875000000 3.854000091553 197 197 197
26.125000000000 18.312500000000 3.803997039795 193 193 193
26.125000000000 18.312500000000 3.753997802734 192 192 192
26.109375000000 18.312500000000 3.703998565674 194 194 194
26.125000000000 18.312500000000 3.650997161865 195 195 195
26.125000000000 18.312500000000 3.598999023438 191 191 191
26.125000000000 18.312500000000 3.546997070313 185 185 185
26.125000000000 18.312500000000 3.494998931885 190 190 190
26.109375000000 18.312500000000 3.444999694824 190 190 190
26.125000000000 18.312500000000 3.390998840332 190 190 190
26.109375000000 18.312500000000 3.340999603271 189 189 189
26.125000000000 18.312500000000 3.286998748779 189 189 189
26.109375000000 18.312500000000 3.236000061035 189 189 189
26.125000000000 18.312500000000 3.181999206543 190 190 190
26.109375000000 18.296875000000 3.129997253418 186 186 186
26.109375000000 18.312500000000 3.077999114990 185 185 185
26.109375000000 18.312500000000 3.024997711182 184 184 184
26.109375000000 18.312500000000 2.973999023438 181 181 181
26.125000000000 18.312500000000 2.916000366211 177 177 177
26.109375000000 18.296875000000 2.863998413086 179 179 179
26.125000000000 18.296875000000 2.808998107910 179 179 179
26.109375000000 18.296875000000 2.756000518799 177 177 177
26.109375000000 18.296875000000 2.701999664307 172 172 172
26.109375000000 18.312500000000 2.650997161865 168 168 168
26.125000000000 18.156250000000 9.076000213623 127 127 127
26.125000000000 18.140625000000 9.020999908447 172 172 172
26.125000000000 18.140625000000 8.957996368408 164 164 164
26.140625000000 18.125000000000 8.904994964600 160 160 160
26.125000000000 18.125000000000 8.840000152588 153 153 153
26.140625000000 18.140625000000 8.782001495361 154 154 154
26.125000000000 18.140625000000 8.716999053955 122 122 122
26.140625000000 18.140625000000 8.663997650146 147 147 147
26.125000000000 18.140625000000 8.596996307373 134 134 134
26.125000000000 18.125000000000 8.544002532959 129 129 129
26.125000000000 18.140625000000 8.481998443604 116 116 116
26.125000000000 18.140625000000 8.423000335693 122 122 122
26.125000000000 18.125000000000 8.367000579834 112 112 112
26.125000000000 18.125000000000 8.312000274658 113 113 113
26.125000000000 18.125000000000 8.251995086670 107 107 107
26.140625000000 18.125000000000 8.200000762939 105 105 105
26.125000000000 18.125000000000 8.140995025635 107 107 107
26.140625000000 18.125000000000 8.084995269775 86 86 86
26.140625000000 18.125000000000 8.032001495361 65 65 65
26.125000000000 18.125000000000 7.968997955322 50 50 50
26.140625000000 18.125000000000 7.915996551514 25 25 25
26.125000000000 18.125000000000 7.856998443604 10 10 10
26.109375000000 18.140625000000 7.737995147705 48 48 48
26.109375000000 18.140625000000 7.683002471924 107 107 107
26.203125000000 18.093750000000 7.662998199463 103 103 103
26.171875000000 17.921875000000 8.697002410889 65 65 65
26.218750000000 17.890625000000 8.658000946045 31 31 31
26.203125000000 17.875000000000 7.681995391846 117 117 117
26.203125000000 17.687500000000 8.615001678467 68 68 68
26.203125000000 17.687500000000 7.700000762939 105 105 105
26.250000000000 17.671875000000 7.656002044678 19 19 19
26.234375000000 17.484375000000 8.525997161865 63 63 63
26.218750000000 17.484375000000 7.720996856689 10 10 10
26.218750000000 17.484375000000 7.667995452881 126 126 126
26.281250000000 17.234375000000 8.397998809814 37 37 37
26.265625000000 17.250000000000 7.705997467041 67 67 67
26.281250000000 17.250000000000 7.652996063232 110 110 110
26.296875000000 17.015625000000 8.318996429443 71 71 71
26.281250000000 17.015625000000 7.687000274658 117 117 117
26.281250000000 17.015625000000 7.631000518799 72 72 72
26.296875000000 16.984375000000 7.587001800537 28 28 28
26.296875000000 16.984375000000 7.533000946045 58 58 58
26.296875000000 16.984375000000 7.477001190186 78 78 78
26.281250000000 17.000000000000 7.415996551514 90 90 90
26.296875000000 17.000000000000 7.364002227783 111 111 111
26.312500000000 16.781250000000 8.235996246338 29 29 29
26.296875000000 16.796875000000 7.662998199463 129 129 129
26.328125000000 16.765625000000 7.341999053955 62 62 62
26.328125000000 16.593750000000 8.189998626709 74 74 74
26.296875000000 16.593750000000 7.676998138428 132 132 132
26.343750000000 16.578125000000 7.633998870850 19 19 19
26.343750000000 16.562500000000 7.359996795654 113 113 113
26.359375000000 16.375000000000 8.102001190186 66 66 66
26.328125000000 16.390625000000 7.700000762939 66 66 66
26.343750000000 16.375000000000 7.648998260498 113 113 113
26.359375000000 16.375000000000 7.376995086670 74 74 74
26.359375000000 16.156250000000 8.021999359131 65 65 65
26.328125000000 16.156250000000 7.676998138428 109 109 109
26.359375000000 16.156250000000 7.626995086670 77 77 77
26.390625000000 16.140625000000 7.360996246338 105 105 105
26.375000000000 15.906250000000 7.955997467041 6 6 6
26.375000000000 15.921875000000 7.895000457764 11 11 11
26.359375000000 15.921875000000 7.667995452881 128 128 128
26.390625000000 15.906250000000 7.625995635986 42 42 42
26.390625000000 15.906250000000 7.347995758057 113 113 113
26.390625000000 15.703125000000 7.871997833252 11 11 11
26.390625000000 15.687500000000 7.652996063232 130 130 130
26.390625000000 15.687500000000 7.380001068115 24 24 24
26.390625000000 15.687500000000 7.324001312256 47 47 47
26.421875000000 15.484375000000 7.787998199463 73 73 73
26.406250000000 15.500000000000 7.669002532959 126 126 126
26.421875000000 15.484375000000 7.622997283936 36 36 36
26.453125000000 15.468750000000 7.576999664307 168 168 168
26.453125000000 15.468750000000 7.520000457764 190 190 190
26.453125000000 15.468750000000 7.463001251221 188 188 188
26.437500000000 15.468750000000 7.403995513916 209 209 209
26.421875000000 15.484375000000 7.345996856689 138 138 138
26.406250000000 15.296875000000 7.743000030518 16 16 16
26.406250000000 15.296875000000 7.687000274658 107 107 107
26.437500000000 15.281250000000 7.636997222900 128 128 128
26.453125000000 15.281250000000 7.589000701904 119 119 119
26.468750000000 15.281250000000 7.536998748779 179 179 179
26.453125000000 15.281250000000 7.476001739502 154 154 154
26.453125000000 15.265625000000 7.423000335693 193 193 193
26.453125000000 15.281250000000 7.367000579834 195 195 195
26.437500000000 15.093750000000 7.659000396729 131 131 131
26.484375000000 15.062500000000 7.616001129150 17 17 17
26.484375000000 15.062500000000 7.563999176025 184 184 184
26.500000000000 15.046875000000 7.510997772217 187 187 187
26.484375000000 15.046875000000 7.452999114990 175 175 175
26.484375000000 15.062500000000 7.395999908447 211 211 211
26.484375000000 15.062500000000 7.338001251221 132 132 132
26.468750000000 14.843750000000 7.647998809814 137 137 137
26.515625000000 14.812500000000 7.550998687744 201 201 201
26.515625000000 14.812500000000 7.493000030518 205 205 205
26.515625000000 14.812500000000 7.437999725342 197 197 197
26.515625000000 14.812500000000 7.381999969482 218 218 218
26.500000000000 14.828125000000 7.323001861572 101 101 101
26.484375000000 14.609375000000 7.695995330811 19 19 19
26.484375000000 14.593750000000 7.640995025635 126 126 126
26.531250000000 14.578125000000 7.597995758057 35 35 35
26.531250000000 14.578125000000 7.542995452881 203 203 203
26.531250000000 14.578125000000 7.486995697021 203 203 203
26.531250000000 14.578125000000 7.429996490479 179 179 179
26.531250000000 14.593750000000 7.373996734619 210 210 210
26.531250000000 14.578125000000 7.320995330811 62 62 62
26.500000000000 14.375000000000 7.678997039795 99 99 99
26.515625000000 14.375000000000 7.628002166748 89 89 89
26.546875000000 14.375000000000 7.578998565674 123 123 123
26.546875000000 14.375000000000 7.522998809814 194 194 194
26.546875000000 14.375000000000 7.467998504639 190 190 190
26.546875000000 14.359375000000 7.412998199463 150 150 150
26.546875000000 14.359375000000 7.357997894287 187 187 187
26.515625000000 14.187500000000 7.645999908447 133 133 133
26.562500000000 14.156250000000 7.603000640869 30 30 30
26.562500000000 14.156250000000 7.548999786377 213 213 213
26.562500000000 14.156250000000 7.492000579834 202 202 202
26.562500000000 14.156250000000 7.434001922607 173 173 173
26.562500000000 14.156250000000 7.381999969482 214 214 214
26.562500000000 14.156250000000 7.326000213623 68 68 68
26.546875000000 13.968750000000 7.664997100830 125 125 125
26.562500000000 13.968750000000 7.618999481201 29 29 29
26.562500000000 13.953125000000 7.566997528076 164 164 164
26.593750000000 13.937500000000 7.514995574951 180 180 180
26.593750000000 13.937500000000 7.458995819092 177 177 177
26.562500000000 13.953125000000 7.398998260498 205 205 205
26.562500000000 13.953125000000 7.342998504639 138 138 138
26.609375000000 13.734375000000 7.709995269775 57 57 57
26.578125000000 13.765625000000 7.637996673584 123 123 123
26.609375000000 13.750000000000 7.596996307373 77 77 77
26.609375000000 13.734375000000 7.542995452881 214 214 214
26.609375000000 13.750000000000 7.483997344971 192 192 192
26.609375000000 13.734375000000 7.430995941162 149 149 149
26.609375000000 13.734375000000 7.372997283936 204 204 204
26.609375000000 13.750000000000 7.316997528076 26 26 26
26.609375000000 13.531250000000 7.743999481201 28 28 28
26.593750000000 13.531250000000 7.680995941162 70 70 70
26.593750000000 13.515625000000 7.630001068115 102 102 102
26.640625000000 13.500000000000 7.583995819092 88 88 88
26.640625000000 13.500000000000 7.528995513916 214 214 214
26.640625000000 13.500000000000 7.471996307373 207 207 207
26.640625000000 13.500000000000 7.416996002197 209 209 209
26.640625000000 13.500000000000 7.359996795654 192 192 192
26.640625000000 13.281250000000 7.847995758057 75 75 75
26.593750000000 13.312500000000 7.665996551514 114 114 114
26.609375000000 13.296875000000 7.618999481201 65 65 65
26.640625000000 13.281250000000 7.344997406006 127 127 127
26.656250000000 13.062500000000 7.937999725342 34 34 34
26.625000000000 13.078125000000 7.703998565674 4 4 4
26.640625000000 13.062500000000 7.650997161865 125 125 125
26.656250000000 13.062500000000 7.378002166748 37 37 37
26.640625000000 12.875000000000 8.009998321533 12 12 12
26.640625000000 12.875000000000 7.664997100830 130 130 130
26.625000000000 12.890625000000 7.604000091553 66 66 66
26.687500000000 12.843750000000 7.341999053955 97 97 97
26.687500000000 12.656250000000 8.033000946045 29 29 29
26.640625000000 12.687500000000 7.677997589111 106 106 106
26.687500000000 12.656250000000 7.631999969482 73 73 73
26.687500000000 12.656250000000 7.355998992920 123 123 123
26.703125000000 12.437500000000 8.120998382568 79 79 79
26.687500000000 12.453125000000 7.653995513916 131 131 131
26.703125000000 12.437500000000 7.329998016357 54 54 54
26.718750000000 12.218750000000 8.222995758057 21 21 21
26.703125000000 12.218750000000 7.695995330811 14 14 14
26.703125000000 12.218750000000 7.644001007080 130 130 130
26.750000000000 12.203125000000 7.374996185303 72 72 72
26.765625000000 11.968750000000 8.273998260498 59 59 59
26.718750000000 11.984375000000 7.684001922607 89 89 89
26.734375000000 11.984375000000 7.632999420166 93 93 93
26.781250000000 11.953125000000 7.365001678467 117 117 117
26.781250000000 11.750000000000 8.361995697021 73 73 73
26.734375000000 11.765625000000 7.657001495361 133 133 133
26.781250000000 11.562500000000 8.426998138428 91 91 91
26.703125000000 11.593750000000 7.709995269775 17 17 17
26.750000000000 11.593750000000 7.659999847412 131 131 131
26.796875000000 11.375000000000 8.495998382568 106 106 106
26.796875000000 11.375000000000 7.681995391846 159 159 159
26.796875000000 11.375000000000 7.628002166748 7 7 7
26.828125000000 11.156250000000 8.592998504639 45 45 45
26.812500000000 11.156250000000 7.651996612549 128 128 128
26.859375000000 10.906250000000 9.213001251221 55 55 55
26.890625000000 10.906250000000 9.151996612549 173 173 173
26.859375000000 10.906250000000 9.086002349854 174 174 174
26.859375000000 10.906250000000 9.022998809814 158 158 158
26.859375000000 10.906250000000 8.961002349854 154 154 154
26.875000000000 10.906250000000 8.899997711182 147 147 147
26.875000000000 10.906250000000 8.839000701904 133 133 133
26.875000000000 10.906250000000 8.776996612549 127 127 127
26.890625000000 10.906250000000 8.716999053955 126 126 126
26.812500000000 10.937500000000 8.624996185303 110 110 110
26.890625000000 10.906250000000 8.601001739502 132 132 132
26.890625000000 10.890625000000 8.542995452881 113 113 113
26.906250000000 10.890625000000 8.484996795654 98 98 98
26.890625000000 10.890625000000 8.421001434326 90 90 90
26.890625000000 10.890625000000 8.364002227783 86 86 86
26.906250000000 10.890625000000 8.304996490479 89 89 89
26.890625000000 10.890625000000 8.243000030518 81 81 81
26.890625000000 10.890625000000 8.184001922607 69 69 69
26.890625000000 10.875000000000 8.126995086670 66 66 66
26.890625000000 10.890625000000 8.067996978760 68 68 68
26.890625000000 10.906250000000 8.005001068115 78 78 78
26.890625000000 10.890625000000 7.951000213623 69 69 69
26.890625000000 10.890625000000 7.892002105713 67 67 67
26.890625000000 10.906250000000 7.831996917725 56 56 56
26.906250000000 10.890625000000 7.782001495361 45 45 45
26.765625000000 10.937500000000 7.686000823975 94 94 94
26.843750000000 10.906250000000 7.648998260498 122 122 122
26.937500000000 10.859375000000 7.621997833252 41 41 41
26.765625000000 10.921875000000 3.931995391846 180 180 180
26.765625000000 10.921875000000 3.878997802734 240 240 240
26.750000000000 10.921875000000 3.826999664307 240 240 240
26.750000000000 10.921875000000 3.774997711182 238 238 238
26.750000000000 10.921875000000 3.722999572754 235 235 235
26.750000000000 10.921875000000 3.668998718262 236 236 236
26.750000000000 10.921875000000 3.617000579834 221 221 221
26.765625000000 10.921875000000 3.562000274658 227 227 227
26.734375000000 10.921875000000 3.511997222900 230 230 230
26.750000000000 10.921875000000 3.458000183105 230 230 230
26.734375000000 10.921875000000 3.405998229980 239 239 239
26.734375000000 10.921875000000 3.351997375488 223 223 223
26.734375000000 10.921875000000 3.298999786377 237 237 237
26.718750000000 10.937500000000 3.247997283936 228 228 228
26.765625000000 10.703125000000 6.097995758057 10 10 10
26.796875000000 10.703125000000 6.047000885010 13 13 13
26.796875000000 10.703125000000 5.994998931885 20 20 20
26.796875000000 10.687500000000 5.942996978760 36 36 36
26.796875000000 10.703125000000 5.889995574951 61 61 61
26.796875000000 10.687500000000 5.838001251221 61 61 61
26.781250000000 10.703125000000 5.784999847412 71 71 71
26.781250000000 10.703125000000 5.732997894287 100 100 100
26.765625000000 10.703125000000 5.679996490479 103 103 103
26.765625000000 10.703125000000 5.628002166748 120 120 120
26.765625000000 10.703125000000 5.576999664307 126 126 126
26.765625000000 10.703125000000 5.524997711182 124 124 124
26.765625000000 10.703125000000 5.472995758057 130 130 130
26.765625000000 10.703125000000 5.421001434326 128 128 128
26.765625000000 10.703125000000 5.368999481201 144 144 144
26.765625000000 10.703125000000 5.317996978760 149 149 149
26.750000000000 10.718750000000 5.265995025635 154 154 154
26.750000000000 10.718750000000 5.214000701904 157 157 157
26.750000000000 10.718750000000 5.162998199463 158 158 158
26.750000000000 10.718750000000 5.110996246338 152 152 152
26.750000000000 10.718750000000 5.060001373291 162 162 162
26.750000000000 10.718750000000 5.007999420166 163 163 163
26.750000000000 10.718750000000 4.956996917725 169 169 169
26.734375000000 10.718750000000 4.904994964600 172 172 172
26.734375000000 10.718750000000 4.854000091553 173 173 173
26.750000000000 10.718750000000 4.801998138428 171 171 171
26.734375000000 10.718750000000 4.750995635986 171 171 171
26.734375000000 10.718750000000 4.699001312256 173 173 173
26.734375000000 10.718750000000 4.647998809814 177 177 177
26.734375000000 10.718750000000 4.595996856689 175 175 175
26.734375000000 10.718750000000 4.545001983643 173 173 173
26.734375000000 10.718750000000 4.493000030518 171 171 171
26.734375000000 10.718750000000 4.440998077393 170 170 170
26.734375000000 10.718750000000 4.389995574951 165 165 165
26.734375000000 10.718750000000 4.338001251221 162 162 162
26.734375000000 10.718750000000 4.286998748779 158 158 158
26.734375000000 10.718750000000 4.234996795654 160 160 160
26.734375000000 10.718750000000 4.183002471924 149 149 149
26.734375000000 10.718750000000 4.131000518799 141 141 141
26.734375000000 10.718750000000 4.078998565674 143 143 143
26.734375000000 10.718750000000 4.026996612549 133 133 133
26.734375000000 10.718750000000 3.973995208740 133 133 133
26.703125000000 10.734375000000 3.927997589111 201 201 201
26.671875000000 10.734375000000 3.877998352051 239 239 239
26.656250000000 10.750000000000 3.827999114990 235 235 235
26.671875000000 10.734375000000 3.774997711182 236 236 236
26.671875000000 10.734375000000 3.722999572754 236 236 236
26.656250000000 10.734375000000 3.670997619629 231 231 231
26.671875000000 10.734375000000 3.617000579834 227 227 227
26.656250000000 10.734375000000 3.566997528076 229 229 229
26.656250000000 10.750000000000 3.514999389648 230 230 230
26.656250000000 10.734375000000 3.461997985840 234 234 234
26.656250000000 10.750000000000 3.410999298096 237 237 237
26.656250000000 10.734375000000 3.355998992920 236 236 236
26.656250000000 10.750000000000 3.305000305176 235 235 235
26.656250000000 10.750000000000 3.252998352051 233 233 233
26.703125000000 10.718750000000 3.187999725342 148 148 148
26.703125000000 10.718750000000 3.133998870850 138 138 138
26.703125000000 10.718750000000 3.080997467041 147 147 147
26.703125000000 10.718750000000 3.027999877930 140 140 140
26.703125000000 10.718750000000 2.757999420166 134 134 134
26.687500000000 10.718750000000 2.704998016357 127 127 127
26.703125000000 10.718750000000 2.647998809814 133 133 133
26.687500000000 10.718750000000 2.597000122070 138 138 138
26.687500000000 10.718750000000 2.539997100830 135 135 135
26.687500000000 10.718750000000 2.486999511719 133 133 133
26.796875000000 10.656250000000 2.390998840332 32 32 32
26.593750000000 10.578125000000 3.916996002197 199 199 199
26.593750000000 10.562500000000 3.863998413086 205 205 205
26.593750000000 10.578125000000 3.813999176025 202 202 202
26.593750000000 10.562500000000 3.761997222900 202 202 202
26.578125000000 10.578125000000 3.710998535156 199 199 199
26.593750000000 10.562500000000 3.657997131348 203 203 203
26.578125000000 10.578125000000 3.607997894287 194 194 194
26.593750000000 10.562500000000 3.555000305176 194 194 194
26.578125000000 10.578125000000 3.503997802734 193 193 193
26.593750000000 10.578125000000 3.451999664307 192 192 192
26.578125000000 10.578125000000 3.399997711182 192 192 192
26.578125000000 10.578125000000 3.347999572754 187 187 187
26.578125000000 10.578125000000 3.295997619629 190 190 190
26.593750000000 10.562500000000 3.242000579834 182 182 182
26.140625000000 18.203125000000 3.273998260498 169 169 169
26.140625000000 18.203125000000 3.327999114990 173 173 173
26.125000000000 18.187500000000 3.382999420166 173 173 173
26.125000000000 18.203125000000 3.433998107910 176 176 176
26.125000000000 18.203125000000 3.488998413086 176 176 176
26.125000000000 18.187500000000 3.541999816895 183 183 183
26.125000000000 18.203125000000 3.593997955322 182 182 182
26.125000000000 18.203125000000 3.645999908447 181 181 181
26.125000000000 18.203125000000 3.698997497559 182 182 182
26.125000000000 18.203125000000 3.750999450684 184 184 184
