23.500000000000 2.625000000000 3.002999782562 151 151 151
23.500000000000 2.625000000000 2.960000038147 155 155 155
23.500000000000 2.625000000000 2.917999744415 154 154 154
23.500000000000 2.625000000000 2.875999927521 147 147 147
23.500000000000 2.625000000000 2.834000110626 149 149 149
23.500000000000 2.625000000000 2.791999816895 149 149 149
23.500000000000 2.625000000000 2.749000072479 143 143 143
23.500000000000 2.625000000000 2.706999778748 146 146 146
23.500000000000 2.625000000000 2.664999961853 145 145 145
23.500000000000 2.625000000000 2.620999813080 149 149 149
23.812500000000 2.437500000000 1.381000041962 127 127 127
23.812500000000 2.437500000000 1.324999809265 107 107 107
23.375000000000 2.750000000000 1.398999691010 130 130 130
23.375000000000 2.687500000000 1.327000141144 81 81 81
23.375000000000 2.562500000000 5.138000011444 128 128 128
23.375000000000 2.500000000000 5.110000133514 152 152 152
23.375000000000 2.562500000000 5.039000034332 127 127 127
23.750000000000 2.375000000000 5.125000000000 119 119 119
23.437500000000 2.500000000000 3.500999927521 64 64 64
23.500000000000 2.500000000000 3.460000038147 56 56 56
23.312500000000 2.625000000000 3.410999774933 131 131 131
23.375000000000 2.562500000000 3.373000144958 133 133 133
23.375000000000 2.562500000000 3.332999706268 135 135 135
23.375000000000 2.562500000000 3.292999744415 145 145 145
23.375000000000 2.562500000000 3.251999855042 142 142 142
23.375000000000 2.562500000000 3.211999893188 151 151 151
23.437500000000 2.500000000000 3.169000148773 79 79 79
23.437500000000 2.500000000000 3.127999782562 93 93 93
23.500000000000 2.500000000000 3.085999965668 97 97 97
23.500000000000 2.500000000000 3.044000148773 90 90 90
23.437500000000 2.500000000000 3.002999782562 107 107 107
23.437500000000 2.500000000000 2.961999893188 89 89 89
23.437500000000 2.500000000000 2.920000076294 118 118 118
23.500000000000 2.500000000000 2.876999855042 110 110 110
23.437500000000 2.500000000000 2.835000038147 112 112 112
23.437500000000 2.500000000000 2.794000148773 134 134 134
23.437500000000 2.500000000000 2.751999855042 115 115 115
23.437500000000 2.500000000000 2.709000110626 124 124 124
23.437500000000 2.500000000000 2.666999816895 117 117 117
23.437500000000 2.500000000000 2.627999782562 117 117 117
23.812500000000 2.312500000000 1.381000041962 134 134 134
23.812500000000 2.312500000000 1.330999851227 80 80 80
23.312500000000 2.625000000000 1.393000125885 133 133 133
23.437500000000 2.500000000000 5.135999679565 133 133 133
23.437500000000 2.437500000000 5.106999874115 140 140 140
23.437500000000 2.500000000000 5.029999732971 116 116 116
23.687500000000 2.312500000000 5.163000106812 131 131 131
23.750000000000 2.250000000000 5.123000144958 125 125 125
23.312500000000 2.500000000000 3.410999774933 132 132 132
23.375000000000 2.500000000000 3.371999740601 136 136 136
23.437500000000 2.437500000000 3.331999778748 135 135 135
23.437500000000 2.500000000000 3.291999816895 142 142 142
23.437500000000 2.437500000000 3.250999927521 145 145 145
23.437500000000 2.500000000000 3.210999965668 148 148 148
23.812500000000 2.250000000000 1.381999969482 132 132 132
23.312500000000 2.500000000000 1.393000125885 131 131 131
23.375000000000 2.375000000000 5.131999969482 124 124 124
23.687500000000 2.187500000000 5.156000137329 134 134 134
23.750000000000 2.187500000000 5.115999698639 117 117 117
23.375000000000 2.375000000000 3.409999847412 86 86 86
23.375000000000 2.375000000000 3.369999885559 93 93 93
23.375000000000 2.375000000000 3.290999889374 144 144 144
23.375000000000 2.375000000000 3.250999927521 141 141 141
23.812500000000 2.125000000000 1.383999824524 127 127 127
23.375000000000 2.375000000000 1.394000053406 139 139 139
23.375000000000 2.375000000000 1.328999996185 79 79 79
23.437500000000 2.250000000000 5.120999813080 101 101 101
23.687500000000 2.125000000000 5.148999691010 138 138 138
23.687500000000 2.062500000000 5.110000133514 85 85 85
23.375000000000 2.250000000000 3.290999889374 139 139 139
23.375000000000 2.250000000000 3.250999927521 147 147 147
23.812500000000 2.000000000000 1.380000114441 130 130 130
23.812500000000 2.000000000000 1.318999767303 96 96 96
23.312500000000 2.312500000000 1.398999691010 138 138 138
23.375000000000 2.250000000000 1.319999694824 102 102 102
23.437500000000 2.125000000000 5.119999885559 136 136 136
23.625000000000 2.000000000000 5.137000083923 141 141 141
23.625000000000 2.000000000000 5.082999706268 141 141 141
23.625000000000 2.000000000000 5.028999805450 137 137 137
23.625000000000 2.000000000000 4.980000019073 100 100 100
23.375000000000 2.187500000000 3.290999889374 135 135 135
23.375000000000 2.187500000000 3.250999927521 148 148 148
23.812500000000 1.937500000000 1.376999855042 128 128 128
23.812500000000 1.937500000000 1.319999694824 103 103 103
23.312500000000 2.187500000000 1.400000095367 144 144 144
23.437500000000 2.187500000000 1.311999797821 159 159 159
23.437500000000 2.000000000000 5.123000144958 136 136 136
23.500000000000 2.000000000000 5.089999675751 134 134 134
23.500000000000 2.000000000000 5.039999961853 134 134 134
23.500000000000 2.000000000000 5.009999752045 141 141 141
23.625000000000 1.937500000000 4.999000072479 133 133 133
23.687500000000 1.937500000000 4.962999820709 140 140 140
23.687500000000 1.937500000000 4.919000148773 153 153 153
23.687500000000 1.937500000000 4.870999813080 143 143 143
23.687500000000 1.937500000000 4.816999912262 140 140 140
23.687500000000 1.937500000000 4.768000125885 135 135 135
23.687500000000 1.937500000000 4.717000007629 123 123 123
23.687500000000 1.875000000000 4.670000076294 61 61 61
23.375000000000 2.062500000000 3.292999744415 139 139 139
23.375000000000 2.062500000000 3.252999782562 148 148 148
23.812500000000 1.875000000000 1.383999824524 132 132 132
23.812500000000 1.812500000000 1.303999900818 171 171 171
23.375000000000 2.125000000000 1.394999980927 142 142 142
23.375000000000 2.125000000000 1.317999839783 152 152 152
23.437500000000 1.937500000000 4.931999683380 109 109 109
23.500000000000 1.875000000000 4.885999679565 141 141 141
23.500000000000 1.875000000000 4.838999748230 139 139 139
23.500000000000 1.875000000000 4.788000106812 139 139 139
23.500000000000 1.875000000000 4.739999771118 140 140 140
23.562500000000 1.875000000000 4.707999706268 131 131 131
23.625000000000 1.875000000000 4.699999809265 128 128 128
23.625000000000 1.812500000000 4.660999774933 142 142 142
23.625000000000 1.812500000000 4.615999698639 148 148 148
23.687500000000 1.812500000000 4.572000026703 141 141 141
23.625000000000 1.812500000000 4.520999908447 134 134 134
23.625000000000 1.812500000000 4.470999717712 139 139 139
23.687500000000 1.812500000000 4.427999973297 125 125 125
23.687500000000 1.812500000000 4.378999710083 70 70 70
23.375000000000 2.000000000000 3.295000076294 123 123 123
23.375000000000 2.000000000000 3.255000114441 136 136 136
23.750000000000 1.750000000000 1.390999794006 131 131 131
23.812500000000 1.750000000000 1.316999912262 151 151 151
23.312500000000 2.000000000000 1.394000053406 144 144 144
23.375000000000 2.000000000000 1.329999923706 140 140 140
23.500000000000 1.812500000000 4.684999942780 54 54 54
23.500000000000 1.812500000000 4.641999721527 120 120 120
23.500000000000 1.812500000000 4.594999790192 137 137 137
23.500000000000 1.812500000000 4.548999786377 137 137 137
23.500000000000 1.812500000000 4.503999710083 137 137 137
23.500000000000 1.812500000000 4.456999778748 134 134 134
23.500000000000 1.812500000000 4.421999931335 135 135 135
23.625000000000 1.750000000000 4.409999847412 133 133 133
23.625000000000 1.750000000000 4.367000102997 139 139 139
23.625000000000 1.750000000000 4.328999996185 145 145 145
23.625000000000 1.750000000000 4.281000137329 141 141 141
23.625000000000 1.750000000000 4.236000061035 140 140 140
23.625000000000 1.750000000000 4.187999725342 140 140 140
23.625000000000 1.750000000000 4.144999980927 130 130 130
23.625000000000 1.687500000000 4.099999904633 94 94 94
23.437500000000 1.875000000000 3.296000003815 126 126 126
23.437500000000 1.875000000000 3.255000114441 134 134 134
23.812500000000 1.625000000000 1.382999897003 129 129 129
23.875000000000 1.625000000000 1.309000015259 162 162 162
23.312500000000 1.937500000000 1.400000095367 144 144 144
23.312500000000 1.937500000000 1.335000038147 136 136 136
23.500000000000 1.750000000000 4.365999698639 106 106 106
23.500000000000 1.750000000000 4.321000099182 136 136 136
23.437500000000 1.750000000000 4.272999763489 140 140 140
23.500000000000 1.750000000000 4.230999946594 139 139 139
23.500000000000 1.750000000000 4.185999870300 140 140 140
23.500000000000 1.750000000000 4.146999835968 138 138 138
23.562500000000 1.687500000000 4.118000030518 127 127 127
23.625000000000 1.625000000000 4.091000080109 137 137 137
23.687500000000 1.625000000000 4.047999858856 146 146 146
23.687500000000 1.625000000000 4.006000041962 146 146 146
23.687500000000 1.625000000000 3.960999965668 140 140 140
23.687500000000 1.625000000000 3.915999889374 137 137 137
23.687500000000 1.625000000000 3.870999813080 136 136 136
23.687500000000 1.625000000000 3.827000141144 112 112 112
23.687500000000 1.625000000000 3.782000064850 39 39 39
23.437500000000 1.750000000000 3.296000003815 131 131 131
23.437500000000 1.750000000000 3.256000041962 134 134 134
23.812500000000 1.562500000000 1.389999866486 137 137 137
23.812500000000 1.562500000000 1.329999923706 144 144 144
23.375000000000 1.812500000000 1.400000095367 141 141 141
23.375000000000 1.812500000000 1.335999965668 138 138 138
23.437500000000 1.625000000000 4.095999717712 72 72 72
23.437500000000 1.625000000000 4.053999900818 121 121 121
23.437500000000 1.625000000000 4.009999752045 137 137 137
23.437500000000 1.625000000000 3.968999862671 140 140 140
23.437500000000 1.625000000000 3.923999786377 144 144 144
23.437500000000 1.625000000000 3.881999969482 139 139 139
23.500000000000 1.625000000000 3.843999862671 135 135 135
23.562500000000 1.562500000000 3.814000129700 129 129 129
23.625000000000 1.562500000000 3.776999950409 136 136 136
23.625000000000 1.500000000000 3.736000061035 144 144 144
23.625000000000 1.500000000000 3.692999839783 139 139 139
23.625000000000 1.500000000000 3.648999691010 139 139 139
23.625000000000 1.500000000000 3.605000019073 140 140 140
23.625000000000 1.500000000000 3.560999870300 131 131 131
23.625000000000 1.500000000000 3.516999721527 99 99 99
23.437500000000 1.625000000000 3.296999931335 126 126 126
23.437500000000 1.625000000000 3.256000041962 133 133 133
23.750000000000 1.500000000000 1.400000095367 142 142 142
23.750000000000 1.500000000000 1.343999862671 135 135 135
23.312500000000 1.750000000000 1.397999763489 142 142 142
23.312500000000 1.750000000000 1.339999675751 138 138 138
23.500000000000 1.562500000000 3.796999931335 74 74 74
23.500000000000 1.562500000000 3.753999710083 121 121 121
23.500000000000 1.500000000000 3.712999820709 143 143 143
23.500000000000 1.562500000000 3.671000003815 138 138 138
23.500000000000 1.562500000000 3.628999710083 138 138 138
23.500000000000 1.500000000000 3.587999820709 139 139 139
23.500000000000 1.500000000000 3.547999858856 129 129 129
23.562500000000 1.500000000000 3.512000083923 127 127 127
23.625000000000 1.437500000000 3.472000122070 137 137 137
23.625000000000 1.437500000000 3.429999828339 140 140 140
23.625000000000 1.437500000000 3.385999679565 139 139 139
23.625000000000 1.437500000000 3.342000007629 137 137 137
23.437500000000 1.562500000000 3.296999931335 132 132 132
23.437500000000 1.562500000000 3.256000041962 135 135 135
23.625000000000 1.437500000000 3.210000038147 63 63 63
23.812500000000 1.375000000000 1.401000022888 140 140 140
23.812500000000 1.375000000000 1.350999832153 136 136 136
23.312500000000 1.625000000000 1.403999805450 142 142 142
23.312500000000 1.625000000000 1.338999748230 140 140 140
23.437500000000 1.437500000000 3.502999782562 71 71 71
23.437500000000 1.437500000000 3.461999893188 118 118 118
23.437500000000 1.437500000000 3.421000003815 137 137 137
23.437500000000 1.437500000000 3.378999710083 137 137 137
23.500000000000 1.437500000000 3.337999820709 139 139 139
23.437500000000 1.500000000000 3.296000003815 136 136 136
23.500000000000 1.437500000000 3.255000114441 146 146 146
23.562500000000 1.375000000000 3.211999893188 129 129 129
23.687500000000 1.375000000000 3.166999816895 140 140 140
23.687500000000 1.375000000000 3.123000144958 144 144 144
23.687500000000 1.312500000000 3.078000068665 138 138 138
23.687500000000 1.375000000000 3.034999847412 137 137 137
23.687500000000 1.375000000000 2.990999698639 139 139 139
23.687500000000 1.375000000000 2.947000026703 110 110 110
23.750000000000 1.250000000000 1.407000064850 144 144 144
23.750000000000 1.250000000000 1.362999916077 134 134 134
23.312500000000 1.500000000000 1.404999732971 144 144 144
23.375000000000 1.500000000000 1.329999923706 148 148 148
23.437500000000 1.375000000000 3.212999820709 68 68 68
23.437500000000 1.375000000000 3.171000003815 110 110 110
23.437500000000 1.375000000000 3.128999710083 140 140 140
23.437500000000 1.375000000000 3.087999820709 140 140 140
23.437500000000 1.375000000000 3.046000003815 139 139 139
23.437500000000 1.375000000000 3.005000114441 139 139 139
23.500000000000 1.312500000000 2.960999965668 137 137 137
23.562500000000 1.312500000000 2.913000106812 134 134 134
23.625000000000 1.250000000000 2.858999729156 138 138 138
23.625000000000 1.250000000000 2.814000129700 138 138 138
23.625000000000 1.250000000000 2.769000053406 138 138 138
23.625000000000 1.250000000000 2.724999904633 141 141 141
23.687500000000 1.250000000000 2.677000045776 127 127 127
23.625000000000 1.250000000000 2.634999752045 85 85 85
23.750000000000 1.187500000000 1.401999950409 145 145 145
23.750000000000 1.187500000000 1.368999958038 138 138 138
23.312500000000 1.437500000000 1.395999908447 139 139 139
23.500000000000 1.250000000000 2.921999931335 69 69 69
23.500000000000 1.250000000000 2.878999710083 110 110 110
23.500000000000 1.250000000000 2.837999820709 142 142 142
23.500000000000 1.250000000000 2.794000148773 146 146 146
23.500000000000 1.250000000000 2.753999710083 145 145 145
23.500000000000 1.250000000000 2.709000110626 146 146 146
23.500000000000 1.250000000000 2.661999702454 137 137 137
23.562500000000 1.125000000000 2.598000049591 142 142 142
23.625000000000 1.125000000000 2.546000003815 145 145 145
23.625000000000 1.125000000000 2.500000000000 143 143 143
23.625000000000 1.125000000000 2.452000141144 142 142 142
23.625000000000 1.125000000000 2.407999992371 136 136 136
23.625000000000 1.125000000000 2.361000061035 96 96 96
23.812500000000 1.062500000000 1.409999847412 110 110 110
23.687500000000 1.125000000000 1.376999855042 138 138 138
23.437500000000 1.312500000000 1.398999691010 90 90 90
23.312500000000 1.312500000000 1.369999885559 129 129 129
23.437500000000 1.125000000000 3.087999820709 84 84 84
23.500000000000 1.125000000000 3.044000148773 120 120 120
23.500000000000 1.125000000000 3.000000000000 116 116 116
23.500000000000 1.125000000000 2.956999778748 122 122 122
23.500000000000 1.125000000000 2.914999961853 121 121 121
23.500000000000 1.125000000000 2.870999813080 124 124 124
23.500000000000 1.125000000000 2.835000038147 137 137 137
23.500000000000 1.125000000000 2.790999889374 127 127 127
23.562500000000 1.125000000000 2.738999843597 126 126 126
23.562500000000 1.062500000000 2.692999839783 126 126 126
23.562500000000 1.062500000000 2.648999691010 146 146 146
23.500000000000 1.125000000000 2.614999771118 141 141 141
23.437500000000 1.125000000000 2.585000038147 105 105 105
23.437500000000 1.125000000000 2.540999889374 136 136 136
23.437500000000 1.125000000000 2.494999885559 139 139 139
23.437500000000 1.125000000000 2.453000068665 136 136 136
23.437500000000 1.125000000000 2.408999919891 139 139 139
23.500000000000 1.125000000000 2.352999687195 138 138 138
23.687500000000 1.062500000000 2.269999980927 137 137 137
23.687500000000 1.062500000000 2.223999977112 138 138 138
23.687500000000 1.000000000000 2.172999858856 142 142 142
23.687500000000 1.000000000000 2.125999927521 139 139 139
23.687500000000 1.000000000000 2.078000068665 114 114 114
23.687500000000 1.000000000000 1.388000011444 140 140 140
23.375000000000 1.187500000000 1.406000137329 138 138 138
23.437500000000 1.187500000000 1.345999717712 127 127 127
23.312500000000 1.125000000000 3.058000087738 121 121 121
23.312500000000 1.125000000000 3.016999721527 119 119 119
23.312500000000 1.125000000000 2.974999904633 115 115 115
23.312500000000 1.125000000000 2.934999942780 117 117 117
23.375000000000 1.125000000000 2.893000125885 120 120 120
23.312500000000 1.125000000000 2.858999729156 127 127 127
23.312500000000 1.125000000000 2.817999839783 117 117 117
23.375000000000 1.125000000000 2.768000125885 118 118 118
23.375000000000 1.125000000000 2.724999904633 120 120 120
23.375000000000 1.062500000000 2.681999683380 121 121 121
23.375000000000 1.062500000000 2.638999938965 121 121 121
23.375000000000 1.125000000000 2.602999687195 131 131 131
23.437500000000 1.062500000000 2.322999954224 80 80 80
23.437500000000 1.000000000000 2.275000095367 148 148 148
23.437500000000 1.062500000000 2.231999874115 135 135 135
23.437500000000 1.062500000000 2.189000129700 139 139 139
23.437500000000 1.062500000000 2.140999794006 134 134 134
23.500000000000 1.000000000000 2.085000038147 139 139 139
23.562500000000 1.000000000000 2.016999721527 138 138 138
23.625000000000 0.937500000000 1.935999870300 143 143 143
23.625000000000 0.937500000000 1.881999969482 141 141 141
23.625000000000 0.937500000000 1.829999923706 134 134 134
23.687500000000 0.937500000000 1.775000095367 112 112 112
23.687500000000 0.937500000000 1.396999835968 142 142 142
23.375000000000 1.125000000000 1.408999919891 138 138 138
23.125000000000 1.125000000000 3.072999954224 114 114 114
23.125000000000 1.125000000000 3.032999992371 118 118 118
23.187500000000 1.125000000000 2.994999885559 116 116 116
23.187500000000 1.125000000000 2.955999851227 113 113 113
23.187500000000 1.125000000000 2.916999816895 116 116 116
23.187500000000 1.125000000000 2.877999782562 116 116 116
23.125000000000 1.125000000000 2.848999977112 125 125 125
23.187500000000 1.125000000000 2.802000045776 117 117 117
23.187500000000 1.125000000000 2.757999897003 119 119 119
23.187500000000 1.062500000000 2.716000080109 114 114 114
23.250000000000 1.125000000000 2.676000118256 120 120 120
23.250000000000 1.062500000000 2.635999679565 120 120 120
23.187500000000 1.062500000000 2.599999904633 139 139 139
23.500000000000 0.937500000000 2.003999710083 127 127 127
23.500000000000 0.937500000000 1.953999996185 141 141 141
23.500000000000 0.937500000000 1.907000064850 134 134 134
23.500000000000 0.937500000000 1.858999729156 136 136 136
23.500000000000 0.937500000000 1.804999828339 134 134 134
23.562500000000 0.937500000000 1.735000133514 133 133 133
23.625000000000 0.875000000000 1.634999752045 134 134 134
23.625000000000 0.875000000000 1.578000068665 145 145 145
23.625000000000 0.812500000000 1.514999866486 150 150 150
23.625000000000 0.812500000000 1.404999732971 147 147 147
23.437500000000 1.000000000000 1.397999763489 128 128 128
23.062500000000 1.062500000000 2.635999679565 67 67 67
23.062500000000 1.062500000000 2.595999717712 49 49 49
23.500000000000 0.875000000000 1.700999736786 190 190 190
23.437500000000 0.875000000000 1.666999816895 136 136 136
23.437500000000 0.875000000000 1.621999740601 131 131 131
23.437500000000 0.875000000000 1.566999912262 129 129 129
23.500000000000 0.875000000000 1.505000114441 129 129 129
23.562500000000 0.812500000000 1.395999908447 143 143 143
23.437500000000 0.875000000000 1.376999855042 124 124 124
23.437500000000 0.750000000000 1.413000106812 138 138 138
23.437500000000 0.812500000000 1.539999961853 88 88 88
23.437500000000 0.812500000000 1.480000019073 142 142 142
23.437500000000 0.812500000000 1.434999942780 126 126 126
23.437500000000 0.812500000000 1.384999752045 131 131 131
23.062500000000 1.125000000000 2.680999755859 83 83 83
23.062500000000 1.125000000000 2.641999721527 97 97 97
23.062500000000 1.125000000000 2.605000019073 108 108 108
23.062500000000 1.062500000000 2.561999797821 93 93 93
23.500000000000 0.875000000000 1.719999790192 189 189 189
23.500000000000 0.875000000000 1.684999942780 139 139 139
23.500000000000 0.875000000000 1.634999752045 135 135 135
23.500000000000 0.875000000000 1.587999820709 131 131 131
23.500000000000 0.875000000000 1.516999721527 134 134 134
23.562500000000 0.812500000000 1.407000064850 132 132 132
23.125000000000 1.125000000000 3.045000076294 50 50 50
23.125000000000 1.125000000000 3.008999824524 130 130 130
23.125000000000 1.125000000000 2.972000122070 136 136 136
23.125000000000 1.125000000000 2.929999828339 118 118 118
23.187500000000 1.125000000000 2.890999794006 114 114 114
23.187500000000 1.125000000000 2.849999904633 115 115 115
23.125000000000 1.125000000000 2.819999694824 128 128 128
23.125000000000 1.125000000000 2.782000064850 117 117 117
23.187500000000 1.125000000000 2.731999874115 118 118 118
23.187500000000 1.125000000000 2.691999912262 117 117 117
23.187500000000 1.125000000000 2.650000095367 116 116 116
23.250000000000 1.125000000000 2.608999729156 118 118 118
23.250000000000 1.125000000000 2.567999839783 134 134 134
23.500000000000 1.000000000000 2.025000095367 47 47 47
23.500000000000 0.937500000000 1.970999717712 121 121 121
23.500000000000 0.937500000000 1.926000118256 141 141 141
23.500000000000 1.000000000000 1.880000114441 139 139 139
23.500000000000 1.000000000000 1.831999778748 134 134 134
23.500000000000 0.937500000000 1.775000095367 135 135 135
23.562500000000 0.937500000000 1.702000141144 131 131 131
23.625000000000 0.875000000000 1.600999832153 137 137 137
23.625000000000 0.875000000000 1.546000003815 143 143 143
23.625000000000 0.875000000000 1.482999801636 153 153 153
23.625000000000 0.875000000000 1.377999782562 138 138 138
23.437500000000 1.000000000000 1.370999813080 129 129 129
23.250000000000 1.125000000000 3.033999919891 120 120 120
23.312500000000 1.125000000000 2.992000102997 113 113 113
23.312500000000 1.125000000000 2.953000068665 113 113 113
23.312500000000 1.125000000000 2.911999702454 118 118 118
23.312500000000 1.125000000000 2.870999813080 118 118 118
23.312500000000 1.125000000000 2.828000068665 119 119 119
23.312500000000 1.125000000000 2.796000003815 123 123 123
23.312500000000 1.125000000000 2.744999885559 120 120 120
23.312500000000 1.125000000000 2.703999996185 122 122 122
23.375000000000 1.125000000000 2.659999847412 121 121 121
23.375000000000 1.125000000000 2.618999958038 121 121 121
23.375000000000 1.125000000000 2.575999736786 128 128 128
23.437500000000 1.062500000000 2.250000000000 60 60 60
23.437500000000 1.062500000000 2.203999996185 119 119 119
23.437500000000 1.062500000000 2.157000064850 137 137 137
23.437500000000 1.062500000000 2.111000061035 131 131 131
23.437500000000 1.062500000000 2.065999984741 139 139 139
23.437500000000 1.000000000000 2.013999938965 133 133 133
23.562500000000 1.000000000000 1.944999694824 139 139 139
23.625000000000 0.937500000000 1.855000019073 137 137 137
23.625000000000 0.937500000000 1.803999900818 136 136 136
23.625000000000 0.937500000000 1.750999927521 132 132 132
23.625000000000 0.937500000000 1.699999809265 104 104 104
23.687500000000 0.937500000000 1.368000030518 138 138 138
23.375000000000 1.125000000000 1.374000072479 134 134 134
23.437500000000 1.125000000000 3.021999835968 120 120 120
23.437500000000 1.125000000000 2.980000019073 115 115 115
23.437500000000 1.125000000000 2.937999725342 115 115 115
23.437500000000 1.125000000000 2.894999980927 115 115 115
23.437500000000 1.125000000000 2.851999759674 119 119 119
23.375000000000 1.125000000000 2.818999767303 124 124 124
23.437500000000 1.125000000000 2.768000125885 119 119 119
23.500000000000 1.125000000000 2.720999717712 121 121 121
23.500000000000 1.125000000000 2.678999900818 117 117 117
23.500000000000 1.125000000000 2.631999969482 148 148 148
23.500000000000 1.125000000000 2.588999748230 124 124 124
23.437500000000 1.125000000000 2.469999790192 74 74 74
23.437500000000 1.125000000000 2.423999786377 123 123 123
23.437500000000 1.125000000000 2.380000114441 135 135 135
23.437500000000 1.125000000000 2.338999748230 134 134 134
23.437500000000 1.125000000000 2.291999816895 135 135 135
23.500000000000 1.125000000000 2.239999771118 136 136 136
23.500000000000 1.062500000000 2.177000045776 144 144 144
23.687500000000 1.000000000000 2.097000122070 143 143 143
23.687500000000 1.000000000000 2.051000118256 138 138 138
23.687500000000 1.000000000000 1.999000072479 141 141 141
23.687500000000 1.000000000000 1.940000057220 182 182 182
23.687500000000 1.000000000000 1.900000095367 35 35 35
23.687500000000 1.000000000000 1.357999801636 140 140 140
23.437500000000 1.187500000000 1.367000102997 137 137 137
23.500000000000 1.125000000000 3.056999683380 69 69 69
23.562500000000 1.125000000000 3.010999679565 135 135 135
23.562500000000 1.125000000000 2.967000007629 140 140 140
23.562500000000 1.125000000000 2.923999786377 145 145 145
23.562500000000 1.125000000000 2.880000114441 147 147 147
23.562500000000 1.125000000000 2.836999893188 140 140 140
23.500000000000 1.187500000000 2.803999900818 146 146 146
23.437500000000 1.250000000000 2.772999763489 123 123 123
23.562500000000 1.125000000000 2.707999706268 151 151 151
23.500000000000 1.187500000000 2.673999786377 147 147 147
23.500000000000 1.187500000000 2.639999866486 142 142 142
23.500000000000 1.187500000000 2.597000122070 140 140 140
23.500000000000 1.250000000000 2.555999755859 138 138 138
23.500000000000 1.187500000000 2.508999824524 138 138 138
23.500000000000 1.187500000000 2.460000038147 136 136 136
23.562500000000 1.125000000000 2.391999721527 137 137 137
23.625000000000 1.125000000000 2.331999778748 141 141 141
23.625000000000 1.125000000000 2.284999847412 141 141 141
23.625000000000 1.125000000000 2.238999843597 140 140 140
23.625000000000 1.125000000000 2.192999839783 122 122 122
23.625000000000 1.125000000000 2.144000053406 67 67 67
23.687500000000 1.062500000000 1.355999946594 140 140 140
23.437500000000 1.250000000000 1.355999946594 142 142 142
23.500000000000 1.312500000000 2.934999942780 76 76 76
23.500000000000 1.250000000000 2.891999721527 128 128 128
23.500000000000 1.250000000000 2.850999832153 139 139 139
23.500000000000 1.250000000000 2.808000087738 140 140 140
23.500000000000 1.250000000000 2.765999794006 142 142 142
23.500000000000 1.250000000000 2.723999977112 139 139 139
23.562500000000 1.250000000000 2.671000003815 140 140 140
23.625000000000 1.187500000000 2.606999874115 138 138 138
23.625000000000 1.187500000000 2.559999942780 142 142 142
23.625000000000 1.187500000000 2.513999938965 143 143 143
23.625000000000 1.187500000000 2.467999935150 143 143 143
23.625000000000 1.187500000000 2.421999931335 123 123 123
23.625000000000 1.187500000000 2.376999855042 77 77 77
23.750000000000 1.125000000000 1.377999782562 96 96 96
23.312500000000 1.375000000000 1.350999832153 132 132 132
23.375000000000 1.375000000000 3.266999721527 45 45 45
23.437500000000 1.375000000000 3.184000015259 50 50 50
23.437500000000 1.375000000000 3.143000125885 107 107 107
23.437500000000 1.375000000000 3.100999832153 135 135 135
23.437500000000 1.375000000000 3.059000015259 142 142 142
23.437500000000 1.375000000000 3.018000125885 138 138 138
23.437500000000 1.375000000000 2.975999832153 139 139 139
23.562500000000 1.375000000000 2.930999755859 134 134 134
23.625000000000 1.312500000000 2.881000041962 134 134 134
23.625000000000 1.250000000000 2.828999996185 141 141 141
23.687500000000 1.250000000000 2.782999992371 140 140 140
23.687500000000 1.250000000000 2.738999843597 138 138 138
23.687500000000 1.250000000000 2.694999694824 144 144 144
23.687500000000 1.250000000000 2.648999691010 119 119 119
23.687500000000 1.250000000000 2.604000091553 67 67 67
23.750000000000 1.187500000000 1.368000030518 152 152 152
23.312500000000 1.500000000000 1.365999698639 149 149 149
23.437500000000 1.437500000000 3.390999794006 94 94 94
23.437500000000 1.437500000000 3.349999904633 134 134 134
23.437500000000 1.437500000000 3.308000087738 137 137 137
23.437500000000 1.437500000000 3.266999721527 132 132 132
23.437500000000 1.437500000000 3.224999904633 145 145 145
23.500000000000 1.437500000000 3.183000087738 137 137 137
23.500000000000 1.375000000000 3.140999794006 130 130 130
23.687500000000 1.375000000000 3.093999862671 136 136 136
23.687500000000 1.375000000000 3.048999786377 143 143 143
23.687500000000 1.312500000000 3.005000114441 138 138 138
23.687500000000 1.375000000000 2.960999965668 136 136 136
23.687500000000 1.312500000000 2.915999889374 138 138 138
23.687500000000 1.312500000000 2.871999740601 115 115 115
23.687500000000 1.312500000000 2.827000141144 41 41 41
23.812500000000 1.312500000000 1.373000144958 141 141 141
23.375000000000 1.562500000000 1.367000102997 141 141 141
23.500000000000 1.500000000000 3.639999866486 64 64 64
23.500000000000 1.500000000000 3.598999977112 111 111 111
23.500000000000 1.500000000000 3.558000087738 141 141 141
23.500000000000 1.500000000000 3.515999794006 140 140 140
23.500000000000 1.500000000000 3.474999904633 137 137 137
23.500000000000 1.500000000000 3.433000087738 138 138 138
23.500000000000 1.500000000000 3.393000125885 131 131 131
23.562500000000 1.437500000000 3.354000091553 127 127 127
23.625000000000 1.375000000000 3.311999797821 137 137 137
23.437500000000 1.562500000000 3.265999794006 131 131 131
23.500000000000 1.500000000000 3.224999904633 138 138 138
23.625000000000 1.437500000000 3.179999828339 137 137 137
23.625000000000 1.375000000000 3.135999679565 133 133 133
23.625000000000 1.437500000000 3.092999935150 102 102 102
23.812500000000 1.375000000000 1.368999958038 141 141 141
23.312500000000 1.625000000000 1.367000102997 140 140 140
23.500000000000 1.562500000000 3.852999687195 97 97 97
23.500000000000 1.562500000000 3.811999797821 140 140 140
23.500000000000 1.562500000000 3.768000125885 138 138 138
23.500000000000 1.562500000000 3.726999759674 146 146 146
23.500000000000 1.562500000000 3.684999942780 141 141 141
23.500000000000 1.562500000000 3.644000053406 133 133 133
23.562500000000 1.562500000000 3.605999946594 130 130 130
23.625000000000 1.500000000000 3.572999954224 133 133 133
23.625000000000 1.500000000000 3.529999732971 142 142 142
23.625000000000 1.500000000000 3.486999988556 145 145 145
23.625000000000 1.500000000000 3.441999912262 137 137 137
23.625000000000 1.500000000000 3.398999691010 139 139 139
23.687500000000 1.500000000000 3.355000019073 132 132 132
23.625000000000 1.500000000000 3.310999870300 96 96 96
23.437500000000 1.625000000000 3.265999794006 127 127 127
23.500000000000 1.625000000000 3.224999904633 136 136 136
23.750000000000 1.437500000000 1.363999843597 139 139 139
23.312500000000 1.687500000000 1.368999958038 143 143 143
23.312500000000 1.687500000000 1.303999900818 137 137 137
23.437500000000 1.625000000000 4.112999916077 65 65 65
23.437500000000 1.625000000000 4.068999767303 127 127 127
23.437500000000 1.625000000000 4.026999950409 138 138 138
23.437500000000 1.625000000000 3.981999874115 139 139 139
23.437500000000 1.625000000000 3.939000129700 140 140 140
23.437500000000 1.625000000000 3.897999763489 143 143 143
23.562500000000 1.625000000000 3.861000061035 137 137 137
23.625000000000 1.625000000000 3.831999778748 130 130 130
23.625000000000 1.562500000000 3.795000076294 145 145 145
23.687500000000 1.562500000000 3.750999927521 145 145 145
23.687500000000 1.562500000000 3.706999778748 140 140 140
23.687500000000 1.562500000000 3.663000106812 140 140 140
23.687500000000 1.562500000000 3.618999958038 142 142 142
23.687500000000 1.562500000000 3.573999881744 122 122 122
23.687500000000 1.562500000000 3.529999732971 77 77 77
23.437500000000 1.687500000000 3.263999938965 128 128 128
23.437500000000 1.687500000000 3.223999977112 139 139 139
23.812500000000 1.500000000000 1.354000091553 139 139 139
23.312500000000 1.750000000000 1.364999771118 142 142 142
23.375000000000 1.750000000000 1.297999858856 139 139 139
23.500000000000 1.750000000000 4.335000038147 81 81 81
23.500000000000 1.750000000000 4.292999744415 134 134 134
23.500000000000 1.750000000000 4.246999740601 141 141 141
23.437500000000 1.750000000000 4.198999881744 139 139 139
23.500000000000 1.750000000000 4.157000064850 139 139 139
23.500000000000 1.750000000000 4.115999698639 136 136 136
23.500000000000 1.687500000000 4.082999706268 132 132 132
23.687500000000 1.625000000000 4.061999797821 137 137 137
23.687500000000 1.625000000000 4.019999980927 145 145 145
23.687500000000 1.625000000000 3.975999832153 148 148 148
23.687500000000 1.625000000000 3.930999755859 136 136 136
23.687500000000 1.625000000000 3.884999752045 136 136 136
23.687500000000 1.625000000000 3.842999935150 140 140 140
23.687500000000 1.625000000000 3.796999931335 113 113 113
23.437500000000 1.812500000000 3.263999938965 130 130 130
23.437500000000 1.750000000000 3.223000049591 133 133 133
23.812500000000 1.625000000000 1.348000049591 131 131 131
23.375000000000 1.875000000000 1.369999885559 138 138 138
23.375000000000 1.875000000000 1.291999816895 146 146 146
23.500000000000 1.812500000000 4.566999912262 89 89 89
23.500000000000 1.812500000000 4.523999691010 132 132 132
23.500000000000 1.812500000000 4.475999832153 135 135 135
23.500000000000 1.812500000000 4.431999683380 135 135 135
23.500000000000 1.812500000000 4.382999897003 144 144 144
23.500000000000 1.812500000000 4.342999935150 132 132 132
23.562500000000 1.750000000000 4.322999954224 125 125 125
23.625000000000 1.750000000000 4.292999744415 136 136 136
23.625000000000 1.750000000000 4.251999855042 147 147 147
23.625000000000 1.750000000000 4.204999923706 143 143 143
23.625000000000 1.750000000000 4.158999919891 140 140 140
23.625000000000 1.687500000000 4.115999698639 141 141 141
23.625000000000 1.750000000000 4.066999912262 132 132 132
23.625000000000 1.687500000000 4.022999763489 101 101 101
23.437500000000 1.875000000000 3.263000011444 129 129 129
23.437500000000 1.875000000000 3.223000049591 133 133 133
23.812500000000 1.625000000000 1.347000122070 122 122 122
23.312500000000 1.937500000000 1.365999698639 141 141 141
23.375000000000 1.937500000000 1.283999919891 156 156 156
23.500000000000 1.875000000000 4.809999942780 86 86 86
23.500000000000 1.875000000000 4.762000083923 131 131 131
23.500000000000 1.875000000000 4.713999748230 138 138 138
23.500000000000 1.875000000000 4.663000106812 135 135 135
23.500000000000 1.875000000000 4.618999958038 139 139 139
23.500000000000 1.875000000000 4.577000141144 137 137 137
23.562500000000 1.812500000000 4.560999870300 125 125 125
23.625000000000 1.812500000000 4.535999774933 139 139 139
23.625000000000 1.812500000000 4.490999698639 146 146 146
23.687500000000 1.812500000000 4.446000099182 139 139 139
23.687500000000 1.812500000000 4.397999763489 138 138 138
23.625000000000 1.812500000000 4.348999977112 136 136 136
23.687500000000 1.812500000000 4.303999900818 136 136 136
23.687500000000 1.812500000000 4.256000041962 89 89 89
23.375000000000 2.000000000000 3.263000011444 126 126 126
23.375000000000 2.000000000000 3.222000122070 133 133 133
23.812500000000 1.750000000000 1.350999832153 129 129 129
23.312500000000 2.000000000000 1.365999698639 140 140 140
23.375000000000 2.000000000000 1.281999826431 166 166 166
23.437500000000 2.000000000000 5.013000011444 113 113 113
23.500000000000 2.000000000000 4.967999935150 139 139 139
23.500000000000 2.000000000000 4.920000076294 139 139 139
23.500000000000 2.000000000000 4.868999958038 137 137 137
23.500000000000 2.000000000000 4.818999767303 137 137 137
23.562500000000 1.937500000000 4.798999786377 131 131 131
23.625000000000 1.875000000000 4.777999877930 134 134 134
23.687500000000 1.875000000000 4.739999771118 145 145 145
23.687500000000 1.875000000000 4.690999984741 142 142 142
23.687500000000 1.875000000000 4.645999908447 137 137 137
23.687500000000 1.875000000000 4.592999935150 136 136 136
23.687500000000 1.875000000000 4.545000076294 136 136 136
23.687500000000 1.875000000000 4.496999740601 100 100 100
23.375000000000 2.062500000000 3.262000083923 119 119 119
23.375000000000 2.062500000000 3.222000122070 140 140 140
23.812500000000 1.812500000000 1.347000122070 135 135 135
23.375000000000 2.125000000000 1.361000061035 143 143 143
23.375000000000 2.062500000000 1.284999847412 149 149 149
23.437500000000 2.062500000000 5.092000007629 133 133 133
23.500000000000 2.062500000000 5.069999694824 132 132 132
23.500000000000 2.000000000000 5.039999961853 129 129 129
23.562500000000 2.000000000000 5.032000064850 129 129 129
23.687500000000 2.000000000000 4.993000030518 143 143 143
23.687500000000 1.937500000000 4.948999881744 150 150 150
23.687500000000 1.937500000000 4.895999908447 140 140 140
23.687500000000 1.937500000000 4.847000122070 140 140 140
23.687500000000 1.937500000000 4.795000076294 137 137 137
23.687500000000 1.937500000000 4.743000030518 105 105 105
23.375000000000 2.125000000000 3.262000083923 133 133 133
23.437500000000 2.125000000000 3.222000122070 154 154 154
23.812500000000 1.875000000000 1.345999717712 132 132 132
23.812500000000 1.875000000000 1.282999992371 99 99 99
23.312500000000 2.187500000000 1.362999916077 138 138 138
23.437500000000 2.125000000000 1.265999794006 168 168 168
23.437500000000 2.125000000000 5.087999820709 139 139 139
23.625000000000 2.000000000000 5.113999843597 143 143 143
23.625000000000 2.000000000000 5.055999755859 139 139 139
23.625000000000 2.000000000000 5.006000041962 126 126 126
23.687500000000 2.000000000000 4.961999893188 71 71 71
23.375000000000 2.250000000000 3.262000083923 135 135 135
23.437500000000 2.250000000000 3.220999717712 149 149 149
23.875000000000 2.000000000000 1.345999717712 127 127 127
23.875000000000 2.000000000000 1.286999940872 97 97 97
23.312500000000 2.250000000000 1.363999843597 140 140 140
23.312500000000 2.250000000000 1.294999837875 105 105 105
23.437500000000 2.250000000000 5.159999847412 108 108 108
23.437500000000 2.250000000000 5.088999748230 128 128 128
23.687500000000 2.125000000000 5.121999740601 141 141 141
23.687500000000 2.125000000000 5.086999893188 116 116 116
23.375000000000 2.312500000000 3.262000083923 137 137 137
23.375000000000 2.250000000000 3.220999717712 150 150 150
23.812500000000 2.062500000000 1.349999904633 126 126 126
23.812500000000 2.062500000000 1.286000013351 90 90 90
23.312500000000 2.312500000000 1.362999916077 135 135 135
23.375000000000 2.312500000000 1.293999910355 91 91 91
23.437500000000 2.312500000000 5.134999752045 108 108 108
23.437500000000 2.312500000000 5.087999820709 87 87 87
23.687500000000 2.187500000000 5.128999710083 138 138 138
23.750000000000 2.187500000000 5.086999893188 124 124 124
23.375000000000 2.375000000000 3.342000007629 62 62 62
23.375000000000 2.375000000000 3.262000083923 136 136 136
23.375000000000 2.375000000000 3.220999717712 149 149 149
23.812500000000 2.125000000000 1.348000049591 130 130 130
23.375000000000 2.437500000000 1.355999946594 140 140 140
23.437500000000 2.437500000000 5.125999927521 128 128 128
23.437500000000 2.437500000000 5.010999679565 80 80 80
23.750000000000 2.250000000000 5.143000125885 136 136 136
23.750000000000 2.250000000000 5.087999820709 128 128 128
23.375000000000 2.500000000000 3.380000114441 107 107 107
23.375000000000 2.437500000000 3.341000080109 133 133 133
23.437500000000 2.437500000000 3.302000045776 127 127 127
23.437500000000 2.500000000000 3.260999679565 137 137 137
23.437500000000 2.437500000000 3.220999717712 139 139 139
23.437500000000 2.437500000000 3.179999828339 146 146 146
23.437500000000 2.500000000000 3.140999794006 41 41 41
23.812500000000 2.250000000000 1.348000049591 134 134 134
23.875000000000 2.250000000000 1.283999919891 100 100 100
23.312500000000 2.500000000000 1.361999988556 136 136 136
23.312500000000 2.500000000000 1.292999982834 94 94 94
23.437500000000 2.500000000000 5.125999927521 122 122 122
23.437500000000 2.500000000000 5.079999923706 139 139 139
23.437500000000 2.500000000000 5.013999938965 120 120 120
23.687500000000 2.312500000000 5.147999763489 132 132 132
23.687500000000 2.312500000000 5.093999862671 128 128 128
23.312500000000 2.562500000000 3.380000114441 113 113 113
23.375000000000 2.562500000000 3.341000080109 134 134 134
23.375000000000 2.500000000000 3.301000118256 132 132 132
23.375000000000 2.562500000000 3.260999679565 143 143 143
23.375000000000 2.500000000000 3.220999717712 145 145 145
23.375000000000 2.500000000000 3.179999828339 152 152 152
23.375000000000 2.500000000000 3.139999866486 37 37 37
23.812500000000 2.312500000000 1.345999717712 128 128 128
23.812500000000 2.312500000000 1.287999868393 89 89 89
23.312500000000 2.562500000000 1.355999946594 134 134 134
23.437500000000 2.562500000000 5.128999710083 126 126 126
23.437500000000 2.562500000000 5.079999923706 138 138 138
23.375000000000 2.625000000000 5.009999752045 128 128 128
23.750000000000 2.375000000000 5.156000137329 120 120 120
23.750000000000 2.375000000000 5.094999790192 117 117 117
23.500000000000 2.562500000000 4.716000080109 55 55 55
23.562500000000 2.500000000000 4.671000003815 57 57 57
23.500000000000 2.562500000000 4.619999885559 53 53 53
23.437500000000 2.500000000000 4.565999984741 62 62 62
23.437500000000 2.500000000000 4.519999980927 65 65 65
23.437500000000 2.562500000000 4.468999862671 73 73 73
23.437500000000 2.562500000000 4.423999786377 86 86 86
23.500000000000 2.562500000000 4.381999969482 90 90 90
23.500000000000 2.562500000000 4.336999893188 85 85 85
23.500000000000 2.562500000000 4.289999961853 82 82 82
23.437500000000 2.562500000000 4.242000102997 93 93 93
23.500000000000 2.562500000000 4.199999809265 85 85 85
23.500000000000 2.562500000000 4.154999732971 87 87 87
23.437500000000 2.562500000000 4.108999729156 92 92 92
23.437500000000 2.562500000000 4.065999984741 81 81 81
23.500000000000 2.562500000000 4.023999691010 101 101 101
23.437500000000 2.562500000000 3.976999759674 104 104 104
23.500000000000 2.562500000000 3.936999797821 106 106 106
23.437500000000 2.562500000000 3.891999721527 108 108 108
23.437500000000 2.562500000000 3.848000049591 103 103 103
23.437500000000 2.562500000000 3.805999755859 112 112 112
23.437500000000 2.562500000000 3.763999938965 122 122 122
23.437500000000 2.562500000000 3.720999717712 122 122 122
23.437500000000 2.562500000000 3.677999973297 124 124 124
23.437500000000 2.562500000000 3.635999679565 114 114 114
23.437500000000 2.562500000000 3.593999862671 136 136 136
23.437500000000 2.562500000000 3.552000045776 134 134 134
23.437500000000 2.562500000000 3.509999752045 129 129 129
23.437500000000 2.562500000000 3.467999935150 138 138 138
23.437500000000 2.562500000000 3.427000045776 121 121 121
23.375000000000 2.625000000000 3.381000041962 132 132 132
23.375000000000 2.625000000000 3.341000080109 133 133 133
23.375000000000 2.625000000000 3.301000118256 136 136 136
23.375000000000 2.625000000000 3.260999679565 145 145 145
23.375000000000 2.625000000000 3.219999790192 143 143 143
23.375000000000 2.625000000000 3.179999828339 153 153 153
23.437500000000 2.562500000000 3.137000083923 140 140 140
23.437500000000 2.562500000000 3.095999717712 151 151 151
23.437500000000 2.562500000000 3.053999900818 153 153 153
23.437500000000 2.562500000000 3.013000011444 127 127 127
23.437500000000 2.562500000000 2.972000122070 154 154 154
23.437500000000 2.562500000000 2.929999828339 136 136 136
23.437500000000 2.562500000000 2.888999938965 150 150 150
23.437500000000 2.562500000000 2.847000122070 153 153 153
23.437500000000 2.562500000000 2.804999828339 144 144 144
23.437500000000 2.562500000000 2.763000011444 155 155 155
23.437500000000 2.562500000000 2.722000122070 141 141 141
23.437500000000 2.562500000000 2.677999973297 157 157 157
23.437500000000 2.562500000000 2.635999679565 152 152 152
23.437500000000 2.562500000000 2.593999862671 128 128 128
23.437500000000 2.562500000000 2.552000045776 153 153 153
23.812500000000 2.375000000000 1.348999977112 128 128 128
23.375000000000 2.687500000000 1.349999904633 132 132 132
23.437500000000 2.687500000000 5.123000144958 130 130 130
23.437500000000 2.625000000000 5.079999923706 147 147 147
23.437500000000 2.687500000000 5.019000053406 130 130 130
23.750000000000 2.500000000000 5.151999950409 141 141 141
23.750000000000 2.500000000000 5.095999717712 141 141 141
23.750000000000 2.437500000000 5.051000118256 152 152 152
23.812500000000 2.437500000000 5.006999969482 150 150 150
23.500000000000 2.625000000000 4.751999855042 104 104 104
23.500000000000 2.625000000000 4.709000110626 154 154 154
23.500000000000 2.625000000000 4.661999702454 140 140 140
23.500000000000 2.625000000000 4.618000030518 149 149 149
23.500000000000 2.625000000000 4.566999912262 147 147 147
23.500000000000 2.625000000000 4.519000053406 141 141 141
23.500000000000 2.625000000000 4.474999904633 145 145 145
23.500000000000 2.625000000000 4.426000118256 151 151 151
23.500000000000 2.625000000000 4.377999782562 146 146 146
23.500000000000 2.625000000000 4.334000110626 143 143 143
23.500000000000 2.625000000000 4.292999744415 155 155 155
23.500000000000 2.625000000000 4.244999885559 150 150 150
23.500000000000 2.625000000000 4.198999881744 142 142 142
23.500000000000 2.625000000000 4.156000137329 151 151 151
23.500000000000 2.625000000000 4.113999843597 150 150 150
23.500000000000 2.625000000000 4.066999912262 148 148 148
23.500000000000 2.625000000000 4.021999835968 154 154 154
23.500000000000 2.625000000000 3.980000019073 139 139 139
23.500000000000 2.625000000000 3.936999797821 155 155 155
23.500000000000 2.625000000000 3.893000125885 154 154 154
23.500000000000 2.625000000000 3.851999759674 149 149 149
23.500000000000 2.625000000000 3.806999683380 157 157 157
23.500000000000 2.625000000000 3.763999938965 149 149 149
23.500000000000 2.625000000000 3.723000049591 151 151 151
23.500000000000 2.625000000000 3.678999900818 150 150 150
23.500000000000 2.625000000000 3.638000011444 145 145 145
23.500000000000 2.625000000000 3.595999717712 152 152 152
23.500000000000 2.625000000000 3.552999973297 145 145 145
23.500000000000 2.625000000000 3.510999679565 151 151 151
23.500000000000 2.625000000000 3.468999862671 153 153 153
23.500000000000 2.625000000000 3.427999973297 139 139 139
23.437500000000 2.687500000000 3.381999969482 140 140 140
23.375000000000 2.687500000000 3.341000080109 137 137 137
23.437500000000 2.687500000000 3.301000118256 143 143 143
23.437500000000 2.687500000000 3.259999752045 143 143 143
23.437500000000 2.687500000000 3.219999790192 137 137 137
23.437500000000 2.687500000000 3.178999900818 145 145 145
23.500000000000 2.625000000000 3.135999679565 144 144 144
23.500000000000 2.625000000000 3.093999862671 145 145 145
23.500000000000 2.625000000000 3.052999973297 151 151 151
23.500000000000 2.625000000000 3.012000083923 146 146 146
23.500000000000 2.625000000000 2.968999862671 152 152 152
23.500000000000 2.625000000000 2.927999973297 152 152 152
23.500000000000 2.625000000000 2.885999679565 154 154 154
23.500000000000 2.625000000000 2.843999862671 157 157 157
23.500000000000 2.625000000000 2.799999713898 148 148 148
23.500000000000 2.625000000000 2.760999679565 161 161 161
23.500000000000 2.625000000000 2.716000080109 149 149 149
23.500000000000 2.625000000000 2.676000118256 142 142 142
23.500000000000 2.625000000000 2.632999897003 161 161 161
23.500000000000 2.625000000000 2.588999748230 141 141 141
23.500000000000 2.687500000000 2.548999786377 160 160 160
23.812500000000 2.500000000000 1.348000049591 130 130 130
23.375000000000 2.750000000000 1.347000122070 136 136 136
23.437500000000 2.750000000000 5.126999855042 131 131 131
23.437500000000 2.750000000000 5.093999862671 143 143 143
23.437500000000 2.750000000000 5.023999691010 141 141 141
23.625000000000 2.625000000000 5.105999946594 132 132 132
