20.187500000000 13.875000000000 6.943999767303 197 197 197
20.250000000000 13.937500000000 6.954999446869 181 181 181
20.187500000000 14.000000000000 7.007999897003 107 107 107
20.187500000000 14.125000000000 6.959999561310 171 171 171
20.187500000000 14.187500000000 6.993999958038 94 94 94
20.250000000000 14.250000000000 7.026999950409 99 99 99
20.187500000000 14.375000000000 7.013000011444 108 108 108
20.187500000000 14.437500000000 6.943999767303 58 58 58
20.187500000000 14.437500000000 6.943000316620 124 124 124
20.187500000000 14.500000000000 6.948999881744 35 35 35
20.250000000000 14.500000000000 6.950000286102 144 144 144
20.187500000000 14.625000000000 6.971999645233 118 118 118
20.187500000000 14.687500000000 6.981999874115 120 120 120
20.187500000000 14.750000000000 6.971000194550 108 108 108
20.250000000000 14.875000000000 6.973999500275 105 105 105
20.187500000000 14.937500000000 6.959000110626 109 109 109
20.187500000000 15.000000000000 6.947000026703 110 110 110
20.250000000000 15.125000000000 6.969999790192 102 102 102
20.250000000000 15.187500000000 6.940999507904 157 157 157
20.187500000000 15.250000000000 6.966000080109 117 117 117
20.187500000000 15.312500000000 6.962999820709 106 106 106
20.250000000000 15.375000000000 6.971000194550 112 112 112
20.187500000000 15.500000000000 6.950000286102 124 124 124
20.187500000000 15.562500000000 6.978000164032 98 98 98
20.250000000000 15.625000000000 6.959999561310 99 99 99
20.250000000000 15.750000000000 6.947000026703 119 119 119
20.187500000000 15.812500000000 6.933999538422 173 173 173
20.187500000000 15.875000000000 6.936999797821 137 137 137
20.250000000000 16.000000000000 6.948999881744 164 164 164
20.250000000000 16.062500000000 6.945999622345 170 170 170
20.187500000000 16.125000000000 6.945999622345 133 133 133
20.250000000000 16.187500000000 6.941999912262 172 172 172
20.250000000000 16.250000000000 6.957999706268 172 172 172
20.250000000000 16.375000000000 6.931000232697 164 164 164
20.187500000000 16.437500000000 6.936000347137 169 169 169
20.250000000000 16.500000000000 6.943000316620 175 175 175
20.250000000000 16.625000000000 6.940000057220 161 161 161
20.187500000000 16.687500000000 6.938000202179 172 172 172
20.250000000000 16.750000000000 6.938999652863 159 159 159
20.250000000000 16.875000000000 6.938999652863 115 115 115
20.250000000000 16.937500000000 6.945999622345 182 182 182
20.187500000000 17.000000000000 6.945000171661 153 153 153
20.250000000000 17.125000000000 6.957999706268 117 117 117
20.250000000000 17.187500000000 6.936000347137 166 166 166
20.250000000000 17.250000000000 6.941999912262 80 80 80
20.250000000000 17.312500000000 6.945999622345 87 87 87
20.250000000000 17.375000000000 6.938000202179 68 68 68
20.250000000000 17.500000000000 6.962999820709 49 49 49
20.187500000000 17.562500000000 6.945999622345 35 35 35
20.187500000000 17.562500000000 6.943000316620 70 70 70
20.187500000000 17.625000000000 6.938999652863 67 67 67
20.250000000000 17.625000000000 6.931999683380 114 114 114
20.187500000000 17.750000000000 6.945999622345 52 52 52
20.250000000000 17.750000000000 6.940000057220 108 108 108
20.250000000000 17.812500000000 6.943000316620 132 132 132
20.250000000000 17.875000000000 6.945000171661 102 102 102
20.250000000000 18.000000000000 6.943000316620 121 121 121
20.250000000000 18.062500000000 6.943999767303 120 120 120
20.250000000000 18.125000000000 6.947000026703 131 131 131
20.250000000000 18.187500000000 6.933000087738 166 166 166
20.250000000000 18.250000000000 6.940999507904 181 181 181
20.250000000000 18.375000000000 6.933000087738 172 172 172
20.187500000000 18.437500000000 6.938999652863 181 181 181
20.250000000000 18.562500000000 6.931999683380 194 194 194
20.250000000000 18.625000000000 6.927999973297 191 191 191
20.250000000000 18.687500000000 6.938000202179 216 216 216
20.250000000000 18.750000000000 6.927999973297 141 141 141
20.250000000000 18.875000000000 6.927999973297 162 162 162
20.250000000000 18.937500000000 6.943999767303 142 142 142
20.250000000000 19.000000000000 6.931000232697 166 166 166
20.250000000000 19.125000000000 6.943000316620 166 166 166
20.250000000000 19.187500000000 6.936999797821 174 174 174
20.250000000000 19.250000000000 6.936000347137 190 190 190
20.312500000000 19.375000000000 6.931999683380 183 183 183
20.250000000000 19.437500000000 6.927999973297 183 183 183
20.250000000000 19.500000000000 6.945999622345 152 152 152
20.250000000000 19.562500000000 6.933999538422 177 177 177
20.250000000000 19.687500000000 6.948999881744 168 168 168
20.250000000000 19.750000000000 6.948999881744 96 96 96
20.250000000000 19.812500000000 6.938000202179 127 127 127
20.312500000000 19.937500000000 6.957000255585 124 124 124
20.250000000000 20.000000000000 6.952999591827 112 112 112
20.250000000000 20.062500000000 6.947000026703 104 104 104
20.250000000000 20.125000000000 6.947000026703 136 136 136
20.312500000000 20.250000000000 6.950000286102 124 124 124
20.250000000000 20.312500000000 6.957999706268 122 122 122
20.250000000000 20.375000000000 6.943000316620 133 133 133
20.312500000000 20.500000000000 6.945999622345 77 77 77
20.250000000000 20.562500000000 6.940999507904 141 141 141
20.250000000000 20.625000000000 6.950999736786 109 109 109
20.250000000000 20.687500000000 6.955999851227 181 181 181
20.312500000000 20.812500000000 6.941999912262 166 166 166
20.250000000000 20.875000000000 6.947999477386 143 143 143
20.250000000000 20.937500000000 6.950000286102 96 96 96
20.312500000000 21.062500000000 6.957000255585 97 97 97
20.312500000000 21.125000000000 6.945000171661 83 83 83
20.250000000000 21.187500000000 6.947000026703 103 103 103
20.250000000000 21.250000000000 6.957999706268 31 31 31
20.250000000000 21.250000000000 6.952999591827 181 181 181
20.250000000000 21.375000000000 6.945000171661 154 154 154
20.187500000000 21.437500000000 6.950999736786 234 234 234
20.187500000000 21.500000000000 6.947999477386 208 208 208
20.250000000000 21.625000000000 6.952000141144 151 151 151
20.250000000000 21.687500000000 6.943000316620 112 112 112
20.187500000000 21.750000000000 6.947000026703 95 95 95
20.187500000000 21.875000000000 6.945000171661 80 80 80
20.250000000000 21.937500000000 6.954999446869 57 57 57
20.187500000000 22.000000000000 6.959000110626 85 85 85
20.250000000000 22.000000000000 6.940000057220 115 115 115
20.187500000000 22.062500000000 6.947000026703 38 38 38
20.187500000000 22.125000000000 6.943000316620 81 81 81
20.250000000000 22.187500000000 6.953999996185 80 80 80
20.250000000000 22.250000000000 6.943000316620 80 80 80
20.187500000000 22.312500000000 6.938000202179 160 160 160
20.187500000000 22.375000000000 6.945000171661 169 169 169
20.250000000000 22.500000000000 6.947999477386 136 136 136
20.250000000000 22.562500000000 6.936999797821 119 119 119
20.187500000000 22.625000000000 6.948999881744 82 82 82
20.187500000000 22.687500000000 6.947000026703 85 85 85
20.250000000000 22.750000000000 6.947999477386 120 120 120
20.250000000000 22.812500000000 6.948999881744 37 37 37
20.250000000000 22.875000000000 6.952000141144 44 44 44
20.250000000000 22.875000000000 6.943999767303 161 161 161
20.187500000000 23.000000000000 6.952000141144 152 152 152
20.250000000000 23.062500000000 6.957999706268 157 157 157
20.250000000000 23.125000000000 6.940000057220 182 182 182
20.187500000000 23.250000000000 6.943000316620 180 180 180
20.250000000000 23.312500000000 6.917000293732 119 119 119
20.187500000000 23.375000000000 6.964999675751 107 107 107
20.250000000000 23.375000000000 6.973000049591 97 97 97
20.250000000000 23.500000000000 6.953999996185 104 104 104
20.187500000000 23.562500000000 6.945000171661 59 59 59
20.250000000000 23.625000000000 6.934999942780 107 107 107
20.250000000000 23.750000000000 6.941999912262 122 122 122
20.250000000000 23.812500000000 6.936999797821 68 68 68
20.250000000000 23.875000000000 6.943000316620 79 79 79
20.250000000000 24.000000000000 6.947000026703 85 85 85
20.250000000000 24.062500000000 6.940999507904 111 111 111
20.187500000000 24.125000000000 6.941999912262 107 107 107
20.250000000000 24.187500000000 6.936000347137 102 102 102
20.250000000000 24.250000000000 6.938000202179 101 101 101
20.250000000000 24.375000000000 6.927999973297 142 142 142
20.250000000000 24.437500000000 6.931000232697 174 174 174
20.250000000000 24.500000000000 6.927999973297 176 176 176
20.250000000000 24.625000000000 6.924000263214 180 180 180
20.250000000000 24.687500000000 6.926000118256 151 151 151
20.250000000000 24.750000000000 6.952000141144 165 165 165
20.250000000000 24.875000000000 6.945000171661 95 95 95
20.250000000000 24.937500000000 6.941999912262 122 122 122
20.312500000000 25.000000000000 6.940000057220 137 137 137
20.250000000000 25.125000000000 6.927999973297 182 182 182
20.250000000000 25.187500000000 6.952000141144 177 177 177
20.250000000000 25.250000000000 6.931000232697 92 92 92
20.250000000000 25.375000000000 6.943000316620 91 91 91
20.250000000000 25.437500000000 6.922999858856 96 96 96
20.250000000000 25.500000000000 6.933999538422 116 116 116
20.312500000000 25.625000000000 6.931999683380 127 127 127
20.250000000000 25.687500000000 6.933999538422 153 153 153
20.250000000000 25.750000000000 6.922999858856 157 157 157
20.250000000000 25.812500000000 6.933999538422 121 121 121
20.250000000000 25.937500000000 6.922999858856 140 140 140
20.250000000000 26.000000000000 6.931000232697 152 152 152
20.250000000000 26.062500000000 6.945000171661 166 166 166
20.312500000000 26.125000000000 6.919999599457 188 188 188
20.250000000000 26.250000000000 6.936000347137 164 164 164
20.250000000000 26.312500000000 6.936000347137 89 89 89
20.250000000000 26.375000000000 6.952999591827 94 94 94
20.312500000000 26.500000000000 6.936999797821 93 93 93
20.250000000000 26.562500000000 6.943000316620 73 73 73
20.250000000000 26.625000000000 6.957000255585 60 60 60
20.312500000000 26.750000000000 6.940999507904 54 54 54
20.250000000000 26.812500000000 6.938999652863 80 80 80
20.250000000000 26.875000000000 6.931000232697 93 93 93
20.312500000000 27.000000000000 6.933999538422 80 80 80
20.312500000000 27.062500000000 6.924999713898 80 80 80
20.187500000000 27.125000000000 6.981999874115 48 48 48
20.250000000000 27.125000000000 6.933000087738 72 72 72
20.250000000000 27.187500000000 6.950999736786 107 107 107
20.250000000000 27.187500000000 6.912000179291 110 110 110
20.250000000000 27.250000000000 6.959999561310 87 87 87
20.312500000000 27.312500000000 6.933000087738 90 90 90
20.250000000000 27.375000000000 7.056000232697 52 52 52
20.312500000000 27.375000000000 6.936999797821 63 63 63
20.250000000000 27.437500000000 6.978000164032 96 96 96
20.250000000000 27.500000000000 6.985000133514 98 98 98
20.312500000000 27.562500000000 6.940999507904 38 38 38
20.250000000000 27.625000000000 7.002999782562 97 97 97
20.312500000000 27.625000000000 6.945000171661 45 45 45
20.187500000000 27.687500000000 7.016000270844 91 91 91
20.250000000000 27.687500000000 6.969000339508 49 49 49
20.250000000000 27.750000000000 7.044000148773 64 64 64
20.250000000000 27.750000000000 6.936000347137 59 59 59
20.250000000000 27.875000000000 6.966999530792 105 105 105
20.312500000000 27.875000000000 6.934999942780 50 50 50
20.250000000000 27.937500000000 6.985000133514 105 105 105
20.312500000000 27.937500000000 6.929999828339 73 73 73
20.250000000000 28.000000000000 6.987999439240 105 105 105
20.250000000000 28.000000000000 6.933000087738 64 64 64
20.250000000000 28.125000000000 6.990999698639 81 81 81
20.312500000000 28.125000000000 6.940999507904 35 35 35
20.250000000000 28.125000000000 6.993999958038 90 90 90
20.312500000000 28.187500000000 6.941999912262 32 32 32
20.312500000000 28.250000000000 7.065999507904 74 74 74
20.312500000000 28.250000000000 6.938000202179 62 62 62
20.250000000000 28.312500000000 7.009999752045 96 96 96
20.250000000000 28.375000000000 6.940000057220 37 37 37
20.250000000000 28.375000000000 6.976999759674 103 103 103
20.250000000000 28.500000000000 6.936000347137 99 99 99
20.312500000000 28.562500000000 6.950999736786 104 104 104
20.250000000000 28.625000000000 6.917999744415 172 172 172
20.312500000000 28.687500000000 6.929000377655 78 78 78
20.250000000000 28.750000000000 6.945000171661 174 174 174
20.312500000000 28.750000000000 6.945999622345 87 87 87
20.312500000000 28.812500000000 6.955999851227 91 91 91
20.312500000000 28.875000000000 6.936000347137 65 65 65
20.250000000000 28.875000000000 6.924999713898 180 180 180
20.312500000000 28.937500000000 6.938999652863 54 54 54
20.250000000000 29.000000000000 6.934999942780 179 179 179
20.250000000000 29.062500000000 6.921999454498 162 162 162
20.312500000000 29.125000000000 6.934999942780 169 169 169
20.250000000000 29.250000000000 6.947000026703 131 131 131
20.250000000000 29.312500000000 7.002999782562 110 110 110
20.312500000000 29.375000000000 7.058000087738 111 111 111
20.312500000000 29.375000000000 6.940999507904 73 73 73
20.250000000000 29.500000000000 7.016000270844 132 132 132
20.312500000000 29.500000000000 6.947000026703 107 107 107
20.250000000000 29.562500000000 7.018999576569 119 119 119
20.250000000000 29.625000000000 7.129999637604 99 99 99
20.312500000000 29.750000000000 7.049000263214 107 107 107
20.312500000000 29.750000000000 6.929999828339 36 36 36
20.250000000000 29.812500000000 6.986999988556 121 121 121
20.312500000000 29.812500000000 6.934999942780 64 64 64
20.250000000000 29.875000000000 6.947999477386 139 139 139
20.312500000000 29.875000000000 6.929000377655 55 55 55
20.312500000000 30.000000000000 6.950000286102 101 101 101
20.312500000000 30.000000000000 6.936999797821 51 51 51
20.312500000000 30.062500000000 6.938000202179 180 180 180
20.312500000000 30.062500000000 6.940000057220 67 67 67
20.250000000000 30.125000000000 6.959000110626 127 127 127
20.312500000000 30.125000000000 6.931000232697 70 70 70
20.250000000000 30.187500000000 7.091999530792 92 92 92
20.312500000000 30.312500000000 7.070999622345 100 100 100
20.250000000000 30.375000000000 7.190999507904 75 75 75
20.250000000000 30.437500000000 6.999000072479 124 124 124
20.312500000000 30.500000000000 6.914999485016 85 85 85
20.312500000000 30.500000000000 7.037999629974 115 115 115
20.312500000000 30.562500000000 6.931999683380 123 123 123
20.312500000000 30.625000000000 7.283999919891 88 88 88
20.375000000000 30.625000000000 6.954999446869 43 43 43
20.250000000000 30.687500000000 7.315000057220 79 79 79
20.312500000000 30.750000000000 6.947999477386 46 46 46
20.250000000000 30.750000000000 7.323999881744 73 73 73
20.312500000000 30.812500000000 6.940999507904 98 98 98
20.312500000000 30.875000000000 7.263000011444 70 70 70
20.312500000000 30.875000000000 6.952000141144 75 75 75
20.312500000000 30.937500000000 7.275999546051 69 69 69
20.312500000000 30.937500000000 6.947999477386 84 84 84
20.250000000000 31.000000000000 7.131999492645 90 90 90
20.312500000000 31.000000000000 6.940000057220 144 144 144
20.250000000000 31.125000000000 7.322999477386 72 72 72
20.312500000000 31.125000000000 6.943999767303 48 48 48
20.312500000000 31.187500000000 7.346999645233 50 50 50
20.375000000000 31.250000000000 6.957999706268 93 93 93
20.250000000000 31.250000000000 7.004999637604 91 91 91
20.312500000000 31.312500000000 6.953999996185 110 110 110
20.250000000000 31.375000000000 6.952000141144 92 92 92
20.312500000000 31.375000000000 6.953999996185 124 124 124
20.312500000000 31.437500000000 7.249999523163 86 86 86
20.312500000000 31.437500000000 6.960999965668 101 101 101
20.312500000000 31.500000000000 7.304000377655 81 81 81
20.375000000000 31.562500000000 6.957000255585 56 56 56
20.250000000000 31.562500000000 7.167999744415 96 96 96
20.312500000000 31.625000000000 6.950999736786 76 76 76
20.312500000000 31.687500000000 7.210999965668 81 81 81
20.312500000000 31.687500000000 6.947000026703 60 60 60
20.312500000000 31.750000000000 7.124999523163 72 72 72
20.375000000000 31.750000000000 6.957000255585 115 115 115
20.312500000000 31.875000000000 7.009000301361 113 113 113
20.312500000000 31.875000000000 6.948999881744 124 124 124
20.250000000000 31.937500000000 7.066999912262 93 93 93
20.312500000000 31.937500000000 6.945999622345 103 103 103
20.312500000000 32.000000000000 7.169999599457 75 75 75
20.312500000000 32.000000000000 6.964000225067 68 68 68
20.312500000000 32.125000000000 7.264999866486 46 46 46
20.375000000000 32.125000000000 6.952000141144 77 77 77
20.250000000000 32.187500000000 7.039000034332 106 106 106
20.312500000000 32.187500000000 6.959000110626 73 73 73
20.312500000000 32.250000000000 7.084000110626 98 98 98
20.312500000000 32.250000000000 6.952000141144 54 54 54
20.312500000000 32.312500000000 6.985000133514 123 123 123
20.375000000000 32.375000000000 6.945000171661 101 101 101
20.312500000000 32.375000000000 7.032000064850 109 109 109
20.375000000000 32.437500000000 6.952000141144 89 89 89
20.250000000000 32.500000000000 7.039000034332 112 112 112
20.312500000000 32.500000000000 6.948999881744 92 92 92
20.312500000000 32.562500000000 7.061999797821 108 108 108
20.312500000000 32.562500000000 6.945000171661 109 109 109
20.312500000000 32.625000000000 6.971999645233 103 103 103
20.375000000000 32.687500000000 6.950000286102 71 71 71
20.312500000000 32.750000000000 7.285000324249 76 76 76
20.312500000000 32.750000000000 6.964999675751 46 46 46
20.250000000000 32.812500000000 7.318999767303 66 66 66
20.312500000000 32.875000000000 6.959999561310 48 48 48
20.312500000000 32.875000000000 7.311000347137 68 68 68
20.312500000000 33.000000000000 7.200000286102 86 86 86
20.375000000000 33.000000000000 6.959000110626 40 40 40
20.250000000000 33.062500000000 7.039999485016 114 114 114
20.312500000000 33.062500000000 6.952999591827 100 100 100
20.312500000000 33.125000000000 6.995999813080 133 133 133
20.312500000000 33.125000000000 6.940999507904 68 68 68
20.312500000000 33.250000000000 7.091000080109 108 108 108
20.312500000000 33.312500000000 7.143999576569 101 101 101
20.312500000000 33.375000000000 6.936000347137 57 57 57
20.312500000000 33.375000000000 7.068000316620 114 114 114
20.312500000000 33.437500000000 6.953999996185 70 70 70
20.312500000000 33.500000000000 7.150000095367 103 103 103
20.312500000000 33.500000000000 6.940999507904 45 45 45
20.312500000000 33.562500000000 7.084000110626 109 109 109
20.312500000000 33.625000000000 6.940999507904 78 78 78
20.312500000000 33.625000000000 7.127000331879 114 114 114
20.250000000000 33.625000000000 6.964999675751 60 60 60
20.250000000000 33.750000000000 7.141000270844 105 105 105
20.312500000000 33.750000000000 6.947000026703 67 67 67
20.250000000000 33.812500000000 7.148000240326 108 108 108
20.312500000000 33.812500000000 6.947999477386 45 45 45
20.250000000000 33.875000000000 7.164000034332 97 97 97
20.250000000000 34.000000000000 7.202000141144 98 98 98
20.250000000000 34.062500000000 6.971999645233 178 178 178
20.312500000000 34.125000000000 6.947000026703 66 66 66
20.250000000000 34.125000000000 7.063000202179 115 115 115
20.312500000000 34.250000000000 7.004999637604 127 127 127
20.250000000000 34.312500000000 6.962999820709 161 161 161
20.250000000000 34.375000000000 6.966999530792 178 178 178
20.312500000000 34.437500000000 6.955999851227 180 180 180
20.250000000000 34.562500000000 7.023999691010 120 120 120
20.250000000000 34.562500000000 6.940000057220 39 39 39
20.250000000000 34.625000000000 7.007999897003 123 123 123
20.250000000000 34.687500000000 6.973999500275 127 127 127
20.312500000000 34.812500000000 6.962000370026 150 150 150
20.250000000000 34.875000000000 6.997999668121 139 139 139
20.250000000000 34.937500000000 6.947999477386 170 170 170
20.312500000000 35.000000000000 6.953999996185 174 174 174
20.312500000000 35.125000000000 6.948999881744 179 179 179
20.250000000000 35.187500000000 6.945000171661 179 179 179
20.250000000000 35.250000000000 6.943999767303 180 180 180
20.312500000000 35.375000000000 6.940999507904 181 181 181
20.250000000000 35.437500000000 6.952999591827 160 160 160
20.250000000000 35.500000000000 6.933999538422 182 182 182
20.312500000000 35.625000000000 6.934999942780 181 181 181
20.312500000000 35.687500000000 6.938000202179 181 181 181
20.250000000000 35.750000000000 6.941999912262 158 158 158
20.250000000000 35.875000000000 6.955999851227 175 175 175
20.312500000000 35.937500000000 6.947000026703 176 176 176
20.250000000000 36.000000000000 6.938000202179 178 178 178
20.250000000000 36.125000000000 6.938999652863 171 171 171
20.312500000000 36.187500000000 6.938999652863 180 180 180
20.312500000000 36.312500000000 6.933000087738 178 178 178
20.250000000000 36.375000000000 6.927999973297 180 180 180
20.250000000000 36.437500000000 6.933999538422 192 192 192
20.312500000000 36.500000000000 6.940000057220 189 189 189
20.312500000000 36.562500000000 6.936999797821 38 38 38
20.312500000000 36.625000000000 6.947999477386 176 176 176
20.250000000000 36.687500000000 7.151999950409 103 103 103
20.312500000000 36.687500000000 6.945000171661 29 29 29
20.250000000000 36.750000000000 7.309999942780 92 92 92
20.312500000000 36.750000000000 6.947999477386 63 63 63
20.312500000000 36.875000000000 7.275999546051 99 99 99
20.375000000000 36.875000000000 6.926000118256 135 135 135
20.250000000000 36.937500000000 7.073999881744 111 111 111
20.312500000000 37.000000000000 6.933999538422 116 116 116
20.250000000000 37.000000000000 7.209999561310 96 96 96
20.312500000000 37.062500000000 6.948999881744 92 92 92
20.312500000000 37.125000000000 7.061999797821 110 110 110
20.312500000000 37.125000000000 6.933000087738 106 106 106
20.312500000000 37.187500000000 7.065999507904 113 113 113
20.375000000000 37.187500000000 6.931999683380 96 96 96
20.250000000000 37.250000000000 7.068000316620 113 113 113
20.312500000000 37.250000000000 6.933000087738 66 66 66
20.312500000000 37.375000000000 7.061000347137 118 118 118
20.312500000000 37.375000000000 6.929000377655 74 74 74
20.312500000000 37.437500000000 7.131999492645 106 106 106
20.375000000000 37.500000000000 6.945000171661 63 63 63
20.250000000000 37.500000000000 7.287000179291 90 90 90
20.312500000000 37.562500000000 6.931000232697 93 93 93
20.250000000000 37.625000000000 7.285999774933 92 92 92
20.312500000000 37.625000000000 6.933999538422 58 58 58
20.312500000000 37.687500000000 7.301999568939 90 90 90
20.312500000000 37.687500000000 6.957999706268 51 51 51
20.312500000000 37.750000000000 7.334999561310 83 83 83
20.375000000000 37.750000000000 6.945000171661 81 81 81
20.250000000000 37.812500000000 7.337000370026 91 91 91
20.312500000000 37.875000000000 6.934999942780 50 50 50
20.312500000000 37.937500000000 7.358000278473 75 75 75
20.312500000000 37.937500000000 6.936000347137 88 88 88
20.312500000000 38.000000000000 7.322999477386 89 89 89
20.375000000000 38.062500000000 6.954999446869 51 51 51
20.312500000000 38.125000000000 7.349999904633 90 90 90
20.312500000000 38.125000000000 6.934999942780 62 62 62
20.250000000000 38.187500000000 7.367999553680 90 90 90
20.312500000000 38.187500000000 6.948999881744 90 90 90
20.312500000000 38.250000000000 7.348000049591 88 88 88
20.312500000000 38.250000000000 6.952999591827 83 83 83
20.312500000000 38.375000000000 7.372999668121 85 85 85
20.375000000000 38.375000000000 6.940999507904 128 128 128
20.250000000000 38.375000000000 7.386999607086 86 86 86
20.312500000000 38.437500000000 6.933999538422 139 139 139
20.312500000000 38.500000000000 7.386999607086 82 82 82
20.312500000000 38.500000000000 6.910999774933 172 172 172
20.312500000000 38.625000000000 7.384999752045 80 80 80
20.375000000000 38.625000000000 6.929999828339 180 180 180
20.312500000000 38.687500000000 7.379999637604 84 84 84
20.312500000000 38.687500000000 6.934999942780 163 163 163
20.250000000000 38.750000000000 7.384000301361 77 77 77
20.312500000000 38.750000000000 6.945999622345 157 157 157
20.312500000000 38.812500000000 7.391999721527 79 79 79
20.312500000000 38.875000000000 6.938999652863 176 176 176
20.312500000000 38.875000000000 7.382999897003 79 79 79
20.375000000000 38.937500000000 6.931000232697 180 180 180
20.250000000000 39.000000000000 7.405000209808 70 70 70
20.312500000000 39.000000000000 6.936000347137 181 181 181
20.312500000000 39.125000000000 7.391000270844 83 83 83
20.312500000000 39.125000000000 6.943999767303 181 181 181
20.312500000000 39.125000000000 7.403000354767 85 85 85
20.375000000000 39.187500000000 6.926999568939 180 180 180
20.312500000000 39.250000000000 7.377999782562 86 86 86
20.375000000000 39.250000000000 6.936999797821 180 180 180
20.250000000000 39.312500000000 7.407000064850 85 85 85
20.312500000000 39.375000000000 6.938999652863 177 177 177
20.312500000000 39.437500000000 7.381999492645 86 86 86
20.375000000000 39.437500000000 6.936999797821 158 158 158
20.312500000000 39.500000000000 7.391000270844 76 76 76
20.375000000000 39.500000000000 6.945999622345 178 178 178
20.312500000000 39.562500000000 7.396000385284 73 73 73
20.312500000000 39.625000000000 6.938000202179 179 179 179
20.312500000000 39.687500000000 7.396000385284 73 73 73
20.312500000000 39.687500000000 6.947999477386 180 180 180
20.312500000000 39.750000000000 7.400000095367 69 69 69
20.375000000000 39.750000000000 6.917000293732 180 180 180
20.312500000000 39.812500000000 7.391999721527 69 69 69
20.375000000000 39.875000000000 6.929000377655 180 180 180
20.250000000000 39.875000000000 7.393999576569 70 70 70
20.312500000000 39.937500000000 6.933000087738 181 181 181
20.312500000000 40.000000000000 7.394999980927 76 76 76
20.375000000000 40.000000000000 6.936999797821 172 172 172
20.312500000000 40.062500000000 7.396000385284 75 75 75
20.375000000000 40.125000000000 6.936999797821 117 117 117
20.312500000000 40.125000000000 7.382999897003 73 73 73
20.312500000000 40.187500000000 6.931999683380 141 141 141
20.312500000000 40.250000000000 7.379000186920 76 76 76
20.312500000000 40.250000000000 6.938000202179 114 114 114
20.187500000000 0.000000000000 6.936000347137 203 203 203
20.125000000000 0.062500000000 6.938999652863 203 203 203
20.125000000000 0.125000000000 6.934999942780 194 194 194
20.187500000000 0.250000000000 6.929999828339 203 203 203
20.187500000000 0.312500000000 6.934999942780 198 198 198
20.125000000000 0.375000000000 6.953999996185 149 149 149
20.125000000000 0.437500000000 6.966999530792 98 98 98
20.187500000000 0.562500000000 6.980000019073 82 82 82
20.125000000000 0.625000000000 7.044999599457 101 101 101
20.062500000000 0.625000000000 6.957000255585 104 104 104
20.125000000000 0.687500000000 6.952000141144 107 107 107
20.187500000000 0.812500000000 6.962000370026 61 61 61
20.125000000000 0.937500000000 6.947999477386 35 35 35
20.125000000000 1.062500000000 6.971999645233 44 44 44
20.125000000000 1.125000000000 6.957999706268 68 68 68
20.062500000000 1.187500000000 6.957000255585 60 60 60
20.125000000000 1.250000000000 6.938999652863 61 61 61
20.125000000000 1.312500000000 6.992000102997 54 54 54
20.125000000000 1.375000000000 6.933000087738 50 50 50
20.125000000000 1.375000000000 6.950999736786 66 66 66
20.125000000000 1.437500000000 6.950000286102 100 100 100
20.125000000000 1.500000000000 6.952999591827 109 109 109
20.125000000000 1.625000000000 6.936999797821 164 164 164
20.125000000000 1.687500000000 6.940999507904 135 135 135
20.125000000000 1.750000000000 6.943000316620 110 110 110
20.125000000000 1.875000000000 6.945000171661 164 164 164
20.125000000000 1.937500000000 6.931000232697 167 167 167
20.125000000000 2.000000000000 6.936999797821 181 181 181
20.187500000000 3.000000000000 6.960999965668 228 228 228
20.125000000000 3.062500000000 6.959000110626 212 212 212
20.125000000000 3.125000000000 6.957999706268 209 209 209
20.125000000000 3.250000000000 6.957000255585 201 201 201
20.125000000000 3.312500000000 6.945000171661 198 198 198
20.125000000000 3.375000000000 6.940000057220 204 204 204
20.125000000000 3.500000000000 6.950999736786 210 210 210
20.187500000000 3.562500000000 6.952999591827 214 214 214
20.125000000000 3.625000000000 6.988999843597 254 254 254
20.062500000000 3.625000000000 8.092999458313 74 74 74
20.187500000000 3.625000000000 8.013998985291 49 49 49
20.187500000000 3.687500000000 8.160999298096 79 79 79
20.125000000000 3.687500000000 6.947000026703 206 206 206
20.125000000000 3.750000000000 6.960999965668 215 215 215
20.187500000000 3.875000000000 6.948999881744 210 210 210
20.125000000000 3.937500000000 6.959000110626 210 210 210
20.125000000000 4.000000000000 6.967999935150 219 219 219
20.187500000000 4.125000000000 6.952000141144 214 214 214
20.125000000000 4.187500000000 6.950999736786 205 205 205
20.125000000000 4.250000000000 6.950000286102 206 206 206
20.187500000000 4.375000000000 6.973000049591 216 216 216
20.187500000000 4.437500000000 6.980000019073 226 226 226
20.125000000000 4.500000000000 6.964999675751 232 232 232
20.125000000000 4.625000000000 6.993999958038 255 255 255
20.187500000000 4.687500000000 6.969000339508 229 229 229
20.187500000000 4.750000000000 6.987999439240 242 242 242
20.125000000000 4.875000000000 6.967999935150 255 255 255
20.187500000000 4.937500000000 6.971999645233 255 255 255
20.187500000000 5.000000000000 6.969999790192 255 255 255
20.125000000000 5.062500000000 6.960999965668 255 255 255
20.125000000000 5.125000000000 6.971000194550 255 255 255
20.187500000000 5.250000000000 6.973999500275 255 255 255
20.187500000000 5.312500000000 6.966000080109 255 255 255
20.125000000000 5.375000000000 6.976000308990 255 255 255
20.187500000000 5.500000000000 6.967999935150 247 247 247
20.187500000000 5.562500000000 6.967999935150 255 255 255
20.187500000000 5.625000000000 6.973999500275 253 253 253
20.125000000000 5.750000000000 6.952999591827 255 255 255
20.187500000000 5.812500000000 6.960999965668 255 255 255
20.187500000000 5.875000000000 6.967999935150 253 253 253
20.125000000000 6.000000000000 6.954999446869 241 241 241
20.125000000000 6.062500000000 6.953999996185 238 238 238
20.187500000000 6.125000000000 6.943999767303 239 239 239
20.187500000000 6.250000000000 6.950999736786 231 231 231
20.125000000000 6.250000000000 6.953999996185 232 232 232
20.187500000000 6.375000000000 6.952000141144 240 240 240
20.187500000000 6.437500000000 6.953999996185 255 255 255
20.187500000000 6.500000000000 6.948999881744 255 255 255
20.125000000000 6.625000000000 6.941999912262 255 255 255
20.187500000000 6.687500000000 6.955999851227 255 255 255
20.187500000000 6.750000000000 6.943000316620 242 242 242
20.125000000000 6.875000000000 6.938000202179 255 255 255
20.187500000000 6.937500000000 6.950000286102 237 237 237
20.187500000000 7.000000000000 6.950000286102 233 233 233
20.187500000000 7.125000000000 6.957000255585 235 235 235
20.125000000000 7.187500000000 6.938999652863 233 233 233
20.187500000000 7.250000000000 6.948999881744 252 252 252
20.187500000000 7.375000000000 6.940999507904 232 232 232
20.187500000000 7.437500000000 6.943000316620 246 246 246
20.187500000000 7.500000000000 6.954999446869 228 228 228
20.187500000000 7.625000000000 6.952000141144 227 227 227
20.187500000000 7.687500000000 6.948999881744 222 222 222
20.125000000000 7.750000000000 6.933999538422 209 209 209
20.187500000000 7.875000000000 6.945000171661 212 212 212
20.187500000000 7.937500000000 6.948999881744 213 213 213
20.187500000000 8.000000000000 6.936000347137 192 192 192
20.125000000000 8.062500000000 6.943999767303 216 216 216
20.187500000000 8.125000000000 6.931999683380 190 190 190
20.187500000000 8.250000000000 6.938000202179 208 208 208
20.187500000000 8.312500000000 6.936000347137 206 206 206
20.187500000000 8.375000000000 6.938999652863 203 203 203
20.187500000000 8.500000000000 6.952999591827 219 219 219
20.187500000000 8.562500000000 6.938999652863 209 209 209
20.187500000000 8.625000000000 6.938999652863 191 191 191
20.187500000000 8.750000000000 6.940000057220 198 198 198
20.187500000000 8.812500000000 6.940000057220 203 203 203
20.187500000000 8.875000000000 6.941999912262 212 212 212
20.187500000000 9.000000000000 6.938999652863 201 201 201
20.187500000000 9.000000000000 6.952000141144 236 236 236
20.187500000000 9.125000000000 6.957999706268 228 228 228
20.187500000000 9.187500000000 6.954999446869 224 224 224
20.125000000000 9.312500000000 6.950999736786 201 201 201
20.125000000000 9.375000000000 6.952999591827 209 209 209
20.125000000000 9.437500000000 6.940000057220 211 211 211
20.125000000000 9.562500000000 6.959000110626 210 210 210
20.125000000000 9.625000000000 6.962000370026 220 220 220
20.125000000000 9.687500000000 6.948999881744 217 217 217
20.125000000000 9.750000000000 6.943999767303 211 211 211
20.125000000000 9.875000000000 6.940999507904 202 202 202
20.125000000000 9.937500000000 6.940000057220 209 209 209
20.125000000000 10.000000000000 6.945999622345 220 220 220
20.187500000000 10.125000000000 6.940999507904 204 204 204
20.125000000000 10.187500000000 6.940000057220 194 194 194
20.125000000000 10.250000000000 6.953999996185 226 226 226
20.187500000000 10.375000000000 6.943000316620 205 205 205
20.187500000000 10.375000000000 6.945999622345 215 215 215
20.125000000000 10.500000000000 6.940999507904 211 211 211
20.125000000000 10.562500000000 6.950000286102 229 229 229
20.187500000000 10.625000000000 6.950000286102 211 211 211
20.125000000000 10.750000000000 6.957000255585 221 221 221
20.125000000000 10.812500000000 6.960999965668 228 228 228
20.187500000000 10.875000000000 6.948999881744 204 204 204
20.187500000000 11.000000000000 6.950000286102 205 205 205
20.125000000000 11.062500000000 6.948999881744 209 209 209
20.125000000000 11.125000000000 6.938999652863 199 199 199
20.187500000000 11.250000000000 6.960999965668 217 217 217
20.187500000000 11.312500000000 6.959999561310 213 213 213
20.125000000000 11.375000000000 6.964999675751 235 235 235
20.187500000000 11.500000000000 6.948999881744 207 207 207
20.187500000000 11.562500000000 6.952999591827 204 204 204
20.125000000000 11.625000000000 6.950999736786 204 204 204
20.187500000000 11.750000000000 6.959999561310 224 224 224
20.187500000000 11.812500000000 6.950000286102 208 208 208
20.187500000000 11.875000000000 6.952999591827 203 203 203
20.125000000000 11.937500000000 6.947999477386 206 206 206
20.187500000000 12.000000000000 6.959000110626 222 222 222
20.187500000000 12.125000000000 6.967999935150 226 226 226
20.187500000000 12.187500000000 6.952000141144 234 234 234
20.187500000000 12.250000000000 6.952999591827 228 228 228
20.187500000000 12.375000000000 6.954999446869 221 221 221
20.187500000000 12.437500000000 6.962999820709 220 220 220
20.125000000000 12.500000000000 6.953999996185 218 218 218
20.187500000000 12.625000000000 6.959000110626 215 215 215
20.187500000000 12.687500000000 6.952999591827 218 218 218
20.187500000000 12.750000000000 6.959000110626 206 206 206
20.187500000000 12.875000000000 6.945000171661 203 203 203
20.187500000000 12.937500000000 6.945999622345 203 203 203
20.187500000000 13.000000000000 6.950000286102 195 195 195
20.187500000000 13.062500000000 6.945999622345 202 202 202
20.187500000000 13.125000000000 6.945000171661 205 205 205
20.187500000000 13.250000000000 6.950999736786 204 204 204
20.187500000000 13.312500000000 6.950999736786 207 207 207
20.187500000000 13.375000000000 6.950000286102 198 198 198
20.187500000000 13.500000000000 6.962000370026 225 225 225
20.187500000000 13.562500000000 6.955999851227 215 215 215
20.187500000000 13.625000000000 6.957999706268 214 214 214
20.187500000000 13.750000000000 6.952000141144 254 254 254
20.187500000000 13.812500000000 6.953999996185 249 249 249
20.187500000000 13.875000000000 6.948999881744 208 208 208
20.250000000000 13.937500000000 6.948999881744 154 154 154
20.187500000000 14.000000000000 6.980000019073 121 121 121
20.187500000000 14.125000000000 6.974999904633 130 130 130
20.187500000000 14.187500000000 6.973000049591 120 120 120
20.250000000000 14.250000000000 6.976999759674 113 113 113
20.187500000000 14.375000000000 7.018000125885 113 113 113
20.187500000000 14.437500000000 6.980999469757 130 130 130
20.250000000000 14.500000000000 6.980999469757 129 129 129
20.187500000000 14.625000000000 6.962000370026 138 138 138
20.187500000000 14.687500000000 6.969000339508 133 133 133
20.187500000000 14.750000000000 6.966999530792 140 140 140
20.250000000000 14.875000000000 6.936999797821 179 179 179
20.187500000000 14.937500000000 6.940999507904 186 186 186
20.187500000000 15.000000000000 6.957999706268 143 143 143
20.250000000000 15.125000000000 6.943000316620 172 172 172
20.250000000000 15.187500000000 6.955999851227 165 165 165
20.187500000000 15.250000000000 6.959000110626 152 152 152
20.187500000000 15.312500000000 6.957999706268 124 124 124
20.250000000000 15.375000000000 6.926000118256 188 188 188
20.187500000000 15.500000000000 6.955999851227 149 149 149
20.187500000000 15.562500000000 6.950000286102 152 152 152
20.250000000000 15.625000000000 6.948999881744 119 119 119
20.250000000000 15.750000000000 6.947999477386 183 183 183
20.187500000000 15.812500000000 6.931000232697 209 209 209
20.187500000000 15.875000000000 6.950999736786 216 216 216
20.250000000000 16.000000000000 6.945000171661 195 195 195
20.250000000000 16.062500000000 6.947999477386 221 221 221
20.187500000000 16.125000000000 6.962000370026 233 233 233
20.250000000000 16.187500000000 6.941999912262 233 233 233
20.250000000000 16.250000000000 6.957000255585 222 222 222
20.250000000000 16.375000000000 6.931999683380 207 207 207
20.187500000000 16.437500000000 6.955999851227 232 232 232
20.250000000000 16.562500000000 6.943999767303 211 211 211
20.250000000000 16.625000000000 6.945000171661 203 203 203
20.187500000000 16.687500000000 6.933000087738 199 199 199
20.250000000000 16.750000000000 6.940000057220 197 197 197
20.250000000000 16.875000000000 6.943999767303 194 194 194
20.250000000000 16.937500000000 6.947999477386 151 151 151
20.187500000000 17.000000000000 6.947000026703 101 101 101
20.250000000000 17.125000000000 6.952999591827 127 127 127
20.250000000000 17.187500000000 6.943999767303 116 116 116
20.187500000000 17.250000000000 6.959000110626 145 145 145
20.250000000000 17.375000000000 6.959000110626 154 154 154
20.250000000000 17.437500000000 6.945999622345 127 127 127
20.250000000000 17.500000000000 6.957999706268 61 61 61
20.187500000000 17.562500000000 6.973999500275 43 43 43
20.250000000000 17.687500000000 6.943999767303 70 70 70
20.250000000000 17.750000000000 6.938999652863 124 124 124
20.250000000000 17.812500000000 6.945000171661 117 117 117
20.250000000000 17.937500000000 6.955999851227 113 113 113
20.250000000000 18.000000000000 6.938999652863 159 159 159
20.250000000000 18.062500000000 6.931999683380 173 173 173
20.250000000000 18.125000000000 6.933999538422 203 203 203
20.250000000000 18.250000000000 6.947000026703 237 237 237
20.250000000000 18.312500000000 6.940999507904 223 223 223
20.250000000000 18.375000000000 6.943999767303 255 255 255
20.187500000000 18.437500000000 6.943000316620 228 228 228
20.250000000000 18.562500000000 6.945000171661 227 227 227
20.250000000000 18.625000000000 6.933000087738 201 201 201
20.250000000000 18.687500000000 6.931999683380 162 162 162
20.250000000000 18.750000000000 6.926999568939 186 186 186
20.250000000000 18.875000000000 6.943000316620 83 83 83
20.250000000000 18.937500000000 6.929000377655 179 179 179
20.250000000000 19.000000000000 6.927999973297 195 195 195
20.250000000000 19.125000000000 6.924000263214 186 186 186
20.250000000000 19.187500000000 6.926000118256 162 162 162
20.250000000000 19.250000000000 6.929999828339 173 173 173
20.312500000000 19.375000000000 6.938000202179 168 168 168
20.250000000000 19.437500000000 6.929999828339 189 189 189
20.250000000000 19.500000000000 6.938999652863 151 151 151
20.250000000000 19.625000000000 6.933999538422 163 163 163
20.250000000000 19.687500000000 6.933000087738 109 109 109
20.250000000000 19.750000000000 6.941999912262 158 158 158
20.250000000000 19.875000000000 6.933999538422 178 178 178
20.312500000000 19.937500000000 6.924000263214 175 175 175
20.250000000000 20.000000000000 6.957000255585 118 118 118
20.250000000000 20.062500000000 6.950999736786 117 117 117
20.250000000000 20.125000000000 6.945999622345 155 155 155
20.312500000000 20.250000000000 6.933999538422 164 164 164
20.250000000000 20.312500000000 6.950999736786 123 123 123
20.250000000000 20.375000000000 6.959000110626 130 130 130
20.312500000000 20.500000000000 6.964999675751 138 138 138
20.250000000000 20.562500000000 6.945000171661 106 106 106
20.250000000000 20.625000000000 6.933999538422 139 139 139
20.250000000000 20.687500000000 6.959999561310 84 84 84
20.312500000000 20.812500000000 6.954999446869 97 97 97
20.250000000000 20.875000000000 6.943000316620 113 113 113
20.250000000000 20.937500000000 6.960999965668 132 132 132
20.312500000000 21.062500000000 6.945999622345 146 146 146
20.312500000000 21.125000000000 6.936999797821 152 152 152
20.250000000000 21.250000000000 6.943999767303 119 119 119
20.250000000000 21.312500000000 6.947999477386 163 163 163
20.250000000000 21.375000000000 6.938999652863 209 209 209
20.187500000000 21.437500000000 6.934999942780 177 177 177
20.187500000000 21.500000000000 6.957999706268 105 105 105
20.250000000000 21.625000000000 6.943000316620 55 55 55
20.250000000000 21.687500000000 6.964000225067 76 76 76
20.187500000000 21.750000000000 6.947000026703 105 105 105
20.187500000000 21.875000000000 6.964999675751 132 132 132
20.187500000000 21.875000000000 6.945000171661 40 40 40
20.250000000000 21.937500000000 6.967999935150 123 123 123
20.187500000000 22.000000000000 6.947000026703 88 88 88
20.250000000000 22.000000000000 6.952999591827 147 147 147
20.187500000000 22.125000000000 6.936000347137 179 179 179
20.250000000000 22.187500000000 6.954999446869 141 141 141
20.250000000000 22.250000000000 6.943000316620 143 143 143
20.187500000000 22.312500000000 6.940999507904 120 120 120
20.187500000000 22.375000000000 6.929999828339 159 159 159
20.250000000000 22.500000000000 6.955999851227 36 36 36
20.250000000000 22.625000000000 6.945000171661 136 136 136
20.187500000000 22.687500000000 6.929000377655 197 197 197
20.187500000000 22.687500000000 6.957999706268 87 87 87
20.250000000000 22.750000000000 6.955999851227 95 95 95
20.250000000000 22.812500000000 6.938999652863 97 97 97
20.187500000000 22.875000000000 6.943000316620 146 146 146
20.187500000000 23.000000000000 6.929000377655 203 203 203
20.250000000000 23.062500000000 6.933000087738 179 179 179
20.250000000000 23.125000000000 6.931999683380 193 193 193
20.187500000000 23.250000000000 6.929000377655 143 143 143
20.250000000000 23.312500000000 6.959000110626 97 97 97
20.187500000000 23.375000000000 6.964999675751 108 108 108
20.250000000000 23.375000000000 6.929999828339 73 73 73
20.250000000000 23.500000000000 6.943000316620 69 69 69
20.187500000000 23.562500000000 6.938999652863 143 143 143
20.250000000000 23.625000000000 6.936000347137 105 105 105
20.250000000000 23.750000000000 6.938999652863 102 102 102
20.187500000000 23.812500000000 6.945000171661 108 108 108
20.250000000000 23.875000000000 6.936000347137 183 183 183
20.250000000000 24.000000000000 6.926999568939 154 154 154
20.250000000000 24.062500000000 6.947999477386 155 155 155
20.187500000000 24.125000000000 6.938000202179 149 149 149
20.250000000000 24.187500000000 6.919999599457 182 182 182
20.250000000000 24.250000000000 6.933000087738 208 208 208
20.250000000000 24.375000000000 6.938999652863 139 139 139
20.250000000000 24.437500000000 6.927999973297 198 198 198
20.250000000000 24.500000000000 6.917999744415 199 199 199
20.250000000000 24.625000000000 6.931000232697 205 205 205
20.250000000000 24.687500000000 6.938000202179 178 178 178
20.250000000000 24.750000000000 6.933000087738 191 191 191
20.250000000000 24.875000000000 6.921999454498 212 212 212
20.250000000000 24.937500000000 6.926999568939 198 198 198
20.250000000000 25.000000000000 6.929999828339 211 211 211
20.250000000000 25.125000000000 6.929000377655 165 165 165
20.250000000000 25.187500000000 6.929000377655 135 135 135
20.250000000000 25.250000000000 6.945000171661 106 106 106
20.250000000000 25.375000000000 6.926999568939 151 151 151
20.250000000000 25.437500000000 6.929999828339 173 173 173
20.250000000000 25.500000000000 6.927999973297 135 135 135
20.312500000000 25.625000000000 6.950000286102 129 129 129
20.250000000000 25.687500000000 6.929000377655 136 136 136
20.250000000000 25.750000000000 6.931999683380 181 181 181
20.250000000000 25.812500000000 6.938000202179 130 130 130
20.250000000000 25.937500000000 6.926000118256 118 118 118
20.250000000000 26.000000000000 6.924999713898 140 140 140
20.250000000000 26.125000000000 6.947000026703 158 158 158
20.312500000000 26.187500000000 6.945000171661 129 129 129
20.250000000000 26.250000000000 6.953999996185 95 95 95
20.250000000000 26.312500000000 6.952999591827 136 136 136
20.312500000000 26.375000000000 6.953999996185 166 166 166
20.312500000000 26.500000000000 6.953999996185 138 138 138
20.250000000000 26.562500000000 6.931999683380 113 113 113
20.250000000000 26.625000000000 6.943999767303 96 96 96
20.312500000000 26.750000000000 6.940000057220 83 83 83
20.250000000000 26.812500000000 6.945000171661 67 67 67
20.250000000000 26.875000000000 6.929999828339 40 40 40
20.250000000000 27.187500000000 7.009000301361 66 66 66
20.250000000000 27.500000000000 6.943000316620 38 38 38
20.250000000000 27.500000000000 7.025000095367 90 90 90
20.312500000000 27.562500000000 6.933000087738 72 72 72
20.250000000000 27.562500000000 6.997999668121 92 92 92
20.250000000000 27.625000000000 7.056000232697 68 68 68
20.250000000000 27.750000000000 7.056999683380 67 67 67
20.250000000000 27.812500000000 7.047999858856 74 74 74
20.250000000000 27.875000000000 7.063999652863 76 76 76
20.312500000000 28.000000000000 7.110000133514 61 61 61
20.250000000000 28.062500000000 7.068000316620 69 69 69
20.250000000000 28.125000000000 7.044999599457 76 76 76
20.250000000000 28.250000000000 7.023000240326 93 93 93
20.250000000000 28.312500000000 7.047999858856 75 75 75
20.250000000000 28.375000000000 6.966000080109 77 77 77
20.250000000000 28.500000000000 6.969000339508 79 79 79
20.312500000000 28.562500000000 6.969000339508 90 90 90
20.250000000000 28.625000000000 6.990000247955 79 79 79
20.250000000000 28.687500000000 6.966999530792 74 74 74
20.250000000000 28.750000000000 6.964000225067 89 89 89
20.312500000000 28.875000000000 6.964000225067 95 95 95
20.250000000000 28.937500000000 6.947999477386 125 125 125
20.250000000000 29.000000000000 6.947000026703 170 170 170
20.312500000000 29.125000000000 6.945999622345 140 140 140
20.250000000000 29.187500000000 6.990999698639 119 119 119
20.250000000000 29.250000000000 6.993999958038 132 132 132
20.312500000000 29.375000000000 6.940000057220 59 59 59
20.250000000000 29.375000000000 7.141000270844 111 111 111
20.312500000000 29.437500000000 7.165999889374 103 103 103
20.250000000000 29.500000000000 7.033999919891 121 121 121
20.250000000000 29.625000000000 7.148000240326 103 103 103
20.312500000000 29.625000000000 6.940999507904 36 36 36
20.312500000000 29.687500000000 7.134999752045 97 97 97
20.250000000000 29.750000000000 7.139999866486 84 84 84
20.250000000000 29.875000000000 6.990000247955 78 78 78
20.250000000000 29.937500000000 6.971000194550 93 93 93
20.312500000000 30.000000000000 6.995000362396 88 88 88
20.250000000000 30.125000000000 7.035000324249 90 90 90
20.312500000000 30.187500000000 6.919999599457 77 77 77
20.250000000000 30.187500000000 7.032999515533 98 98 98
20.312500000000 30.250000000000 6.931000232697 64 64 64
20.312500000000 30.250000000000 7.046000003815 99 99 99
20.312500000000 30.312500000000 6.921000003815 59 59 59
20.312500000000 30.375000000000 6.974999904633 114 114 114
20.250000000000 30.437500000000 7.221000194550 89 89 89
20.250000000000 30.500000000000 7.346000194550 76 76 76
20.312500000000 30.562500000000 6.945999622345 70 70 70
