27.921875000000 5.078125000000 7.243995666504 168 168 168
27.906250000000 5.070312500000 7.306999206543 170 170 170
27.781250000000 5.250000000000 1.105995178223 22 22 22
27.750000000000 5.226562500000 1.178001403809 20 20 20
27.750000000000 5.226562500000 1.240997314453 41 41 41
27.765625000000 5.234375000000 1.298995971680 60 60 60
27.750000000000 5.218750000000 1.424995422363 88 88 88
27.765625000000 5.226562500000 1.483001708984 59 59 59
27.765625000000 5.218750000000 1.546997070313 82 82 82
27.750000000000 5.210937500000 1.609001159668 71 71 71
27.750000000000 5.210937500000 1.669998168945 113 113 113
27.765625000000 5.210937500000 1.728996276855 77 77 77
27.765625000000 5.210937500000 1.790000915527 87 87 87
27.765625000000 5.210937500000 1.850997924805 101 101 101
27.765625000000 5.203125000000 1.912994384766 107 107 107
27.765625000000 5.203125000000 1.972000122070 129 129 129
27.765625000000 5.203125000000 2.032997131348 140 140 140
27.781250000000 5.210937500000 2.090995788574 141 141 141
27.781250000000 5.203125000000 2.151000976563 141 141 141
27.781250000000 5.210937500000 2.209999084473 130 130 130
27.781250000000 5.203125000000 2.268997192383 159 159 159
27.765625000000 5.195312500000 2.331001281738 152 152 152
27.765625000000 5.195312500000 2.390998840332 166 166 166
27.781250000000 5.195312500000 2.448997497559 168 168 168
27.781250000000 5.195312500000 2.508995056152 142 142 142
28.281250000000 16.015625000000 3.866996765137 8 8 8
28.281250000000 16.015625000000 3.921997070313 42 42 42
28.296875000000 16.015625000000 3.976997375488 77 77 77
28.296875000000 16.015625000000 4.031997680664 92 92 92
28.296875000000 16.007812500000 4.086997985840 117 117 117
28.343750000000 16.007812500000 4.586997985840 156 156 156
28.343750000000 16.007812500000 4.641998291016 162 162 162
28.343750000000 16.007812500000 4.698997497559 169 169 169
28.359375000000 16.007812500000 4.755996704102 174 174 174
28.359375000000 16.000000000000 4.812995910645 183 183 183
28.406250000000 16.000000000000 5.326995849609 172 172 172
28.390625000000 16.000000000000 5.382995605469 178 178 178
28.406250000000 16.000000000000 5.444000244141 168 168 168
28.421875000000 16.000000000000 5.500999450684 175 175 175
28.421875000000 16.000000000000 5.559997558594 166 166 166
28.421875000000 16.000000000000 5.618995666504 171 171 171
28.421875000000 16.000000000000 5.678001403809 161 161 161
28.437500000000 15.992187500000 5.738998413086 168 168 168
28.437500000000 15.992187500000 5.797996520996 131 131 131
28.453125000000 15.984375000000 5.858001708984 165 165 165
28.468750000000 15.984375000000 5.918998718262 162 162 162
28.453125000000 15.984375000000 5.977996826172 158 158 158
28.468750000000 15.984375000000 6.041000366211 149 149 149
28.484375000000 15.984375000000 6.102996826172 146 146 146
28.500000000000 15.984375000000 6.166000366211 137 137 137
28.515625000000 15.984375000000 6.228996276855 128 128 128
28.500000000000 15.984375000000 6.289001464844 115 115 115
28.515625000000 15.984375000000 6.349998474121 100 100 100
28.531250000000 15.984375000000 6.418998718262 97 97 97
28.546875000000 15.984375000000 6.480995178223 74 74 74
28.546875000000 15.984375000000 6.544998168945 66 66 66
28.562500000000 15.984375000000 6.609001159668 17 17 17
28.312500000000 16.007812500000 4.141998291016 105 105 105
28.375000000000 16.000000000000 4.868995666504 168 168 168
28.453125000000 16.000000000000 5.278999328613 95 95 95
28.640625000000 15.687500000000 6.791999816895 17 17 17
28.593750000000 15.687500000000 6.839996337891 87 87 87
28.453125000000 15.398437500000 5.750999450684 124 124 124
28.453125000000 15.398437500000 5.807998657227 20 20 20
28.593750000000 15.390625000000 6.751998901367 55 55 55
28.453125000000 15.101562500000 5.721000671387 13 13 13
28.453125000000 15.101562500000 5.778999328613 143 143 143
28.609375000000 15.101562500000 6.599998474121 12 12 12
28.593750000000 15.101562500000 6.657997131348 24 24 24
28.468750000000 14.812500000000 5.749000549316 116 116 116
28.453125000000 14.812500000000 5.803001403809 71 71 71
28.593750000000 14.812500000000 6.498001098633 54 54 54
28.453125000000 14.531250000000 5.766998291016 149 149 149
28.562500000000 14.531250000000 6.391998291016 67 67 67
28.453125000000 14.242187500000 5.734001159668 44 44 44
28.437500000000 14.242187500000 5.787994384766 122 122 122
28.562500000000 14.242187500000 6.295997619629 85 85 85
28.421875000000 13.945312500000 5.758995056152 138 138 138
28.500000000000 13.945312500000 6.193000793457 85 85 85
28.437500000000 13.648437500000 5.736000061035 75 75 75
28.421875000000 13.648437500000 5.790000915527 116 116 116
28.484375000000 13.648437500000 6.097999572754 79 79 79
28.406250000000 13.359375000000 5.759994506836 139 139 139
28.421875000000 13.359375000000 5.821998596191 6 6 6
28.468750000000 13.359375000000 5.948997497559 11 11 11
28.453125000000 13.351562500000 6.003997802734 12 12 12
28.593750000000 13.078125000000 5.529998779297 123 123 123
28.406250000000 13.070312500000 5.778999328613 148 148 148
28.437500000000 13.070312500000 5.845001220703 55 55 55
28.625000000000 12.796875000000 5.497001647949 21 21 21
28.593750000000 12.796875000000 5.550994873047 87 87 87
28.406250000000 12.781250000000 5.742996215820 83 83 83
28.406250000000 12.781250000000 5.802001953125 106 106 106
28.562500000000 12.500000000000 5.515998840332 123 123 123
28.375000000000 12.500000000000 5.766998291016 153 153 153
28.531250000000 12.195312500000 5.481994628906 114 114 114
28.390625000000 12.195312500000 5.739997863770 95 95 95
28.375000000000 12.187500000000 5.794998168945 104 104 104
28.484375000000 11.898437500000 5.502998352051 2 2 2
28.359375000000 11.906250000000 5.766998291016 132 132 132
28.484375000000 11.617187500000 5.466995239258 97 97 97
28.468750000000 11.609375000000 5.520996093750 206 206 206
28.453125000000 11.609375000000 5.575996398926 175 175 175
28.437500000000 11.609375000000 5.631996154785 181 181 181
28.421875000000 11.609375000000 5.685997009277 162 162 162
28.343750000000 11.617187500000 5.783996582031 123 123 123
28.437500000000 11.328125000000 5.478996276855 127 127 127
28.437500000000 11.328125000000 5.534996032715 198 198 198
28.421875000000 11.328125000000 5.591995239258 165 165 165
28.421875000000 11.328125000000 5.647994995117 162 162 162
28.390625000000 11.328125000000 5.698997497559 144 144 144
28.343750000000 11.328125000000 5.747001647949 44 44 44
28.328125000000 11.328125000000 5.799995422363 126 126 126
28.437500000000 11.039062500000 5.497001647949 171 171 171
28.406250000000 11.039062500000 5.548995971680 145 145 145
28.406250000000 11.039062500000 5.605995178223 190 190 190
28.390625000000 11.039062500000 5.660995483398 155 155 155
28.359375000000 11.039062500000 5.711997985840 117 117 117
28.312500000000 11.046875000000 5.759994506836 100 100 100
28.312500000000 11.039062500000 5.816001892090 87 87 87
28.421875000000 10.750000000000 5.463996887207 57 57 57
28.406250000000 10.750000000000 5.519996643066 201 201 201
28.406250000000 10.742187500000 5.574996948242 191 191 191
28.390625000000 10.742187500000 5.630996704102 201 201 201
28.375000000000 10.742187500000 5.683998107910 200 200 200
28.359375000000 10.742187500000 5.737998962402 85 85 85
28.312500000000 10.750000000000 5.783996582031 135 135 135
28.390625000000 10.445312500000 5.489997863770 132 132 132
28.390625000000 10.445312500000 5.547996520996 197 197 197
28.375000000000 10.445312500000 5.602996826172 199 199 199
28.359375000000 10.445312500000 5.656997680664 201 201 201
28.343750000000 10.445312500000 5.711997985840 150 150 150
28.296875000000 10.453125000000 5.755996704102 43 43 43
28.281250000000 10.453125000000 5.810997009277 127 127 127
28.375000000000 10.156250000000 5.517997741699 175 175 175
28.375000000000 10.148437500000 5.572998046875 211 211 211
28.359375000000 10.148437500000 5.626998901367 173 173 173
28.359375000000 10.148437500000 5.684997558594 149 149 149
28.328125000000 10.156250000000 5.737998962402 107 107 107
28.265625000000 10.156250000000 5.777999877930 118 118 118
28.265625000000 10.156250000000 5.836997985840 41 41 41
28.343750000000 9.867187500000 5.476997375488 47 47 47
28.343750000000 9.867187500000 5.533996582031 198 198 198
28.343750000000 9.867187500000 5.590995788574 174 174 174
28.328125000000 9.859375000000 5.645996093750 169 169 169
28.312500000000 9.859375000000 5.700996398926 185 185 185
28.296875000000 9.867187500000 5.753997802734 52 52 52
28.234375000000 9.867187500000 5.795997619629 141 141 141
28.328125000000 9.578125000000 5.493995666504 115 115 115
28.328125000000 9.570312500000 5.550994873047 186 186 186
28.312500000000 9.578125000000 5.605995178223 188 188 188
28.312500000000 9.578125000000 5.660995483398 185 185 185
28.296875000000 9.578125000000 5.715995788574 151 151 151
28.265625000000 9.578125000000 5.764999389648 120 120 120
28.218750000000 9.578125000000 5.809997558594 131 131 131
28.281250000000 9.289062500000 5.509994506836 135 135 135
28.203125000000 9.281250000000 5.777000427246 58 58 58
28.187500000000 9.281250000000 5.830001831055 118 118 118
28.281250000000 9.000000000000 5.477996826172 29 29 29
28.265625000000 9.000000000000 5.530998229980 96 96 96
28.187500000000 8.992187500000 5.797996520996 127 127 127
28.187500000000 8.992187500000 5.853996276855 27 27 27
28.250000000000 8.703125000000 5.501998901367 112 112 112
28.234375000000 8.703125000000 5.555000305176 12 12 12
28.156250000000 8.695312500000 5.819999694824 144 144 144
28.234375000000 8.406250000000 5.526000976563 133 133 133
28.171875000000 8.406250000000 5.792999267578 64 64 64
28.125000000000 8.398437500000 5.841995239258 114 114 114
28.203125000000 8.117187500000 5.541000366211 120 120 120
28.203125000000 8.117187500000 5.597000122070 114 114 114
28.203125000000 8.109375000000 5.652000427246 115 115 115
28.203125000000 8.109375000000 5.708000183105 107 107 107
28.187500000000 8.109375000000 5.761001586914 120 120 120
28.109375000000 8.109375000000 5.799995422363 128 128 128
28.109375000000 8.109375000000 5.854995727539 110 110 110
28.093750000000 7.820312500000 5.816001892090 132 132 132
28.078125000000 7.820312500000 5.869995117188 10 10 10
28.109375000000 7.820312500000 5.989997863770 30 30 30
28.109375000000 7.531250000000 5.782997131348 12 12 12
28.062500000000 7.531250000000 5.827995300293 136 136 136
28.078125000000 7.531250000000 6.059997558594 88 88 88
28.046875000000 7.234375000000 5.795997619629 104 104 104
28.031250000000 7.234375000000 5.851997375488 83 83 83
28.062500000000 7.234375000000 6.142997741699 34 34 34
28.015625000000 6.929687500000 5.820999145508 145 145 145
28.031250000000 6.929687500000 6.278999328613 93 93 93
28.015625000000 6.625000000000 5.791000366211 81 81 81
28.000000000000 6.625000000000 5.841995239258 104 104 104
28.046875000000 6.617187500000 6.365997314453 35 35 35
27.968750000000 6.335937500000 5.805000305176 105 105 105
27.968750000000 6.335937500000 5.861000061035 61 61 61
28.000000000000 6.328125000000 6.492996215820 81 81 81
27.953125000000 6.054687500000 5.813995361328 123 123 123
28.000000000000 6.046875000000 6.622001647949 27 27 27
27.921875000000 5.765625000000 5.826995849609 116 116 116
27.953125000000 5.757812500000 6.691001892090 64 64 64
27.906250000000 5.468750000000 5.803001403809 95 95 95
27.890625000000 5.460937500000 5.853996276855 37 37 37
27.953125000000 5.453125000000 6.837997436523 17 17 17
27.734375000000 5.210937500000 0.979995727539 134 134 134
27.734375000000 5.210937500000 1.034996032715 153 153 153
27.734375000000 5.210937500000 1.088996887207 149 149 149
27.734375000000 5.210937500000 1.142997741699 154 154 154
27.734375000000 5.210937500000 1.195999145508 159 159 159
27.734375000000 5.210937500000 1.249000549316 157 157 157
27.734375000000 5.210937500000 1.305000305176 164 164 164
27.734375000000 5.203125000000 1.358001708984 170 170 170
27.750000000000 5.210937500000 1.407997131348 166 166 166
27.750000000000 5.210937500000 1.460998535156 167 167 167
27.734375000000 5.203125000000 1.516998291016 165 165 165
27.750000000000 5.203125000000 1.568000793457 173 173 173
27.750000000000 5.203125000000 1.620994567871 164 164 164
27.750000000000 5.203125000000 1.673995971680 168 168 168
27.750000000000 5.203125000000 1.724998474121 164 164 164
27.765625000000 5.203125000000 1.777000427246 155 155 155
27.750000000000 5.203125000000 1.830001831055 162 162 162
27.750000000000 5.203125000000 1.882995605469 171 171 171
27.765625000000 5.203125000000 1.933998107910 178 178 178
27.750000000000 5.203125000000 1.986999511719 184 184 184
27.765625000000 5.203125000000 2.039001464844 184 184 184
27.750000000000 5.203125000000 2.091995239258 184 184 184
27.765625000000 5.203125000000 2.141998291016 185 185 185
27.765625000000 5.203125000000 2.194000244141 191 191 191
27.765625000000 5.195312500000 2.245994567871 191 191 191
27.765625000000 5.195312500000 2.297996520996 192 192 192
27.750000000000 5.195312500000 2.349998474121 191 191 191
27.765625000000 5.195312500000 2.401000976563 188 188 188
27.765625000000 5.195312500000 2.451995849609 194 194 194
27.765625000000 5.195312500000 2.503997802734 193 193 193
27.750000000000 5.195312500000 2.555999755859 189 189 189
27.765625000000 5.195312500000 2.605995178223 191 191 191
27.765625000000 5.195312500000 2.656997680664 189 189 189
27.765625000000 5.195312500000 2.708000183105 192 192 192
27.765625000000 5.195312500000 2.758995056152 198 198 198
27.765625000000 5.195312500000 2.810997009277 194 194 194
27.765625000000 5.195312500000 2.861000061035 193 193 193
27.765625000000 5.195312500000 2.911994934082 193 193 193
27.765625000000 5.187500000000 2.962997436523 198 198 198
27.765625000000 5.187500000000 3.013999938965 200 200 200
27.781250000000 5.187500000000 3.368995666504 195 195 195
27.781250000000 5.187500000000 3.419998168945 195 195 195
27.781250000000 5.187500000000 3.471000671387 195 195 195
27.781250000000 5.187500000000 3.521995544434 194 194 194
27.796875000000 5.187500000000 3.572998046875 194 194 194
27.796875000000 5.187500000000 3.623001098633 188 188 188
27.796875000000 5.187500000000 3.673995971680 195 195 195
27.796875000000 5.179687500000 3.724998474121 192 192 192
27.796875000000 5.179687500000 3.776000976563 193 193 193
27.796875000000 5.179687500000 3.826995849609 198 198 198
27.781250000000 5.179687500000 3.877998352051 192 192 192
27.812500000000 5.179687500000 3.930000305176 193 193 193
27.796875000000 5.179687500000 3.979995727539 195 195 195
27.812500000000 5.171875000000 4.442001342773 178 178 178
27.828125000000 5.171875000000 4.495994567871 184 184 184
27.812500000000 5.171875000000 4.546997070313 179 179 179
27.812500000000 5.171875000000 4.598999023438 180 180 180
27.812500000000 5.171875000000 4.651000976563 180 180 180
27.828125000000 5.171875000000 5.124000549316 179 179 179
27.828125000000 5.164062500000 5.177001953125 180 180 180
27.828125000000 5.164062500000 5.228996276855 182 182 182
27.828125000000 5.164062500000 5.281997680664 181 181 181
27.828125000000 5.164062500000 5.334999084473 182 182 182
27.828125000000 5.164062500000 5.389999389648 184 184 184
27.828125000000 5.164062500000 5.443000793457 174 174 174
27.828125000000 5.164062500000 5.494995117188 178 178 178
27.828125000000 5.164062500000 5.550994873047 179 179 179
27.828125000000 5.164062500000 5.602996826172 187 187 187
27.828125000000 5.164062500000 5.656997680664 186 186 186
27.828125000000 5.164062500000 5.712997436523 186 186 186
27.828125000000 5.164062500000 5.765998840332 188 188 188
27.812500000000 5.164062500000 5.818000793457 140 140 140
27.828125000000 5.156250000000 5.874000549316 185 185 185
27.828125000000 5.156250000000 5.930000305176 187 187 187
27.828125000000 5.156250000000 5.987998962402 182 182 182
27.828125000000 5.156250000000 6.041000366211 179 179 179
27.828125000000 5.156250000000 6.097999572754 176 176 176
27.828125000000 5.156250000000 6.152999877930 178 178 178
27.828125000000 5.156250000000 6.209999084473 177 177 177
27.828125000000 5.156250000000 6.265998840332 184 184 184
27.843750000000 5.156250000000 6.323997497559 177 177 177
27.828125000000 5.156250000000 6.378997802734 182 182 182
27.843750000000 5.156250000000 6.436996459961 179 179 179
27.843750000000 5.156250000000 6.495994567871 181 181 181
27.843750000000 5.156250000000 6.550994873047 183 183 183
27.843750000000 5.156250000000 6.610000610352 176 176 176
27.843750000000 5.148437500000 6.666999816895 174 174 174
27.843750000000 5.148437500000 6.722999572754 175 175 175
27.843750000000 5.148437500000 6.784996032715 170 170 170
27.843750000000 5.148437500000 6.842994689941 160 160 160
27.843750000000 5.148437500000 6.903999328613 182 182 182
27.843750000000 5.148437500000 6.961997985840 189 189 189
27.843750000000 5.148437500000 7.021995544434 187 187 187
27.843750000000 5.148437500000 7.080001831055 183 183 183
27.859375000000 5.140625000000 7.144996643066 188 188 188
27.859375000000 5.140625000000 7.203994750977 193 193 193
27.843750000000 5.148437500000 7.258995056152 169 169 169
27.453125000000 5.210937500000 0.791999816895 178 178 178
27.671875000000 5.210937500000 0.941001892090 117 117 117
27.828125000000 5.195312500000 3.061996459961 155 155 155
27.828125000000 5.187500000000 3.113998413086 117 117 117
27.781250000000 5.187500000000 3.166000366211 93 93 93
27.812500000000 5.187500000000 3.215995788574 110 110 110
27.812500000000 5.187500000000 3.266998291016 144 144 144
27.812500000000 5.187500000000 3.318000793457 172 172 172
27.859375000000 5.171875000000 4.708999633789 138 138 138
27.812500000000 5.242187500000 7.339996337891 15 15 15
27.812500000000 5.242187500000 7.283996582031 174 174 174
27.828125000000 5.242187500000 7.226997375488 178 178 178
27.812500000000 5.242187500000 7.164001464844 175 175 175
27.812500000000 5.242187500000 7.103996276855 170 170 170
27.828125000000 5.242187500000 7.044998168945 171 171 171
27.843750000000 5.250000000000 6.988998413086 177 177 177
27.812500000000 5.250000000000 6.923995971680 143 143 143
27.812500000000 5.250000000000 6.864997863770 167 167 167
27.812500000000 5.250000000000 6.806999206543 168 168 168
27.843750000000 5.250000000000 6.749000549316 174 174 174
27.812500000000 5.250000000000 6.689994812012 164 164 164
27.843750000000 5.250000000000 6.632995605469 162 162 162
27.843750000000 5.250000000000 6.576995849609 172 172 172
27.843750000000 5.250000000000 6.516998291016 165 165 165
27.843750000000 5.257812500000 6.459999084473 159 159 159
27.828125000000 5.257812500000 6.401000976563 152 152 152
27.843750000000 5.257812500000 6.346000671387 147 147 147
27.828125000000 5.257812500000 6.289001464844 128 128 128
27.828125000000 5.257812500000 6.230995178223 126 126 126
27.828125000000 5.257812500000 6.173995971680 120 120 120
27.828125000000 5.257812500000 6.115997314453 121 121 121
27.828125000000 5.257812500000 6.060997009277 120 120 120
27.828125000000 5.257812500000 6.004997253418 121 121 121
27.828125000000 5.257812500000 5.948997497559 116 116 116
27.765625000000 5.257812500000 5.875999450684 91 91 91
27.796875000000 5.265625000000 5.833000183105 117 117 117
27.843750000000 5.265625000000 5.787994384766 100 100 100
27.843750000000 5.265625000000 5.733001708984 89 89 89
27.828125000000 5.265625000000 5.675994873047 79 79 79
27.843750000000 5.265625000000 5.624000549316 67 67 67
27.843750000000 5.265625000000 5.569999694824 48 48 48
27.843750000000 5.265625000000 5.515998840332 35 35 35
27.843750000000 5.265625000000 5.462997436523 23 23 23
27.843750000000 5.273437500000 5.406997680664 16 16 16
27.828125000000 5.273437500000 5.348999023438 7 7 7
27.890625000000 5.523437500000 6.863998413086 12 12 12
27.890625000000 5.531250000000 5.886001586914 24 24 24
27.890625000000 5.539062500000 5.831001281738 90 90 90
27.906250000000 5.812500000000 6.730995178223 62 62 62
27.875000000000 5.828125000000 5.863998413086 73 73 73
27.906250000000 5.820312500000 5.814994812012 37 37 37
27.937500000000 6.093750000000 6.652999877930 29 29 29
27.921875000000 6.109375000000 5.848999023438 106 106 106
27.968750000000 6.375000000000 6.515998840332 49 49 49
27.937500000000 6.382812500000 5.877998352051 69 69 69
27.953125000000 6.382812500000 5.825996398926 75 75 75
27.984375000000 6.648437500000 6.425994873047 80 80 80
27.968750000000 6.656250000000 5.850997924805 117 117 117
28.000000000000 6.921875000000 6.338996887207 56 56 56
27.984375000000 6.929687500000 5.879997253418 68 68 68
27.984375000000 6.929687500000 5.824996948242 100 100 100
28.031250000000 7.203125000000 6.208000183105 64 64 64
28.000000000000 7.210937500000 5.858001708984 122 122 122
28.031250000000 7.210937500000 5.809997558594 24 24 24
28.046875000000 7.492187500000 6.129997253418 61 61 61
28.031250000000 7.500000000000 5.840995788574 123 123 123
28.078125000000 7.781250000000 5.998001098633 50 50 50
28.046875000000 7.789062500000 5.876998901367 60 60 60
28.062500000000 7.789062500000 5.823997497559 91 91 91
28.109375000000 8.070312500000 5.916999816895 68 68 68
28.093750000000 8.070312500000 5.856994628906 122 122 122
28.109375000000 8.343750000000 5.883995056152 59 59 59
28.109375000000 8.343750000000 5.826995849609 98 98 98
28.187500000000 8.351562500000 5.563995361328 109 109 109
28.125000000000 8.625000000000 5.858001708984 119 119 119
28.125000000000 8.625000000000 5.804000854492 17 17 17
28.203125000000 8.625000000000 5.536994934082 114 114 114
28.156250000000 8.906250000000 5.837997436523 130 130 130
28.218750000000 8.914062500000 5.569000244141 56 56 56
28.234375000000 8.914062500000 5.514999389648 67 67 67
28.156250000000 9.195312500000 5.875999450684 41 41 41
28.171875000000 9.195312500000 5.819999694824 115 115 115
28.250000000000 9.203125000000 5.554000854492 102 102 102
28.250000000000 9.203125000000 5.495994567871 10 10 10
28.187500000000 9.484375000000 5.854995727539 106 106 106
28.187500000000 9.484375000000 5.797996520996 79 79 79
28.281250000000 9.492187500000 5.532997131348 113 113 113
28.203125000000 9.765625000000 5.830001831055 129 129 129
28.265625000000 9.765625000000 5.790000915527 29 29 29
28.265625000000 9.765625000000 5.731994628906 156 156 156
28.296875000000 9.765625000000 5.680000305176 169 169 169
28.296875000000 9.765625000000 5.623001098633 159 159 159
28.296875000000 9.773437500000 5.567001342773 191 191 191
28.296875000000 9.773437500000 5.508995056152 71 71 71
28.218750000000 10.039062500000 5.855995178223 77 77 77
28.234375000000 10.039062500000 5.800994873047 90 90 90
28.296875000000 10.039062500000 5.757995605469 121 121 121
28.312500000000 10.039062500000 5.705001831055 178 178 178
28.328125000000 10.046875000000 5.650001525879 185 185 185
28.328125000000 10.046875000000 5.591995239258 173 173 173
28.343750000000 10.039062500000 5.539001464844 160 160 160
28.250000000000 10.320312500000 5.831001281738 121 121 121
28.281250000000 10.320312500000 5.782997131348 13 13 13
28.312500000000 10.320312500000 5.731994628906 157 157 157
28.343750000000 10.312500000000 5.680999755859 65 65 65
28.328125000000 10.312500000000 5.620994567871 126 126 126
28.343750000000 10.312500000000 5.567001342773 197 197 197
28.343750000000 10.312500000000 5.509994506836 97 97 97
28.234375000000 10.601562500000 5.863998413086 4 4 4
28.250000000000 10.601562500000 5.812995910645 129 129 129
28.312500000000 10.601562500000 5.770996093750 29 29 29
28.328125000000 10.609375000000 5.713996887207 183 183 183
28.328125000000 10.609375000000 5.658996582031 207 207 207
28.343750000000 10.601562500000 5.602996826172 182 182 182
28.359375000000 10.601562500000 5.548995971680 191 191 191
28.359375000000 10.601562500000 5.491996765137 45 45 45
28.281250000000 10.890625000000 5.853996276855 16 16 16
28.281250000000 10.890625000000 5.794998168945 115 115 115
28.343750000000 10.890625000000 5.752998352051 116 116 116
28.343750000000 10.890625000000 5.696998596191 196 196 196
28.359375000000 10.890625000000 5.642997741699 195 195 195
28.375000000000 10.890625000000 5.588996887207 194 194 194
28.390625000000 10.890625000000 5.531997680664 179 179 179
28.390625000000 10.890625000000 5.473999023438 15 15 15
28.296875000000 11.179687500000 5.833999633789 101 101 101
28.296875000000 11.179687500000 5.777999877930 60 60 60
28.343750000000 11.171875000000 5.731994628906 126 126 126
28.359375000000 11.171875000000 5.677001953125 162 162 162
28.375000000000 11.171875000000 5.622001647949 179 179 179
28.390625000000 11.171875000000 5.569999694824 167 167 167
28.406250000000 11.171875000000 5.513000488281 137 137 137
28.312500000000 11.453125000000 5.805000305176 122 122 122
28.375000000000 11.445312500000 5.758995056152 18 18 18
28.406250000000 11.445312500000 5.708999633789 166 166 166
28.406250000000 11.445312500000 5.650001525879 152 152 152
28.421875000000 11.445312500000 5.597000122070 153 153 153
28.421875000000 11.445312500000 5.539001464844 192 192 192
28.421875000000 11.445312500000 5.479995727539 31 31 31
28.328125000000 11.726562500000 5.833000183105 73 73 73
28.343750000000 11.726562500000 5.780998229980 75 75 75
28.406250000000 11.718750000000 5.734001159668 115 115 115
28.406250000000 11.718750000000 5.677001953125 205 205 205
28.421875000000 11.718750000000 5.622001647949 207 207 207
28.421875000000 11.718750000000 5.564994812012 209 209 209
28.453125000000 11.718750000000 5.513000488281 150 150 150
28.343750000000 12.000000000000 5.812995910645 127 127 127
28.343750000000 12.007812500000 5.754997253418 17 17 17
28.453125000000 12.000000000000 5.486000061035 88 88 88
28.359375000000 12.289062500000 5.790000915527 143 143 143
28.500000000000 12.289062500000 5.529998779297 88 88 88
28.328125000000 12.578125000000 5.822998046875 76 76 76
28.359375000000 12.578125000000 5.770996093750 95 95 95
28.531250000000 12.570312500000 5.574996948242 18 18 18
28.546875000000 12.570312500000 5.518997192383 83 83 83
28.359375000000 12.859375000000 5.802001953125 136 136 136
28.562500000000 12.851562500000 5.555000305176 113 113 113
28.390625000000 13.125000000000 5.896995544434 83 83 83
28.375000000000 13.132812500000 5.834999084473 59 59 59
28.375000000000 13.140625000000 5.776000976563 109 109 109
28.562500000000 13.132812500000 5.584999084473 60 60 60
28.578125000000 13.132812500000 5.528999328613 32 32 32
28.421875000000 13.398437500000 5.989997863770 71 71 71
28.375000000000 13.414062500000 5.803001403809 135 135 135
28.453125000000 13.679687500000 6.083999633789 64 64 64
28.390625000000 13.687500000000 5.830001831055 53 53 53
28.390625000000 13.695312500000 5.773994445801 105 105 105
28.468750000000 13.960937500000 6.179000854492 41 41 41
28.390625000000 13.976562500000 5.803001403809 114 114 114
28.406250000000 13.968750000000 5.750000000000 21 21 21
28.500000000000 14.242187500000 6.278999328613 53 53 53
28.406250000000 14.257812500000 5.840995788574 15 15 15
28.406250000000 14.257812500000 5.780998229980 99 99 99
28.531250000000 14.523437500000 6.380996704102 9 9 9
28.406250000000 14.539062500000 5.812995910645 118 118 118
28.437500000000 14.531250000000 5.762001037598 26 26 26
28.546875000000 14.804687500000 6.534996032715 45 45 45
28.406250000000 14.820312500000 5.837997436523 12 12 12
28.421875000000 14.820312500000 5.783996582031 122 122 122
28.546875000000 15.085937500000 6.631996154785 72 72 72
28.421875000000 15.101562500000 5.813995361328 107 107 107
28.453125000000 15.093750000000 5.759994506836 47 47 47
28.578125000000 15.359375000000 6.733001708984 62 62 62
28.578125000000 15.640625000000 6.827995300293 16 16 16
28.578125000000 15.906250000000 7.503997802734 116 116 116
28.562500000000 15.906250000000 7.432998657227 156 156 156
28.562500000000 15.906250000000 7.365997314453 175 175 175
28.562500000000 15.906250000000 7.298995971680 161 161 161
28.562500000000 15.914062500000 7.233001708984 161 161 161
28.546875000000 15.914062500000 7.165000915527 157 157 157
28.546875000000 15.914062500000 7.099998474121 162 162 162
28.531250000000 15.914062500000 7.032997131348 163 163 163
28.531250000000 15.914062500000 6.967994689941 165 165 165
28.515625000000 15.914062500000 6.900001525879 135 135 135
28.515625000000 15.914062500000 6.838996887207 150 150 150
28.515625000000 15.921875000000 6.776000976563 162 162 162
28.515625000000 15.921875000000 6.710998535156 161 161 161
28.500000000000 15.921875000000 6.646995544434 156 156 156
28.515625000000 15.921875000000 6.588996887207 156 156 156
28.484375000000 15.921875000000 6.519996643066 136 136 136
28.484375000000 15.921875000000 6.458000183105 125 125 125
28.484375000000 15.921875000000 6.397994995117 123 123 123
28.484375000000 15.929687500000 6.335998535156 117 117 117
28.468750000000 15.929687500000 6.271995544434 105 105 105
28.468750000000 15.929687500000 6.209999084473 105 105 105
28.468750000000 15.929687500000 6.150001525879 100 100 100
28.468750000000 15.929687500000 6.089996337891 102 102 102
28.468750000000 15.929687500000 6.029998779297 93 93 93
28.453125000000 15.937500000000 5.966995239258 83 83 83
28.453125000000 15.937500000000 5.907997131348 53 53 53
28.421875000000 15.937500000000 5.842994689941 25 25 25
28.437500000000 15.945312500000 5.789001464844 110 110 110
28.312500000000 16.250000000000 4.208000183105 45 45 45
28.296875000000 16.250000000000 4.152000427246 79 79 79
28.281250000000 16.250000000000 4.096000671387 96 96 96
28.265625000000 16.250000000000 4.040000915527 103 103 103
28.265625000000 16.250000000000 3.986000061035 118 118 118
28.265625000000 16.250000000000 3.930999755859 128 128 128
28.234375000000 16.250000000000 3.875000000000 124 124 124
28.250000000000 16.250000000000 3.820999145508 120 120 120
28.234375000000 16.257812500000 3.765998840332 140 140 140
28.250000000000 16.257812500000 3.711997985840 145 145 145
28.218750000000 16.257812500000 3.656997680664 146 146 146
28.203125000000 16.257812500000 3.601997375488 140 140 140
28.203125000000 16.257812500000 3.547996520996 140 140 140
28.187500000000 16.257812500000 3.493995666504 148 148 148
28.203125000000 16.257812500000 3.438995361328 154 154 154
28.187500000000 16.265625000000 3.384994506836 157 157 157
28.187500000000 16.265625000000 3.331001281738 154 154 154
28.156250000000 16.265625000000 3.277999877930 152 152 152
28.171875000000 16.265625000000 3.222999572754 165 165 165
28.156250000000 16.265625000000 3.169998168945 172 172 172
28.156250000000 16.265625000000 3.115997314453 171 171 171
28.140625000000 16.265625000000 3.061996459961 170 170 170
28.125000000000 16.265625000000 3.008995056152 158 158 158
28.140625000000 16.265625000000 2.953994750977 170 170 170
28.125000000000 16.265625000000 2.900001525879 172 172 172
28.125000000000 16.281250000000 2.847000122070 177 177 177
28.125000000000 16.281250000000 2.792999267578 172 172 172
28.109375000000 16.281250000000 2.739997863770 178 178 178
28.109375000000 16.281250000000 2.685997009277 177 177 177
28.093750000000 16.281250000000 2.631996154785 181 181 181
28.093750000000 16.281250000000 2.578994750977 183 183 183
28.093750000000 16.281250000000 2.523994445801 178 178 178
28.078125000000 16.281250000000 2.471000671387 178 178 178
28.078125000000 16.289062500000 2.416999816895 182 182 182
28.078125000000 16.289062500000 2.362998962402 185 185 185
28.062500000000 16.289062500000 2.309997558594 188 188 188
28.062500000000 16.289062500000 2.255996704102 189 189 189
28.062500000000 16.289062500000 2.201995849609 188 188 188
28.046875000000 16.289062500000 2.147994995117 182 182 182
28.046875000000 16.289062500000 2.094001770020 187 187 187
28.031250000000 16.289062500000 2.041000366211 186 186 186
28.031250000000 16.289062500000 1.986000061035 188 188 188
28.031250000000 16.289062500000 1.931999206543 186 186 186
28.031250000000 16.296875000000 1.876998901367 184 184 184
28.015625000000 16.296875000000 1.823997497559 181 181 181
28.015625000000 16.296875000000 1.768997192383 181 181 181
28.015625000000 16.296875000000 1.714996337891 181 181 181
28.015625000000 16.296875000000 1.659996032715 182 182 182
28.015625000000 16.296875000000 1.602996826172 176 176 176
28.000000000000 16.296875000000 1.549995422363 179 179 179
28.000000000000 16.296875000000 1.494995117188 179 179 179
27.984375000000 16.304687500000 1.442001342773 181 181 181
27.968750000000 16.304687500000 1.389999389648 76 76 76
27.921875000000 5.343750000000 6.900001525879 95 95 95
28.046875000000 5.265625000000 6.876998901367 29 29 29
27.890625000000 5.335937500000 5.866996765137 103 103 103
28.015625000000 5.265625000000 5.833000183105 10 10 10
27.906250000000 5.273437500000 3.672996520996 22 22 22
27.906250000000 5.265625000000 3.612998962402 52 52 52
27.890625000000 5.281250000000 3.552001953125 74 74 74
27.906250000000 5.273437500000 3.491996765137 92 92 92
27.890625000000 5.281250000000 3.431999206543 106 106 106
27.890625000000 5.273437500000 3.370994567871 111 111 111
27.875000000000 5.281250000000 3.310997009277 118 118 118
27.859375000000 5.296875000000 3.251998901367 116 116 116
27.859375000000 5.289062500000 3.191001892090 123 123 123
27.859375000000 5.296875000000 3.130996704102 128 128 128
27.859375000000 5.296875000000 3.070999145508 122 122 122
27.859375000000 5.296875000000 3.011001586914 132 132 132
27.859375000000 5.289062500000 2.948997497559 133 133 133
27.859375000000 5.289062500000 2.888999938965 140 140 140
27.843750000000 5.296875000000 2.828994750977 141 141 141
27.859375000000 5.289062500000 2.767997741699 145 145 145
27.843750000000 5.289062500000 2.708000183105 151 151 151
27.843750000000 5.296875000000 2.647994995117 153 153 153
27.843750000000 5.289062500000 2.585998535156 161 161 161
27.843750000000 5.289062500000 2.525001525879 172 172 172
27.843750000000 5.289062500000 2.464996337891 174 174 174
27.843750000000 5.289062500000 2.403999328613 180 180 180
27.828125000000 5.289062500000 2.342994689941 170 170 170
27.828125000000 5.289062500000 2.282997131348 179 179 179
27.828125000000 5.289062500000 2.222000122070 181 181 181
27.812500000000 5.296875000000 2.161994934082 176 176 176
27.812500000000 5.289062500000 2.099998474121 178 178 178
27.812500000000 5.289062500000 2.037994384766 179 179 179
27.796875000000 5.296875000000 1.978996276855 176 176 176
27.812500000000 5.289062500000 1.915000915527 173 173 173
27.812500000000 5.289062500000 1.851997375488 172 172 172
27.796875000000 5.296875000000 1.792999267578 171 171 171
27.796875000000 5.289062500000 1.730995178223 178 178 178
27.796875000000 5.289062500000 1.668998718262 169 169 169
27.796875000000 5.289062500000 1.605995178223 172 172 172
27.796875000000 5.289062500000 1.543998718262 172 172 172
27.796875000000 5.289062500000 1.481994628906 173 173 173
27.796875000000 5.289062500000 1.419998168945 174 174 174
27.781250000000 5.296875000000 1.359001159668 166 166 166
27.781250000000 5.289062500000 1.293998718262 168 168 168
27.781250000000 5.289062500000 1.231994628906 173 173 173
27.781250000000 5.296875000000 1.170997619629 167 167 167
27.781250000000 5.289062500000 1.103996276855 163 163 163
27.781250000000 5.289062500000 1.041999816895 165 165 165
27.765625000000 5.289062500000 0.978996276855 156 156 156
27.765625000000 5.289062500000 0.915000915527 146 146 146
27.765625000000 5.289062500000 0.850997924805 151 151 151
27.734375000000 5.312500000000 0.798995971680 154 154 154
27.937500000000 5.593750000000 6.805000305176 24 24 24
27.906250000000 5.585937500000 5.836997985840 77 77 77
27.953125000000 5.859375000000 6.714996337891 23 23 23
27.906250000000 5.859375000000 5.870994567871 74 74 74
27.968750000000 6.140625000000 6.625999450684 43 43 43
27.953125000000 6.132812500000 5.852996826172 98 98 98
28.000000000000 6.406250000000 6.545997619629 24 24 24
27.968750000000 6.406250000000 5.897994995117 23 23 23
27.968750000000 6.406250000000 5.834999084473 81 81 81
28.015625000000 6.671875000000 6.453994750977 20 20 20
27.984375000000 6.671875000000 5.869995117188 103 103 103
28.031250000000 6.929687500000 6.355995178223 27 27 27
28.015625000000 6.929687500000 5.903999328613 10 10 10
28.015625000000 6.921875000000 5.840995788574 110 110 110
28.046875000000 7.187500000000 6.264999389648 20 20 20
28.031250000000 7.187500000000 5.876998901367 101 101 101
28.046875000000 7.179687500000 5.817001342773 13 13 13
28.046875000000 7.468750000000 6.108001708984 11 11 11
28.062500000000 7.460937500000 5.852996826172 111 111 111
28.093750000000 7.718750000000 6.031997680664 19 19 19
28.078125000000 7.726562500000 5.901000976563 18 18 18
28.093750000000 7.726562500000 5.836997985840 89 89 89
28.125000000000 7.984375000000 5.947998046875 32 32 32
28.109375000000 8.000000000000 5.877998352051 95 95 95
28.125000000000 7.984375000000 5.818000793457 13 13 13
28.125000000000 8.265625000000 5.852996826172 117 117 117
28.187500000000 8.226562500000 5.802001953125 44 44 44
28.218750000000 8.210937500000 5.743995666504 65 65 65
28.203125000000 8.218750000000 5.675994873047 63 63 63
28.203125000000 8.210937500000 5.613998413086 70 70 70
28.203125000000 8.210937500000 5.549995422363 84 84 84
28.140625000000 8.531250000000 5.887001037598 42 42 42
28.140625000000 8.523437500000 5.824996948242 79 79 79
28.234375000000 8.460937500000 5.585998535156 44 44 44
28.234375000000 8.460937500000 5.520996093750 13 13 13
28.171875000000 8.789062500000 5.859001159668 128 128 128
28.250000000000 8.742187500000 5.549995422363 111 111 111
28.203125000000 9.054687500000 5.896995544434 27 27 27
28.187500000000 9.054687500000 5.828994750977 94 94 94
28.265625000000 9.007812500000 5.585998535156 15 15 15
28.265625000000 9.000000000000 5.521995544434 48 48 48
28.203125000000 9.335937500000 5.864997863770 98 98 98
28.218750000000 9.320312500000 5.805999755859 8 8 8
28.281250000000 9.281250000000 5.558998107910 97 97 97
28.234375000000 9.601562500000 5.839996337891 126 126 126
28.328125000000 9.531250000000 5.533996582031 96 96 96
28.234375000000 9.875000000000 5.877998352051 60 60 60
28.234375000000 9.875000000000 5.813995361328 69 69 69
28.312500000000 9.828125000000 5.763999938965 126 126 126
28.312500000000 9.828125000000 5.698997497559 189 189 189
28.328125000000 9.812500000000 5.636001586914 179 179 179
28.343750000000 9.804687500000 5.573997497559 180 180 180
28.375000000000 9.789062500000 5.513000488281 6 6 6
28.265625000000 10.148437500000 5.849998474121 97 97 97
28.328125000000 10.109375000000 5.797996520996 9 9 9
28.328125000000 10.093750000000 5.735000610352 142 142 142
28.359375000000 10.085937500000 5.673995971680 110 110 110
28.359375000000 10.078125000000 5.610000610352 135 135 135
28.375000000000 10.070312500000 5.544998168945 133 133 133
28.281250000000 10.406250000000 5.821998596191 114 114 114
28.343750000000 10.359375000000 5.769996643066 88 88 88
28.343750000000 10.359375000000 5.705001831055 165 165 165
28.375000000000 10.343750000000 5.642997741699 148 148 148
28.390625000000 10.335937500000 5.581001281738 185 185 185
28.375000000000 10.335937500000 5.514999389648 60 60 60
28.281250000000 10.679687500000 5.855995178223 93 93 93
28.312500000000 10.664062500000 5.794998168945 24 24 24
28.359375000000 10.625000000000 5.739997863770 147 147 147
28.375000000000 10.617187500000 5.675994873047 193 193 193
28.375000000000 10.609375000000 5.611999511719 171 171 171
28.390625000000 10.601562500000 5.548995971680 161 161 161
28.312500000000 10.945312500000 5.826995849609 111 111 111
28.375000000000 10.898437500000 5.775001525879 61 61 61
28.390625000000 10.898437500000 5.708999633789 165 165 165
28.390625000000 10.882812500000 5.645996093750 172 172 172
28.406250000000 10.882812500000 5.581001281738 165 165 165
28.421875000000 10.867187500000 5.517997741699 95 95 95
28.312500000000 11.218750000000 5.862998962402 15 15 15
28.328125000000 11.210937500000 5.798995971680 92 92 92
28.390625000000 11.164062500000 5.745994567871 95 95 95
28.406250000000 11.156250000000 5.683998107910 151 151 151
28.406250000000 11.148437500000 5.617996215820 173 173 173
28.421875000000 11.140625000000 5.555999755859 182 182 182
28.437500000000 11.132812500000 5.489997863770 13 13 13
28.343750000000 11.484375000000 5.833000183105 98 98 98
28.406250000000 11.437500000000 5.715995788574 150 150 150
28.437500000000 11.414062500000 5.655998229980 147 147 147
28.453125000000 11.406250000000 5.592994689941 137 137 137
28.453125000000 11.398437500000 5.527000427246 137 137 137
28.343750000000 11.750000000000 5.804000854492 92 92 92
28.421875000000 11.703125000000 5.753997802734 53 53 53
28.437500000000 11.695312500000 5.688995361328 169 169 169
28.453125000000 11.687500000000 5.625000000000 169 169 169
28.468750000000 11.671875000000 5.562995910645 181 181 181
28.468750000000 11.671875000000 5.498001098633 64 64 64
28.359375000000 12.015625000000 5.839996337891 78 78 78
28.375000000000 12.000000000000 5.777999877930 42 42 42
28.484375000000 11.937500000000 5.530998229980 27 27 27
28.390625000000 12.281250000000 5.808998107910 126 126 126
28.531250000000 12.195312500000 5.503997802734 71 71 71
28.390625000000 12.554687500000 5.845001220703 45 45 45
28.375000000000 12.562500000000 5.777000427246 72 72 72
28.546875000000 12.453125000000 5.544998168945 103 103 103
28.406250000000 12.828125000000 5.819000244141 112 112 112
28.578125000000 12.710937500000 5.586997985840 35 35 35
28.593750000000 12.703125000000 5.523994445801 14 14 14
28.421875000000 13.093750000000 5.855995178223 68 68 68
28.421875000000 13.093750000000 5.787994384766 83 83 83
28.609375000000 12.976562500000 5.558998107910 13 13 13
28.437500000000 13.359375000000 5.960998535156 48 48 48
28.421875000000 13.367187500000 5.820999145508 100 100 100
28.484375000000 13.335937500000 5.768997192383 21 21 21
28.500000000000 13.609375000000 6.073997497559 66 66 66
28.421875000000 13.648437500000 5.790000915527 104 104 104
28.500000000000 13.890625000000 6.183998107910 59 59 59
28.421875000000 13.921875000000 5.833000183105 71 71 71
28.437500000000 13.914062500000 5.769996643066 33 33 33
28.531250000000 14.156250000000 6.297996520996 39 39 39
28.437500000000 14.195312500000 5.805999755859 112 112 112
28.531250000000 14.429687500000 6.402000427246 13 13 13
28.437500000000 14.476562500000 5.837997436523 54 54 54
28.453125000000 14.468750000000 5.772994995117 51 51 51
28.562500000000 14.687500000000 6.444000244141 23 23 23
28.437500000000 14.742187500000 5.805000305176 114 114 114
28.453125000000 15.023437500000 5.840995788574 50 50 50
28.468750000000 15.007812500000 5.777000427246 58 58 58
28.593750000000 15.234375000000 6.667999267578 25 25 25
28.453125000000 15.289062500000 5.814994812012 111 111 111
28.625000000000 15.507812500000 6.779998779297 25 25 25
28.468750000000 15.562500000000 5.852996826172 10 10 10
28.468750000000 15.570312500000 5.784996032715 91 91 91
28.484375000000 15.859375000000 6.916999816895 64 64 64
28.578125000000 15.804687500000 6.876998901367 79 79 79
28.468750000000 15.843750000000 5.820999145508 100 100 100
27.843750000000 16.101562500000 0.960998535156 176 176 176
28.640625000000 16.046875000000 6.862998962402 9 9 9
28.625000000000 16.046875000000 6.789001464844 16 16 16
28.625000000000 16.046875000000 6.720001220703 34 34 34
28.609375000000 16.054687500000 6.643997192383 46 46 46
28.593750000000 16.062500000000 6.569999694824 64 64 64
28.578125000000 16.070312500000 6.499000549316 68 68 68
28.562500000000 16.070312500000 6.425994873047 75 75 75
28.562500000000 16.070312500000 6.355995178223 71 71 71
28.546875000000 16.085937500000 6.282997131348 80 80 80
28.531250000000 16.093750000000 6.209999084473 88 88 88
28.531250000000 16.085937500000 6.142997741699 94 94 94
28.515625000000 16.101562500000 6.069999694824 99 99 99
28.500000000000 16.101562500000 5.999000549316 112 112 112
28.500000000000 16.101562500000 5.930999755859 123 123 123
28.500000000000 16.101562500000 5.862998962402 119 119 119
28.484375000000 16.109375000000 5.794998168945 110 110 110
28.468750000000 16.117187500000 5.724998474121 126 126 126
28.453125000000 16.125000000000 5.655998229980 140 140 140
28.453125000000 16.125000000000 5.589996337891 145 145 145
28.453125000000 16.125000000000 5.520996093750 153 153 153
28.437500000000 16.132812500000 5.452995300293 150 150 150
28.437500000000 16.140625000000 5.383995056152 149 149 149
28.421875000000 16.132812500000 5.319000244141 150 150 150
28.406250000000 16.140625000000 5.250999450684 162 162 162
28.421875000000 16.148437500000 5.183998107910 164 164 164
28.406250000000 16.156250000000 5.116996765137 156 156 156
28.390625000000 16.156250000000 5.049995422363 164 164 164
28.390625000000 16.164062500000 4.984001159668 164 164 164
28.375000000000 16.164062500000 4.918998718262 166 166 166
28.375000000000 16.164062500000 4.851997375488 169 169 169
28.359375000000 16.171875000000 4.786994934082 160 160 160
28.359375000000 16.164062500000 4.722000122070 166 166 166
28.343750000000 16.179687500000 4.655998229980 172 172 172
28.359375000000 16.171875000000 4.591995239258 175 175 175
28.328125000000 16.179687500000 4.526000976563 173 173 173
28.328125000000 16.179687500000 4.461997985840 175 175 175
28.328125000000 16.179687500000 4.396995544434 168 168 168
28.312500000000 16.187500000000 4.332000732422 167 167 167
28.312500000000 16.187500000000 4.267997741699 171 171 171
28.281250000000 16.195312500000 4.202995300293 174 174 174
28.281250000000 16.195312500000 4.138000488281 173 173 173
28.265625000000 16.203125000000 4.073997497559 172 172 172
28.265625000000 16.203125000000 4.009994506836 173 173 173
28.250000000000 16.210937500000 3.945999145508 183 183 183
28.265625000000 16.203125000000 3.882995605469 181 181 181
28.234375000000 16.218750000000 3.819000244141 168 168 168
28.234375000000 16.218750000000 3.754997253418 185 185 185
28.218750000000 16.226562500000 3.692001342773 180 180 180
28.234375000000 16.218750000000 3.627998352051 182 182 182
28.218750000000 16.226562500000 3.564994812012 176 176 176
28.203125000000 16.226562500000 3.500999450684 182 182 182
28.203125000000 16.226562500000 3.437995910645 182 182 182
28.187500000000 16.234375000000 3.375000000000 187 187 187
28.187500000000 16.234375000000 3.310997009277 175 175 175
28.187500000000 16.234375000000 3.248001098633 187 187 187
28.171875000000 16.234375000000 3.184997558594 189 189 189
28.171875000000 16.234375000000 3.122001647949 192 192 192
28.171875000000 16.234375000000 3.058998107910 188 188 188
28.156250000000 16.250000000000 2.997001647949 185 185 185
28.140625000000 16.250000000000 2.933998107910 190 190 190
28.140625000000 16.250000000000 2.869995117188 190 190 190
28.140625000000 16.250000000000 2.806999206543 188 188 188
28.125000000000 16.265625000000 2.744995117188 191 191 191
28.125000000000 16.265625000000 2.680999755859 191 191 191
28.109375000000 16.265625000000 2.617996215820 189 189 189
28.109375000000 16.265625000000 2.555000305176 190 190 190
28.093750000000 16.273437500000 2.491996765137 180 180 180
28.109375000000 16.265625000000 2.427001953125 189 189 189
28.093750000000 16.273437500000 2.364997863770 190 190 190
28.078125000000 16.273437500000 2.303001403809 188 188 188
28.078125000000 16.273437500000 2.238998413086 190 190 190
28.078125000000 16.281250000000 2.175994873047 189 189 189
28.062500000000 16.281250000000 2.113998413086 193 193 193
28.062500000000 16.281250000000 2.048995971680 192 192 192
28.062500000000 16.281250000000 1.985000610352 189 189 189
28.046875000000 16.289062500000 1.923995971680 190 190 190
28.046875000000 16.281250000000 1.858001708984 187 187 187
28.046875000000 16.289062500000 1.794998168945 187 187 187
28.031250000000 16.289062500000 1.730995178223 180 180 180
28.015625000000 16.296875000000 1.668998718262 182 182 182
28.031250000000 16.289062500000 1.600997924805 177 177 177
28.031250000000 16.289062500000 1.534996032715 181 181 181
28.031250000000 16.289062500000 1.471000671387 184 184 184
28.046875000000 16.273437500000 1.334999084473 172 172 172
28.015625000000 16.281250000000 1.208000183105 163 163 163
28.015625000000 16.289062500000 1.143997192383 149 149 149
28.015625000000 16.281250000000 1.075996398926 144 144 144
