19.250000000000 6.695312500000 6.917999267578 156 156 156
19.234375000000 6.703125000000 6.927001953125 146 146 146
19.218750000000 6.742187500000 8.020996093750 90 90 90
19.203125000000 6.757812500000 8.040000915527 62 62 62
19.250000000000 6.406250000000 6.919998168945 148 148 148
19.218750000000 6.460937500000 8.044998168945 106 106 106
19.250000000000 6.109375000000 6.921997070313 89 89 89
19.234375000000 6.117187500000 6.916999816895 156 156 156
19.250000000000 6.156250000000 8.040000915527 61 61 61
19.218750000000 6.164062500000 8.026000976563 110 110 110
19.265625000000 5.812500000000 6.910995483398 151 151 151
19.250000000000 5.820312500000 6.923995971680 137 137 137
19.234375000000 5.859375000000 8.013000488281 96 96 96
19.203125000000 5.867187500000 8.032997131348 46 46 46
19.265625000000 5.523437500000 6.911994934082 159 159 159
19.250000000000 5.531250000000 6.929000854492 69 69 69
19.234375000000 5.570312500000 8.026000976563 95 95 95
19.250000000000 5.234375000000 6.910995483398 156 156 156
19.218750000000 5.281250000000 8.025001525879 99 99 99
19.281250000000 4.937500000000 6.908996582031 123 123 123
19.265625000000 4.945312500000 6.902999877930 162 162 162
19.234375000000 4.992187500000 8.040000915527 118 118 118
19.265625000000 4.640625000000 6.902000427246 161 161 161
19.250000000000 4.648437500000 6.910995483398 55 55 55
19.234375000000 4.687500000000 8.031997680664 85 85 85
19.281250000000 4.335937500000 6.894996643066 92 92 92
19.265625000000 4.343750000000 6.904998779297 159 159 159
19.234375000000 4.390625000000 8.036994934082 112 112 112
19.281250000000 4.046875000000 6.895996093750 175 175 175
19.250000000000 4.054687500000 6.892997741699 194 194 194
19.250000000000 4.093750000000 8.035995483398 66 66 66
19.234375000000 4.101562500000 8.030998229980 111 111 111
19.281250000000 3.757812500000 6.896995544434 172 172 172
19.265625000000 3.765625000000 6.897994995117 140 140 140
19.250000000000 3.812500000000 8.039001464844 75 75 75
19.218750000000 3.820312500000 8.033996582031 90 90 90
19.281250000000 3.468750000000 6.892997741699 160 160 160
19.265625000000 3.476562500000 6.907997131348 76 76 76
19.250000000000 3.523437500000 8.026000976563 85 85 85
19.296875000000 3.156250000000 6.892997741699 51 51 51
19.281250000000 3.171875000000 6.898994445801 163 163 163
19.234375000000 3.226562500000 8.031997680664 107 107 107
19.296875000000 2.875000000000 6.886001586914 161 161 161
19.281250000000 2.882812500000 6.880996704102 160 160 160
19.250000000000 2.921875000000 8.031997680664 78 78 78
19.234375000000 2.937500000000 8.028999328613 89 89 89
19.281250000000 2.578125000000 6.879997253418 159 159 159
19.234375000000 2.632812500000 8.041999816895 91 91 91
19.296875000000 2.281250000000 6.868995666504 62 62 62
19.296875000000 2.289062500000 6.892997741699 156 156 156
19.234375000000 2.351562500000 8.026000976563 117 117 117
19.296875000000 1.992187500000 6.887001037598 92 92 92
19.281250000000 2.000000000000 6.878997802734 166 166 166
19.265625000000 2.054687500000 8.040000915527 44 44 44
19.250000000000 2.062500000000 8.035995483398 110 110 110
19.312500000000 1.695312500000 6.886001586914 135 135 135
19.281250000000 1.703125000000 6.879997253418 177 177 177
19.250000000000 1.757812500000 8.030998229980 70 70 70
19.234375000000 1.773437500000 8.041999816895 87 87 87
19.312500000000 1.398437500000 6.881996154785 176 176 176
19.296875000000 1.406250000000 6.888999938965 141 141 141
19.265625000000 1.468750000000 8.037994384766 86 86 86
19.296875000000 1.109375000000 6.874000549316 164 164 164
19.265625000000 1.164062500000 8.037994384766 45 45 45
19.250000000000 1.171875000000 8.043998718262 111 111 111
19.312500000000 0.820312500000 6.884994506836 107 107 107
19.296875000000 0.820312500000 6.884994506836 173 173 173
19.265625000000 0.875000000000 8.036994934082 76 76 76
19.312500000000 0.523437500000 6.883995056152 143 143 143
19.296875000000 0.531250000000 6.870994567871 189 189 189
19.250000000000 0.585937500000 8.033996582031 86 86 86
19.312500000000 0.226562500000 6.880996704102 125 125 125
19.296875000000 0.234375000000 6.865997314453 193 193 193
19.265625000000 0.289062500000 8.037994384766 83 83 83
19.265625000000 0.000000000000 8.047996520996 101 101 101
22.062500000000 18.851562500000 9.583999633789 167 167 167
21.656250000000 18.859375000000 9.624000549316 148 148 148
21.625000000000 18.859375000000 9.650001525879 22 22 22
19.156250000000 18.859375000000 7.027000427246 253 253 253
19.140625000000 18.859375000000 7.035995483398 254 254 254
19.109375000000 18.859375000000 7.036994934082 70 70 70
19.125000000000 18.851562500000 8.170997619629 95 95 95
22.296875000000 18.593750000000 6.722000122070 179 179 179
22.281250000000 18.593750000000 6.741996765137 108 108 108
21.656250000000 18.570312500000 8.184997558594 170 170 170
21.640625000000 18.570312500000 8.202995300293 145 145 145
22.093750000000 18.554687500000 9.580001831055 176 176 176
21.671875000000 18.562500000000 9.629997253418 158 158 158
19.171875000000 18.562500000000 7.049995422363 150 150 150
19.156250000000 18.562500000000 7.050994873047 254 254 254
19.125000000000 18.562500000000 7.037994384766 67 67 67
19.156250000000 18.554687500000 8.179000854492 85 85 85
22.296875000000 18.296875000000 6.710998535156 167 167 167
22.265625000000 18.296875000000 6.729995727539 148 148 148
21.640625000000 18.273437500000 8.208000183105 173 173 173
22.093750000000 18.257812500000 9.584999084473 160 160 160
22.062500000000 18.257812500000 9.602996826172 47 47 47
21.687500000000 18.265625000000 9.627998352051 150 150 150
21.640625000000 18.265625000000 9.625999450684 19 19 19
19.156250000000 18.265625000000 7.039001464844 215 215 215
19.125000000000 18.257812500000 7.026000976563 94 94 94
19.156250000000 18.257812500000 8.169998168945 98 98 98
22.296875000000 18.000000000000 6.696998596191 118 118 118
22.296875000000 18.000000000000 6.722000122070 172 172 172
21.671875000000 17.976562500000 8.205001831055 165 165 165
21.640625000000 17.976562500000 8.217994689941 123 123 123
22.125000000000 17.968750000000 9.584999084473 139 139 139
22.093750000000 17.960937500000 9.595001220703 112 112 112
21.718750000000 17.960937500000 9.627998352051 131 131 131
21.671875000000 17.968750000000 9.650001525879 66 66 66
19.171875000000 17.960937500000 7.032997131348 247 247 247
19.140625000000 17.960937500000 7.037994384766 150 150 150
19.140625000000 17.953125000000 8.155998229980 111 111 111
22.328125000000 17.703125000000 6.696998596191 81 81 81
22.296875000000 17.703125000000 6.708000183105 176 176 176
21.687500000000 17.687500000000 8.205001831055 88 88 88
21.671875000000 17.687500000000 8.221000671387 169 169 169
22.156250000000 17.671875000000 9.575996398926 129 129 129
22.125000000000 17.664062500000 9.600997924805 116 116 116
21.734375000000 17.664062500000 9.625000000000 139 139 139
21.703125000000 17.664062500000 9.630996704102 43 43 43
19.171875000000 17.664062500000 7.034996032715 237 237 237
19.140625000000 17.664062500000 7.032997131348 254 254 254
19.140625000000 17.656250000000 8.147994995117 80 80 80
22.296875000000 17.414062500000 6.700996398926 176 176 176
21.671875000000 17.390625000000 8.225997924805 165 165 165
21.640625000000 17.390625000000 8.231994628906 34 34 34
22.171875000000 17.375000000000 9.596000671387 105 105 105
22.125000000000 17.375000000000 9.597000122070 122 122 122
21.750000000000 17.367187500000 9.622001647949 146 146 146
21.703125000000 17.367187500000 9.639999389648 28 28 28
19.171875000000 17.367187500000 7.029998779297 136 136 136
19.156250000000 17.367187500000 7.027000427246 229 229 229
19.140625000000 17.367187500000 7.013999938965 50 50 50
19.156250000000 17.359375000000 8.142997741699 90 90 90
22.312500000000 17.117187500000 6.693000793457 178 178 178
22.296875000000 17.117187500000 6.711997985840 69 69 69
21.687500000000 17.085937500000 8.222000122070 152 152 152
21.656250000000 17.093750000000 8.235000610352 152 152 152
22.187500000000 17.078125000000 9.578994750977 70 70 70
22.156250000000 17.078125000000 9.602996826172 149 149 149
21.765625000000 17.078125000000 9.626998901367 151 151 151
21.734375000000 17.070312500000 9.641998291016 49 49 49
19.187500000000 17.078125000000 7.008995056152 60 60 60
19.171875000000 17.070312500000 7.027999877930 227 227 227
19.156250000000 17.070312500000 7.019996643066 79 79 79
19.171875000000 17.070312500000 8.151000976563 60 60 60
19.156250000000 17.062500000000 8.145996093750 95 95 95
22.312500000000 16.820312500000 6.683998107910 170 170 170
22.296875000000 16.820312500000 6.705001831055 126 126 126
21.671875000000 16.789062500000 8.236999511719 166 166 166
22.203125000000 16.781250000000 9.585998535156 40 40 40
22.156250000000 16.781250000000 9.591995239258 152 152 152
21.781250000000 16.781250000000 9.632995605469 143 143 143
21.750000000000 16.773437500000 9.646995544434 37 37 37
19.171875000000 16.781250000000 7.011001586914 202 202 202
19.156250000000 16.773437500000 7.019996643066 108 108 108
19.156250000000 16.765625000000 8.136001586914 103 103 103
22.328125000000 16.531250000000 6.668998718262 147 147 147
22.296875000000 16.523437500000 6.688995361328 170 170 170
21.687500000000 16.500000000000 8.235000610352 165 165 165
21.671875000000 16.492187500000 8.250999450684 110 110 110
22.187500000000 16.492187500000 9.597000122070 158 158 158
21.812500000000 16.484375000000 9.640998840332 125 125 125
21.765625000000 16.484375000000 9.630996704102 86 86 86
19.187500000000 16.484375000000 7.006996154785 253 253 253
19.171875000000 16.484375000000 7.003997802734 184 184 184
19.171875000000 16.468750000000 8.133995056152 92 92 92
22.312500000000 16.234375000000 6.686996459961 174 174 174
22.296875000000 16.234375000000 6.714996337891 26 26 26
21.671875000000 16.203125000000 8.243995666504 163 163 163
22.203125000000 16.195312500000 9.588996887207 156 156 156
21.828125000000 16.195312500000 9.645996093750 17 17 17
21.781250000000 16.187500000000 9.632995605469 164 164 164
19.187500000000 16.187500000000 7.009994506836 117 117 117
19.171875000000 16.187500000000 7.015998840332 224 224 224
19.140625000000 16.179687500000 7.020996093750 55 55 55
19.171875000000 16.179687500000 8.124000549316 36 36 36
19.140625000000 16.171875000000 8.125999450684 99 99 99
22.312500000000 15.945312500000 6.665000915527 176 176 176
22.296875000000 15.945312500000 6.686996459961 114 114 114
21.703125000000 15.906250000000 8.245994567871 168 168 168
21.671875000000 15.906250000000 8.256996154785 126 126 126
22.218750000000 15.906250000000 9.583000183105 158 158 158
21.796875000000 15.898437500000 9.630996704102 168 168 168
19.203125000000 15.890625000000 6.991996765137 62 62 62
19.187500000000 15.890625000000 7.007995605469 246 246 246
19.156250000000 15.890625000000 7.013000488281 92 92 92
19.171875000000 15.882812500000 8.118995666504 80 80 80
22.343750000000 15.640625000000 6.658996582031 161 161 161
22.312500000000 15.648437500000 6.678001403809 164 164 164
21.718750000000 15.617187500000 8.248001098633 70 70 70
21.687500000000 15.617187500000 8.257995605469 166 166 166
22.250000000000 15.609375000000 9.586997985840 163 163 163
21.812500000000 15.601562500000 9.643997192383 164 164 164
19.187500000000 15.593750000000 6.994995117188 210 210 210
19.156250000000 15.593750000000 7.012001037598 112 112 112
19.171875000000 15.585937500000 8.099998474121 85 85 85
22.343750000000 15.343750000000 6.653999328613 55 55 55
22.312500000000 15.343750000000 6.667999267578 171 171 171
21.703125000000 15.320312500000 8.265998840332 167 167 167
21.671875000000 15.312500000000 8.276000976563 98 98 98
22.250000000000 15.320312500000 9.581001281738 159 159 159
22.218750000000 15.312500000000 9.589996337891 42 42 42
21.843750000000 15.312500000000 9.637001037598 161 161 161
19.203125000000 15.296875000000 6.992996215820 253 253 253
19.171875000000 15.296875000000 6.984001159668 253 253 253
19.187500000000 15.289062500000 8.105995178223 39 39 39
19.156250000000 15.289062500000 8.102996826172 96 96 96
22.343750000000 15.046875000000 6.665000915527 171 171 171
22.328125000000 15.046875000000 6.689994812012 103 103 103
21.734375000000 15.023437500000 8.264999389648 38 38 38
21.703125000000 15.023437500000 8.276000976563 165 165 165
22.281250000000 15.023437500000 9.576995849609 129 129 129
22.250000000000 15.015625000000 9.592994689941 120 120 120
21.875000000000 15.015625000000 9.639999389648 149 149 149
19.218750000000 15.000000000000 6.985000610352 100 100 100
19.187500000000 15.000000000000 7.008995056152 245 245 245
19.171875000000 15.000000000000 6.977996826172 73 73 73
19.156250000000 14.992187500000 8.108001708984 67 67 67
22.343750000000 14.750000000000 6.652999877930 109 109 109
22.328125000000 14.750000000000 6.669998168945 171 171 171
21.718750000000 14.726562500000 8.277999877930 168 168 168
21.687500000000 14.726562500000 8.287994384766 123 123 123
22.265625000000 14.726562500000 9.595001220703 154 154 154
21.875000000000 14.718750000000 9.628997802734 157 157 157
19.187500000000 14.703125000000 6.991996765137 215 215 215
19.171875000000 14.703125000000 6.989997863770 143 143 143
19.187500000000 14.695312500000 8.097000122070 83 83 83
19.156250000000 14.695312500000 8.111000061035 66 66 66
22.343750000000 14.460937500000 6.651000976563 168 168 168
22.328125000000 14.460937500000 6.673995971680 98 98 98
21.718750000000 14.437500000000 8.292999267578 165 165 165
22.296875000000 14.437500000000 9.595001220703 145 145 145
21.906250000000 14.429687500000 9.625000000000 140 140 140
21.875000000000 14.429687500000 9.645996093750 54 54 54
19.218750000000 14.414062500000 6.987998962402 122 122 122
19.187500000000 14.414062500000 6.987998962402 232 232 232
19.171875000000 14.414062500000 6.984001159668 70 70 70
19.171875000000 14.406250000000 8.095001220703 64 64 64
22.343750000000 14.171875000000 6.645996093750 115 115 115
22.328125000000 14.171875000000 6.659996032715 175 175 175
21.718750000000 14.148437500000 8.283996582031 131 131 131
21.703125000000 14.140625000000 8.309997558594 161 161 161
22.312500000000 14.140625000000 9.586997985840 155 155 155
22.281250000000 14.140625000000 9.611999511719 25 25 25
21.921875000000 14.140625000000 9.625999450684 51 51 51
21.890625000000 14.140625000000 9.645996093750 143 143 143
19.203125000000 14.117187500000 6.975997924805 206 206 206
19.171875000000 14.117187500000 6.980995178223 118 118 118
19.187500000000 14.109375000000 8.083000183105 87 87 87
19.156250000000 14.109375000000 8.077995300293 59 59 59
22.343750000000 13.875000000000 6.656997680664 170 170 170
22.343750000000 13.875000000000 6.687995910645 51 51 51
21.718750000000 13.851562500000 8.305000305176 164 164 164
21.687500000000 13.851562500000 8.314994812012 35 35 35
22.343750000000 13.843750000000 9.590995788574 153 153 153
22.296875000000 13.843750000000 9.597999572754 102 102 102
21.921875000000 13.843750000000 9.644996643066 166 166 166
19.218750000000 13.812500000000 6.977996826172 183 183 183
19.187500000000 13.820312500000 6.988998413086 254 254 254
19.171875000000 13.820312500000 6.967994689941 64 64 64
19.171875000000 13.812500000000 8.074996948242 90 90 90
22.359375000000 13.578125000000 6.641998291016 166 166 166
22.343750000000 13.578125000000 6.656997680664 149 149 149
21.734375000000 13.554687500000 8.306999206543 137 137 137
21.703125000000 13.554687500000 8.322998046875 160 160 160
22.375000000000 13.546875000000 9.598999023438 101 101 101
22.312500000000 13.546875000000 9.602996826172 135 135 135
21.937500000000 13.539062500000 9.643997192383 167 167 167
19.203125000000 13.515625000000 6.983001708984 235 235 235
19.171875000000 13.523437500000 6.983001708984 93 93 93
19.187500000000 13.515625000000 8.075996398926 88 88 88
22.343750000000 13.281250000000 6.653999328613 173 173 173
21.734375000000 13.257812500000 8.314994812012 169 169 169
21.703125000000 13.257812500000 8.327995300293 75 75 75
22.359375000000 13.257812500000 9.604995727539 154 154 154
21.968750000000 13.250000000000 9.644996643066 153 153 153
19.218750000000 13.226562500000 6.990997314453 213 213 213
19.187500000000 13.226562500000 6.974998474121 253 253 253
19.171875000000 13.226562500000 6.972000122070 42 42 42
19.171875000000 13.226562500000 8.085998535156 92 92 92
22.359375000000 12.992187500000 6.631996154785 163 163 163
22.343750000000 12.992187500000 6.654998779297 164 164 164
21.734375000000 12.968750000000 8.342994689941 172 172 172
22.375000000000 12.968750000000 9.592994689941 177 177 177
22.359375000000 12.968750000000 9.624000549316 35 35 35
22.000000000000 12.960937500000 9.645996093750 151 151 151
21.968750000000 12.960937500000 9.662994384766 30 30 30
19.203125000000 12.929687500000 6.974998474121 223 223 223
19.171875000000 12.937500000000 6.976997375488 135 135 135
19.187500000000 12.921875000000 8.071998596191 100 100 100
22.359375000000 12.703125000000 6.646995544434 170 170 170
22.343750000000 12.703125000000 6.677001953125 37 37 37
21.750000000000 12.671875000000 8.332000732422 125 125 125
21.718750000000 12.671875000000 8.342994689941 158 158 158
22.406250000000 12.671875000000 9.600997924805 111 111 111
22.359375000000 12.671875000000 9.604995727539 118 118 118
22.015625000000 12.664062500000 9.652000427246 48 48 48
21.984375000000 12.664062500000 9.661994934082 150 150 150
19.218750000000 12.632812500000 6.972000122070 135 135 135
19.203125000000 12.632812500000 6.976997375488 235 235 235
19.171875000000 12.640625000000 6.966995239258 70 70 70
19.187500000000 12.625000000000 8.071998596191 95 95 95
22.375000000000 12.406250000000 6.637001037598 164 164 164
22.359375000000 12.406250000000 6.654998779297 167 167 167
21.750000000000 12.375000000000 8.342994689941 166 166 166
22.406250000000 12.375000000000 9.617996215820 188 188 188
22.015625000000 12.367187500000 9.659996032715 159 159 159
19.218750000000 12.335937500000 6.967994689941 236 236 236
19.203125000000 12.335937500000 6.977996826172 139 139 139
19.203125000000 12.328125000000 8.049995422363 91 91 91
22.375000000000 12.109375000000 6.632995605469 26 26 26
22.359375000000 12.109375000000 6.645996093750 172 172 172
21.765625000000 12.078125000000 8.355995178223 75 75 75
21.718750000000 12.078125000000 8.349998474121 162 162 162
22.406250000000 12.078125000000 9.609001159668 140 140 140
22.031250000000 12.070312500000 9.657997131348 153 153 153
19.218750000000 12.039062500000 6.962997436523 253 253 253
19.203125000000 12.039062500000 6.972000122070 254 254 254
19.171875000000 12.031250000000 6.953994750977 62 62 62
19.187500000000 12.031250000000 8.052001953125 103 103 103
22.375000000000 11.812500000000 6.638999938965 162 162 162
22.359375000000 11.812500000000 6.658996582031 158 158 158
21.750000000000 11.789062500000 8.355995178223 168 168 168
21.734375000000 11.781250000000 8.377998352051 124 124 124
22.406250000000 11.781250000000 9.631996154785 40 40 40
22.062500000000 11.781250000000 9.656997680664 156 156 156
19.234375000000 11.742187500000 6.962997436523 56 56 56
19.218750000000 11.742187500000 6.970001220703 254 254 254
19.203125000000 11.742187500000 6.964996337891 136 136 136
19.203125000000 11.734375000000 8.074996948242 88 88 88
22.468750000000 11.789062500000 9.653999328613 154 154 154
22.375000000000 11.523437500000 6.640998840332 167 167 167
22.359375000000 11.523437500000 6.662994384766 66 66 66
21.750000000000 11.492187500000 8.368995666504 166 166 166
22.468750000000 11.500000000000 9.664001464844 139 139 139
22.078125000000 11.492187500000 9.651000976563 109 109 109
22.031250000000 11.484375000000 9.658996582031 99 99 99
19.218750000000 11.453125000000 6.967994689941 237 237 237
19.203125000000 11.445312500000 6.958999633789 253 253 253
19.187500000000 11.445312500000 6.948997497559 79 79 79
19.187500000000 11.445312500000 8.049995422363 95 95 95
22.390625000000 11.234375000000 6.631996154785 101 101 101
22.359375000000 11.226562500000 6.647994995117 173 173 173
21.750000000000 11.203125000000 8.382995605469 168 168 168
22.078125000000 11.195312500000 9.667999267578 163 163 163
19.218750000000 11.156250000000 6.964996337891 253 253 253
19.203125000000 11.148437500000 6.964996337891 141 141 141
19.203125000000 11.148437500000 8.057998657227 96 96 96
19.187500000000 11.148437500000 8.055999755859 62 62 62
22.390625000000 10.937500000000 6.636001586914 174 174 174
22.375000000000 10.937500000000 6.662994384766 127 127 127
21.781250000000 10.906250000000 8.390998840332 157 157 157
21.750000000000 10.906250000000 8.395996093750 147 147 147
22.109375000000 10.906250000000 9.666000366211 151 151 151
19.234375000000 10.859375000000 6.962997436523 240 240 240
19.203125000000 10.851562500000 6.961997985840 254 254 254
19.187500000000 10.851562500000 6.955001831055 84 84 84
19.187500000000 10.851562500000 8.042999267578 75 75 75
22.406250000000 10.640625000000 6.636001586914 47 47 47
22.375000000000 10.640625000000 6.646995544434 174 174 174
22.515625000000 10.617187500000 9.617996215820 63 63 63
21.765625000000 10.609375000000 8.403999328613 167 167 167
21.734375000000 10.609375000000 8.411994934082 36 36 36
22.125000000000 10.609375000000 9.665000915527 162 162 162
19.234375000000 10.562500000000 6.971000671387 254 254 254
19.203125000000 10.562500000000 6.958000183105 138 138 138
19.218750000000 10.554687500000 8.046997070313 79 79 79
19.187500000000 10.554687500000 8.041999816895 75 75 75
22.515625000000 10.617187500000 9.684997558594 154 154 154
22.390625000000 10.343750000000 6.636001586914 170 170 170
22.375000000000 10.343750000000 6.651000976563 147 147 147
22.531250000000 10.320312500000 9.656997680664 140 140 140
21.765625000000 10.312500000000 8.418998718262 170 170 170
22.156250000000 10.312500000000 9.671997070313 96 96 96
22.125000000000 10.312500000000 9.678001403809 123 123 123
19.250000000000 10.265625000000 6.960998535156 219 219 219
19.234375000000 10.265625000000 6.955001831055 254 254 254
19.203125000000 10.265625000000 6.953994750977 77 77 77
19.218750000000 10.257812500000 8.048995971680 63 63 63
22.375000000000 10.054687500000 6.647994995117 173 173 173
22.531250000000 10.023437500000 9.625999450684 166 166 166
21.781250000000 10.023437500000 8.414001464844 165 165 165
21.750000000000 10.023437500000 8.419998168945 117 117 117
22.140625000000 10.023437500000 9.683998107910 169 169 169
19.234375000000 9.976562500000 6.955001831055 254 254 254
19.218750000000 9.976562500000 6.955001831055 151 151 151
19.218750000000 9.968750000000 8.034996032715 74 74 74
19.187500000000 9.968750000000 8.036994934082 84 84 84
22.406250000000 9.757812500000 6.637001037598 127 127 127
22.390625000000 9.757812500000 6.653999328613 171 171 171
22.562500000000 9.734375000000 9.632995605469 49 49 49
22.531250000000 9.734375000000 9.644996643066 148 148 148
21.781250000000 9.734375000000 8.430000305176 169 169 169
21.750000000000 9.726562500000 8.448997497559 57 57 57
22.171875000000 9.734375000000 9.682998657227 156 156 156
19.250000000000 9.679687500000 6.950996398926 151 151 151
19.234375000000 9.679687500000 6.953994750977 254 254 254
19.218750000000 9.679687500000 6.952995300293 100 100 100
19.218750000000 9.671875000000 8.025001525879 90 90 90
22.406250000000 9.460937500000 6.642997741699 176 176 176
22.375000000000 9.460937500000 6.665000915527 101 101 101
22.546875000000 9.429687500000 9.640998840332 136 136 136
21.765625000000 9.429687500000 8.443000793457 169 169 169
22.187500000000 9.421875000000 9.670997619629 128 128 128
22.156250000000 9.429687500000 9.691001892090 67 67 67
19.234375000000 9.375000000000 6.935997009277 253 253 253
19.218750000000 9.375000000000 6.961997985840 226 226 226
19.203125000000 9.367187500000 8.036994934082 100 100 100
22.406250000000 9.164062500000 6.653999328613 175 175 175
22.593750000000 9.132812500000 9.644996643066 146 146 146
22.546875000000 9.132812500000 9.659996032715 89 89 89
21.796875000000 9.132812500000 8.444000244141 87 87 87
21.765625000000 9.132812500000 8.455001831055 164 164 164
22.203125000000 9.125000000000 9.693000793457 158 158 158
19.265625000000 9.078125000000 6.937995910645 77 77 77
19.250000000000 9.078125000000 6.957000732422 254 254 254
19.218750000000 9.078125000000 6.948997497559 143 143 143
19.218750000000 9.070312500000 8.018997192383 89 89 89
19.203125000000 9.070312500000 8.022994995117 56 56 56
22.421875000000 8.875000000000 6.645996093750 154 154 154
22.390625000000 8.875000000000 6.657997131348 163 163 163
22.625000000000 8.843750000000 9.645996093750 36 36 36
22.593750000000 8.843750000000 9.660995483398 155 155 155
21.796875000000 8.843750000000 8.456001281738 173 173 173
21.765625000000 8.843750000000 8.467994689941 80 80 80
22.234375000000 8.835937500000 9.698997497559 150 150 150
19.250000000000 8.789062500000 6.958999633789 161 161 161
19.234375000000 8.781250000000 6.953994750977 230 230 230
19.203125000000 8.781250000000 6.957000732422 46 46 46
19.203125000000 8.781250000000 8.020996093750 74 74 74
22.406250000000 8.578125000000 6.651000976563 177 177 177
22.390625000000 8.578125000000 6.668998718262 99 99 99
22.593750000000 8.554687500000 9.655998229980 147 147 147
21.781250000000 8.554687500000 8.473999023438 165 165 165
22.250000000000 8.546875000000 9.691001892090 154 154 154
22.218750000000 8.546875000000 9.716995239258 17 17 17
19.250000000000 8.492187500000 6.941001892090 204 204 204
19.234375000000 8.492187500000 6.950996398926 156 156 156
19.234375000000 8.484375000000 8.016998291016 60 60 60
19.203125000000 8.484375000000 8.025001525879 87 87 87
22.437500000000 8.289062500000 6.652000427246 51 51 51
22.406250000000 8.289062500000 6.660995483398 177 177 177
22.640625000000 8.257812500000 9.655998229980 150 150 150
22.593750000000 8.257812500000 9.669998168945 101 101 101
21.828125000000 8.250000000000 8.484001159668 33 33 33
21.781250000000 8.257812500000 8.478996276855 166 166 166
22.281250000000 8.250000000000 9.700996398926 41 41 41
22.234375000000 8.250000000000 9.703994750977 152 152 152
19.250000000000 8.195312500000 6.939994812012 204 204 204
19.234375000000 8.195312500000 6.942001342773 86 86 86
19.234375000000 8.187500000000 8.025001525879 91 91 91
22.421875000000 7.992187500000 6.653999328613 149 149 149
22.390625000000 7.984375000000 6.666000366211 168 168 168
22.625000000000 7.960937500000 9.677001953125 146 146 146
21.812500000000 7.945312500000 8.479995727539 120 120 120
21.781250000000 7.953125000000 8.498001098633 156 156 156
22.265625000000 7.945312500000 9.715995788574 144 144 144
19.265625000000 7.898437500000 6.935997009277 88 88 88
19.234375000000 7.898437500000 6.935997009277 251 251 251
19.218750000000 7.890625000000 6.932998657227 77 77 77
19.218750000000 7.890625000000 8.018997192383 77 77 77
22.421875000000 7.695312500000 6.653999328613 170 170 170
22.406250000000 7.695312500000 6.672996520996 140 140 140
22.656250000000 7.664062500000 9.656997680664 155 155 155
22.625000000000 7.664062500000 9.670997619629 85 85 85
21.812500000000 7.648437500000 8.494995117188 157 157 157
21.781250000000 7.656250000000 8.502998352051 110 110 110
22.312500000000 7.656250000000 9.707000732422 106 106 106
22.265625000000 7.656250000000 9.713996887207 106 106 106
19.265625000000 7.601562500000 6.929000854492 151 151 151
19.250000000000 7.601562500000 6.933998107910 247 247 247
19.218750000000 7.593750000000 6.944000244141 63 63 63
19.218750000000 7.585937500000 8.027999877930 106 106 106
22.406250000000 7.406250000000 6.659996032715 181 181 181
22.406250000000 7.398437500000 6.687995910645 56 56 56
22.687500000000 7.375000000000 9.666999816895 17 17 17
22.640625000000 7.375000000000 9.680000305176 149 149 149
21.796875000000 7.359375000000 8.513999938965 170 170 170
21.765625000000 7.367187500000 8.528999328613 18 18 18
22.296875000000 7.367187500000 9.728996276855 158 158 158
19.250000000000 7.304687500000 6.923995971680 229 229 229
19.234375000000 7.304687500000 6.930999755859 153 153 153
19.234375000000 7.296875000000 8.022994995117 96 96 96
22.437500000000 7.109375000000 6.658996582031 66 66 66
22.421875000000 7.109375000000 6.675994873047 179 179 179
22.687500000000 7.085937500000 9.686996459961 145 145 145
21.796875000000 7.070312500000 8.525001525879 166 166 166
22.328125000000 7.078125000000 9.730995178223 157 157 157
19.250000000000 7.015625000000 6.921997070313 202 202 202
19.234375000000 7.015625000000 6.912994384766 82 82 82
19.234375000000 7.007812500000 8.027999877930 76 76 76
22.437500000000 6.812500000000 6.657997131348 167 167 167
22.421875000000 6.812500000000 6.682998657227 153 153 153
22.718750000000 6.789062500000 9.672996520996 137 137 137
22.687500000000 6.781250000000 9.700996398926 108 108 108
21.828125000000 6.765625000000 8.529998779297 126 126 126
21.812500000000 6.765625000000 8.549995422363 153 153 153
22.359375000000 6.773437500000 9.722000122070 138 138 138
22.328125000000 6.773437500000 9.738998413086 61 61 61
19.265625000000 6.718750000000 6.925994873047 141 141 141
19.234375000000 6.710937500000 6.924995422363 220 220 220
19.218750000000 6.710937500000 6.919998168945 43 43 43
19.234375000000 6.710937500000 8.017997741699 67 67 67
19.218750000000 6.703125000000 8.023994445801 92 92 92
22.421875000000 6.507812500000 6.673995971680 177 177 177
22.421875000000 6.507812500000 6.702995300293 64 64 64
22.687500000000 6.484375000000 9.687995910645 135 135 135
21.828125000000 6.468750000000 8.550994873047 169 169 169
21.796875000000 6.460937500000 8.560997009277 56 56 56
22.343750000000 6.468750000000 9.750000000000 154 154 154
19.265625000000 6.414062500000 6.916000366211 226 226 226
19.250000000000 6.414062500000 6.920997619629 145 145 145
19.234375000000 6.406250000000 8.022994995117 87 87 87
22.437500000000 6.210937500000 6.684997558594 185 185 185
22.734375000000 6.187500000000 9.691001892090 165 165 165
22.703125000000 6.187500000000 9.701995849609 100 100 100
21.828125000000 6.171875000000 8.564994812012 168 168 168
22.390625000000 6.179687500000 9.740997314453 153 153 153
19.250000000000 6.117187500000 6.917999267578 214 214 214
19.234375000000 6.117187500000 6.907997131348 91 91 91
19.218750000000 6.109375000000 8.018997192383 85 85 85
22.453125000000 5.914062500000 6.670997619629 86 86 86
22.421875000000 5.921875000000 6.688995361328 176 176 176
22.734375000000 5.898437500000 9.714996337891 143 143 143
21.812500000000 5.882812500000 8.572998046875 169 169 169
22.406250000000 5.890625000000 9.730995178223 52 52 52
22.375000000000 5.890625000000 9.763000488281 143 143 143
19.281250000000 5.820312500000 6.907997131348 138 138 138
19.265625000000 5.820312500000 6.905998229980 223 223 223
19.234375000000 5.820312500000 6.902000427246 37 37 37
19.234375000000 5.812500000000 8.017997741699 102 102 102
22.453125000000 5.625000000000 6.681999206543 143 143 143
22.437500000000 5.625000000000 6.696998596191 180 180 180
22.765625000000 5.609375000000 9.702995300293 152 152 152
22.734375000000 5.609375000000 9.729995727539 82 82 82
21.828125000000 5.593750000000 8.584999084473 171 171 171
22.421875000000 5.601562500000 9.763000488281 149 149 149
19.281250000000 5.531250000000 6.902000427246 253 253 253
19.265625000000 5.531250000000 6.907997131348 253 253 253
19.250000000000 5.523437500000 8.017997741699 80 80 80
19.234375000000 5.523437500000 8.023994445801 64 64 64
22.437500000000 5.328125000000 6.689994812012 182 182 182
22.421875000000 5.328125000000 6.712997436523 94 94 94
22.796875000000 5.304687500000 9.720001220703 97 97 97
22.750000000000 5.312500000000 9.723999023438 124 124 124
21.828125000000 5.289062500000 8.587997436523 155 155 155
21.812500000000 5.289062500000 8.614997863770 125 125 125
19.265625000000 5.234375000000 6.902000427246 213 213 213
19.250000000000 5.234375000000 6.905998229980 78 78 78
19.234375000000 5.226562500000 8.022994995117 88 88 88
22.453125000000 5.296875000000 9.806999206543 149 149 149
22.468750000000 5.023437500000 6.692001342773 108 108 108
22.437500000000 5.023437500000 6.707000732422 179 179 179
22.781250000000 4.992187500000 9.733001708984 141 141 141
21.828125000000 4.984375000000 8.608001708984 170 170 170
22.421875000000 4.984375000000 9.767997741699 67 67 67
19.296875000000 4.929687500000 6.898994445801 253 253 253
19.265625000000 4.929687500000 6.896995544434 253 253 253
19.265625000000 4.921875000000 8.015998840332 66 66 66
19.234375000000 4.921875000000 8.025001525879 93 93 93
22.468750000000 4.992187500000 9.790000915527 136 136 136
22.468750000000 4.726562500000 6.697998046875 179 179 179
22.453125000000 4.726562500000 6.722000122070 151 151 151
22.812500000000 4.703125000000 9.728996276855 140 140 140
21.859375000000 4.687500000000 8.622001647949 70 70 70
21.828125000000 4.687500000000 8.632995605469 171 171 171
19.281250000000 4.632812500000 6.897994995117 212 212 212
19.250000000000 4.632812500000 6.898994445801 119 119 119
19.250000000000 4.625000000000 8.027999877930 88 88 88
22.453125000000 4.437500000000 6.702995300293 184 184 184
22.421875000000 4.437500000000 6.719001770020 113 113 113
22.843750000000 4.414062500000 9.731994628906 34 34 34
22.796875000000 4.414062500000 9.747001647949 130 130 130
21.875000000000 4.406250000000 8.662994384766 193 193 193
21.828125000000 4.398437500000 8.647994995117 141 141 141
19.296875000000 4.343750000000 6.896995544434 69 69 69
19.281250000000 4.343750000000 6.901000976563 231 231 231
19.265625000000 4.343750000000 6.888999938965 86 86 86
19.250000000000 4.335937500000 8.013999938965 79 79 79
22.453125000000 4.148437500000 6.708999633789 183 183 183
22.437500000000 4.148437500000 6.730995178223 106 106 106
22.843750000000 4.132812500000 9.751998901367 151 151 151
22.812500000000 4.132812500000 9.768997192383 73 73 73
21.859375000000 4.117187500000 8.644996643066 145 145 145
21.828125000000 4.109375000000 8.651000976563 128 128 128
19.296875000000 4.046875000000 6.892997741699 116 116 116
19.265625000000 4.046875000000 6.888999938965 242 242 242
19.250000000000 4.046875000000 6.887001037598 46 46 46
19.234375000000 4.039062500000 8.022994995117 102 102 102
22.515625000000 4.125000000000 9.839996337891 159 159 159
22.453125000000 3.851562500000 6.721000671387 186 186 186
22.875000000000 3.835937500000 9.748001098633 50 50 50
22.828125000000 3.828125000000 9.773994445801 148 148 148
22.515625000000 3.820312500000 9.804000854492 152 152 152
21.859375000000 3.812500000000 8.659996032715 173 173 173
19.296875000000 3.750000000000 6.882995605469 253 253 253
19.265625000000 3.750000000000 6.893997192383 179 179 179
19.250000000000 3.742187500000 8.014999389648 81 81 81
22.484375000000 3.554687500000 6.726997375488 130 130 130
22.453125000000 3.554687500000 6.731994628906 172 172 172
22.859375000000 3.531250000000 9.768997192383 137 137 137
22.546875000000 3.515625000000 9.799995422363 149 149 149
22.500000000000 3.515625000000 9.818000793457 25 25 25
21.859375000000 3.507812500000 8.678001403809 176 176 176
19.312500000000 3.453125000000 6.878997802734 105 105 105
19.296875000000 3.453125000000 6.884994506836 253 253 253
19.281250000000 3.453125000000 6.886001586914 110 110 110
19.250000000000 3.437500000000 8.016998291016 86 86 86
22.468750000000 3.250000000000 6.727996826172 183 183 183
22.453125000000 3.250000000000 6.751998901367 101 101 101
22.875000000000 3.234375000000 9.772994995117 150 150 150
22.859375000000 3.234375000000 9.808998107910 17 17 17
22.562500000000 3.226562500000 9.805000305176 112 112 112
22.531250000000 3.226562500000 9.828994750977 103 103 103
21.859375000000 3.218750000000 8.678001403809 159 159 159
21.843750000000 3.210937500000 8.702995300293 76 76 76
19.296875000000 3.156250000000 6.892997741699 253 253 253
19.281250000000 3.156250000000 6.882995605469 253 253 253
19.265625000000 3.148437500000 8.020996093750 83 83 83
19.234375000000 3.148437500000 8.015998840332 53 53 53
22.468750000000 2.960937500000 6.737998962402 189 189 189
22.453125000000 2.960937500000 6.763000488281 66 66 66
22.921875000000 2.953125000000 9.780998229980 54 54 54
22.890625000000 2.945312500000 9.796997070313 139 139 139
22.562500000000 2.937500000000 9.827995300293 144 144 144
21.875000000000 2.929687500000 8.700996398926 175 175 175
19.296875000000 2.859375000000 6.875999450684 253 253 253
19.281250000000 2.867187500000 6.883995056152 138 138 138
19.265625000000 2.859375000000 8.014999389648 88 88 88
22.484375000000 2.671875000000 6.749000549316 188 188 188
22.453125000000 2.671875000000 6.769996643066 56 56 56
22.921875000000 2.664062500000 9.784996032715 157 157 157
22.890625000000 2.656250000000 9.807998657227 42 42 42
22.609375000000 2.648437500000 9.830001831055 124 124 124
22.562500000000 2.648437500000 9.841995239258 89 89 89
21.859375000000 2.640625000000 8.716995239258 168 168 168
19.312500000000 2.562500000000 6.874000549316 45 45 45
19.296875000000 2.562500000000 6.891998291016 236 236 236
19.265625000000 2.570312500000 6.868995666504 97 97 97
19.250000000000 2.562500000000 8.016998291016 84 84 84
22.468750000000 2.382812500000 6.756996154785 191 191 191
22.953125000000 2.367187500000 9.783996582031 32 32 32
22.906250000000 2.367187500000 9.805999755859 137 137 137
22.593750000000 2.351562500000 9.849998474121 152 152 152
21.875000000000 2.343750000000 8.733001708984 172 172 172
19.312500000000 2.265625000000 6.875999450684 140 140 140
19.296875000000 2.265625000000 6.881996154785 253 253 253
19.281250000000 2.265625000000 6.872001647949 61 61 61
19.281250000000 2.265625000000 8.020996093750 63 63 63
19.250000000000 2.257812500000 8.025001525879 96 96 96
22.484375000000 2.085937500000 6.778999328613 185 185 185
22.953125000000 2.062500000000 9.806999206543 152 152 152
22.921875000000 2.062500000000 9.835998535156 33 33 33
22.625000000000 2.054687500000 9.847999572754 152 152 152
22.593750000000 2.054687500000 9.873001098633 28 28 28
21.906250000000 2.046875000000 8.743995666504 22 22 22
21.875000000000 2.039062500000 8.749000549316 171 171 171
19.312500000000 1.968750000000 6.877998352051 253 253 253
19.281250000000 1.968750000000 6.865997314453 253 253 253
19.265625000000 1.968750000000 6.883995056152 56 56 56
19.265625000000 1.953125000000 8.030998229980 84 84 84
22.500000000000 1.789062500000 6.767997741699 158 158 158
22.468750000000 1.789062500000 6.780998229980 160 160 160
22.968750000000 1.773437500000 9.812995910645 149 149 149
22.937500000000 1.773437500000 9.832000732422 115 115 115
22.640625000000 1.765625000000 9.850997924805 110 110 110
22.609375000000 1.765625000000 9.863998413086 105 105 105
21.890625000000 1.750000000000 8.764999389648 165 165 165
21.859375000000 1.750000000000 8.775001525879 26 26 26
19.312500000000 1.671875000000 6.876998901367 253 253 253
19.281250000000 1.671875000000 6.879997253418 128 128 128
19.250000000000 1.671875000000 8.032997131348 93 93 93
22.500000000000 1.492187500000 6.779998779297 178 178 178
22.468750000000 1.492187500000 6.792999267578 111 111 111
22.968750000000 1.484375000000 9.844001770020 146 146 146
22.640625000000 1.476562500000 9.874000549316 146 146 146
21.890625000000 1.460937500000 8.772994995117 161 161 161
19.328125000000 1.382812500000 6.870994567871 121 121 121
19.312500000000 1.382812500000 6.887001037598 253 253 253
19.296875000000 1.382812500000 6.872001647949 62 62 62
19.281250000000 1.375000000000 8.026000976563 73 73 73
19.250000000000 1.382812500000 8.018997192383 54 54 54
22.484375000000 1.195312500000 6.787994384766 186 186 186
22.468750000000 1.195312500000 6.814994812012 70 70 70
22.984375000000 1.187500000000 9.834999084473 145 145 145
22.953125000000 1.187500000000 9.863998413086 14 14 14
22.656250000000 1.171875000000 9.868995666504 159 159 159
21.906250000000 1.164062500000 8.779998779297 48 48 48
21.875000000000 1.164062500000 8.799995422363 163 163 163
19.312500000000 1.085937500000 6.879997253418 253 253 253
19.296875000000 1.085937500000 6.879997253418 248 248 248
19.265625000000 1.078125000000 8.034996032715 87 87 87
22.500000000000 0.906250000000 6.796997070313 188 188 188
22.484375000000 0.898437500000 6.819000244141 80 80 80
23.000000000000 0.890625000000 9.850997924805 141 141 141
22.671875000000 0.875000000000 9.897994995117 145 145 145
21.921875000000 0.867187500000 8.805000305176 53 53 53
21.875000000000 0.867187500000 8.805000305176 168 168 168
19.328125000000 0.789062500000 6.877998352051 235 235 235
19.296875000000 0.789062500000 6.869995117188 240 240 240
19.265625000000 0.773437500000 8.035995483398 84 84 84
22.500000000000 0.609375000000 6.805000305176 188 188 188
22.500000000000 0.609375000000 6.832000732422 108 108 108
23.031250000000 0.593750000000 9.842994689941 142 142 142
23.000000000000 0.593750000000 9.868995666504 122 122 122
22.718750000000 0.585937500000 9.886001586914 139 139 139
22.671875000000 0.578125000000 9.916999816895 29 29 29
21.906250000000 0.570312500000 8.810997009277 65 65 65
21.875000000000 0.570312500000 8.830001831055 159 159 159
19.312500000000 0.492187500000 6.869995117188 253 253 253
19.296875000000 0.492187500000 6.866996765137 253 253 253
19.265625000000 0.476562500000 8.036994934082 100 100 100
22.500000000000 0.320312500000 6.818000793457 189 189 189
22.484375000000 0.320312500000 6.840995788574 75 75 75
23.031250000000 0.304687500000 9.863998413086 131 131 131
22.703125000000 0.296875000000 9.906997680664 151 151 151
21.921875000000 0.281250000000 8.825996398926 152 152 152
21.890625000000 0.281250000000 8.842994689941 91 91 91
19.328125000000 0.195312500000 6.863998413086 253 253 253
19.296875000000 0.195312500000 6.865997314453 119 119 119
19.281250000000 0.187500000000 8.041000366211 76 76 76
19.265625000000 0.187500000000 8.026000976563 68 68 68
22.515625000000 0.023437500000 6.835998535156 188 188 188
23.062500000000 0.015625000000 9.875000000000 167 167 167
23.031250000000 0.015625000000 9.903999328613 36 36 36
22.750000000000 0.007812500000 9.918998718262 143 143 143
19.265625000000 0.140625000000 8.054000854492 97 97 97
19.312500000000 0.226562500000 6.901000976563 172 172 172
19.328125000000 0.234375000000 6.893997192383 54 54 54
19.265625000000 0.429687500000 8.057998657227 99 99 99
19.281250000000 0.500000000000 6.917999267578 74 74 74
19.296875000000 0.515625000000 6.893997192383 178 178 178
19.265625000000 0.710937500000 8.069000244141 80 80 80
19.281250000000 0.726562500000 8.053001403809 80 80 80
19.296875000000 0.789062500000 6.903999328613 145 145 145
19.312500000000 0.796875000000 6.892997741699 171 171 171
19.250000000000 1.000000000000 8.057998657227 101 101 101
19.281250000000 1.015625000000 8.060997009277 49 49 49
19.296875000000 1.078125000000 6.901000976563 157 157 157
19.296875000000 1.093750000000 6.897994995117 169 169 169
19.250000000000 1.296875000000 8.055999755859 106 106 106
19.296875000000 1.375000000000 6.910995483398 161 161 161
19.312500000000 1.382812500000 6.901000976563 166 166 166
19.250000000000 1.593750000000 8.057998657227 106 106 106
19.281250000000 1.664062500000 6.896995544434 159 159 159
19.296875000000 1.671875000000 6.890998840332 156 156 156
19.250000000000 1.882812500000 8.045997619629 102 102 102
19.281250000000 1.945312500000 6.900001525879 164 164 164
19.250000000000 2.164062500000 8.046997070313 89 89 89
19.265625000000 2.171875000000 8.049995422363 87 87 87
19.296875000000 2.242187500000 6.904998779297 139 139 139
19.250000000000 2.453125000000 8.037994384766 109 109 109
19.281250000000 2.515625000000 6.912994384766 100 100 100
19.265625000000 2.742187500000 8.040000915527 100 100 100
19.281250000000 2.812500000000 6.897994995117 159 159 159
19.250000000000 3.039062500000 8.030998229980 104 104 104
19.234375000000 3.320312500000 8.048995971680 86 86 86
19.250000000000 3.328125000000 8.044998168945 81 81 81
19.234375000000 3.609375000000 8.032997131348 108 108 108
19.250000000000 3.898437500000 8.043998718262 107 107 107
19.234375000000 4.179687500000 8.037994384766 112 112 112
19.234375000000 4.468750000000 8.029998779297 111 111 111
19.250000000000 4.765625000000 8.037994384766 104 104 104
19.234375000000 5.054687500000 8.033996582031 107 107 107
19.218750000000 5.335937500000 8.029998779297 110 110 110
19.234375000000 5.625000000000 8.021995544434 108 108 108
19.218750000000 5.906250000000 8.029998779297 110 110 110
19.234375000000 5.921875000000 8.022994995117 61 61 61
19.234375000000 6.195312500000 8.041999816895 107 107 107
19.218750000000 6.484375000000 8.029998779297 109 109 109
19.203125000000 6.765625000000 8.036994934082 101 101 101
19.218750000000 6.773437500000 8.025001525879 75 75 75
19.218750000000 7.054687500000 8.049995422363 103 103 103
19.203125000000 7.335937500000 8.034996032715 109 109 109
19.218750000000 7.351562500000 8.027000427246 40 40 40
19.218750000000 7.625000000000 8.037994384766 103 103 103
19.203125000000 7.906250000000 8.027999877930 73 73 73
19.218750000000 7.914062500000 8.034996032715 97 97 97
19.218750000000 8.195312500000 8.041999816895 113 113 113
19.218750000000 8.484375000000 8.035995483398 104 104 104
19.203125000000 8.765625000000 8.041000366211 110 110 110
19.203125000000 9.046875000000 8.047996520996 80 80 80
19.218750000000 9.054687500000 8.034996032715 84 84 84
19.203125000000 9.335937500000 8.034996032715 110 110 110
19.203125000000 9.609375000000 8.050994873047 52 52 52
19.218750000000 9.625000000000 8.037994384766 98 98 98
19.203125000000 9.906250000000 8.053001403809 108 108 108
19.203125000000 10.195312500000 8.042999267578 101 101 101
19.203125000000 10.476562500000 8.057998657227 102 102 102
19.171875000000 10.750000000000 8.048995971680 93 93 93
19.203125000000 10.765625000000 8.064994812012 76 76 76
19.203125000000 11.039062500000 8.069999694824 109 109 109
19.187500000000 11.320312500000 8.073997497559 98 98 98
19.203125000000 11.328125000000 8.061996459961 79 79 79
19.203125000000 11.609375000000 8.081001281738 106 106 106
19.171875000000 11.890625000000 8.063995361328 42 42 42
19.203125000000 11.898437500000 8.072998046875 93 93 93
19.171875000000 12.179687500000 8.077995300293 104 104 104
19.171875000000 12.460937500000 8.075996398926 99 99 99
19.203125000000 12.468750000000 8.069999694824 69 69 69
19.187500000000 12.750000000000 8.089996337891 105 105 105
19.171875000000 13.039062500000 8.097999572754 92 92 92
19.203125000000 13.039062500000 8.082000732422 70 70 70
19.171875000000 13.328125000000 8.085998535156 94 94 94
19.156250000000 13.609375000000 8.094001770020 82 82 82
19.187500000000 13.617187500000 8.105995178223 71 71 71
19.171875000000 13.898437500000 8.097000122070 104 104 104
19.171875000000 14.171875000000 8.123001098633 105 105 105
19.156250000000 14.453125000000 8.120994567871 64 64 64
19.187500000000 14.468750000000 8.113998413086 91 91 91
19.171875000000 14.742187500000 8.120994567871 96 96 96
19.156250000000 15.023437500000 8.116996765137 105 105 105
19.171875000000 15.312500000000 8.113998413086 104 104 104
19.156250000000 15.593750000000 8.124000549316 99 99 99
19.156250000000 15.875000000000 8.127998352051 88 88 88
19.171875000000 15.890625000000 8.132995605469 76 76 76
19.156250000000 16.164062500000 8.139999389648 106 106 106
19.156250000000 16.445312500000 8.142997741699 121 121 121
19.140625000000 16.726562500000 8.151000976563 97 97 97
19.156250000000 16.734375000000 8.134994506836 78 78 78
19.140625000000 17.015625000000 8.143997192383 111 111 111
19.156250000000 17.070312500000 7.025001525879 144 144 144
19.140625000000 17.296875000000 8.157997131348 109 109 109
19.140625000000 17.351562500000 7.044998168945 118 118 118
19.125000000000 17.570312500000 8.166999816895 90 90 90
19.156250000000 17.585937500000 8.166999816895 82 82 82
19.140625000000 17.640625000000 7.036994934082 144 144 144
19.156250000000 17.859375000000 8.162994384766 111 111 111
19.140625000000 17.921875000000 7.041000366211 155 155 155
19.140625000000 18.140625000000 8.162994384766 119 119 119
19.125000000000 18.203125000000 7.045997619629 113 113 113
19.140625000000 18.210937500000 7.033996582031 166 166 166
19.125000000000 18.421875000000 8.173995971680 92 92 92
19.156250000000 18.437500000000 8.168998718262 83 83 83
