13.312500000000 6.703125000000 50.977996826172 180 180 180
13.312500000000 6.703125000000 50.946990966797 176 176 176
13.312500000000 6.703125000000 50.916000366211 177 177 177
13.312500000000 6.703125000000 50.886001586914 178 178 178
13.312500000000 6.703125000000 50.854995727539 183 183 183
13.328125000000 6.703125000000 50.824996948242 179 179 179
13.328125000000 6.703125000000 50.794998168945 182 182 182
13.312500000000 6.703125000000 50.761001586914 178 178 178
13.312500000000 6.703125000000 50.729995727539 176 176 176
13.312500000000 6.703125000000 50.697998046875 172 172 172
13.312500000000 6.703125000000 50.667999267578 120 120 120
12.812500000000 7.000000000000 51.317001342773 171 171 171
12.828125000000 7.000000000000 51.287002563477 175 175 175
13.437500000000 7.000000000000 51.341003417969 169 169 169
13.468750000000 7.000000000000 51.315994262695 170 170 170
13.468750000000 7.000000000000 51.287002563477 189 189 189
13.453125000000 7.000000000000 51.255996704102 195 195 195
13.453125000000 7.000000000000 51.225997924805 172 172 172
13.453125000000 7.000000000000 51.197998046875 181 181 181
13.453125000000 7.000000000000 51.166000366211 154 154 154
12.859375000000 7.312500000000 51.337005615234 150 150 150
12.875000000000 7.312500000000 51.305999755859 201 201 201
12.906250000000 7.328125000000 51.274993896484 199 199 199
13.437500000000 7.312500000000 51.324996948242 222 222 222
13.468750000000 7.312500000000 51.296997070313 224 224 224
13.468750000000 7.312500000000 51.268997192383 223 223 223
13.468750000000 7.312500000000 51.240005493164 222 222 222
13.468750000000 7.312500000000 51.210998535156 221 221 221
13.468750000000 7.312500000000 51.182998657227 193 193 193
12.906250000000 7.625000000000 51.326004028320 195 195 195
12.906250000000 7.625000000000 51.291992187500 210 210 210
12.921875000000 7.609375000000 51.263000488281 214 214 214
13.453125000000 7.625000000000 51.311996459961 219 219 219
13.453125000000 7.625000000000 51.283996582031 224 224 224
13.453125000000 7.625000000000 51.252990722656 222 222 222
13.453125000000 7.625000000000 51.225997924805 221 221 221
13.453125000000 7.625000000000 51.195999145508 219 219 219
13.468750000000 7.625000000000 51.169998168945 32 32 32
12.921875000000 7.937500000000 51.345001220703 39 39 39
12.937500000000 7.937500000000 51.315994262695 191 191 191
12.953125000000 7.937500000000 51.283996582031 217 217 217
13.421875000000 7.937500000000 51.322998046875 231 231 231
13.453125000000 7.921875000000 51.300003051758 221 221 221
13.453125000000 7.921875000000 51.270004272461 224 224 224
13.453125000000 7.921875000000 51.242004394531 217 217 217
13.437500000000 7.937500000000 51.210998535156 223 223 223
13.468750000000 7.937500000000 51.184997558594 186 186 186
12.984375000000 8.234375000000 51.335998535156 136 136 136
12.984375000000 8.234375000000 51.305999755859 177 177 177
13.328125000000 8.250000000000 51.324996948242 202 202 202
13.437500000000 8.250000000000 51.311996459961 223 223 223
13.453125000000 8.250000000000 51.283996582031 222 222 222
13.453125000000 8.250000000000 51.255004882813 221 221 221
13.437500000000 8.250000000000 51.224990844727 222 222 222
13.453125000000 8.250000000000 51.196990966797 217 217 217
13.046875000000 8.546875000000 51.326995849609 191 191 191
13.062500000000 8.546875000000 51.296997070313 199 199 199
13.437500000000 8.562500000000 51.322998046875 221 221 221
13.453125000000 8.562500000000 51.298004150391 225 225 225
13.453125000000 8.562500000000 51.268005371094 223 223 223
13.453125000000 8.562500000000 51.240005493164 220 220 220
13.453125000000 8.562500000000 51.210998535156 222 222 222
13.484375000000 8.562500000000 51.184997558594 157 157 157
13.109375000000 8.875000000000 51.317993164063 202 202 202
13.281250000000 8.875000000000 51.315002441406 218 218 218
13.437500000000 8.875000000000 51.309005737305 224 224 224
13.453125000000 8.875000000000 51.281005859375 221 221 221
13.453125000000 8.875000000000 51.251998901367 222 222 222
13.437500000000 8.875000000000 51.222000122070 220 220 220
13.453125000000 8.875000000000 51.194000244141 204 204 204
13.140625000000 9.187500000000 51.337997436523 108 108 108
13.156250000000 9.187500000000 51.309997558594 198 198 198
13.421875000000 9.187500000000 51.319000244141 224 224 224
13.437500000000 9.187500000000 51.291992187500 222 222 222
13.437500000000 9.187500000000 51.263992309570 219 219 219
13.421875000000 9.187500000000 51.233001708984 219 219 219
13.437500000000 9.187500000000 51.205993652344 219 219 219
13.437500000000 9.187500000000 51.177993774414 75 75 75
13.187500000000 9.500000000000 51.330001831055 174 174 174
13.343750000000 9.484375000000 51.324005126953 195 195 195
13.406250000000 9.484375000000 51.304992675781 225 225 225
13.421875000000 9.484375000000 51.278991699219 222 222 222
13.421875000000 9.484375000000 51.250000000000 222 222 222
13.406250000000 9.484375000000 51.218002319336 221 221 221
13.421875000000 9.484375000000 51.190994262695 192 192 192
13.234375000000 9.812500000000 51.326004028320 186 186 186
13.390625000000 9.796875000000 51.320999145508 213 213 213
13.406250000000 9.796875000000 51.294998168945 221 221 221
13.406250000000 9.796875000000 51.265991210938 219 219 219
13.406250000000 9.796875000000 51.236999511719 219 219 219
13.406250000000 9.796875000000 51.207000732422 223 223 223
13.437500000000 9.812500000000 51.179000854492 90 90 90
13.296875000000 10.109375000000 51.322998046875 193 193 193
13.406250000000 10.109375000000 51.309997558594 221 221 221
13.406250000000 10.109375000000 51.281997680664 219 219 219
13.406250000000 10.109375000000 51.252990722656 219 219 219
13.390625000000 10.109375000000 51.222000122070 222 222 222
13.406250000000 10.109375000000 51.194992065430 194 194 194
13.328125000000 10.421875000000 51.341995239258 61 61 61
13.421875000000 10.421875000000 51.324005126953 197 197 197
13.421875000000 10.421875000000 51.296005249023 221 221 221
13.421875000000 10.421875000000 51.265991210938 219 219 219
13.421875000000 10.421875000000 51.236999511719 220 220 220
13.406250000000 10.421875000000 51.207000732422 222 222 222
13.421875000000 10.421875000000 51.179992675781 101 101 101
13.359375000000 10.734375000000 51.328994750977 149 149 149
13.359375000000 10.734375000000 51.300994873047 220 220 220
13.359375000000 10.734375000000 51.270004272461 225 225 225
13.359375000000 10.734375000000 51.242996215820 225 225 225
13.359375000000 10.734375000000 51.212997436523 223 223 223
13.375000000000 10.734375000000 51.186996459961 109 109 109
13.406250000000 11.031250000000 51.319992065430 205 205 205
13.390625000000 11.046875000000 51.287994384766 228 228 228
13.406250000000 11.031250000000 51.261993408203 224 224 224
13.390625000000 11.046875000000 51.229995727539 229 229 229
13.390625000000 11.046875000000 51.201995849609 212 212 212
13.421875000000 11.359375000000 51.481994628906 84 84 84
13.421875000000 11.359375000000 51.455001831055 174 174 174
13.421875000000 11.359375000000 51.427001953125 181 181 181
13.421875000000 11.359375000000 51.397994995117 180 180 180
13.421875000000 11.359375000000 51.369003295898 180 180 180
13.421875000000 11.359375000000 51.341003417969 164 164 164
13.421875000000 11.359375000000 51.311996459961 208 208 208
13.406250000000 11.359375000000 51.279998779297 228 228 228
13.421875000000 11.359375000000 51.251998901367 224 224 224
13.406250000000 11.375000000000 51.220001220703 231 231 231
13.421875000000 11.359375000000 51.195999145508 178 178 178
13.453125000000 11.562500000000 51.382995605469 197 197 197
13.453125000000 11.562500000000 51.348999023438 219 219 219
13.453125000000 11.531250000000 51.317993164063 221 221 221
13.453125000000 11.531250000000 51.283004760742 222 222 222
13.453125000000 11.546875000000 51.248992919922 130 130 130
13.421875000000 11.265625000000 51.395004272461 120 120 120
13.437500000000 11.265625000000 51.361999511719 211 211 211
13.421875000000 11.265625000000 51.326995849609 223 223 223
13.406250000000 11.250000000000 51.293991088867 223 223 223
13.406250000000 11.250000000000 51.259994506836 212 212 212
13.406250000000 10.953125000000 51.375000000000 203 203 203
13.390625000000 10.953125000000 51.339996337891 223 223 223
13.406250000000 10.953125000000 51.309005737305 224 224 224
13.406250000000 10.953125000000 51.272994995117 223 223 223
13.359375000000 10.968750000000 51.231002807617 99 99 99
13.375000000000 10.671875000000 51.388000488281 143 143 143
13.437500000000 10.640625000000 51.365005493164 208 208 208
13.437500000000 10.640625000000 51.332000732422 214 214 214
13.437500000000 10.640625000000 51.298995971680 216 216 216
13.437500000000 10.625000000000 51.263992309570 212 212 212
13.421875000000 10.640625000000 51.229003906250 27 27 27
13.328125000000 10.390625000000 51.395004272461 81 81 81
13.421875000000 10.343750000000 51.380004882813 196 196 196
13.421875000000 10.343750000000 51.345993041992 209 209 209
13.421875000000 10.343750000000 51.311996459961 212 212 212
13.421875000000 10.328125000000 51.278991699219 215 215 215
13.421875000000 10.328125000000 51.244995117188 167 167 167
13.281250000000 10.109375000000 51.397994995117 86 86 86
13.359375000000 10.062500000000 51.377990722656 188 188 188
13.421875000000 10.015625000000 51.360000610352 215 215 215
13.421875000000 10.015625000000 51.324996948242 214 214 214
13.421875000000 10.015625000000 51.291000366211 211 211 211
13.421875000000 10.015625000000 51.257003784180 206 206 206
13.250000000000 9.828125000000 51.371002197266 195 195 195
13.421875000000 9.718750000000 51.373001098633 208 208 208
13.421875000000 9.718750000000 51.339004516602 211 211 211
13.437500000000 9.703125000000 51.306991577148 215 215 215
13.421875000000 9.718750000000 51.272994995117 213 213 213
13.421875000000 9.718750000000 51.238998413086 123 123 123
13.187500000000 9.546875000000 51.380004882813 194 194 194
13.359375000000 9.453125000000 51.375000000000 212 212 212
13.468750000000 9.390625000000 51.360000610352 212 212 212
13.453125000000 9.390625000000 51.324996948242 211 211 211
13.437500000000 9.375000000000 51.291992187500 212 212 212
13.437500000000 9.375000000000 51.257995605469 209 209 209
13.140625000000 9.281250000000 51.386001586914 168 168 168
13.156250000000 9.265625000000 51.352996826172 199 199 199
13.437500000000 9.078125000000 51.376998901367 209 209 209
13.437500000000 9.078125000000 51.343002319336 215 215 215
13.437500000000 9.078125000000 51.309997558594 212 212 212
13.437500000000 9.078125000000 51.277999877930 211 211 211
13.453125000000 9.078125000000 51.246002197266 173 173 173
13.093750000000 8.968750000000 51.393997192383 124 124 124
13.109375000000 8.953125000000 51.360000610352 179 179 179
13.359375000000 8.843750000000 51.373992919922 223 223 223
13.468750000000 8.781250000000 51.362991333008 211 211 211
13.453125000000 8.781250000000 51.326995849609 211 211 211
13.468750000000 8.765625000000 51.296005249023 212 212 212
13.453125000000 8.765625000000 51.261001586914 212 212 212
13.046875000000 8.687500000000 51.399002075195 74 74 74
13.062500000000 8.687500000000 51.365997314453 188 188 188
13.078125000000 8.656250000000 51.333999633789 214 214 214
13.484375000000 8.453125000000 51.375000000000 212 212 212
13.484375000000 8.453125000000 51.343002319336 212 212 212
13.484375000000 8.453125000000 51.309997558594 214 214 214
13.468750000000 8.453125000000 51.274993896484 212 212 212
13.484375000000 8.453125000000 51.242996215820 175 175 175
13.015625000000 8.421875000000 51.375000000000 194 194 194
13.015625000000 8.421875000000 51.337997436523 213 213 213
13.437500000000 8.187500000000 51.384002685547 224 224 224
13.484375000000 8.156250000000 51.358993530273 214 214 214
13.484375000000 8.156250000000 51.324996948242 212 212 212
13.500000000000 8.125000000000 51.292999267578 214 214 214
13.484375000000 8.140625000000 51.259002685547 215 215 215
12.968750000000 8.109375000000 51.384994506836 179 179 179
12.984375000000 8.109375000000 51.348999023438 203 203 203
13.000000000000 8.109375000000 51.315002441406 219 219 219
13.484375000000 7.843750000000 51.375991821289 214 214 214
13.468750000000 7.843750000000 51.341003417969 216 216 216
13.468750000000 7.812500000000 51.309005737305 213 213 213
13.468750000000 7.812500000000 51.276000976563 211 211 211
13.468750000000 7.812500000000 51.242996215820 192 192 192
12.921875000000 7.843750000000 51.395004272461 122 122 122
12.937500000000 7.843750000000 51.360000610352 182 182 182
12.937500000000 7.843750000000 51.322998046875 219 219 219
13.421875000000 7.562500000000 51.382003784180 233 233 233
13.468750000000 7.531250000000 51.358001708984 213 213 213
13.484375000000 7.531250000000 51.324996948242 215 215 215
13.484375000000 7.531250000000 51.291992187500 215 215 215
13.468750000000 7.531250000000 51.257003784180 210 210 210
13.468750000000 7.531250000000 51.222000122070 37 37 37
12.906250000000 7.531250000000 51.369995117188 191 191 191
12.906250000000 7.531250000000 51.333999633789 212 212 212
12.875000000000 7.546875000000 51.291992187500 206 206 206
13.468750000000 7.234375000000 51.371002197266 212 212 212
13.468750000000 7.234375000000 51.337005615234 212 212 212
13.484375000000 7.218750000000 51.304992675781 212 212 212
13.484375000000 7.218750000000 51.272003173828 215 215 215
13.468750000000 7.234375000000 51.236999511719 186 186 186
12.875000000000 7.265625000000 51.378997802734 197 197 197
12.859375000000 7.250000000000 51.343002319336 196 196 196
12.875000000000 7.250000000000 51.306991577148 173 173 173
13.468750000000 6.921875000000 51.384002685547 147 147 147
13.468750000000 6.921875000000 51.352996826172 151 151 151
13.468750000000 6.921875000000 51.319000244141 156 156 156
13.468750000000 6.921875000000 51.285995483398 157 157 157
13.468750000000 6.921875000000 51.250991821289 155 155 155
13.484375000000 6.906250000000 51.218994140625 97 97 97
12.937500000000 6.906250000000 51.410995483398 104 104 104
13.296875000000 6.718750000000 51.440994262695 147 147 147
13.312500000000 6.703125000000 51.410003662109 170 170 170
13.421875000000 6.656250000000 51.393005371094 158 158 158
13.453125000000 6.625000000000 51.369003295898 136 136 136
13.437500000000 6.625000000000 51.332000732422 133 133 133
13.453125000000 6.625000000000 51.300003051758 135 135 135
13.453125000000 6.609375000000 51.268005371094 132 132 132
13.453125000000 6.609375000000 51.233993530273 140 140 140
13.328125000000 6.687500000000 51.171005249023 168 168 168
13.343750000000 6.671875000000 51.136993408203 157 157 157
13.328125000000 6.671875000000 51.098999023438 156 156 156
13.312500000000 6.671875000000 51.063003540039 158 158 158
13.328125000000 6.671875000000 51.029998779297 166 166 166
13.343750000000 6.671875000000 50.996994018555 171 171 171
13.328125000000 6.671875000000 50.957992553711 157 157 157
13.328125000000 6.656250000000 50.925994873047 164 164 164
13.328125000000 6.656250000000 50.888000488281 179 179 179
13.328125000000 6.656250000000 50.852996826172 181 181 181
13.328125000000 6.656250000000 50.817001342773 130 130 130
13.328125000000 6.656250000000 50.779998779297 133 133 133
13.328125000000 6.656250000000 50.744003295898 132 132 132
12.984375000000 6.578125000000 51.442001342773 88 88 88
13.234375000000 6.437500000000 51.445999145508 102 102 102
13.312500000000 6.406250000000 51.425003051758 166 166 166
13.312500000000 6.406250000000 51.390991210938 167 167 167
13.328125000000 6.390625000000 51.358993530273 166 166 166
13.515625000000 6.265625000000 51.365005493164 160 160 160
13.515625000000 6.265625000000 51.332992553711 158 158 158
13.531250000000 6.265625000000 51.300994873047 153 153 153
13.515625000000 6.265625000000 51.264999389648 153 153 153
13.531250000000 6.265625000000 51.233001708984 157 157 157
13.437500000000 6.296875000000 51.180999755859 168 168 168
13.328125000000 6.375000000000 51.113998413086 170 170 170
13.312500000000 6.375000000000 51.076995849609 174 174 174
13.296875000000 6.375000000000 51.041992187500 170 170 170
13.296875000000 6.375000000000 51.005996704102 170 170 170
13.296875000000 6.375000000000 50.970993041992 169 169 169
13.296875000000 6.375000000000 50.936004638672 170 170 170
13.296875000000 6.375000000000 50.899993896484 169 169 169
13.296875000000 6.375000000000 50.860992431641 170 170 170
13.296875000000 6.375000000000 50.826004028320 170 170 170
13.296875000000 6.343750000000 50.792999267578 171 171 171
13.312500000000 6.343750000000 50.759002685547 172 172 172
13.281250000000 6.359375000000 50.712005615234 196 196 196
12.703125000000 6.421875000000 51.375000000000 159 159 159
12.703125000000 6.421875000000 51.334991455078 168 168 168
12.703125000000 6.421875000000 51.296997070313 165 165 165
12.656250000000 6.437500000000 51.248992919922 145 145 145
13.609375000000 5.906250000000 51.401000976563 158 158 158
13.625000000000 5.906250000000 51.371002197266 161 161 161
13.609375000000 5.906250000000 51.337005615234 159 159 159
13.609375000000 5.906250000000 51.304000854492 162 162 162
13.609375000000 5.906250000000 51.270004272461 159 159 159
13.609375000000 5.906250000000 51.235992431641 157 157 157
13.593750000000 5.906250000000 51.201995849609 160 160 160
13.593750000000 5.906250000000 51.168991088867 57 57 57
12.593750000000 6.171875000000 51.414001464844 79 79 79
12.640625000000 6.140625000000 51.380996704102 125 125 125
12.656250000000 6.140625000000 51.345001220703 138 138 138
12.640625000000 6.140625000000 51.304000854492 144 144 144
12.640625000000 6.140625000000 51.264999389648 142 142 142
12.656250000000 6.140625000000 51.227005004883 143 143 143
12.609375000000 6.140625000000 51.180999755859 122 122 122
12.578125000000 5.875000000000 51.388000488281 148 148 148
12.578125000000 5.875000000000 51.348999023438 151 151 151
12.593750000000 5.875000000000 51.311996459961 156 156 156
12.578125000000 5.875000000000 51.272003173828 156 156 156
12.578125000000 5.875000000000 51.231994628906 153 153 153
12.593750000000 5.859375000000 51.192993164063 155 155 155
13.453125000000 11.609375000000 51.384002685547 185 185 185
13.453125000000 11.609375000000 51.354995727539 201 201 201
13.453125000000 11.609375000000 51.328002929688 204 204 204
13.453125000000 11.609375000000 51.298995971680 205 205 205
13.453125000000 11.609375000000 51.270004272461 189 189 189
13.421875000000 11.296875000000 51.395004272461 138 138 138
13.406250000000 11.296875000000 51.365997314453 214 214 214
13.406250000000 11.296875000000 51.335998535156 227 227 227
13.406250000000 11.296875000000 51.306991577148 227 227 227
13.406250000000 11.296875000000 51.276992797852 227 227 227
13.421875000000 11.296875000000 51.251998901367 151 151 151
13.390625000000 10.968750000000 51.376998901367 211 211 211
13.390625000000 10.968750000000 51.345993041992 224 224 224
13.390625000000 10.968750000000 51.317993164063 227 227 227
13.390625000000 10.968750000000 51.289001464844 225 225 225
13.390625000000 10.968750000000 51.259994506836 212 212 212
13.390625000000 10.656250000000 51.390991210938 149 149 149
13.437500000000 10.671875000000 51.369003295898 214 214 214
13.421875000000 10.671875000000 51.339004516602 223 223 223
13.421875000000 10.671875000000 51.309005737305 223 223 223
13.421875000000 10.671875000000 51.279998779297 213 213 213
13.421875000000 10.671875000000 51.250991821289 198 198 198
13.312500000000 10.359375000000 51.397994995117 55 55 55
13.421875000000 10.359375000000 51.382995605469 193 193 193
13.421875000000 10.359375000000 51.354995727539 219 219 219
13.421875000000 10.359375000000 51.324996948242 221 221 221
13.421875000000 10.359375000000 51.296997070313 221 221 221
13.421875000000 10.359375000000 51.265991210938 219 219 219
13.437500000000 10.359375000000 51.240997314453 94 94 94
13.281250000000 10.046875000000 51.380004882813 198 198 198
13.406250000000 10.046875000000 51.371002197266 219 219 219
13.406250000000 10.046875000000 51.339996337891 222 222 222
13.421875000000 10.046875000000 51.313995361328 218 218 218
13.421875000000 10.046875000000 51.283996582031 217 217 217
13.421875000000 10.046875000000 51.255996704102 206 206 206
13.218750000000 9.750000000000 51.386993408203 178 178 178
13.390625000000 9.734375000000 51.382003784180 210 210 210
13.437500000000 9.750000000000 51.356994628906 221 221 221
13.421875000000 9.750000000000 51.328002929688 222 222 222
13.421875000000 9.750000000000 51.298004150391 220 220 220
13.437500000000 9.750000000000 51.270004272461 217 217 217
13.437500000000 9.750000000000 51.242004394531 135 135 135
13.187500000000 9.453125000000 51.393997192383 112 112 112
13.218750000000 9.437500000000 51.367996215820 199 199 199
13.437500000000 9.421875000000 51.371994018555 217 217 217
13.437500000000 9.421875000000 51.343002319336 220 220 220
13.453125000000 9.406250000000 51.315994262695 219 219 219
13.453125000000 9.406250000000 51.285995483398 214 214 214
13.437500000000 9.421875000000 51.255996704102 214 214 214
13.125000000000 9.109375000000 51.401992797852 62 62 62
13.140625000000 9.125000000000 51.373001098633 202 202 202
13.390625000000 9.109375000000 51.380996704102 218 218 218
13.437500000000 9.125000000000 51.360000610352 221 221 221
13.437500000000 9.125000000000 51.330001831055 222 222 222
13.437500000000 9.125000000000 51.302001953125 218 218 218
13.437500000000 9.125000000000 51.270996093750 224 224 224
13.453125000000 9.109375000000 51.242996215820 163 163 163
13.093750000000 8.812500000000 51.380004882813 200 200 200
13.125000000000 8.796875000000 51.356002807617 212 212 212
13.437500000000 8.812500000000 51.373001098633 223 223 223
13.453125000000 8.812500000000 51.347000122070 223 223 223
13.453125000000 8.812500000000 51.317993164063 217 217 217
13.453125000000 8.812500000000 51.287994384766 219 219 219
13.453125000000 8.812500000000 51.259994506836 216 216 216
13.453125000000 8.812500000000 51.227996826172 62 62 62
13.031250000000 8.484375000000 51.388992309570 172 172 172
13.046875000000 8.484375000000 51.358001708984 193 193 193
13.375000000000 8.500000000000 51.377990722656 228 228 228
13.453125000000 8.484375000000 51.361999511719 224 224 224
13.468750000000 8.484375000000 51.332992553711 221 221 221
13.468750000000 8.484375000000 51.304992675781 220 220 220
13.468750000000 8.484375000000 51.274993896484 223 223 223
13.468750000000 8.484375000000 51.246994018555 201 201 201
12.984375000000 8.171875000000 51.397994995117 113 113 113
12.984375000000 8.171875000000 51.367996215820 187 187 187
13.000000000000 8.187500000000 51.337997436523 214 214 214
13.468750000000 8.187500000000 51.375991821289 220 220 220
13.468750000000 8.187500000000 51.347991943359 221 221 221
13.468750000000 8.187500000000 51.319000244141 219 219 219
13.484375000000 8.187500000000 51.291992187500 217 217 217
13.468750000000 8.187500000000 51.259994506836 222 222 222
13.468750000000 8.187500000000 51.231994628906 107 107 107
12.906250000000 7.875000000000 51.402999877930 29 29 29
12.937500000000 7.875000000000 51.375000000000 195 195 195
12.937500000000 7.875000000000 51.341995239258 218 218 218
13.421875000000 7.875000000000 51.382995605469 234 234 234
13.453125000000 7.875000000000 51.360000610352 220 220 220
13.453125000000 7.875000000000 51.330993652344 218 218 218
13.453125000000 7.859375000000 51.300994873047 220 220 220
13.453125000000 7.875000000000 51.272003173828 220 220 220
13.468750000000 7.875000000000 51.244995117188 198 198 198
12.890625000000 7.562500000000 51.382003784180 193 193 193
12.890625000000 7.562500000000 51.352005004883 207 207 207
12.890625000000 7.562500000000 51.317001342773 217 217 217
13.453125000000 7.562500000000 51.371994018555 223 223 223
13.453125000000 7.562500000000 51.343994140625 222 222 222
13.468750000000 7.562500000000 51.315002441406 218 218 218
13.453125000000 7.562500000000 51.285003662109 222 222 222
13.468750000000 7.562500000000 51.257003784180 220 220 220
13.468750000000 7.562500000000 51.229003906250 95 95 95
12.859375000000 7.250000000000 51.391998291016 169 169 169
12.875000000000 7.250000000000 51.360992431641 205 205 205
12.906250000000 7.265625000000 51.330993652344 193 193 193
13.437500000000 7.250000000000 51.382995605469 223 223 223
13.484375000000 7.265625000000 51.356002807617 222 222 222
13.484375000000 7.265625000000 51.326995849609 219 219 219
13.484375000000 7.265625000000 51.298004150391 219 219 219
13.468750000000 7.265625000000 51.268005371094 221 221 221
13.484375000000 7.265625000000 51.240997314453 200 200 200
12.812500000000 6.937500000000 51.402999877930 73 73 73
12.843750000000 6.937500000000 51.373001098633 154 154 154
12.843750000000 6.937500000000 51.339996337891 171 171 171
13.468750000000 6.937500000000 51.397994995117 159 159 159
13.468750000000 6.937500000000 51.371002197266 186 186 186
13.468750000000 6.937500000000 51.341995239258 188 188 188
13.468750000000 6.937500000000 51.311996459961 190 190 190
13.468750000000 6.937500000000 51.283004760742 193 193 193
13.468750000000 6.937500000000 51.253997802734 178 178 178
13.468750000000 6.937500000000 51.223999023438 133 133 133
13.046875000000 6.625000000000 51.445999145508 105 105 105
13.281250000000 6.625000000000 51.445999145508 132 132 132
13.312500000000 6.640625000000 51.421005249023 178 178 178
13.406250000000 6.640625000000 51.401992797852 194 194 194
13.453125000000 6.640625000000 51.382995605469 171 171 171
13.453125000000 6.640625000000 51.354003906250 174 174 174
13.453125000000 6.640625000000 51.324005126953 179 179 179
13.453125000000 6.640625000000 51.294998168945 178 178 178
13.453125000000 6.640625000000 51.265991210938 173 173 173
13.437500000000 6.640625000000 51.233993530273 158 158 158
13.328125000000 6.640625000000 51.182998657227 195 195 195
13.343750000000 6.625000000000 51.156005859375 201 201 201
13.328125000000 6.640625000000 51.123001098633 194 194 194
13.312500000000 6.640625000000 51.089004516602 188 188 188
13.312500000000 6.640625000000 51.059005737305 187 187 187
13.312500000000 6.640625000000 51.027999877930 212 212 212
13.312500000000 6.640625000000 50.996994018555 208 208 208
13.312500000000 6.640625000000 50.966003417969 204 204 204
13.312500000000 6.640625000000 50.936004638672 203 203 203
13.312500000000 6.640625000000 50.904998779297 203 203 203
13.312500000000 6.625000000000 50.873001098633 200 200 200
13.328125000000 6.640625000000 50.843994140625 194 194 194
13.312500000000 6.625000000000 50.809005737305 156 156 156
13.312500000000 6.625000000000 50.776000976563 165 165 165
13.312500000000 6.625000000000 50.744995117188 147 147 147
13.234375000000 6.625000000000 50.692001342773 150 150 150
13.218750000000 6.609375000000 50.656997680664 149 149 149
13.203125000000 6.625000000000 50.621002197266 149 149 149
13.218750000000 6.609375000000 50.591003417969 145 145 145
13.218750000000 6.609375000000 50.557998657227 141 141 141
13.203125000000 6.625000000000 50.522003173828 137 137 137
13.218750000000 6.609375000000 50.492996215820 143 143 143
13.218750000000 6.609375000000 50.458999633789 142 142 142
13.218750000000 6.609375000000 50.425003051758 146 146 146
13.218750000000 6.609375000000 50.391998291016 143 143 143
12.656250000000 6.312500000000 51.376998901367 159 159 159
12.671875000000 6.312500000000 51.345001220703 181 181 181
12.656250000000 6.312500000000 51.309997558594 180 180 180
12.625000000000 6.328125000000 51.272003173828 164 164 164
13.531250000000 6.312500000000 51.375000000000 167 167 167
13.531250000000 6.312500000000 51.345993041992 164 164 164
13.531250000000 6.312500000000 51.317993164063 169 169 169
13.531250000000 6.312500000000 51.289993286133 172 172 172
13.531250000000 6.312500000000 51.259994506836 167 167 167
13.531250000000 6.312500000000 51.231002807617 164 164 164
13.562500000000 6.312500000000 51.207992553711 65 65 65
12.578125000000 5.984375000000 51.417999267578 93 93 93
12.609375000000 6.000000000000 51.386993408203 146 146 146
12.640625000000 5.984375000000 51.356994628906 174 174 174
12.640625000000 5.984375000000 51.322998046875 167 167 167
13.593750000000 6.000000000000 51.425994873047 102 102 102
13.625000000000 6.000000000000 51.402999877930 183 183 183
13.625000000000 6.000000000000 51.375991821289 178 178 178
13.625000000000 6.000000000000 51.345993041992 179 179 179
13.625000000000 6.000000000000 51.317993164063 181 181 181
13.609375000000 6.015625000000 51.287994384766 181 181 181
13.625000000000 6.000000000000 51.259994506836 175 175 175
13.625000000000 6.000000000000 51.231994628906 186 186 186
13.625000000000 6.000000000000 51.203994750977 183 183 183
13.640625000000 6.000000000000 51.177993774414 52 52 52
12.562500000000 6.000000000000 51.276992797852 122 122 122
13.421875000000 11.375000000000 51.246002197266 152 152 152
13.421875000000 11.375000000000 51.279998779297 223 223 223
13.421875000000 11.375000000000 51.313003540039 222 222 222
13.421875000000 11.359375000000 51.345001220703 219 219 219
13.421875000000 11.359375000000 51.377990722656 178 178 178
13.421875000000 11.375000000000 51.414001464844 47 47 47
13.406250000000 11.031250000000 51.261001586914 218 218 218
13.406250000000 11.031250000000 51.294998168945 223 223 223
13.406250000000 11.015625000000 51.326004028320 223 223 223
13.406250000000 11.015625000000 51.360000610352 204 204 204
13.406250000000 11.015625000000 51.393997192383 47 47 47
13.406250000000 10.718750000000 51.246994018555 187 187 187
13.406250000000 10.718750000000 51.281997680664 201 201 201
13.406250000000 10.718750000000 51.313995361328 202 202 202
13.406250000000 10.718750000000 51.347991943359 204 204 204
13.406250000000 10.703125000000 51.378997802734 177 177 177
13.421875000000 10.421875000000 51.233993530273 117 117 117
13.421875000000 10.421875000000 51.266998291016 210 210 210
13.421875000000 10.421875000000 51.300003051758 216 216 216
13.437500000000 10.421875000000 51.334991455078 197 197 197
13.437500000000 10.421875000000 51.367996215820 210 210 210
13.343750000000 10.375000000000 51.384994506836 117 117 117
13.406250000000 10.109375000000 51.248001098633 193 193 193
13.406250000000 10.093750000000 51.281997680664 215 215 215
13.421875000000 10.109375000000 51.315994262695 219 219 219
13.421875000000 10.093750000000 51.348999023438 220 220 220
13.390625000000 10.078125000000 51.377990722656 200 200 200
13.265625000000 10.000000000000 51.384994506836 169 169 169
13.406250000000 9.781250000000 51.223999023438 27 27 27
13.421875000000 9.796875000000 51.263000488281 216 216 216
13.421875000000 9.796875000000 51.296997070313 216 216 216
13.437500000000 9.812500000000 51.332992553711 217 217 217
13.421875000000 9.796875000000 51.363998413086 219 219 219
13.250000000000 9.687500000000 51.360992431641 188 188 188
13.218750000000 9.671875000000 51.390991210938 117 117 117
13.421875000000 9.484375000000 51.248001098633 203 203 203
13.437500000000 9.484375000000 51.283004760742 219 219 219
13.437500000000 9.484375000000 51.317993164063 219 219 219
13.437500000000 9.484375000000 51.349990844727 218 218 218
13.406250000000 9.453125000000 51.375991821289 220 220 220
13.171875000000 9.328125000000 51.363998413086 192 192 192
13.125000000000 9.296875000000 51.391998291016 26 26 26
13.453125000000 9.187500000000 51.236999511719 158 158 158
13.453125000000 9.187500000000 51.270004272461 220 220 220
13.453125000000 9.187500000000 51.304000854492 219 219 219
13.453125000000 9.187500000000 51.337005615234 220 220 220
13.437500000000 9.156250000000 51.371002197266 217 217 217
13.109375000000 8.953125000000 51.337005615234 202 202 202
13.109375000000 8.953125000000 51.371994018555 191 191 191
13.453125000000 8.875000000000 51.255004882813 215 215 215
13.453125000000 8.875000000000 51.287002563477 217 217 217
13.453125000000 8.875000000000 51.320999145508 218 218 218
13.453125000000 8.875000000000 51.354995727539 217 217 217
13.406250000000 8.843750000000 51.378997802734 227 227 227
13.046875000000 8.625000000000 51.343994140625 201 201 201
13.031250000000 8.609375000000 51.377990722656 189 189 189
13.468750000000 8.546875000000 51.235992431641 159 159 159
13.468750000000 8.562500000000 51.270996093750 216 216 216
13.468750000000 8.546875000000 51.302993774414 217 217 217
13.468750000000 8.546875000000 51.337005615234 217 217 217
13.468750000000 8.546875000000 51.369995117188 219 219 219
13.156250000000 8.375000000000 51.343002319336 141 141 141
12.984375000000 8.281250000000 51.347000122070 148 148 148
12.984375000000 8.281250000000 51.384002685547 174 174 174
13.453125000000 8.250000000000 51.251998901367 210 210 210
13.468750000000 8.250000000000 51.287002563477 217 217 217
13.453125000000 8.250000000000 51.319000244141 217 217 217
13.468750000000 8.250000000000 51.354003906250 215 215 215
13.437500000000 8.218750000000 51.380004882813 233 233 233
12.937500000000 7.937500000000 51.319992065430 214 214 214
12.937500000000 7.937500000000 51.354003906250 190 190 190
12.937500000000 7.937500000000 51.390991210938 136 136 136
13.468750000000 7.937500000000 51.235992431641 179 179 179
13.468750000000 7.921875000000 51.268997192383 218 218 218
13.468750000000 7.921875000000 51.302001953125 218 218 218
13.468750000000 7.921875000000 51.337005615234 218 218 218
13.468750000000 7.921875000000 51.369003295898 219 219 219
12.890625000000 7.593750000000 51.287994384766 214 214 214
12.906250000000 7.609375000000 51.328994750977 213 213 213
12.906250000000 7.593750000000 51.365005493164 192 192 192
13.468750000000 7.609375000000 51.218994140625 50 50 50
13.468750000000 7.625000000000 51.252990722656 216 216 216
13.468750000000 7.625000000000 51.287002563477 216 216 216
13.468750000000 7.609375000000 51.320999145508 220 220 220
13.468750000000 7.609375000000 51.354003906250 220 220 220
13.421875000000 7.593750000000 51.380996704102 230 230 230
12.906250000000 7.296875000000 51.313003540039 199 199 199
12.875000000000 7.265625000000 51.343002319336 196 196 196
12.859375000000 7.250000000000 51.378997802734 189 189 189
13.468750000000 7.296875000000 51.237991333008 198 198 198
13.468750000000 7.296875000000 51.272003173828 215 215 215
13.468750000000 7.296875000000 51.304992675781 216 216 216
13.468750000000 7.296875000000 51.337997436523 217 217 217
13.484375000000 7.296875000000 51.373992919922 214 214 214
12.812500000000 6.937500000000 51.279998779297 135 135 135
12.812500000000 6.937500000000 51.317993164063 141 141 141
12.812500000000 6.937500000000 51.354995727539 125 125 125
12.843750000000 6.921875000000 51.393997192383 92 92 92
12.968750000000 6.734375000000 50.653991699219 23 23 23
13.187500000000 6.843750000000 50.751998901367 144 144 144
13.171875000000 6.843750000000 50.787002563477 140 140 140
13.156250000000 6.828125000000 50.824005126953 139 139 139
13.187500000000 6.843750000000 50.861999511719 139 139 139
13.171875000000 6.828125000000 50.897994995117 142 142 142
13.171875000000 6.828125000000 50.934005737305 139 139 139
13.171875000000 6.828125000000 50.972991943359 139 139 139
13.171875000000 6.828125000000 51.009002685547 137 137 137
13.171875000000 6.828125000000 51.046005249023 140 140 140
13.171875000000 6.828125000000 51.080993652344 141 141 141
13.187500000000 6.828125000000 51.117996215820 142 142 142
13.406250000000 6.968750000000 51.207992553711 142 142 142
13.453125000000 6.984375000000 51.253997802734 150 150 150
13.453125000000 6.984375000000 51.285995483398 149 149 149
13.453125000000 6.984375000000 51.320999145508 150 150 150
13.453125000000 6.984375000000 51.354003906250 146 146 146
13.453125000000 6.984375000000 51.388000488281 134 134 134
13.203125000000 6.828125000000 51.369995117188 142 142 142
13.187500000000 6.828125000000 51.403991699219 144 144 144
13.171875000000 6.796875000000 51.434997558594 126 126 126
13.000000000000 6.703125000000 51.442001342773 95 95 95
13.234375000000 6.593750000000 50.386993408203 122 122 122
13.218750000000 6.578125000000 50.418991088867 123 123 123
13.218750000000 6.578125000000 50.455993652344 124 124 124
13.203125000000 6.578125000000 50.490005493164 120 120 120
13.218750000000 6.562500000000 50.527999877930 117 117 117
13.203125000000 6.578125000000 50.563995361328 119 119 119
13.218750000000 6.562500000000 50.602005004883 119 119 119
13.218750000000 6.562500000000 50.643005371094 119 119 119
13.203125000000 6.546875000000 50.673995971680 124 124 124
13.312500000000 6.625000000000 50.740997314453 117 117 117
13.312500000000 6.625000000000 50.776992797852 136 136 136
13.312500000000 6.609375000000 50.813003540039 114 114 114
13.312500000000 6.609375000000 50.849990844727 178 178 178
13.312500000000 6.609375000000 50.886001586914 181 181 181
13.312500000000 6.609375000000 50.921997070313 180 180 180
13.312500000000 6.609375000000 50.957992553711 170 170 170
13.312500000000 6.609375000000 50.992004394531 188 188 188
13.312500000000 6.609375000000 51.026992797852 188 188 188
13.312500000000 6.609375000000 51.061004638672 164 164 164
13.312500000000 6.593750000000 51.095993041992 170 170 170
13.328125000000 6.609375000000 51.134994506836 136 136 136
13.312500000000 6.593750000000 51.166000366211 162 162 162
13.453125000000 6.671875000000 51.233993530273 124 124 124
13.468750000000 6.687500000000 51.270004272461 125 125 125
13.453125000000 6.671875000000 51.302001953125 128 128 128
13.453125000000 6.671875000000 51.335998535156 123 123 123
13.453125000000 6.671875000000 51.369003295898 132 132 132
13.406250000000 6.640625000000 51.391998291016 148 148 148
13.312500000000 6.578125000000 51.408996582031 173 173 173
13.281250000000 6.562500000000 51.440002441406 141 141 141
13.093750000000 6.437500000000 51.438003540039 116 116 116
12.609375000000 6.156250000000 51.393005371094 151 151 151
13.515625000000 6.375000000000 51.194992065430 25 25 25
13.500000000000 6.390625000000 51.224990844727 168 168 168
13.500000000000 6.375000000000 51.257995605469 170 170 170
13.515625000000 6.375000000000 51.292999267578 175 175 175
13.500000000000 6.375000000000 51.324996948242 179 179 179
13.500000000000 6.375000000000 51.358001708984 174 174 174
12.531250000000 5.812500000000 51.199996948242 129 129 129
12.578125000000 5.843750000000 51.250000000000 149 149 149
12.546875000000 5.828125000000 51.285003662109 191 191 191
12.546875000000 5.812500000000 51.322998046875 202 202 202
12.593750000000 5.843750000000 51.367996215820 113 113 113
12.562500000000 5.828125000000 51.404998779297 42 42 42
13.562500000000 6.109375000000 51.194000244141 119 119 119
13.562500000000 6.109375000000 51.227005004883 149 149 149
13.562500000000 6.109375000000 51.263000488281 144 144 144
13.578125000000 6.109375000000 51.296997070313 145 145 145
13.578125000000 6.109375000000 51.330001831055 149 149 149
13.562500000000 6.109375000000 51.360992431641 149 149 149
13.562500000000 6.093750000000 51.393005371094 145 145 145
13.562500000000 6.109375000000 51.423004150391 63 63 63
13.609375000000 5.812500000000 51.182998657227 151 151 151
13.609375000000 5.812500000000 51.216003417969 163 163 163
13.593750000000 5.796875000000 51.248001098633 159 159 159
13.640625000000 5.812500000000 51.289993286133 144 144 144
13.609375000000 5.796875000000 51.315002441406 161 161 161
13.593750000000 5.796875000000 51.345001220703 160 160 160
13.609375000000 5.796875000000 51.380004882813 166 166 166
13.578125000000 5.781250000000 51.410995483398 119 119 119
13.609375000000 5.937500000000 51.156997680664 142 142 142
13.625000000000 5.937500000000 51.188003540039 185 185 185
13.625000000000 5.937500000000 51.216995239258 180 180 180
13.609375000000 5.937500000000 51.244003295898 183 183 183
13.609375000000 5.937500000000 51.270996093750 187 187 187
13.625000000000 5.937500000000 51.300994873047 180 180 180
13.625000000000 5.937500000000 51.328994750977 183 183 183
13.625000000000 5.937500000000 51.356994628906 184 184 184
13.625000000000 5.937500000000 51.386001586914 183 183 183
12.578125000000 5.937500000000 51.263000488281 151 151 151
12.656250000000 5.937500000000 51.305999755859 169 169 169
12.640625000000 5.937500000000 51.339004516602 178 178 178
12.609375000000 5.937500000000 51.369003295898 166 166 166
12.562500000000 5.937500000000 51.397994995117 56 56 56
13.296875000000 6.296875000000 50.707000732422 123 123 123
13.296875000000 6.296875000000 50.740005493164 146 146 146
13.281250000000 6.312500000000 50.768997192383 137 137 137
13.296875000000 6.296875000000 50.802993774414 129 129 129
13.281250000000 6.312500000000 50.832000732422 121 121 121
13.281250000000 6.312500000000 50.861999511719 119 119 119
13.281250000000 6.312500000000 50.891998291016 107 107 107
13.281250000000 6.312500000000 50.923004150391 91 91 91
13.296875000000 6.296875000000 50.957000732422 79 79 79
13.265625000000 6.296875000000 50.983001708984 63 63 63
13.296875000000 6.296875000000 51.018997192383 27 27 27
13.515625000000 6.281250000000 51.184005737305 118 118 118
13.515625000000 6.281250000000 51.210998535156 165 165 165
13.515625000000 6.281250000000 51.242004394531 156 156 156
13.515625000000 6.281250000000 51.268997192383 163 163 163
13.515625000000 6.281250000000 51.296997070313 166 166 166
13.515625000000 6.281250000000 51.326004028320 162 162 162
13.515625000000 6.281250000000 51.356002807617 161 161 161
12.656250000000 6.281250000000 51.257995605469 175 175 175
12.656250000000 6.281250000000 51.291000366211 174 174 174
12.656250000000 6.281250000000 51.324005126953 174 174 174
12.656250000000 6.281250000000 51.358001708984 141 141 141
13.187500000000 6.625000000000 50.406997680664 115 115 115
13.171875000000 6.609375000000 50.438003540039 116 116 116
13.171875000000 6.609375000000 50.468994140625 115 115 115
13.171875000000 6.609375000000 50.502990722656 117 117 117
13.156250000000 6.609375000000 50.533004760742 114 114 114
13.171875000000 6.609375000000 50.565994262695 116 116 116
13.171875000000 6.609375000000 50.598999023438 121 121 121
13.171875000000 6.609375000000 50.632003784180 122 122 122
13.296875000000 6.625000000000 50.699996948242 146 146 146
13.312500000000 6.640625000000 50.736999511719 153 153 153
13.328125000000 6.640625000000 50.770996093750 157 157 157
13.328125000000 6.640625000000 50.802001953125 150 150 150
13.312500000000 6.640625000000 50.830993652344 171 171 171
13.312500000000 6.640625000000 50.858993530273 172 172 172
13.312500000000 6.640625000000 50.890991210938 172 172 172
13.312500000000 6.640625000000 50.921997070313 170 170 170
13.312500000000 6.640625000000 50.953002929688 173 173 173
13.312500000000 6.640625000000 50.983001708984 174 174 174
13.312500000000 6.640625000000 51.013992309570 171 171 171
13.312500000000 6.640625000000 51.042999267578 167 167 167
13.312500000000 6.640625000000 51.074005126953 163 163 163
13.312500000000 6.640625000000 51.104003906250 161 161 161
13.312500000000 6.640625000000 51.132995605469 165 165 165
13.375000000000 6.625000000000 51.175003051758 171 171 171
13.453125000000 6.640625000000 51.218994140625 169 169 169
13.453125000000 6.640625000000 51.250000000000 174 174 174
13.453125000000 6.640625000000 51.277999877930 173 173 173
13.453125000000 6.640625000000 51.306991577148 177 177 177
13.453125000000 6.640625000000 51.335998535156 175 175 175
13.437500000000 6.625000000000 51.361999511719 172 172 172
13.328125000000 6.640625000000 51.373992919922 179 179 179
13.312500000000 6.640625000000 51.402999877930 176 176 176
13.234375000000 6.625000000000 51.421997070313 114 114 114
13.000000000000 6.640625000000 51.421997070313 91 91 91
13.468750000000 6.968750000000 51.212997436523 164 164 164
13.453125000000 6.968750000000 51.240997314453 179 179 179
13.468750000000 6.968750000000 51.270996093750 186 186 186
13.468750000000 6.968750000000 51.300003051758 204 204 204
13.453125000000 6.968750000000 51.326995849609 180 180 180
13.468750000000 6.968750000000 51.358001708984 175 175 175
12.812500000000 6.968750000000 51.289993286133 159 159 159
12.828125000000 6.984375000000 51.326004028320 174 174 174
12.828125000000 6.984375000000 51.358993530273 174 174 174
13.453125000000 7.296875000000 51.197998046875 86 86 86
13.468750000000 7.296875000000 51.229003906250 220 220 220
13.468750000000 7.296875000000 51.257995605469 223 223 223
13.468750000000 7.296875000000 51.285995483398 225 225 225
13.468750000000 7.296875000000 51.317001342773 222 222 222
13.468750000000 7.296875000000 51.345993041992 222 222 222
12.875000000000 7.312500000000 51.285003662109 201 201 201
12.875000000000 7.312500000000 51.317993164063 211 211 211
12.875000000000 7.312500000000 51.350997924805 208 208 208
13.468750000000 7.640625000000 51.214996337891 176 176 176
13.468750000000 7.640625000000 51.242996215820 220 220 220
13.453125000000 7.640625000000 51.270996093750 223 223 223
13.453125000000 7.640625000000 51.300003051758 223 223 223
13.468750000000 7.640625000000 51.328994750977 223 223 223
13.437500000000 7.656250000000 51.354995727539 227 227 227
12.921875000000 7.656250000000 51.306991577148 223 223 223
12.921875000000 7.656250000000 51.339004516602 188 188 188
12.921875000000 7.656250000000 51.369995117188 153 153 153
13.468750000000 7.968750000000 51.224990844727 216 216 216
13.468750000000 7.968750000000 51.255996704102 223 223 223
13.468750000000 7.968750000000 51.283996582031 225 225 225
13.468750000000 7.968750000000 51.311996459961 226 226 226
13.468750000000 7.968750000000 51.341003417969 226 226 226
13.375000000000 7.984375000000 51.356994628906 240 240 240
12.953125000000 7.968750000000 51.326995849609 210 210 210
12.953125000000 7.968750000000 51.358001708984 197 197 197
13.453125000000 8.312500000000 51.214004516602 159 159 159
13.453125000000 8.312500000000 51.242996215820 223 223 223
13.453125000000 8.312500000000 51.270004272461 219 219 219
13.453125000000 8.312500000000 51.300003051758 223 223 223
13.453125000000 8.312500000000 51.328002929688 225 225 225
13.453125000000 8.312500000000 51.358001708984 218 218 218
13.015625000000 8.312500000000 51.321990966797 197 197 197
13.000000000000 8.312500000000 51.350997924805 205 205 205
13.437500000000 8.656250000000 51.233001708984 219 219 219
13.453125000000 8.656250000000 51.263000488281 220 220 220
13.437500000000 8.656250000000 51.289993286133 223 223 223
13.453125000000 8.656250000000 51.319992065430 222 222 222
13.437500000000 8.656250000000 51.347991943359 223 223 223
13.125000000000 8.656250000000 51.328002929688 218 218 218
13.062500000000 8.656250000000 51.349990844727 197 197 197
13.453125000000 9.000000000000 51.222991943359 191 191 191
13.453125000000 8.984375000000 51.250991821289 223 223 223
13.453125000000 8.984375000000 51.278991699219 222 222 222
13.453125000000 9.000000000000 51.309005737305 222 222 222
13.453125000000 9.000000000000 51.337997436523 221 221 221
13.375000000000 8.984375000000 51.354003906250 217 217 217
13.140625000000 8.984375000000 51.347991943359 206 206 206
13.453125000000 9.343750000000 51.236999511719 217 217 217
13.453125000000 9.343750000000 51.265991210938 221 221 221
13.453125000000 9.343750000000 51.294998168945 223 223 223
13.437500000000 9.343750000000 51.322998046875 224 224 224
13.437500000000 9.343750000000 51.352005004883 220 220 220
13.187500000000 9.343750000000 51.343994140625 195 195 195
13.171875000000 9.343750000000 51.373001098633 119 119 119
13.421875000000 9.656250000000 51.220993041992 167 167 167
13.406250000000 9.671875000000 51.248992919922 220 220 220
13.421875000000 9.656250000000 51.279998779297 221 221 221
13.406250000000 9.671875000000 51.306991577148 224 224 224
13.421875000000 9.656250000000 51.337005615234 223 223 223
13.359375000000 9.671875000000 51.356994628906 210 210 210
13.218750000000 9.687500000000 51.365997314453 176 176 176
13.406250000000 10.000000000000 51.235000610352 212 212 212
13.406250000000 10.000000000000 51.263000488281 222 222 222
13.421875000000 10.000000000000 51.292999267578 222 222 222
13.421875000000 10.000000000000 51.324005126953 221 221 221
13.421875000000 10.000000000000 51.352005004883 216 216 216
13.281250000000 10.000000000000 51.358993530273 192 192 192
13.406250000000 10.343750000000 51.223999023438 189 189 189
