22.984375000000 5.218750000000 49.962005615234 179 179 179
23.000000000000 5.218750000000 49.983001708984 199 199 199
23.000000000000 5.218750000000 50.014999389648 206 206 206
23.000000000000 5.218750000000 50.046005249023 215 215 215
22.984375000000 5.218750000000 50.097991943359 124 124 124
23.000000000000 5.218750000000 50.110000610352 210 210 210
22.953125000000 5.218750000000 50.168991088867 105 105 105
22.953125000000 5.218750000000 50.197998046875 97 97 97
22.921875000000 5.203125000000 50.266998291016 88 88 88
22.921875000000 5.203125000000 50.296997070313 89 89 89
22.953125000000 5.218750000000 50.320999145508 103 103 103
22.953125000000 5.218750000000 50.348999023438 104 104 104
22.937500000000 5.203125000000 50.380004882813 111 111 111
22.937500000000 5.203125000000 50.412002563477 111 111 111
22.937500000000 5.203125000000 50.440002441406 116 116 116
22.921875000000 5.203125000000 50.470993041992 121 121 121
22.921875000000 5.203125000000 50.501998901367 120 120 120
22.921875000000 5.203125000000 50.528991699219 124 124 124
22.937500000000 5.203125000000 50.554992675781 125 125 125
22.937500000000 5.203125000000 50.582992553711 125 125 125
22.921875000000 5.203125000000 50.615997314453 128 128 128
22.921875000000 5.203125000000 50.641998291016 128 128 128
22.921875000000 5.203125000000 50.673995971680 130 130 130
22.906250000000 5.218750000000 50.703002929688 125 125 125
22.921875000000 5.203125000000 50.727996826172 130 130 130
22.921875000000 5.203125000000 50.757003784180 133 133 133
22.921875000000 5.203125000000 50.785003662109 135 135 135
22.921875000000 5.203125000000 50.811996459961 141 141 141
22.921875000000 5.203125000000 50.837997436523 135 135 135
22.906250000000 5.218750000000 50.869995117188 136 136 136
22.906250000000 5.218750000000 50.895996093750 134 134 134
22.921875000000 5.203125000000 50.921005249023 143 143 143
22.921875000000 5.203125000000 50.946990966797 142 142 142
22.906250000000 5.218750000000 50.977005004883 142 142 142
22.906250000000 5.218750000000 51.003997802734 145 145 145
22.921875000000 5.203125000000 51.029998779297 144 144 144
22.921875000000 5.203125000000 51.056991577148 147 147 147
22.906250000000 5.218750000000 51.083999633789 146 146 146
22.906250000000 5.218750000000 51.111999511719 146 146 146
22.906250000000 5.218750000000 51.138000488281 153 153 153
22.906250000000 5.218750000000 51.164001464844 148 148 148
22.921875000000 5.203125000000 51.188003540039 147 147 147
22.906250000000 5.218750000000 51.216003417969 150 150 150
22.906250000000 5.218750000000 51.242004394531 149 149 149
22.906250000000 5.218750000000 51.268997192383 154 154 154
22.921875000000 5.203125000000 51.294998168945 155 155 155
22.906250000000 5.218750000000 51.320999145508 156 156 156
22.906250000000 5.218750000000 51.347991943359 160 160 160
22.906250000000 5.218750000000 51.373992919922 163 163 163
22.906250000000 5.218750000000 51.399993896484 161 161 161
22.906250000000 5.203125000000 51.427001953125 158 158 158
22.906250000000 5.218750000000 51.451004028320 165 165 165
22.906250000000 5.218750000000 51.477005004883 166 166 166
22.906250000000 5.218750000000 51.501998901367 167 167 167
22.906250000000 5.203125000000 51.529998779297 170 170 170
22.906250000000 5.203125000000 51.554992675781 172 172 172
22.890625000000 5.203125000000 51.580993652344 172 172 172
22.906250000000 5.218750000000 51.604995727539 176 176 176
22.906250000000 5.203125000000 51.630996704102 173 173 173
22.906250000000 5.203125000000 51.656005859375 172 172 172
22.890625000000 5.203125000000 51.682998657227 171 171 171
22.906250000000 5.203125000000 51.707992553711 168 168 168
22.890625000000 5.203125000000 51.733993530273 176 176 176
22.890625000000 5.203125000000 51.759002685547 167 167 167
22.906250000000 5.203125000000 51.783996582031 173 173 173
22.906250000000 5.203125000000 51.809005737305 174 174 174
22.906250000000 5.203125000000 51.833999633789 176 176 176
22.906250000000 5.203125000000 51.858993530273 180 180 180
22.890625000000 5.203125000000 51.884994506836 176 176 176
22.890625000000 5.203125000000 51.910995483398 175 175 175
22.890625000000 5.203125000000 51.934997558594 179 179 179
22.890625000000 5.203125000000 51.960998535156 181 181 181
22.890625000000 5.203125000000 51.985992431641 176 176 176
22.890625000000 5.203125000000 52.011001586914 171 171 171
22.890625000000 5.203125000000 52.035995483398 171 171 171
22.890625000000 5.203125000000 52.061004638672 169 169 169
22.890625000000 5.203125000000 52.085998535156 180 180 180
22.890625000000 5.203125000000 52.110992431641 183 183 183
22.890625000000 5.203125000000 52.136993408203 177 177 177
22.890625000000 5.203125000000 52.162002563477 175 175 175
22.906250000000 5.203125000000 52.186996459961 174 174 174
22.890625000000 5.203125000000 52.212005615234 172 172 172
22.890625000000 5.203125000000 52.236999511719 171 171 171
22.890625000000 5.203125000000 52.261993408203 178 178 178
22.890625000000 5.203125000000 52.287002563477 173 173 173
22.890625000000 5.203125000000 52.311996459961 179 179 179
22.890625000000 5.203125000000 52.337005615234 176 176 176
22.890625000000 5.203125000000 52.362991333008 171 171 171
22.890625000000 5.203125000000 52.388000488281 179 179 179
22.890625000000 5.203125000000 52.412994384766 177 177 177
22.890625000000 5.203125000000 52.438003540039 176 176 176
22.890625000000 5.203125000000 52.462997436523 179 179 179
22.875000000000 5.203125000000 52.487991333008 177 177 177
22.890625000000 5.203125000000 52.513000488281 174 174 174
22.890625000000 5.203125000000 52.539001464844 175 175 175
22.890625000000 5.203125000000 52.565002441406 179 179 179
22.890625000000 5.203125000000 52.589996337891 176 176 176
22.890625000000 5.203125000000 52.615005493164 174 174 174
22.890625000000 5.203125000000 52.639999389648 176 176 176
22.890625000000 5.203125000000 52.666992187500 176 176 176
22.890625000000 5.203125000000 52.692001342773 179 179 179
22.875000000000 5.187500000000 52.716003417969 179 179 179
22.890625000000 5.203125000000 52.742996215820 174 174 174
22.890625000000 5.203125000000 52.768005371094 179 179 179
22.890625000000 5.203125000000 52.794998168945 182 182 182
22.875000000000 5.187500000000 52.817993164063 174 174 174
22.890625000000 5.187500000000 52.845001220703 175 175 175
22.890625000000 5.203125000000 52.871994018555 176 176 176
22.875000000000 5.187500000000 52.895996093750 174 174 174
22.875000000000 5.187500000000 52.921997070313 174 174 174
22.890625000000 5.187500000000 52.947998046875 174 174 174
22.890625000000 5.187500000000 52.975997924805 177 177 177
22.875000000000 5.187500000000 53.000000000000 179 179 179
22.890625000000 5.187500000000 53.027999877930 173 173 173
22.890625000000 5.187500000000 53.052993774414 168 168 168
22.890625000000 5.187500000000 53.078994750977 170 170 170
22.875000000000 5.187500000000 53.104995727539 169 169 169
22.875000000000 5.187500000000 53.130996704102 170 170 170
22.890625000000 5.187500000000 53.158004760742 174 174 174
22.875000000000 5.187500000000 53.184005737305 170 170 170
22.875000000000 5.187500000000 53.210998535156 173 173 173
22.890625000000 5.187500000000 53.237991333008 172 172 172
22.890625000000 5.187500000000 53.264999389648 172 172 172
22.890625000000 5.187500000000 53.291992187500 172 172 172
22.875000000000 5.187500000000 53.317001342773 172 172 172
22.875000000000 5.187500000000 53.343002319336 172 172 172
22.875000000000 5.187500000000 53.371994018555 168 168 168
22.875000000000 5.187500000000 53.399002075195 169 169 169
22.875000000000 5.187500000000 53.425003051758 164 164 164
22.875000000000 5.187500000000 53.453994750977 154 154 154
22.875000000000 5.187500000000 53.479995727539 94 94 94
23.187500000000 4.890625000000 52.125000000000 111 111 111
23.187500000000 4.890625000000 52.151000976563 163 163 163
23.187500000000 4.890625000000 52.177993774414 181 181 181
23.187500000000 4.890625000000 52.205001831055 178 178 178
23.187500000000 4.890625000000 52.231994628906 176 176 176
23.187500000000 4.890625000000 52.259002685547 180 180 180
23.187500000000 4.890625000000 52.285003662109 181 181 181
23.187500000000 4.890625000000 52.311996459961 180 180 180
23.187500000000 4.890625000000 52.339004516602 179 179 179
23.187500000000 4.890625000000 52.365997314453 180 180 180
23.187500000000 4.890625000000 52.393005371094 148 148 148
22.984375000000 4.875000000000 52.847000122070 130 130 130
22.984375000000 4.875000000000 52.871994018555 216 216 216
22.984375000000 4.875000000000 52.899002075195 219 219 219
22.984375000000 4.875000000000 52.925994873047 223 223 223
22.984375000000 4.875000000000 52.951995849609 223 223 223
22.984375000000 4.875000000000 52.979995727539 227 227 227
22.984375000000 4.875000000000 53.007003784180 229 229 229
22.984375000000 4.875000000000 53.031997680664 224 224 224
22.984375000000 4.875000000000 53.057998657227 223 223 223
22.984375000000 4.875000000000 53.084991455078 222 222 222
22.968750000000 4.875000000000 53.110992431641 32 32 32
22.984375000000 4.875000000000 53.194000244141 194 194 194
22.984375000000 4.875000000000 53.220001220703 206 206 206
22.984375000000 4.875000000000 53.248992919922 206 206 206
22.984375000000 4.875000000000 53.274002075195 198 198 198
22.968750000000 4.875000000000 53.300994873047 199 199 199
22.984375000000 4.875000000000 53.330001831055 209 209 209
22.984375000000 4.875000000000 53.356994628906 208 208 208
22.984375000000 4.875000000000 53.384002685547 197 197 197
22.968750000000 4.875000000000 53.412002563477 188 188 188
23.078125000000 4.593750000000 52.792999267578 60 60 60
23.062500000000 4.609375000000 52.817993164063 199 199 199
23.078125000000 4.593750000000 52.847000122070 223 223 223
23.078125000000 4.593750000000 52.873001098633 221 221 221
23.078125000000 4.593750000000 52.899002075195 221 221 221
23.062500000000 4.609375000000 52.923995971680 44 44 44
23.078125000000 4.593750000000 53.365997314453 172 172 172
23.046875000000 4.578125000000 53.390991210938 197 197 197
23.062500000000 4.578125000000 53.421005249023 214 214 214
23.062500000000 4.578125000000 53.449996948242 185 185 185
23.062500000000 4.578125000000 53.477005004883 89 89 89
23.796875000000 3.984375000000 52.630996704102 141 141 141
23.812500000000 4.000000000000 52.662994384766 148 148 148
23.812500000000 4.000000000000 52.692993164063 156 156 156
23.812500000000 3.984375000000 52.722991943359 165 165 165
23.812500000000 4.000000000000 52.753997802734 172 172 172
23.812500000000 4.000000000000 52.785995483398 164 164 164
23.812500000000 4.000000000000 52.817001342773 151 151 151
23.796875000000 3.984375000000 52.843994140625 89 89 89
23.781250000000 3.984375000000 53.184005737305 62 62 62
23.781250000000 3.984375000000 53.214996337891 129 129 129
23.796875000000 3.984375000000 53.250000000000 141 141 141
23.796875000000 3.984375000000 53.281005859375 138 138 138
23.781250000000 3.984375000000 53.309005737305 131 131 131
23.781250000000 3.984375000000 53.343002319336 140 140 140
23.796875000000 3.984375000000 53.375991821289 129 129 129
23.796875000000 3.984375000000 53.408996582031 115 115 115
23.500000000000 3.687500000000 51.587005615234 97 97 97
23.515625000000 3.671875000000 51.613998413086 139 139 139
23.531250000000 3.671875000000 51.641998291016 155 155 155
23.531250000000 3.687500000000 51.669998168945 152 152 152
23.531250000000 3.687500000000 51.699005126953 151 151 151
23.531250000000 3.671875000000 51.727996826172 154 154 154
23.531250000000 3.671875000000 51.755996704102 156 156 156
23.531250000000 3.671875000000 51.785003662109 162 162 162
23.546875000000 3.687500000000 51.813995361328 159 159 159
23.406250000000 3.656250000000 51.849990844727 184 184 184
23.281250000000 3.671875000000 51.882995605469 156 156 156
23.281250000000 3.671875000000 51.910003662109 162 162 162
23.265625000000 3.656250000000 51.938003540039 169 169 169
23.265625000000 3.656250000000 51.964996337891 170 170 170
23.265625000000 3.671875000000 51.992004394531 167 167 167
23.281250000000 3.671875000000 52.018997192383 166 166 166
23.281250000000 3.671875000000 52.046005249023 161 161 161
23.484375000000 3.687500000000 52.071990966797 164 164 164
23.531250000000 3.671875000000 52.099990844727 143 143 143
23.578125000000 3.671875000000 52.128997802734 155 155 155
23.593750000000 3.671875000000 52.158004760742 158 158 158
23.578125000000 3.671875000000 52.186996459961 159 159 159
23.578125000000 3.671875000000 52.216003417969 165 165 165
23.593750000000 3.671875000000 52.244995117188 135 135 135
23.250000000000 3.656250000000 52.861999511719 108 108 108
23.265625000000 3.656250000000 52.893997192383 139 139 139
23.265625000000 3.656250000000 52.921005249023 145 145 145
23.265625000000 3.656250000000 52.947998046875 154 154 154
23.265625000000 3.656250000000 52.977996826172 147 147 147
23.265625000000 3.656250000000 53.005004882813 143 143 143
23.265625000000 3.656250000000 53.033996582031 147 147 147
23.265625000000 3.656250000000 53.059997558594 134 134 134
23.265625000000 3.656250000000 53.089004516602 149 149 149
23.281250000000 3.656250000000 53.119995117188 161 161 161
23.281250000000 3.656250000000 53.147994995117 155 155 155
23.281250000000 3.656250000000 53.179992675781 165 165 165
23.265625000000 3.656250000000 53.203994750977 158 158 158
23.250000000000 3.656250000000 53.227996826172 70 70 70
23.125000000000 3.609375000000 53.285995483398 129 129 129
23.140625000000 3.609375000000 53.261993408203 161 161 161
23.140625000000 3.609375000000 53.233993530273 156 156 156
23.156250000000 3.609375000000 53.207000732422 159 159 159
23.156250000000 3.609375000000 53.179000854492 161 161 161
23.156250000000 3.609375000000 53.152999877930 161 161 161
23.156250000000 3.609375000000 53.123992919922 151 151 151
23.156250000000 3.609375000000 53.095001220703 157 157 157
23.171875000000 3.593750000000 53.069992065430 151 151 151
23.171875000000 3.593750000000 53.044998168945 103 103 103
23.140625000000 3.609375000000 53.011001586914 59 59 59
23.140625000000 3.609375000000 52.981994628906 137 137 137
23.125000000000 3.609375000000 52.951004028320 136 136 136
23.125000000000 3.609375000000 52.923995971680 132 132 132
23.140625000000 3.609375000000 52.897994995117 139 139 139
23.140625000000 3.609375000000 52.871002197266 145 145 145
23.140625000000 3.609375000000 52.843994140625 141 141 141
23.140625000000 3.609375000000 52.817001342773 143 143 143
23.125000000000 3.609375000000 52.787994384766 133 133 133
23.437500000000 3.593750000000 52.233001708984 132 132 132
23.421875000000 3.593750000000 52.205001831055 154 154 154
23.421875000000 3.593750000000 52.177001953125 153 153 153
23.421875000000 3.593750000000 52.147994995117 154 154 154
23.421875000000 3.593750000000 52.119995117188 154 154 154
23.421875000000 3.593750000000 52.091003417969 156 156 156
23.421875000000 3.593750000000 52.063003540039 160 160 160
23.406250000000 3.609375000000 52.035003662109 144 144 144
23.421875000000 3.609375000000 52.007003784180 146 146 146
23.421875000000 3.609375000000 51.977996826172 151 151 151
23.390625000000 3.609375000000 51.951004028320 158 158 158
23.328125000000 3.609375000000 51.925003051758 166 166 166
23.312500000000 3.609375000000 51.897994995117 170 170 170
23.421875000000 3.609375000000 51.865997314453 147 147 147
23.406250000000 3.609375000000 51.837997436523 160 160 160
23.421875000000 3.609375000000 51.809005737305 146 146 146
23.406250000000 3.609375000000 51.781997680664 140 140 140
23.406250000000 3.609375000000 51.752990722656 145 145 145
23.406250000000 3.609375000000 51.724990844727 149 149 149
23.406250000000 3.609375000000 51.695999145508 149 149 149
23.390625000000 3.609375000000 51.668991088867 149 149 149
23.390625000000 3.609375000000 51.640991210938 154 154 154
23.390625000000 3.609375000000 51.612991333008 153 153 153
23.390625000000 3.609375000000 51.584991455078 134 134 134
23.406250000000 3.609375000000 51.554992675781 139 139 139
23.656250000000 3.937500000000 53.326004028320 131 131 131
23.687500000000 3.937500000000 53.294998168945 136 136 136
23.687500000000 3.937500000000 53.263992309570 140 140 140
23.687500000000 3.937500000000 53.233993530273 134 134 134
23.687500000000 3.937500000000 53.201004028320 140 140 140
23.687500000000 3.937500000000 53.171997070313 137 137 137
23.687500000000 3.937500000000 53.141998291016 135 135 135
23.656250000000 3.937500000000 53.104995727539 37 37 37
23.687500000000 3.937500000000 52.893997192383 118 118 118
23.718750000000 3.937500000000 52.867996215820 154 154 154
23.718750000000 3.937500000000 52.837005615234 144 144 144
23.687500000000 3.937500000000 52.805999755859 150 150 150
23.687500000000 3.937500000000 52.774993896484 155 155 155
23.718750000000 3.937500000000 52.746994018555 155 155 155
23.687500000000 3.937500000000 52.714996337891 156 156 156
23.718750000000 3.937500000000 52.684997558594 148 148 148
23.750000000000 3.937500000000 52.658004760742 99 99 99
23.062500000000 4.609375000000 53.458999633789 133 133 133
23.062500000000 4.609375000000 53.429992675781 197 197 197
23.046875000000 4.609375000000 53.399993896484 209 209 209
23.062500000000 4.609375000000 53.373992919922 194 194 194
23.062500000000 4.609375000000 53.347991943359 137 137 137
23.046875000000 4.609375000000 52.901000976563 189 189 189
23.062500000000 4.609375000000 52.875991821289 220 220 220
23.062500000000 4.609375000000 52.848999023438 218 218 218
23.062500000000 4.609375000000 52.822998046875 223 223 223
23.046875000000 4.609375000000 52.793991088867 186 186 186
23.062500000000 4.609375000000 52.768005371094 98 98 98
22.968750000000 4.921875000000 53.393005371094 162 162 162
22.937500000000 4.906250000000 53.360992431641 199 199 199
22.968750000000 4.921875000000 53.337005615234 199 199 199
22.968750000000 4.921875000000 53.309005737305 208 208 208
22.968750000000 4.921875000000 53.279998779297 202 202 202
22.968750000000 4.921875000000 53.252990722656 194 194 194
22.984375000000 4.921875000000 53.227005004883 205 205 205
22.984375000000 4.921875000000 53.199005126953 206 206 206
22.968750000000 4.921875000000 53.171005249023 195 195 195
22.984375000000 4.921875000000 53.145004272461 142 142 142
22.968750000000 4.921875000000 53.089996337891 224 224 224
22.968750000000 4.921875000000 53.061004638672 217 217 217
22.968750000000 4.921875000000 53.035003662109 217 217 217
22.984375000000 4.921875000000 53.009002685547 226 226 226
22.968750000000 4.921875000000 52.979995727539 216 216 216
22.984375000000 4.921875000000 52.955993652344 224 224 224
22.984375000000 4.921875000000 52.929000854492 217 217 217
22.968750000000 4.921875000000 52.899002075195 213 213 213
22.968750000000 4.921875000000 52.873992919922 210 210 210
23.171875000000 4.937500000000 52.416992187500 143 143 143
23.171875000000 4.937500000000 52.389999389648 175 175 175
23.171875000000 4.937500000000 52.362991333008 175 175 175
23.171875000000 4.937500000000 52.334991455078 174 174 174
23.171875000000 4.937500000000 52.309005737305 175 175 175
23.171875000000 4.937500000000 52.281005859375 178 178 178
23.171875000000 4.937500000000 52.253997802734 179 179 179
23.171875000000 4.937500000000 52.227005004883 180 180 180
23.171875000000 4.937500000000 52.199996948242 180 180 180
23.156250000000 4.937500000000 52.173004150391 177 177 177
23.171875000000 4.937500000000 52.145996093750 175 175 175
23.187500000000 4.953125000000 52.119003295898 182 182 182
23.156250000000 4.937500000000 52.091995239258 176 176 176
23.156250000000 4.937500000000 52.065002441406 166 166 166
23.140625000000 4.937500000000 52.039001464844 133 133 133
22.875000000000 5.250000000000 53.300003051758 200 200 200
22.890625000000 5.265625000000 53.276000976563 226 226 226
22.890625000000 5.265625000000 53.248992919922 221 221 221
22.875000000000 5.265625000000 53.220001220703 219 219 219
22.890625000000 5.265625000000 53.194000244141 224 224 224
22.890625000000 5.265625000000 53.166000366211 220 220 220
22.875000000000 5.265625000000 53.138992309570 218 218 218
22.890625000000 5.265625000000 53.112991333008 219 219 219
22.875000000000 5.265625000000 53.083999633789 216 216 216
22.890625000000 5.265625000000 53.061004638672 208 208 208
22.890625000000 5.265625000000 53.033996582031 210 210 210
22.890625000000 5.265625000000 53.007003784180 209 209 209
22.890625000000 5.265625000000 52.981994628906 209 209 209
22.890625000000 5.265625000000 52.953994750977 184 184 184
23.015625000000 5.265625000000 52.446990966797 164 164 164
23.031250000000 5.265625000000 52.421005249023 175 175 175
23.015625000000 5.265625000000 52.393997192383 177 177 177
23.015625000000 5.265625000000 52.367996215820 178 178 178
23.000000000000 5.250000000000 52.341003417969 193 193 193
23.000000000000 5.250000000000 52.315002441406 193 193 193
23.000000000000 5.250000000000 52.287994384766 191 191 191
22.953125000000 5.250000000000 52.259994506836 183 183 183
22.906250000000 5.265625000000 52.233001708984 186 186 186
23.000000000000 5.250000000000 52.209991455078 188 188 188
23.000000000000 5.281250000000 52.184005737305 170 170 170
23.000000000000 5.281250000000 52.158004760742 165 165 165
23.000000000000 5.281250000000 52.132003784180 163 163 163
23.000000000000 5.281250000000 52.106002807617 159 159 159
22.984375000000 5.265625000000 52.080001831055 196 196 196
22.921875000000 5.265625000000 52.054000854492 195 195 195
23.000000000000 5.250000000000 52.027999877930 184 184 184
23.000000000000 5.250000000000 52.000991821289 175 175 175
23.015625000000 5.281250000000 51.974990844727 178 178 178
23.000000000000 5.250000000000 51.949005126953 180 180 180
23.000000000000 5.281250000000 51.923995971680 176 176 176
23.000000000000 5.250000000000 51.897003173828 180 180 180
23.000000000000 5.250000000000 51.871002197266 165 165 165
23.000000000000 5.250000000000 51.845001220703 178 178 178
23.000000000000 5.281250000000 51.819000244141 179 179 179
23.000000000000 5.281250000000 51.792999267578 169 169 169
23.000000000000 5.281250000000 51.766998291016 34 34 34
22.812500000000 5.593750000000 53.514999389648 117 117 117
22.812500000000 5.593750000000 53.488998413086 229 229 229
22.812500000000 5.593750000000 53.458999633789 218 218 218
22.812500000000 5.593750000000 53.430999755859 221 221 221
22.812500000000 5.593750000000 53.403991699219 223 223 223
22.812500000000 5.593750000000 53.375991821289 219 219 219
22.796875000000 5.609375000000 53.352005004883 220 220 220
22.796875000000 5.609375000000 53.324996948242 219 219 219
22.796875000000 5.609375000000 53.296997070313 219 219 219
22.796875000000 5.609375000000 53.268005371094 176 176 176
22.812500000000 5.593750000000 52.981994628906 199 199 199
22.812500000000 5.593750000000 52.957000732422 207 207 207
22.812500000000 5.593750000000 52.930999755859 211 211 211
22.843750000000 5.593750000000 52.906997680664 218 218 218
22.812500000000 5.593750000000 52.878997802734 211 211 211
22.812500000000 5.593750000000 52.854003906250 214 214 214
22.812500000000 5.593750000000 52.826995849609 216 216 216
22.812500000000 5.593750000000 52.802001953125 213 213 213
22.812500000000 5.593750000000 52.776000976563 210 210 210
22.812500000000 5.593750000000 52.750000000000 161 161 161
23.453125000000 15.593750000000 53.440002441406 100 100 100
23.437500000000 15.593750000000 53.406005859375 124 124 124
23.437500000000 15.578125000000 53.373001098633 160 160 160
23.453125000000 15.593750000000 53.343994140625 148 148 148
23.437500000000 15.593750000000 53.309997558594 149 149 149
23.437500000000 15.593750000000 53.281005859375 143 143 143
23.437500000000 15.593750000000 53.250000000000 100 100 100
23.468750000000 15.593750000000 52.828002929688 133 133 133
23.453125000000 15.593750000000 52.796997070313 133 133 133
23.468750000000 15.593750000000 52.768005371094 142 142 142
23.453125000000 15.593750000000 52.735992431641 138 138 138
23.453125000000 15.593750000000 52.707000732422 147 147 147
23.468750000000 15.593750000000 52.679000854492 121 121 121
23.468750000000 15.593750000000 52.649002075195 106 106 106
23.484375000000 15.609375000000 52.619995117188 68 68 68
23.718750000000 15.609375000000 52.302001953125 73 73 73
23.718750000000 15.609375000000 52.270996093750 87 87 87
23.703125000000 15.609375000000 52.238998413086 106 106 106
23.671875000000 15.593750000000 52.207992553711 113 113 113
23.687500000000 15.609375000000 52.177001953125 114 114 114
23.671875000000 15.593750000000 52.147003173828 105 105 105
23.703125000000 15.609375000000 52.115997314453 108 108 108
23.718750000000 15.609375000000 52.084991455078 108 108 108
23.703125000000 15.609375000000 52.054000854492 75 75 75
23.703125000000 15.609375000000 52.022994995117 48 48 48
24.000000000000 15.609375000000 51.955001831055 37 37 37
23.937500000000 15.609375000000 51.923995971680 38 38 38
23.937500000000 15.609375000000 51.891998291016 40 40 40
23.937500000000 15.609375000000 51.860000610352 40 40 40
23.906250000000 15.937500000000 53.375000000000 162 162 162
23.890625000000 15.937500000000 53.339996337891 154 154 154
23.890625000000 15.937500000000 53.305999755859 156 156 156
23.890625000000 15.937500000000 53.274002075195 159 159 159
23.890625000000 15.937500000000 53.240005493164 165 165 165
23.890625000000 15.937500000000 53.207000732422 162 162 162
23.890625000000 15.937500000000 53.173004150391 163 163 163
23.890625000000 15.937500000000 53.138992309570 162 162 162
23.890625000000 15.937500000000 53.106994628906 159 159 159
23.890625000000 15.937500000000 53.072998046875 163 163 163
23.890625000000 15.937500000000 53.039993286133 164 164 164
23.890625000000 15.937500000000 53.007003784180 157 157 157
23.890625000000 15.937500000000 52.972991943359 165 165 165
23.890625000000 15.937500000000 52.940994262695 161 161 161
23.890625000000 15.937500000000 52.908004760742 157 157 157
23.890625000000 15.937500000000 52.875991821289 159 159 159
23.890625000000 15.937500000000 52.843002319336 160 160 160
23.890625000000 15.953125000000 52.811004638672 156 156 156
23.890625000000 15.953125000000 52.777999877930 157 157 157
23.890625000000 15.937500000000 52.744995117188 162 162 162
23.875000000000 15.937500000000 52.710998535156 155 155 155
23.875000000000 15.937500000000 52.679000854492 160 160 160
23.875000000000 15.937500000000 52.647003173828 166 166 166
23.875000000000 15.937500000000 52.615005493164 163 163 163
23.875000000000 15.937500000000 52.582992553711 165 165 165
23.890625000000 15.953125000000 52.550994873047 168 168 168
23.890625000000 15.953125000000 52.518997192383 159 159 159
23.875000000000 15.937500000000 52.485992431641 161 161 161
23.890625000000 15.953125000000 52.453994750977 159 159 159
23.875000000000 15.937500000000 52.421997070313 161 161 161
23.875000000000 15.937500000000 52.389999389648 158 158 158
23.875000000000 15.937500000000 52.358001708984 163 163 163
23.875000000000 15.937500000000 52.326004028320 163 163 163
23.875000000000 15.937500000000 52.293991088867 162 162 162
23.875000000000 15.937500000000 52.261993408203 160 160 160
23.875000000000 15.937500000000 52.229995727539 159 159 159
23.875000000000 15.937500000000 52.197998046875 164 164 164
23.875000000000 15.937500000000 52.166000366211 164 164 164
23.875000000000 15.937500000000 52.134002685547 160 160 160
23.875000000000 15.937500000000 52.102005004883 164 164 164
23.875000000000 15.937500000000 52.069992065430 163 163 163
23.875000000000 15.937500000000 52.037994384766 161 161 161
23.859375000000 15.953125000000 52.007003784180 164 164 164
23.859375000000 15.953125000000 51.974990844727 163 163 163
23.875000000000 15.937500000000 51.942993164063 162 162 162
23.859375000000 15.953125000000 51.910995483398 164 164 164
23.859375000000 15.953125000000 51.878997802734 165 165 165
23.859375000000 15.953125000000 51.847000122070 162 162 162
23.859375000000 15.953125000000 51.815002441406 158 158 158
23.859375000000 15.953125000000 51.783004760742 162 162 162
23.875000000000 15.937500000000 51.750991821289 156 156 156
23.875000000000 15.937500000000 51.718994140625 158 158 158
23.875000000000 15.937500000000 51.686996459961 158 158 158
23.859375000000 15.953125000000 51.654998779297 156 156 156
23.875000000000 15.937500000000 51.621994018555 157 157 157
23.875000000000 15.937500000000 51.589996337891 161 161 161
23.875000000000 15.937500000000 51.556991577148 159 159 159
23.859375000000 15.953125000000 51.526992797852 157 157 157
23.859375000000 15.953125000000 51.494995117188 158 158 158
23.859375000000 15.953125000000 51.462005615234 161 161 161
23.875000000000 15.937500000000 51.429000854492 160 160 160
23.875000000000 15.937500000000 51.397003173828 174 174 174
23.859375000000 15.953125000000 51.365005493164 170 170 170
23.859375000000 15.953125000000 51.332000732422 164 164 164
23.859375000000 15.953125000000 51.300003051758 167 167 167
23.859375000000 15.953125000000 51.268005371094 165 165 165
23.875000000000 15.968750000000 51.233993530273 164 164 164
23.859375000000 15.953125000000 51.201995849609 166 166 166
23.875000000000 15.968750000000 51.168991088867 161 161 161
23.859375000000 15.968750000000 51.136993408203 162 162 162
23.859375000000 15.953125000000 51.104995727539 163 163 163
23.859375000000 15.968750000000 51.071990966797 164 164 164
23.875000000000 15.968750000000 51.037002563477 154 154 154
23.859375000000 15.968750000000 51.007003784180 149 149 149
23.859375000000 15.968750000000 50.973999023438 146 146 146
23.843750000000 15.953125000000 50.942001342773 143 143 143
23.859375000000 15.968750000000 50.906997680664 147 147 147
23.859375000000 15.968750000000 50.875000000000 142 142 142
23.859375000000 15.968750000000 50.841003417969 140 140 140
23.859375000000 15.968750000000 50.806991577148 135 135 135
23.859375000000 15.968750000000 50.772003173828 129 129 129
23.859375000000 15.968750000000 50.740005493164 127 127 127
23.859375000000 15.968750000000 50.705993652344 122 122 122
23.859375000000 15.968750000000 50.671997070313 128 128 128
23.843750000000 15.968750000000 50.641998291016 115 115 115
24.593750000000 16.234375000000 53.404998779297 193 193 193
24.609375000000 16.250000000000 53.371002197266 236 236 236
24.609375000000 16.250000000000 53.333999633789 239 239 239
24.593750000000 16.250000000000 53.293991088867 232 232 232
24.593750000000 16.250000000000 53.255004882813 211 211 211
24.593750000000 16.250000000000 53.218002319336 221 221 221
24.593750000000 16.250000000000 53.180999755859 223 223 223
24.609375000000 16.250000000000 52.925003051758 234 234 234
24.593750000000 16.250000000000 52.886001586914 213 213 213
24.609375000000 16.250000000000 52.850997924805 209 209 209
24.609375000000 16.250000000000 52.813995361328 230 230 230
24.609375000000 16.250000000000 52.777999877930 237 237 237
24.609375000000 16.250000000000 52.740005493164 236 236 236
24.593750000000 16.250000000000 52.703002929688 202 202 202
24.453125000000 16.562500000000 53.651992797852 86 86 86
24.421875000000 16.562500000000 53.608001708984 122 122 122
24.640625000000 16.562500000000 53.623001098633 131 131 131
24.562500000000 16.562500000000 53.567993164063 108 108 108
24.484375000000 16.562500000000 53.507995605469 111 111 111
24.484375000000 16.562500000000 53.472991943359 122 122 122
24.546875000000 16.562500000000 53.447998046875 106 106 106
24.546875000000 16.562500000000 53.412002563477 131 131 131
24.515625000000 16.562500000000 53.367996215820 166 166 166
24.515625000000 16.562500000000 53.332000732422 158 158 158
24.562500000000 16.562500000000 53.304992675781 152 152 152
24.593750000000 16.562500000000 53.270996093750 155 155 155
24.625000000000 16.562500000000 53.240997314453 150 150 150
24.625000000000 16.562500000000 53.203994750977 215 215 215
24.625000000000 16.562500000000 53.166992187500 220 220 220
24.625000000000 16.562500000000 53.128997802734 223 223 223
24.625000000000 16.562500000000 53.091995239258 226 226 226
24.625000000000 16.562500000000 53.054992675781 228 228 228
24.640625000000 16.562500000000 53.020004272461 237 237 237
24.640625000000 16.562500000000 52.981994628906 218 218 218
24.640625000000 16.562500000000 52.944992065430 218 218 218
24.625000000000 16.562500000000 52.906997680664 171 171 171
24.625000000000 16.562500000000 52.869003295898 62 62 62
24.625000000000 16.562500000000 52.832000732422 65 65 65
24.625000000000 16.562500000000 52.794998168945 61 61 61
24.640625000000 16.562500000000 52.759994506836 60 60 60
24.625000000000 16.562500000000 52.722000122070 61 61 61
24.625000000000 16.562500000000 52.684997558594 67 67 67
24.625000000000 16.562500000000 52.647994995117 75 75 75
24.625000000000 16.562500000000 52.612991333008 72 72 72
24.625000000000 16.562500000000 52.576004028320 78 78 78
24.625000000000 16.562500000000 52.539001464844 80 80 80
24.625000000000 16.562500000000 52.502990722656 75 75 75
24.625000000000 16.562500000000 52.466995239258 75 75 75
24.625000000000 16.562500000000 52.429992675781 81 81 81
24.671875000000 16.562500000000 52.395996093750 122 122 122
24.734375000000 16.578125000000 52.361999511719 184 184 184
24.734375000000 16.578125000000 52.324996948242 182 182 182
24.703125000000 16.578125000000 52.287002563477 186 186 186
24.718750000000 16.578125000000 52.250991821289 180 180 180
24.734375000000 16.578125000000 52.214004516602 182 182 182
24.609375000000 16.562500000000 52.175003051758 196 196 196
24.656250000000 16.578125000000 52.138992309570 181 181 181
24.703125000000 16.578125000000 52.102996826172 192 192 192
24.687500000000 16.562500000000 52.067001342773 191 191 191
24.625000000000 16.562500000000 52.029998779297 192 192 192
24.625000000000 16.562500000000 51.994003295898 188 188 188
24.734375000000 16.578125000000 51.955993652344 191 191 191
24.718750000000 16.578125000000 51.918991088867 180 180 180
24.703125000000 16.593750000000 51.882995605469 174 174 174
24.734375000000 16.578125000000 51.845001220703 188 188 188
24.703125000000 16.593750000000 51.809005737305 176 176 176
24.718750000000 16.578125000000 51.770996093750 198 198 198
24.718750000000 16.578125000000 51.735000610352 190 190 190
24.656250000000 16.578125000000 51.701995849609 121 121 121
24.640625000000 16.578125000000 51.666992187500 106 106 106
24.625000000000 16.578125000000 51.630996704102 99 99 99
24.640625000000 16.578125000000 51.593994140625 106 106 106
24.640625000000 16.578125000000 51.557998657227 105 105 105
24.640625000000 16.578125000000 51.520996093750 108 108 108
24.640625000000 16.578125000000 51.483993530273 106 106 106
24.640625000000 16.578125000000 51.446990966797 106 106 106
24.640625000000 16.578125000000 51.410003662109 115 115 115
24.640625000000 16.578125000000 51.373992919922 112 112 112
24.625000000000 16.578125000000 51.337997436523 107 107 107
24.640625000000 16.578125000000 51.300994873047 105 105 105
24.640625000000 16.578125000000 51.263000488281 111 111 111
24.656250000000 16.578125000000 51.224990844727 111 111 111
24.640625000000 16.578125000000 51.188995361328 113 113 113
24.640625000000 16.578125000000 51.151992797852 112 112 112
24.640625000000 16.578125000000 51.115005493164 111 111 111
24.625000000000 16.578125000000 51.080001831055 113 113 113
24.640625000000 16.578125000000 51.039993286133 108 108 108
24.625000000000 16.578125000000 51.005004882813 105 105 105
24.640625000000 16.578125000000 50.966003417969 118 118 118
24.625000000000 16.578125000000 50.929992675781 110 110 110
24.640625000000 16.578125000000 50.889999389648 122 122 122
24.640625000000 16.578125000000 50.852996826172 115 115 115
24.640625000000 16.578125000000 50.815994262695 111 111 111
24.640625000000 16.578125000000 50.776000976563 115 115 115
24.625000000000 16.578125000000 50.740997314453 111 111 111
24.640625000000 16.578125000000 50.699996948242 115 115 115
24.640625000000 16.578125000000 50.664001464844 113 113 113
24.656250000000 16.578125000000 50.623001098633 118 118 118
24.640625000000 16.578125000000 50.587005615234 105 105 105
24.640625000000 16.578125000000 50.546997070313 122 122 122
24.640625000000 16.593750000000 50.507995605469 114 114 114
24.625000000000 16.578125000000 50.473999023438 116 116 116
24.656250000000 16.593750000000 50.429992675781 109 109 109
24.687500000000 16.890625000000 53.382995605469 109 109 109
24.687500000000 16.890625000000 53.343994140625 223 223 223
24.687500000000 16.890625000000 53.306991577148 223 223 223
24.687500000000 16.890625000000 53.268997192383 224 224 224
24.687500000000 16.890625000000 53.231002807617 221 221 221
24.687500000000 16.890625000000 53.192993164063 226 226 226
24.671875000000 16.875000000000 53.153991699219 220 220 220
24.671875000000 16.875000000000 53.115997314453 116 116 116
24.671875000000 16.875000000000 53.078994750977 50 50 50
24.671875000000 16.875000000000 53.041992187500 252 252 252
24.687500000000 16.890625000000 53.005004882813 3 3 3
24.687500000000 16.890625000000 52.968002319336 0 0 0
24.671875000000 16.875000000000 52.929992675781 5 5 5
24.671875000000 16.875000000000 52.893005371094 8 8 8
24.671875000000 16.875000000000 52.854995727539 7 7 7
24.671875000000 16.875000000000 52.817001342773 196 196 196
24.812500000000 16.890625000000 52.382995605469 57 57 57
24.812500000000 16.890625000000 52.345993041992 189 189 189
24.812500000000 16.890625000000 52.307998657227 196 196 196
24.812500000000 16.890625000000 52.270996093750 182 182 182
24.812500000000 16.890625000000 52.233993530273 180 180 180
24.812500000000 16.890625000000 52.195999145508 186 186 186
24.812500000000 16.890625000000 52.158996582031 198 198 198
24.812500000000 16.890625000000 52.121002197266 199 199 199
24.812500000000 16.890625000000 52.083999633789 189 189 189
24.796875000000 16.890625000000 52.046997070313 197 197 197
24.781250000000 16.906250000000 52.009994506836 191 191 191
24.781250000000 16.906250000000 51.972000122070 171 171 171
24.796875000000 16.890625000000 51.934997558594 76 76 76
24.703125000000 17.234375000000 53.412002563477 184 184 184
24.703125000000 17.234375000000 53.373001098633 206 206 206
24.703125000000 17.234375000000 53.333999633789 155 155 155
24.687500000000 17.234375000000 52.882003784180 214 214 214
24.703125000000 17.234375000000 52.845001220703 8 8 8
24.703125000000 17.250000000000 52.809005737305 7 7 7
24.687500000000 17.234375000000 52.770004272461 204 204 204
24.718750000000 17.250000000000 52.735000610352 30 30 30
23.265625000000 3.828125000000 50.947998046875 29 29 29
23.265625000000 3.828125000000 50.981994628906 54 54 54
23.250000000000 3.812500000000 51.018005371094 82 82 82
23.250000000000 3.812500000000 51.050994873047 99 99 99
23.281250000000 3.828125000000 51.080993652344 114 114 114
23.265625000000 3.828125000000 51.115005493164 124 124 124
23.250000000000 3.812500000000 51.151000976563 132 132 132
23.250000000000 3.812500000000 51.182998657227 126 126 126
23.265625000000 3.812500000000 51.212005615234 127 127 127
23.265625000000 3.812500000000 51.244003295898 132 132 132
23.265625000000 3.812500000000 51.277999877930 134 134 134
23.265625000000 3.812500000000 51.309997558594 144 144 144
23.265625000000 3.812500000000 51.341003417969 150 150 150
23.265625000000 3.812500000000 51.373992919922 155 155 155
23.265625000000 3.812500000000 51.406997680664 168 168 168
23.265625000000 3.812500000000 51.438003540039 172 172 172
23.265625000000 3.812500000000 51.470001220703 188 188 188
23.265625000000 3.796875000000 51.502990722656 185 185 185
23.265625000000 3.812500000000 51.533004760742 184 184 184
23.265625000000 3.812500000000 51.565002441406 184 184 184
23.281250000000 3.781250000000 51.595993041992 184 184 184
23.281250000000 3.781250000000 51.627990722656 187 187 187
23.265625000000 3.796875000000 51.660003662109 189 189 189
23.281250000000 3.781250000000 51.690994262695 188 188 188
23.281250000000 3.781250000000 51.722991943359 185 185 185
23.281250000000 3.781250000000 51.755004882813 190 190 190
23.281250000000 3.781250000000 51.785995483398 195 195 195
23.281250000000 3.781250000000 51.817001342773 192 192 192
23.281250000000 3.781250000000 51.848999023438 193 193 193
23.281250000000 3.781250000000 51.880004882813 194 194 194
23.281250000000 3.765625000000 51.910995483398 199 199 199
23.281250000000 3.765625000000 51.942993164063 198 198 198
23.281250000000 3.781250000000 51.972991943359 196 196 196
23.296875000000 3.781250000000 52.003997802734 196 196 196
23.281250000000 3.765625000000 52.035995483398 193 193 193
23.281250000000 3.765625000000 52.067001342773 192 192 192
23.296875000000 3.781250000000 52.097991943359 199 199 199
23.281250000000 3.765625000000 52.128997802734 195 195 195
23.296875000000 3.765625000000 52.160003662109 195 195 195
23.296875000000 3.765625000000 52.190994262695 194 194 194
23.296875000000 3.765625000000 52.222991943359 195 195 195
23.296875000000 3.765625000000 52.253997802734 160 160 160
23.296875000000 3.765625000000 52.285003662109 193 193 193
23.296875000000 3.765625000000 52.315994262695 191 191 191
23.296875000000 3.765625000000 52.347000122070 189 189 189
23.296875000000 3.765625000000 52.377990722656 197 197 197
23.296875000000 3.750000000000 52.408996582031 191 191 191
23.296875000000 3.765625000000 52.440002441406 193 193 193
23.296875000000 3.750000000000 52.470993041992 202 202 202
23.312500000000 3.765625000000 52.502990722656 194 194 194
23.312500000000 3.765625000000 52.533996582031 188 188 188
23.312500000000 3.750000000000 52.563995361328 188 188 188
23.312500000000 3.750000000000 52.595993041992 187 187 187
23.312500000000 3.750000000000 52.626998901367 191 191 191
23.312500000000 3.750000000000 52.658004760742 195 195 195
23.328125000000 3.765625000000 52.690002441406 189 189 189
23.312500000000 3.750000000000 52.720001220703 190 190 190
23.312500000000 3.750000000000 52.751998901367 195 195 195
23.312500000000 3.750000000000 52.783004760742 181 181 181
23.312500000000 3.750000000000 52.813995361328 184 184 184
23.328125000000 3.750000000000 52.847000122070 181 181 181
23.328125000000 3.750000000000 52.877990722656 180 180 180
23.328125000000 3.750000000000 52.908996582031 174 174 174
23.328125000000 3.750000000000 52.940994262695 176 176 176
23.296875000000 3.734375000000 52.970993041992 175 175 175
23.312500000000 3.734375000000 53.002990722656 169 169 169
23.296875000000 3.718750000000 53.031997680664 172 172 172
23.296875000000 3.734375000000 53.063995361328 177 177 177
23.296875000000 3.734375000000 53.097000122070 180 180 180
23.296875000000 3.734375000000 53.127990722656 176 176 176
23.312500000000 3.734375000000 53.162002563477 177 177 177
23.312500000000 3.734375000000 53.192993164063 169 169 169
23.312500000000 3.734375000000 53.225997924805 159 159 159
23.312500000000 3.734375000000 53.257003784180 151 151 151
23.328125000000 3.718750000000 53.291000366211 144 144 144
23.312500000000 3.718750000000 53.319992065430 136 136 136
23.312500000000 3.718750000000 53.350997924805 131 131 131
23.296875000000 3.703125000000 53.378997802734 49 49 49
23.046875000000 4.625000000000 52.748001098633 165 165 165
23.046875000000 4.625000000000 52.777999877930 201 201 201
23.046875000000 4.625000000000 52.806991577148 215 215 215
23.046875000000 4.609375000000 52.835998535156 219 219 219
23.046875000000 4.609375000000 52.865997314453 214 214 214
23.046875000000 4.609375000000 52.895996093750 217 217 217
23.046875000000 4.578125000000 53.347991943359 156 156 156
23.046875000000 4.578125000000 53.377990722656 218 218 218
23.046875000000 4.578125000000 53.408996582031 228 228 228
23.046875000000 4.578125000000 53.438995361328 197 197 197
22.984375000000 5.078125000000 49.912994384766 157 157 157
23.000000000000 5.093750000000 49.934005737305 169 169 169
23.062500000000 5.125000000000 49.942001342773 192 192 192
23.109375000000 5.046875000000 51.837997436523 149 149 149
23.109375000000 5.046875000000 51.867996215820 199 199 199
23.109375000000 5.031250000000 51.899002075195 208 208 208
23.109375000000 5.031250000000 51.929000854492 204 204 204
23.109375000000 5.031250000000 51.958999633789 212 212 212
23.109375000000 5.031250000000 51.988998413086 212 212 212
23.125000000000 5.046875000000 52.018997192383 215 215 215
23.125000000000 5.046875000000 52.048995971680 206 206 206
23.125000000000 5.046875000000 52.078994750977 213 213 213
23.109375000000 5.031250000000 52.108993530273 220 220 220
23.109375000000 5.031250000000 52.139999389648 201 201 201
23.125000000000 5.031250000000 52.169998168945 146 146 146
23.078125000000 5.015625000000 52.201004028320 165 165 165
23.078125000000 5.015625000000 52.231002807617 173 173 173
23.078125000000 5.015625000000 52.259994506836 164 164 164
23.078125000000 5.015625000000 52.289993286133 194 194 194
23.093750000000 5.000000000000 52.319992065430 194 194 194
23.125000000000 5.031250000000 52.349990844727 220 220 220
23.140625000000 5.031250000000 52.380004882813 216 216 216
23.140625000000 5.031250000000 52.410995483398 212 212 212
23.140625000000 5.031250000000 52.440994262695 193 193 193
22.953125000000 4.890625000000 52.843002319336 113 113 113
22.953125000000 4.890625000000 52.871994018555 212 212 212
22.953125000000 4.890625000000 52.901992797852 216 216 216
22.953125000000 4.890625000000 52.930999755859 216 216 216
22.953125000000 4.890625000000 52.959991455078 211 211 211
22.953125000000 4.890625000000 52.988998413086 216 216 216
22.953125000000 4.875000000000 53.016998291016 214 214 214
22.953125000000 4.875000000000 53.048004150391 210 210 210
22.953125000000 4.875000000000 53.076995849609 202 202 202
22.968750000000 4.890625000000 53.167999267578 166 166 166
22.968750000000 4.890625000000 53.197998046875 215 215 215
22.968750000000 4.875000000000 53.227005004883 221 221 221
22.968750000000 4.875000000000 53.257003784180 219 219 219
22.968750000000 4.875000000000 53.285995483398 216 216 216
22.968750000000 4.875000000000 53.317001342773 221 221 221
22.968750000000 4.875000000000 53.345993041992 219 219 219
22.968750000000 4.859375000000 53.375000000000 213 213 213
22.968750000000 4.859375000000 53.404998779297 213 213 213
22.984375000000 5.296875000000 51.802993774414 159 159 159
22.984375000000 5.296875000000 51.832992553711 210 210 210
22.984375000000 5.296875000000 51.861999511719 196 196 196
22.984375000000 5.281250000000 51.891998291016 211 211 211
22.984375000000 5.281250000000 51.921997070313 211 211 211
22.984375000000 5.296875000000 51.949996948242 212 212 212
22.984375000000 5.296875000000 51.979995727539 205 205 205
23.000000000000 5.312500000000 52.009002685547 222 222 222
22.968750000000 5.265625000000 52.039993286133 217 217 217
22.875000000000 5.234375000000 52.074996948242 182 182 182
22.890625000000 5.234375000000 52.102996826172 196 196 196
22.890625000000 5.234375000000 52.130996704102 169 169 169
22.953125000000 5.250000000000 52.158004760742 184 184 184
22.921875000000 5.250000000000 52.188003540039 189 189 189
22.875000000000 5.218750000000 52.218002319336 185 185 185
22.859375000000 5.218750000000 52.246002197266 181 181 181
22.953125000000 5.250000000000 52.274002075195 186 186 186
22.953125000000 5.250000000000 52.302993774414 214 214 214
22.953125000000 5.250000000000 52.332000732422 207 207 207
22.937500000000 5.250000000000 52.360992431641 206 206 206
22.953125000000 5.250000000000 52.389999389648 205 205 205
22.937500000000 5.250000000000 52.418991088867 204 204 204
22.921875000000 5.250000000000 52.446990966797 187 187 187
22.859375000000 5.203125000000 52.473999023438 143 143 143
22.859375000000 5.203125000000 52.502990722656 140 140 140
22.859375000000 5.187500000000 52.529998779297 153 153 153
22.828125000000 5.187500000000 52.556991577148 167 167 167
22.843750000000 5.187500000000 52.585998535156 175 175 175
22.828125000000 5.187500000000 52.613998413086 177 177 177
22.843750000000 5.187500000000 52.643005371094 179 179 179
22.843750000000 5.187500000000 52.671005249023 175 175 175
22.843750000000 5.187500000000 52.699005126953 170 170 170
22.843750000000 5.187500000000 52.727005004883 164 164 164
22.843750000000 5.187500000000 52.755996704102 166 166 166
