19.250000000000 5.343750000000 58.787994384766 179 179 179
18.937500000000 5.437500000000 56.720993041992 150 150 150
19.312500000000 4.953125000000 58.817993164063 47 47 47
19.281250000000 4.984375000000 58.802001953125 178 178 178
18.937500000000 5.062500000000 56.718002319336 38 38 38
18.921875000000 5.078125000000 56.720993041992 158 158 158
19.343750000000 4.578125000000 58.821990966797 70 70 70
19.296875000000 4.578125000000 58.809005737305 179 179 179
18.937500000000 4.671875000000 56.720993041992 95 95 95
18.937500000000 4.687500000000 56.716995239258 147 147 147
19.375000000000 4.187500000000 58.811004638672 88 88 88
19.343750000000 4.187500000000 58.821990966797 167 167 167
18.937500000000 4.312500000000 56.723999023438 126 126 126
18.921875000000 4.328125000000 56.731002807617 112 112 112
19.390625000000 3.812500000000 58.835998535156 167 167 167
19.343750000000 3.828125000000 58.828002929688 123 123 123
18.953125000000 3.953125000000 56.731994628906 146 146 146
19.406250000000 3.437500000000 58.832992553711 175 175 175
18.968750000000 3.578125000000 56.731994628906 61 61 61
18.937500000000 3.609375000000 56.727005004883 158 158 158
19.421875000000 3.062500000000 58.841003417969 179 179 179
18.953125000000 3.218750000000 56.727005004883 132 132 132
18.937500000000 3.234375000000 56.744003295898 99 99 99
19.484375000000 2.656250000000 58.850997924805 32 32 32
19.453125000000 2.687500000000 58.854995727539 167 167 167
18.968750000000 2.828125000000 55.884002685547 41 41 41
18.953125000000 2.859375000000 56.744003295898 144 144 144
19.531250000000 2.265625000000 58.873001098633 43 43 43
19.484375000000 2.296875000000 58.871002197266 158 158 158
18.968750000000 2.500000000000 56.750991821289 154 154 154
18.984375000000 2.421875000000 55.567001342773 94 94 94
19.531250000000 1.921875000000 58.880996704102 148 148 148
18.968750000000 2.125000000000 56.759002685547 36 36 36
18.953125000000 2.125000000000 56.755996704102 162 162 162
18.984375000000 2.062500000000 55.539993286133 97 97 97
19.546875000000 1.906250000000 58.880004882813 73 73 73
18.953125000000 1.718750000000 55.527999877930 86 86 86
18.968750000000 1.765625000000 56.761001586914 122 122 122
18.937500000000 1.781250000000 56.761993408203 132 132 132
18.984375000000 1.687500000000 55.574996948242 119 119 119
18.968750000000 1.359375000000 55.522994995117 74 74 74
18.953125000000 1.406250000000 56.761993408203 137 137 137
18.953125000000 1.421875000000 56.777999877930 65 65 65
19.593750000000 1.140625000000 58.890991210938 150 150 150
18.984375000000 1.328125000000 55.548995971680 131 131 131
18.984375000000 0.953125000000 55.541992187500 141 141 141
18.968750000000 1.031250000000 56.781997680664 153 153 153
19.640625000000 0.781250000000 58.916000366211 116 116 116
18.984375000000 0.609375000000 55.535003662109 134 134 134
18.984375000000 0.671875000000 56.776000976563 44 44 44
18.968750000000 0.671875000000 56.783004760742 162 162 162
18.984375000000 0.250000000000 55.522003173828 131 131 131
18.984375000000 0.312500000000 56.785995483398 100 100 100
18.968750000000 0.312500000000 56.781005859375 157 157 157
17.687500000000 23.546875000000 57.652999877930 29 29 29
17.718750000000 23.546875000000 57.653991699219 169 169 169
17.734375000000 23.531250000000 58.738998413086 102 102 102
17.750000000000 23.546875000000 58.729995727539 164 164 164
18.234375000000 23.515625000000 58.763992309570 90 90 90
18.281250000000 23.531250000000 58.774002075195 147 147 147
18.812500000000 23.515625000000 56.677001953125 138 138 138
18.796875000000 23.515625000000 55.529998779297 139 139 139
18.812500000000 23.515625000000 55.514999389648 192 192 192
17.750000000000 23.187500000000 57.639999389648 103 103 103
17.765625000000 23.171875000000 57.639999389648 175 175 175
17.765625000000 23.171875000000 58.725997924805 159 159 159
18.265625000000 23.156250000000 58.763992309570 142 142 142
18.796875000000 23.140625000000 56.679992675781 124 124 124
18.828125000000 23.140625000000 56.667999267578 62 62 62
18.812500000000 23.140625000000 55.522003173828 151 151 151
18.828125000000 23.140625000000 55.524002075195 92 92 92
17.781250000000 22.812500000000 57.634994506836 76 76 76
17.828125000000 22.812500000000 57.639999389648 174 174 174
17.781250000000 22.812500000000 58.723999023438 163 163 163
17.828125000000 22.812500000000 58.723999023438 76 76 76
18.296875000000 22.796875000000 58.770004272461 164 164 164
18.328125000000 22.796875000000 58.755996704102 152 152 152
18.781250000000 22.765625000000 56.662002563477 107 107 107
18.796875000000 22.765625000000 55.533004760742 137 137 137
17.843750000000 22.453125000000 57.632003784180 60 60 60
17.859375000000 22.437500000000 57.619003295898 185 185 185
17.843750000000 22.453125000000 58.723999023438 156 156 156
18.343750000000 22.421875000000 58.759994506836 135 135 135
18.812500000000 22.406250000000 56.666992187500 130 130 130
18.828125000000 22.390625000000 55.537994384766 145 145 145
17.890625000000 22.062500000000 57.626998901367 143 143 143
17.921875000000 22.046875000000 57.626998901367 176 176 176
18.359375000000 22.031250000000 58.746002197266 109 109 109
18.796875000000 22.031250000000 56.666000366211 106 106 106
18.812500000000 22.031250000000 56.662002563477 119 119 119
18.812500000000 22.046875000000 55.531005859375 153 153 153
18.812500000000 22.031250000000 55.520996093750 199 199 199
17.937500000000 21.687500000000 57.627990722656 156 156 156
18.390625000000 21.671875000000 58.750000000000 146 146 146
18.437500000000 21.671875000000 58.738998413086 17 17 17
18.812500000000 21.656250000000 56.658004760742 126 126 126
18.828125000000 21.656250000000 55.527999877930 138 138 138
17.921875000000 21.328125000000 58.701004028320 139 139 139
17.984375000000 21.328125000000 57.621002197266 156 156 156
18.406250000000 21.296875000000 58.742996215820 166 166 166
18.453125000000 21.281250000000 58.746994018555 90 90 90
18.796875000000 21.296875000000 56.654998779297 116 116 116
18.828125000000 21.296875000000 56.645004272461 112 112 112
18.812500000000 21.296875000000 55.524993896484 158 158 158
18.828125000000 21.296875000000 55.533996582031 181 181 181
17.953125000000 20.953125000000 58.688995361328 66 66 66
17.984375000000 20.953125000000 58.710998535156 166 166 166
18.046875000000 20.953125000000 57.623001098633 154 154 154
18.484375000000 20.937500000000 58.750991821289 149 149 149
18.812500000000 20.937500000000 56.645004272461 103 103 103
18.828125000000 20.937500000000 55.533996582031 146 146 146
18.843750000000 20.921875000000 55.526000976563 119 119 119
17.984375000000 20.578125000000 58.686996459961 108 108 108
18.093750000000 20.578125000000 57.621994018555 149 149 149
18.500000000000 20.578125000000 58.740997314453 148 148 148
18.531250000000 20.562500000000 58.742996215820 18 18 18
18.828125000000 20.562500000000 56.660995483398 131 131 131
18.828125000000 20.562500000000 55.524993896484 148 148 148
17.984375000000 20.203125000000 58.688995361328 152 152 152
18.046875000000 20.203125000000 58.692993164063 80 80 80
18.093750000000 20.203125000000 57.606002807617 27 27 27
18.125000000000 20.203125000000 57.615997314453 168 168 168
18.500000000000 20.187500000000 58.744003295898 135 135 135
18.531250000000 20.203125000000 58.735992431641 138 138 138
18.812500000000 20.171875000000 56.662002563477 106 106 106
18.828125000000 20.171875000000 56.643005371094 120 120 120
18.828125000000 20.171875000000 55.539993286133 142 142 142
18.859375000000 20.187500000000 55.537994384766 172 172 172
18.031250000000 19.828125000000 58.690994262695 152 152 152
18.062500000000 19.828125000000 58.682998657227 101 101 101
18.140625000000 19.828125000000 57.602005004883 160 160 160
18.171875000000 19.828125000000 57.602005004883 164 164 164
18.531250000000 19.828125000000 58.736999511719 90 90 90
18.578125000000 19.812500000000 58.731002807617 160 160 160
18.828125000000 19.812500000000 56.651992797852 127 127 127
18.828125000000 19.812500000000 55.520004272461 172 172 172
18.046875000000 19.484375000000 58.690002441406 119 119 119
18.093750000000 19.468750000000 58.688995361328 172 172 172
18.203125000000 19.453125000000 57.598999023438 153 153 153
18.250000000000 19.468750000000 57.589996337891 58 58 58
18.593750000000 19.453125000000 58.737991333008 156 156 156
18.812500000000 19.468750000000 56.645996093750 116 116 116
18.843750000000 19.453125000000 56.647994995117 82 82 82
18.828125000000 19.453125000000 55.535995483398 162 162 162
18.843750000000 19.453125000000 55.522994995117 185 185 185
18.109375000000 19.109375000000 58.694000244141 146 146 146
18.250000000000 19.093750000000 57.600997924805 172 172 172
18.625000000000 19.093750000000 58.735000610352 116 116 116
18.828125000000 19.109375000000 56.649002075195 127 127 127
18.828125000000 19.109375000000 55.524002075195 187 187 187
18.125000000000 18.734375000000 58.686004638672 145 145 145
18.312500000000 18.718750000000 57.599990844727 160 160 160
18.640625000000 18.703125000000 58.735992431641 162 162 162
18.671875000000 18.718750000000 58.731002807617 20 20 20
18.812500000000 18.703125000000 56.643005371094 108 108 108
18.843750000000 18.703125000000 56.647003173828 123 123 123
18.828125000000 18.703125000000 55.513992309570 60 60 60
18.843750000000 18.703125000000 55.528991699219 175 175 175
18.156250000000 18.359375000000 58.681991577148 128 128 128
18.203125000000 18.343750000000 58.682998657227 158 158 158
18.359375000000 18.343750000000 57.595993041992 151 151 151
18.687500000000 18.328125000000 58.736999511719 145 145 145
18.828125000000 18.343750000000 56.647003173828 110 110 110
18.843750000000 18.343750000000 55.531005859375 177 177 177
18.203125000000 17.968750000000 58.690994262695 141 141 141
18.375000000000 17.984375000000 57.608001708984 57 57 57
18.406250000000 17.984375000000 57.587005615234 182 182 182
18.734375000000 17.968750000000 58.727005004883 144 144 144
18.843750000000 17.984375000000 56.649002075195 149 149 149
18.843750000000 17.984375000000 55.527999877930 164 164 164
18.234375000000 17.625000000000 58.681991577148 146 146 146
18.421875000000 17.625000000000 57.595001220703 180 180 180
18.453125000000 17.625000000000 57.591003417969 121 121 121
18.750000000000 17.593750000000 58.737991333008 137 137 137
18.843750000000 17.609375000000 56.651992797852 107 107 107
18.859375000000 17.593750000000 55.526000976563 172 172 172
18.250000000000 17.234375000000 58.673995971680 150 150 150
18.468750000000 17.250000000000 57.593002319336 158 158 158
18.500000000000 17.250000000000 57.597000122070 31 31 31
18.781250000000 17.250000000000 58.731002807617 149 149 149
18.843750000000 17.234375000000 56.638992309570 94 94 94
18.859375000000 17.234375000000 56.645996093750 130 130 130
18.875000000000 17.234375000000 55.526992797852 175 175 175
18.265625000000 16.875000000000 58.677001953125 130 130 130
18.312500000000 16.875000000000 58.668991088867 50 50 50
18.515625000000 16.875000000000 57.589996337891 147 147 147
18.781250000000 16.875000000000 58.727005004883 142 142 142
18.828125000000 16.875000000000 58.720993041992 99 99 99
18.843750000000 16.875000000000 56.649993896484 106 106 106
18.843750000000 16.875000000000 55.524002075195 178 178 178
18.312500000000 16.500000000000 58.684005737305 110 110 110
18.343750000000 16.484375000000 58.679992675781 157 157 157
18.578125000000 16.500000000000 57.595993041992 165 165 165
18.843750000000 16.500000000000 58.727005004883 163 163 163
18.828125000000 16.500000000000 56.656997680664 41 41 41
18.859375000000 16.500000000000 56.651000976563 142 142 142
18.859375000000 16.500000000000 55.520004272461 159 159 159
18.359375000000 16.140625000000 58.692993164063 132 132 132
18.625000000000 16.140625000000 57.582992553711 182 182 182
18.859375000000 16.140625000000 58.729003906250 141 141 141
18.843750000000 16.140625000000 56.651000976563 124 124 124
18.843750000000 16.140625000000 55.520004272461 86 86 86
18.375000000000 15.781250000000 58.677001953125 112 112 112
18.640625000000 15.765625000000 57.591003417969 132 132 132
18.671875000000 15.781250000000 57.582992553711 177 177 177
18.875000000000 15.781250000000 58.729995727539 174 174 174
18.859375000000 15.781250000000 56.649002075195 143 143 143
18.859375000000 15.781250000000 55.514999389648 161 161 161
18.406250000000 15.406250000000 58.679992675781 145 145 145
18.437500000000 15.421875000000 58.688995361328 30 30 30
18.687500000000 15.406250000000 57.587997436523 164 164 164
18.718750000000 15.406250000000 57.589004516602 38 38 38
18.921875000000 15.421875000000 58.733993530273 167 167 167
18.953125000000 15.406250000000 58.729995727539 30 30 30
18.859375000000 15.421875000000 56.647003173828 104 104 104
18.859375000000 15.421875000000 55.526000976563 157 157 157
18.437500000000 15.046875000000 58.684997558594 165 165 165
18.468750000000 15.062500000000 58.681991577148 105 105 105
18.765625000000 15.015625000000 57.591003417969 168 168 168
18.953125000000 15.015625000000 58.738998413086 117 117 117
18.984375000000 15.031250000000 58.724990844727 117 117 117
18.859375000000 15.031250000000 56.647003173828 74 74 74
18.859375000000 15.031250000000 56.647003173828 134 134 134
18.859375000000 15.031250000000 55.515991210938 169 169 169
18.468750000000 14.671875000000 58.690002441406 27 27 27
18.500000000000 14.656250000000 58.690994262695 167 167 167
18.812500000000 14.640625000000 57.582992553711 178 178 178
19.000000000000 14.640625000000 58.729003906250 178 178 178
18.875000000000 14.656250000000 56.643005371094 98 98 98
18.875000000000 14.656250000000 55.526000976563 172 172 172
18.531250000000 14.296875000000 58.681991577148 108 108 108
18.812500000000 14.296875000000 57.598999023438 82 82 82
18.859375000000 14.281250000000 57.593002319336 177 177 177
19.015625000000 14.296875000000 58.731994628906 133 133 133
18.875000000000 14.281250000000 56.647994995117 150 150 150
18.875000000000 14.281250000000 55.516998291016 169 169 169
18.515625000000 13.937500000000 58.681991577148 161 161 161
18.562500000000 13.937500000000 58.684997558594 60 60 60
18.875000000000 13.937500000000 57.593994140625 131 131 131
18.890625000000 13.937500000000 57.593994140625 158 158 158
19.078125000000 13.906250000000 58.729995727539 21 21 21
18.843750000000 13.921875000000 56.649002075195 124 124 124
19.046875000000 13.921875000000 58.761001586914 159 159 159
18.546875000000 13.578125000000 58.692993164063 105 105 105
18.578125000000 13.562500000000 58.684005737305 146 146 146
18.921875000000 13.562500000000 57.595001220703 170 170 170
18.968750000000 13.562500000000 57.681991577148 150 150 150
18.875000000000 13.546875000000 56.647003173828 143 143 143
18.875000000000 13.531250000000 55.524002075195 156 156 156
18.578125000000 13.187500000000 58.697998046875 43 43 43
18.609375000000 13.187500000000 58.692993164063 167 167 167
19.093750000000 13.187500000000 58.751998901367 85 85 85
18.968750000000 13.187500000000 57.593994140625 177 177 177
18.875000000000 13.171875000000 56.667999267578 116 116 116
18.875000000000 13.171875000000 55.526992797852 71 71 71
18.656250000000 12.828125000000 58.695999145508 138 138 138
19.156250000000 12.812500000000 58.781997680664 159 159 159
18.890625000000 12.812500000000 56.652999877930 153 153 153
18.890625000000 12.812500000000 55.515991210938 168 168 168
18.671875000000 12.437500000000 58.692993164063 125 125 125
18.875000000000 12.437500000000 56.658004760742 116 116 116
19.046875000000 12.437500000000 57.611999511719 164 164 164
19.093750000000 12.453125000000 57.591003417969 106 106 106
18.890625000000 12.437500000000 55.522994995117 185 185 185
19.187500000000 12.437500000000 58.798004150391 148 148 148
18.687500000000 12.078125000000 58.703994750977 164 164 164
18.718750000000 12.078125000000 58.692993164063 80 80 80
18.890625000000 12.078125000000 56.643997192383 148 148 148
19.234375000000 12.078125000000 58.740005493164 18 18 18
19.093750000000 12.078125000000 57.611999511719 169 169 169
19.140625000000 12.093750000000 57.612991333008 66 66 66
18.890625000000 12.062500000000 55.518005371094 171 171 171
19.218750000000 12.078125000000 58.798004150391 147 147 147
18.703125000000 11.718750000000 58.718002319336 58 58 58
18.750000000000 11.703125000000 58.699005126953 166 166 166
18.875000000000 11.703125000000 56.653991699219 103 103 103
19.218750000000 11.703125000000 58.761993408203 154 154 154
19.265625000000 11.718750000000 58.746994018555 65 65 65
19.156250000000 11.703125000000 57.613998413086 144 144 144
18.890625000000 11.703125000000 55.524993896484 180 180 180
18.734375000000 11.328125000000 58.714996337891 22 22 22
18.765625000000 11.343750000000 58.714004516602 174 174 174
18.875000000000 11.328125000000 56.634994506836 127 127 127
18.890625000000 11.328125000000 56.602996826172 113 113 113
19.250000000000 11.312500000000 58.752990722656 144 144 144
19.296875000000 11.312500000000 58.746994018555 57 57 57
19.187500000000 11.312500000000 57.626998901367 95 95 95
19.218750000000 11.312500000000 57.608001708984 189 189 189
18.906250000000 11.328125000000 55.518005371094 179 179 179
18.781250000000 10.953125000000 58.705993652344 166 166 166
18.890625000000 10.968750000000 56.654998779297 144 144 144
19.265625000000 10.953125000000 58.759994506836 160 160 160
19.312500000000 10.953125000000 58.764999389648 67 67 67
19.218750000000 10.968750000000 57.617996215820 154 154 154
19.250000000000 10.953125000000 57.604995727539 24 24 24
18.890625000000 10.968750000000 55.518997192383 196 196 196
18.828125000000 10.593750000000 58.733001708984 152 152 152
18.890625000000 10.593750000000 56.652999877930 103 103 103
19.296875000000 10.593750000000 58.763000488281 144 144 144
19.328125000000 10.593750000000 58.757003784180 110 110 110
18.890625000000 10.593750000000 55.520996093750 193 193 193
18.906250000000 10.593750000000 55.526000976563 208 208 208
19.281250000000 10.593750000000 57.662002563477 151 151 151
18.843750000000 10.250000000000 58.724990844727 125 125 125
18.875000000000 10.234375000000 56.679000854492 56 56 56
18.906250000000 10.234375000000 56.651000976563 138 138 138
19.328125000000 10.218750000000 58.763992309570 18 18 18
19.375000000000 10.218750000000 58.766998291016 174 174 174
18.906250000000 10.234375000000 55.520996093750 178 178 178
19.328125000000 10.218750000000 57.682998657227 123 123 123
18.859375000000 9.859375000000 58.735000610352 164 164 164
18.890625000000 9.859375000000 56.666000366211 129 129 129
19.390625000000 9.843750000000 58.764999389648 151 151 151
18.906250000000 9.859375000000 55.522994995117 182 182 182
18.921875000000 9.859375000000 55.516998291016 214 214 214
18.890625000000 9.484375000000 58.725997924805 109 109 109
18.921875000000 9.484375000000 58.733001708984 124 124 124
18.890625000000 9.484375000000 56.664001464844 107 107 107
18.906250000000 9.484375000000 56.662002563477 128 128 128
19.406250000000 9.484375000000 58.764999389648 116 116 116
18.906250000000 9.484375000000 55.526992797852 180 180 180
18.906250000000 9.125000000000 58.746002197266 50 50 50
18.953125000000 9.109375000000 58.729003906250 172 172 172
18.906250000000 9.125000000000 56.669998168945 129 129 129
19.437500000000 9.109375000000 58.776000976563 123 123 123
18.906250000000 9.125000000000 55.518005371094 179 179 179
18.921875000000 9.125000000000 55.502990722656 105 105 105
18.953125000000 8.765625000000 58.737991333008 123 123 123
19.000000000000 8.750000000000 58.735000610352 102 102 102
18.906250000000 8.750000000000 56.662994384766 123 123 123
19.468750000000 8.734375000000 58.776000976563 108 108 108
18.921875000000 8.750000000000 55.516998291016 173 173 173
18.937500000000 8.750000000000 55.514999389648 199 199 199
18.984375000000 8.390625000000 58.755004882813 61 61 61
19.015625000000 8.390625000000 58.744995117188 151 151 151
18.906250000000 8.390625000000 56.681991577148 116 116 116
18.937500000000 8.390625000000 56.682998657227 39 39 39
18.921875000000 8.390625000000 55.533996582031 58 58 58
18.937500000000 8.390625000000 55.527999877930 164 164 164
19.515625000000 8.406250000000 58.787994384766 115 115 115
19.031250000000 8.031250000000 58.750991821289 177 177 177
18.906250000000 8.031250000000 56.677993774414 140 140 140
18.921875000000 8.015625000000 55.524993896484 158 158 158
18.937500000000 8.015625000000 55.513000488281 50 50 50
19.062500000000 7.640625000000 58.755996704102 145 145 145
18.906250000000 7.656250000000 56.688003540039 121 121 121
18.906250000000 7.656250000000 55.526992797852 163 163 163
18.937500000000 7.656250000000 55.518997192383 209 209 209
19.562500000000 7.640625000000 58.843002319336 134 134 134
19.093750000000 7.265625000000 58.761001586914 134 134 134
18.906250000000 7.281250000000 56.686004638672 111 111 111
18.937500000000 7.281250000000 56.690994262695 108 108 108
18.937500000000 7.281250000000 55.537994384766 142 142 142
19.578125000000 7.281250000000 58.800994873047 130 130 130
19.125000000000 6.921875000000 58.766998291016 143 143 143
18.937500000000 6.921875000000 56.695999145508 139 139 139
18.937500000000 6.921875000000 55.515991210938 158 158 158
18.937500000000 6.906250000000 55.515991210938 40 40 40
19.609375000000 6.921875000000 58.811004638672 131 131 131
19.156250000000 6.562500000000 58.785995483398 144 144 144
18.921875000000 6.562500000000 56.703994750977 129 129 129
18.937500000000 6.546875000000 55.522003173828 165 165 165
18.953125000000 6.546875000000 55.524002075195 91 91 91
18.921875000000 6.156250000000 56.709991455078 133 133 133
18.937500000000 6.156250000000 55.529998779297 148 148 148
18.953125000000 6.171875000000 55.522994995117 188 188 188
19.203125000000 6.171875000000 58.860000610352 119 119 119
18.937500000000 5.796875000000 56.712005615234 144 144 144
18.953125000000 5.796875000000 55.527999877930 138 138 138
19.234375000000 5.812500000000 58.839004516602 144 144 144
18.937500000000 5.437500000000 56.699005126953 119 119 119
19.234375000000 5.437500000000 58.796005249023 150 150 150
19.281250000000 5.437500000000 58.794998168945 21 21 21
18.937500000000 5.453125000000 55.524002075195 162 162 162
18.968750000000 5.437500000000 55.518005371094 112 112 112
18.921875000000 5.093750000000 56.722991943359 115 115 115
18.953125000000 5.078125000000 56.703002929688 88 88 88
19.250000000000 5.062500000000 58.804992675781 150 150 150
19.296875000000 5.078125000000 58.798995971680 78 78 78
18.937500000000 5.078125000000 55.520996093750 88 88 88
18.968750000000 5.078125000000 55.526000976563 161 161 161
18.921875000000 4.703125000000 56.718002319336 86 86 86
18.953125000000 4.703125000000 56.723999023438 137 137 137
19.281250000000 4.703125000000 58.824996948242 136 136 136
18.953125000000 4.703125000000 55.528991699219 139 139 139
18.921875000000 4.328125000000 56.720001220703 131 131 131
19.312500000000 4.328125000000 58.817001342773 139 139 139
18.937500000000 4.328125000000 55.518997192383 129 129 129
18.937500000000 3.968750000000 56.729003906250 124 124 124
19.343750000000 3.953125000000 58.828002929688 145 145 145
18.953125000000 3.953125000000 55.528991699219 152 152 152
18.968750000000 3.953125000000 55.522994995117 87 87 87
18.937500000000 3.578125000000 56.733993530273 103 103 103
18.953125000000 3.578125000000 56.720993041992 127 127 127
19.390625000000 3.593750000000 58.848999023438 155 155 155
19.421875000000 3.578125000000 58.841995239258 51 51 51
18.953125000000 3.578125000000 55.520004272461 125 125 125
18.968750000000 3.593750000000 55.522994995117 207 207 207
18.953125000000 3.218750000000 56.746002197266 125 125 125
19.406250000000 3.218750000000 58.847000122070 149 149 149
19.453125000000 3.218750000000 58.845001220703 97 97 97
18.968750000000 3.218750000000 55.529998779297 154 154 154
18.937500000000 2.859375000000 56.744995117188 131 131 131
18.953125000000 2.859375000000 56.055999755859 47 47 47
18.968750000000 2.859375000000 55.968994140625 46 46 46
19.437500000000 2.843750000000 58.865997314453 60 60 60
19.468750000000 2.859375000000 58.849990844727 167 167 167
18.968750000000 2.859375000000 55.524993896484 150 150 150
18.937500000000 2.484375000000 56.742996215820 123 123 123
18.984375000000 2.484375000000 56.742996215820 76 76 76
19.468750000000 2.468750000000 58.871994018555 134 134 134
18.968750000000 2.500000000000 55.524002075195 154 154 154
19.000000000000 2.484375000000 55.537994384766 74 74 74
19.515625000000 2.468750000000 58.927993774414 96 96 96
18.937500000000 2.109375000000 56.755004882813 140 140 140
18.937500000000 2.109375000000 55.528991699219 167 167 167
18.968750000000 2.109375000000 55.529998779297 209 209 209
18.953125000000 1.750000000000 56.761993408203 114 114 114
18.953125000000 1.750000000000 55.526992797852 61 61 61
18.968750000000 1.750000000000 55.522994995117 183 183 183
19.562500000000 1.750000000000 58.882995605469 127 127 127
19.531250000000 1.750000000000 58.931991577148 101 101 101
18.953125000000 1.390625000000 56.770996093750 139 139 139
18.968750000000 1.390625000000 55.533004760742 152 152 152
19.546875000000 1.375000000000 58.893997192383 119 119 119
19.593750000000 1.375000000000 58.895004272461 126 126 126
18.953125000000 1.015625000000 56.781997680664 93 93 93
18.968750000000 1.015625000000 56.776992797852 127 127 127
18.968750000000 1.015625000000 55.520004272461 156 156 156
18.984375000000 1.000000000000 55.526000976563 54 54 54
19.578125000000 1.000000000000 58.910003662109 92 92 92
19.625000000000 1.000000000000 58.902999877930 136 136 136
18.968750000000 0.640625000000 56.785003662109 125 125 125
18.968750000000 0.640625000000 55.520004272461 194 194 194
18.984375000000 0.640625000000 55.516998291016 168 168 168
19.609375000000 0.625000000000 58.923004150391 75 75 75
19.656250000000 0.640625000000 58.918991088867 174 174 174
18.968750000000 0.281250000000 56.787994384766 112 112 112
18.984375000000 0.281250000000 55.533996582031 91 91 91
19.000000000000 0.296875000000 55.516998291016 188 188 188
19.640625000000 0.265625000000 58.934005737305 103 103 103
19.687500000000 0.265625000000 58.921005249023 171 171 171
17.765625000000 23.703125000000 57.649993896484 200 200 200
17.781250000000 23.718750000000 57.662994384766 82 82 82
17.796875000000 23.671875000000 58.746994018555 172 172 172
17.796875000000 23.359375000000 57.651000976563 172 172 172
17.812500000000 23.375000000000 57.658004760742 53 53 53
17.812500000000 23.312500000000 58.737991333008 151 151 151
17.843750000000 23.328125000000 58.724990844727 118 118 118
18.312500000000 23.562500000000 58.774993896484 182 182 182
17.843750000000 23.015625000000 57.647003173828 170 170 170
17.859375000000 23.046875000000 57.643005371094 127 127 127
17.859375000000 22.968750000000 58.735000610352 175 175 175
18.359375000000 23.218750000000 58.772003173828 177 177 177
18.843750000000 23.609375000000 56.684005737305 148 148 148
17.890625000000 22.671875000000 57.653991699219 139 139 139
17.906250000000 22.687500000000 57.636993408203 157 157 157
17.890625000000 22.609375000000 58.750000000000 47 47 47
17.906250000000 22.640625000000 58.725997924805 151 151 151
18.359375000000 22.859375000000 58.770004272461 147 147 147
18.406250000000 22.890625000000 58.757995605469 111 111 111
18.843750000000 23.265625000000 56.675994873047 146 146 146
17.906250000000 22.312500000000 57.645996093750 99 99 99
17.921875000000 22.343750000000 57.645004272461 162 162 162
17.921875000000 22.265625000000 58.724990844727 170 170 170
18.406250000000 22.531250000000 58.768997192383 160 160 160
18.843750000000 22.890625000000 56.667999267578 146 146 146
17.953125000000 21.968750000000 57.647003173828 159 159 159
17.984375000000 21.968750000000 57.638992309570 154 154 154
17.968750000000 21.906250000000 58.725997924805 60 60 60
18.437500000000 22.156250000000 58.757995605469 155 155 155
18.843750000000 22.515625000000 56.669998168945 147 147 147
18.875000000000 22.515625000000 56.677993774414 42 42 42
17.921875000000 21.906250000000 58.783004760742 165 165 165
18.000000000000 21.625000000000 57.630996704102 171 171 171
18.015625000000 21.625000000000 57.636993408203 131 131 131
18.468750000000 21.796875000000 58.755004882813 156 156 156
18.500000000000 21.812500000000 58.755004882813 125 125 125
18.859375000000 22.140625000000 56.664993286133 143 143 143
18.046875000000 21.281250000000 57.626998901367 180 180 180
18.078125000000 21.296875000000 57.630004882813 97 97 97
18.484375000000 21.437500000000 58.759994506836 60 60 60
18.484375000000 21.468750000000 58.748992919922 159 159 159
18.859375000000 21.765625000000 56.664993286133 133 133 133
18.875000000000 21.781250000000 56.653991699219 99 99 99
18.000000000000 21.187500000000 58.761993408203 175 175 175
18.031250000000 20.859375000000 58.705001831055 175 175 175
18.078125000000 20.921875000000 57.615997314453 167 167 167
18.125000000000 20.953125000000 57.628997802734 118 118 118
18.515625000000 21.109375000000 58.757003784180 163 163 163
18.859375000000 21.421875000000 56.660003662109 146 146 146
18.078125000000 20.484375000000 58.703994750977 180 180 180
18.125000000000 20.578125000000 57.625000000000 124 124 124
18.156250000000 20.593750000000 57.623001098633 171 171 171
18.531250000000 20.750000000000 58.751998901367 20 20 20
18.562500000000 20.750000000000 58.748992919922 165 165 165
18.875000000000 21.046875000000 56.649002075195 143 143 143
18.109375000000 20.125000000000 58.705993652344 177 177 177
18.156250000000 20.234375000000 57.619995117188 131 131 131
18.171875000000 20.250000000000 57.613998413086 174 174 174
18.578125000000 20.390625000000 58.744995117188 158 158 158
18.843750000000 20.671875000000 56.651992797852 91 91 91
18.859375000000 20.671875000000 56.643005371094 137 137 137
18.109375000000 19.781250000000 58.705001831055 157 157 157
18.125000000000 19.796875000000 58.710998535156 22 22 22
18.203125000000 19.875000000000 57.610992431641 170 170 170
18.234375000000 19.906250000000 57.606002807617 111 111 111
18.609375000000 20.031250000000 58.744003295898 164 164 164
18.640625000000 20.062500000000 58.742004394531 21 21 21
18.875000000000 20.312500000000 56.656997680664 144 144 144
18.125000000000 19.406250000000 58.688995361328 161 161 161
18.171875000000 19.437500000000 58.703994750977 95 95 95
18.250000000000 19.562500000000 57.597991943359 177 177 177
18.281250000000 19.578125000000 57.608001708984 49 49 49
18.625000000000 19.687500000000 58.736999511719 158 158 158
18.671875000000 19.687500000000 58.733001708984 108 108 108
18.859375000000 19.937500000000 56.649002075195 138 138 138
18.875000000000 19.953125000000 56.647003173828 82 82 82
18.187500000000 19.062500000000 58.694992065430 177 177 177
18.296875000000 19.218750000000 57.608001708984 173 173 173
18.312500000000 19.234375000000 57.604995727539 94 94 94
18.687500000000 19.343750000000 58.744003295898 163 163 163
18.875000000000 19.578125000000 56.643997192383 143 143 143
18.187500000000 18.718750000000 58.696990966797 163 163 163
18.234375000000 18.734375000000 58.690994262695 86 86 86
18.343750000000 18.843750000000 57.599990844727 175 175 175
18.359375000000 18.859375000000 57.597991943359 162 162 162
18.687500000000 18.968750000000 58.727005004883 161 161 161
18.703125000000 19.000000000000 58.724990844727 96 96 96
18.890625000000 19.203125000000 56.645996093750 145 145 145
18.250000000000 18.343750000000 58.692001342773 173 173 173
18.359375000000 18.515625000000 57.606002807617 137 137 137
18.390625000000 18.515625000000 57.597991943359 198 198 198
18.734375000000 18.640625000000 58.729995727539 163 163 163
18.875000000000 18.828125000000 56.639999389648 125 125 125
18.890625000000 18.843750000000 56.649002075195 104 104 104
18.265625000000 18.000000000000 58.694000244141 166 166 166
18.406250000000 18.171875000000 57.595993041992 173 173 173
18.437500000000 18.171875000000 57.591003417969 150 150 150
18.750000000000 18.281250000000 58.733001708984 160 160 160
18.890625000000 18.484375000000 56.645004272461 148 148 148
18.281250000000 17.656250000000 58.699005126953 168 168 168
18.312500000000 17.687500000000 58.690994262695 71 71 71
18.453125000000 17.812500000000 57.595001220703 177 177 177
18.484375000000 17.828125000000 57.589996337891 120 120 120
18.765625000000 17.921875000000 58.727005004883 169 169 169
18.812500000000 17.953125000000 58.720001220703 71 71 71
18.875000000000 18.109375000000 56.652999877930 144 144 144
18.890625000000 18.109375000000 56.649002075195 59 59 59
18.296875000000 17.281250000000 58.695999145508 110 110 110
18.328125000000 17.312500000000 58.688995361328 186 186 186
18.500000000000 17.468750000000 57.589004516602 170 170 170
18.531250000000 17.484375000000 57.591003417969 69 69 69
18.812500000000 17.578125000000 58.731002807617 122 122 122
18.828125000000 17.578125000000 58.722991943359 137 137 137
18.890625000000 17.734375000000 56.638992309570 146 146 146
18.343750000000 16.937500000000 58.690994262695 168 168 168
18.546875000000 17.109375000000 57.591003417969 173 173 173
18.578125000000 17.125000000000 57.587997436523 65 65 65
18.843750000000 17.203125000000 58.727996826172 153 153 153
18.890625000000 17.359375000000 56.651992797852 144 144 144
18.906250000000 17.375000000000 56.643005371094 41 41 41
18.375000000000 16.578125000000 58.696990966797 153 153 153
18.406250000000 16.609375000000 58.677001953125 113 113 113
18.593750000000 16.750000000000 57.587005615234 190 190 190
18.609375000000 16.765625000000 57.587997436523 106 106 106
18.859375000000 16.859375000000 58.735992431641 157 157 157
18.890625000000 16.859375000000 58.718002319336 103 103 103
18.890625000000 17.000000000000 56.641998291016 145 145 145
18.421875000000 16.250000000000 58.692001342773 161 161 161
18.625000000000 16.421875000000 57.591003417969 187 187 187
18.640625000000 16.437500000000 57.587997436523 149 149 149
18.921875000000 16.515625000000 58.725997924805 164 164 164
18.890625000000 16.609375000000 56.658996582031 84 84 84
18.921875000000 16.625000000000 56.639999389648 140 140 140
18.453125000000 15.906250000000 58.690994262695 163 163 163
18.656250000000 16.078125000000 57.584991455078 184 184 184
18.703125000000 16.109375000000 57.593002319336 99 99 99
18.937500000000 16.171875000000 58.725997924805 169 169 169
18.890625000000 16.281250000000 56.660995483398 146 146 146
18.468750000000 15.546875000000 58.677001953125 160 160 160
18.500000000000 15.562500000000 58.692001342773 94 94 94
18.718750000000 15.734375000000 57.593994140625 181 181 181
18.734375000000 15.750000000000 57.593994140625 32 32 32
18.953125000000 15.812500000000 58.727005004883 170 170 170
19.000000000000 15.828125000000 58.733993530273 22 22 22
18.890625000000 15.906250000000 56.641998291016 133 133 133
18.921875000000 15.921875000000 56.638000488281 104 104 104
18.468750000000 15.171875000000 58.703994750977 59 59 59
18.515625000000 15.171875000000 58.686004638672 159 159 159
18.765625000000 15.375000000000 57.583999633789 179 179 179
18.968750000000 15.437500000000 58.722991943359 92 92 92
19.015625000000 15.468750000000 58.716003417969 146 146 146
18.921875000000 15.515625000000 56.651000976563 146 146 146
18.531250000000 14.828125000000 58.696990966797 161 161 161
18.812500000000 15.015625000000 57.582000732422 189 189 189
18.828125000000 15.031250000000 57.587997436523 19 19 19
19.031250000000 15.078125000000 58.723999023438 167 167 167
18.875000000000 15.156250000000 56.651000976563 111 111 111
18.906250000000 15.156250000000 56.636001586914 122 122 122
18.546875000000 14.468750000000 58.686996459961 121 121 121
18.578125000000 14.484375000000 58.681991577148 150 150 150
18.843750000000 14.687500000000 57.591995239258 187 187 187
18.875000000000 14.718750000000 57.595001220703 65 65 65
19.046875000000 14.750000000000 58.729003906250 141 141 141
19.062500000000 14.750000000000 58.727005004883 92 92 92
18.906250000000 14.796875000000 56.640991210938 144 144 144
18.593750000000 14.125000000000 58.686996459961 162 162 162
18.875000000000 14.359375000000 57.593994140625 191 191 191
18.921875000000 14.375000000000 57.615997314453 76 76 76
19.078125000000 14.406250000000 58.720993041992 174 174 174
18.890625000000 14.421875000000 56.638992309570 57 57 57
18.921875000000 14.453125000000 56.643005371094 145 145 145
18.609375000000 13.765625000000 58.692001342773 162 162 162
18.906250000000 14.000000000000 57.589004516602 186 186 186
19.125000000000 14.031250000000 58.752990722656 161 161 161
18.921875000000 14.062500000000 56.647003173828 143 143 143
18.656250000000 13.390625000000 58.692001342773 161 161 161
18.687500000000 13.421875000000 58.686004638672 104 104 104
18.968750000000 13.640625000000 57.589996337891 188 188 188
18.906250000000 13.671875000000 56.647994995117 113 113 113
18.921875000000 13.687500000000 56.636001586914 119 119 119
18.656250000000 13.031250000000 58.703994750977 86 86 86
18.687500000000 13.046875000000 58.694000244141 161 161 161
19.156250000000 13.312500000000 58.748992919922 163 163 163
19.015625000000 13.296875000000 57.580993652344 189 189 189
18.937500000000 13.312500000000 56.636993408203 144 144 144
18.718750000000 12.703125000000 58.701995849609 154 154 154
19.187500000000 12.953125000000 58.744995117188 21 21 21
19.218750000000 12.968750000000 58.776000976563 157 157 157
18.921875000000 12.937500000000 56.649002075195 138 138 138
18.937500000000 12.953125000000 56.641998291016 103 103 103
19.062500000000 12.968750000000 57.649993896484 186 186 186
18.718750000000 12.359375000000 58.695999145508 151 151 151
18.765625000000 12.359375000000 58.688995361328 130 130 130
19.234375000000 12.625000000000 58.735992431641 166 166 166
18.921875000000 12.578125000000 56.643997192383 149 149 149
19.109375000000 12.625000000000 57.606994628906 194 194 194
18.781250000000 12.000000000000 58.699005126953 167 167 167
18.937500000000 12.187500000000 56.699005126953 163 163 163
18.921875000000 12.203125000000 56.643005371094 139 139 139
19.156250000000 12.281250000000 57.597000122070 191 191 191
18.812500000000 11.625000000000 58.709991455078 155 155 155
18.921875000000 11.828125000000 56.638992309570 147 147 147
19.296875000000 11.906250000000 58.735992431641 140 140 140
19.171875000000 11.890625000000 57.617004394531 135 135 135
19.281250000000 11.890625000000 58.809997558594 105 105 105
18.843750000000 11.281250000000 58.714004516602 159 159 159
18.921875000000 11.453125000000 56.647003173828 148 148 148
19.296875000000 11.531250000000 58.751998901367 56 56 56
19.328125000000 11.546875000000 58.742996215820 167 167 167
18.859375000000 10.906250000000 58.712005615234 172 172 172
18.937500000000 11.078125000000 56.658996582031 133 133 133
18.953125000000 11.093750000000 56.639999389648 91 91 91
19.359375000000 11.203125000000 58.742004394531 176 176 176
18.859375000000 10.562500000000 58.727996826172 87 87 87
18.906250000000 10.578125000000 58.716003417969 167 167 167
18.937500000000 10.734375000000 56.651992797852 141 141 141
19.375000000000 10.843750000000 58.751998901367 163 163 163
18.921875000000 10.218750000000 58.722991943359 169 169 169
18.937500000000 10.343750000000 56.662002563477 126 126 126
18.953125000000 10.359375000000 56.656997680664 112 112 112
19.406250000000 10.468750000000 58.761001586914 130 130 130
18.937500000000 9.843750000000 58.720993041992 190 190 190
18.968750000000 9.859375000000 58.718994140625 59 59 59
18.953125000000 9.984375000000 56.660003662109 145 145 145
18.968750000000 9.500000000000 58.723999023438 169 169 169
18.984375000000 9.500000000000 58.722000122070 87 87 87
18.953125000000 9.609375000000 56.668991088867 142 142 142
19.000000000000 9.140625000000 58.742004394531 174 174 174
19.031250000000 9.171875000000 58.736999511719 67 67 67
18.937500000000 9.234375000000 56.664001464844 145 145 145
19.015625000000 8.765625000000 58.735000610352 79 79 79
19.062500000000 8.796875000000 58.720993041992 161 161 161
18.921875000000 8.859375000000 56.669998168945 100 100 100
18.953125000000 8.875000000000 56.666992187500 127 127 127
19.062500000000 8.437500000000 58.733993530273 167 167 167
18.953125000000 8.484375000000 56.679992675781 140 140 140
19.078125000000 8.078125000000 58.744003295898 169 169 169
18.953125000000 8.125000000000 56.686996459961 146 146 146
18.968750000000 8.140625000000 56.677001953125 39 39 39
19.109375000000 7.718750000000 58.755996704102 164 164 164
19.140625000000 7.750000000000 58.748992919922 61 61 61
18.953125000000 7.734375000000 56.707000732422 64 64 64
18.968750000000 7.765625000000 56.690002441406 144 144 144
19.140625000000 7.375000000000 58.766998291016 154 154 154
19.171875000000 7.390625000000 58.755996704102 87 87 87
18.968750000000 7.390625000000 56.681991577148 144 144 144
19.187500000000 7.015625000000 58.772994995117 137 137 137
19.218750000000 7.031250000000 58.765991210938 98 98 98
18.968750000000 7.015625000000 56.697998046875 142 142 142
19.234375000000 6.640625000000 58.764999389648 172 172 172
18.968750000000 6.625000000000 56.690994262695 146 146 146
18.984375000000 6.640625000000 56.697998046875 69 69 69
19.265625000000 6.281250000000 58.826995849609 168 168 168
19.000000000000 6.265625000000 56.697998046875 142 142 142
18.968750000000 5.906250000000 56.707000732422 160 160 160
18.968750000000 5.546875000000 56.707992553711 140 140 140
18.984375000000 5.546875000000 56.716995239258 98 98 98
19.296875000000 5.593750000000 58.852996826172 178 178 178
18.968750000000 5.140625000000 56.709991455078 102 102 102
18.984375000000 5.156250000000 56.703994750977 132 132 132
19.312500000000 5.218750000000 58.800994873047 178 178 178
19.359375000000 5.250000000000 58.793991088867 40 40 40
18.968750000000 4.765625000000 56.720993041992 51 51 51
18.984375000000 4.781250000000 56.708999633789 144 144 144
19.359375000000 4.859375000000 58.802001953125 174 174 174
18.984375000000 4.421875000000 56.722000122070 143 143 143
19.390625000000 4.500000000000 58.815002441406 179 179 179
19.406250000000 4.500000000000 58.807998657227 56 56 56
18.984375000000 4.031250000000 56.723999023438 145 145 145
19.015625000000 4.046875000000 56.720993041992 85 85 85
19.406250000000 4.140625000000 58.837997436523 19 19 19
19.437500000000 4.171875000000 58.811996459961 175 175 175
19.015625000000 3.671875000000 56.724990844727 143 143 143
19.437500000000 3.812500000000 58.824005126953 177 177 177
18.984375000000 3.296875000000 56.742004394531 141 141 141
19.484375000000 3.437500000000 58.826995849609 171 171 171
18.984375000000 2.937500000000 56.744003295898 148 148 148
19.500000000000 3.078125000000 58.843994140625 166 166 166
18.984375000000 2.546875000000 56.744003295898 139 139 139
19.015625000000 2.562500000000 56.740997314453 91 91 91
19.531250000000 2.718750000000 58.854003906250 160 160 160
18.968750000000 2.171875000000 56.750991821289 70 70 70
19.000000000000 2.203125000000 56.750991821289 143 143 143
19.562500000000 2.375000000000 58.858993530273 169 169 169
19.000000000000 1.828125000000 56.757995605469 143 143 143
19.000000000000 1.437500000000 56.770996093750 153 153 153
19.015625000000 1.437500000000 56.765991210938 35 35 35
19.000000000000 1.062500000000 56.785995483398 146 146 146
19.015625000000 1.078125000000 56.774993896484 97 97 97
19.000000000000 0.703125000000 56.783996582031 124 124 124
19.031250000000 0.718750000000 56.776992797852 112 112 112
19.015625000000 0.781250000000 55.520996093750 135 135 135
19.015625000000 0.343750000000 56.800003051758 97 97 97
19.031250000000 0.359375000000 56.778991699219 134 134 134
19.000000000000 0.406250000000 55.520996093750 143 143 143
19.015625000000 0.015625000000 55.522003173828 140 140 140
19.031250000000 0.031250000000 55.526000976563 152 152 152
18.796875000000 23.812500000000 56.677993774414 92 92 92
18.812500000000 23.796875000000 56.686996459961 148 148 148
18.812500000000 23.734375000000 55.533996582031 186 186 186
18.828125000000 23.734375000000 55.548995971680 121 121 121
18.796875000000 23.453125000000 56.679992675781 108 108 108
18.828125000000 23.421875000000 56.682998657227 140 140 140
18.812500000000 23.359375000000 55.531997680664 180 180 180
18.828125000000 23.359375000000 55.541000366211 95 95 95
18.812500000000 23.062500000000 56.686004638672 116 116 116
18.828125000000 23.062500000000 56.677993774414 113 113 113
18.812500000000 23.000000000000 55.528991699219 170 170 170
18.843750000000 22.968750000000 55.539993286133 48 48 48
18.812500000000 22.703125000000 56.681991577148 137 137 137
18.812500000000 22.640625000000 55.527999877930 124 124 124
18.828125000000 22.609375000000 55.529998779297 182 182 182
18.796875000000 22.328125000000 56.671997070313 111 111 111
18.828125000000 22.296875000000 56.681991577148 139 139 139
18.812500000000 22.250000000000 55.515991210938 179 179 179
18.843750000000 22.250000000000 55.522994995117 166 166 166
18.812500000000 21.953125000000 56.675994873047 135 135 135
18.828125000000 21.875000000000 55.522994995117 159 159 159
18.812500000000 21.593750000000 56.669998168945 73 73 73
18.812500000000 21.578125000000 56.658996582031 149 149 149
18.812500000000 21.531250000000 55.524002075195 162 162 162
18.828125000000 21.500000000000 55.524002075195 193 193 193
18.812500000000 21.218750000000 56.667999267578 111 111 111
18.843750000000 21.203125000000 56.654998779297 127 127 127
18.828125000000 21.140625000000 55.529998779297 184 184 184
18.843750000000 21.140625000000 55.524993896484 183 183 183
18.828125000000 20.828125000000 56.669998168945 128 128 128
18.828125000000 20.765625000000 55.526000976563 164 164 164
18.843750000000 20.750000000000 55.541000366211 89 89 89
18.812500000000 20.468750000000 56.656997680664 86 86 86
18.843750000000 20.468750000000 56.652999877930 151 151 151
18.828125000000 20.406250000000 55.535995483398 140 140 140
18.843750000000 20.390625000000 55.537002563477 197 197 197
18.859375000000 20.375000000000 55.550003051758 71 71 71
18.828125000000 20.109375000000 56.656005859375 127 127 127
18.843750000000 20.031250000000 55.533996582031 183 183 183
18.859375000000 20.015625000000 55.544998168945 111 111 111
18.828125000000 19.750000000000 56.658996582031 109 109 109
18.843750000000 19.734375000000 56.651992797852 142 142 142
18.828125000000 19.671875000000 55.524993896484 150 150 150
18.843750000000 19.656250000000 55.529998779297 201 201 201
18.578125000000 19.640625000000 58.733993530273 149 149 149
18.609375000000 19.625000000000 58.735992431641 48 48 48
18.812500000000 19.359375000000 56.658004760742 122 122 122
18.859375000000 19.343750000000 56.649002075195 38 38 38
18.843750000000 19.296875000000 55.528991699219 194 194 194
18.859375000000 19.281250000000 55.524002075195 178 178 178
18.625000000000 19.218750000000 58.731994628906 156 156 156
18.828125000000 18.984375000000 56.656997680664 144 144 144
18.843750000000 18.921875000000 55.524002075195 163 163 163
18.640625000000 18.843750000000 58.736999511719 133 133 133
18.671875000000 18.828125000000 58.753997802734 135 135 135
18.828125000000 18.609375000000 56.649002075195 108 108 108
18.859375000000 18.609375000000 56.647003173828 143 143 143
18.843750000000 18.546875000000 55.524993896484 148 148 148
18.843750000000 18.546875000000 55.522003173828 190 190 190
18.656250000000 18.484375000000 58.748992919922 30 30 30
18.687500000000 18.468750000000 58.733001708984 169 169 169
18.843750000000 18.234375000000 56.649002075195 133 133 133
18.843750000000 18.171875000000 55.524002075195 172 172 172
18.875000000000 18.171875000000 55.539993286133 97 97 97
18.703125000000 18.093750000000 58.723999023438 158 158 158
18.828125000000 17.890625000000 56.652999877930 117 117 117
18.859375000000 17.875000000000 56.651992797852 119 119 119
18.843750000000 17.828125000000 55.524993896484 160 160 160
18.859375000000 17.812500000000 55.520996093750 190 190 190
18.718750000000 17.687500000000 58.727005004883 137 137 137
18.765625000000 17.687500000000 58.718002319336 140 140 140
18.843750000000 17.515625000000 56.647994995117 143 143 143
18.859375000000 17.453125000000 55.524993896484 168 168 168
