22.640625000000 15.750000000000 2.880004882813 200 200 200
22.609375000000 15.750000000000 2.831008911133 201 201 201
22.609375000000 15.750000000000 2.781005859375 200 200 200
22.609375000000 15.750000000000 2.732009887695 203 203 203
22.609375000000 15.750000000000 2.682006835938 203 203 203
23.031250000000 15.390625000000 5.318008422852 168 168 168
22.968750000000 15.406250000000 5.348999023438 163 163 163
22.968750000000 15.406250000000 5.393997192383 190 190 190
22.968750000000 15.390625000000 5.436996459961 183 183 183
22.968750000000 15.390625000000 5.480010986328 192 192 192
22.968750000000 15.390625000000 5.525009155273 180 180 180
23.078125000000 15.390625000000 5.593002319336 133 133 133
23.156250000000 15.390625000000 5.751007080078 137 137 137
22.937500000000 15.406250000000 5.745010375977 163 163 163
22.921875000000 15.406250000000 5.788009643555 193 193 193
22.937500000000 15.406250000000 5.837005615234 153 153 153
22.937500000000 15.406250000000 5.882003784180 147 147 147
22.937500000000 15.406250000000 5.927001953125 152 152 152
22.640625000000 15.703125000000 2.682998657227 175 175 175
22.640625000000 15.703125000000 2.725997924805 175 175 175
22.640625000000 15.703125000000 2.770004272461 179 179 179
22.640625000000 15.703125000000 2.813003540039 177 177 177
22.640625000000 15.703125000000 2.854003906250 184 184 184
22.640625000000 15.703125000000 2.897003173828 184 184 184
22.640625000000 15.703125000000 2.940002441406 186 186 186
22.640625000000 15.703125000000 2.980010986328 188 188 188
22.640625000000 15.703125000000 3.025009155273 188 188 188
22.640625000000 15.703125000000 3.067001342773 190 190 190
22.640625000000 15.703125000000 3.109008789063 190 190 190
22.640625000000 15.703125000000 3.152008056641 191 191 191
22.640625000000 15.703125000000 3.194000244141 192 192 192
22.640625000000 15.703125000000 3.235000610352 197 197 197
22.640625000000 15.703125000000 3.277008056641 198 198 198
22.625000000000 15.718750000000 3.319000244141 195 195 195
22.625000000000 15.718750000000 3.361007690430 202 202 202
22.640625000000 15.703125000000 3.402008056641 199 199 199
22.625000000000 15.718750000000 3.444000244141 202 202 202
22.625000000000 15.718750000000 3.486007690430 202 202 202
22.640625000000 15.703125000000 3.526000976563 200 200 200
22.625000000000 15.718750000000 3.569000244141 204 204 204
22.640625000000 15.703125000000 3.609008789063 202 202 202
22.625000000000 15.718750000000 3.651000976563 204 204 204
22.625000000000 15.718750000000 3.692001342773 209 209 209
22.625000000000 15.718750000000 3.734008789063 204 204 204
22.625000000000 15.718750000000 3.775009155273 201 201 201
22.625000000000 15.718750000000 3.817001342773 196 196 196
22.625000000000 15.718750000000 3.858001708984 194 194 194
22.625000000000 15.718750000000 3.899002075195 194 194 194
22.625000000000 15.718750000000 3.940002441406 191 191 191
22.625000000000 15.718750000000 3.981002807617 190 190 190
22.625000000000 15.718750000000 4.023010253906 185 185 185
22.625000000000 15.718750000000 4.064010620117 183 183 183
22.640625000000 15.718750000000 4.105010986328 186 186 186
22.640625000000 15.703125000000 4.146011352539 181 181 181
22.640625000000 15.718750000000 4.188003540039 177 177 177
22.640625000000 15.718750000000 4.229003906250 176 176 176
22.640625000000 15.718750000000 4.271011352539 176 176 176
22.640625000000 15.718750000000 4.311996459961 183 183 183
22.671875000000 15.718750000000 4.354003906250 182 182 182
22.671875000000 15.718750000000 4.396011352539 178 178 178
22.671875000000 15.718750000000 4.438003540039 174 174 174
22.671875000000 15.718750000000 4.479003906250 172 172 172
22.703125000000 15.718750000000 4.522003173828 180 180 180
22.671875000000 15.718750000000 4.563003540039 173 173 173
22.671875000000 15.718750000000 4.605010986328 178 178 178
22.671875000000 15.718750000000 4.646011352539 177 177 177
22.671875000000 15.718750000000 4.689010620117 180 180 180
22.671875000000 15.718750000000 4.731002807617 171 171 171
22.687500000000 15.734375000000 4.773010253906 176 176 176
22.671875000000 15.718750000000 4.815002441406 173 173 173
22.671875000000 15.718750000000 4.857009887695 171 171 171
22.687500000000 15.734375000000 4.900009155273 178 178 178
22.687500000000 15.734375000000 4.942001342773 178 178 178
22.703125000000 15.734375000000 4.985000610352 179 179 179
22.687500000000 15.734375000000 5.027008056641 181 181 181
22.703125000000 15.718750000000 5.070999145508 183 183 183
22.703125000000 15.734375000000 5.111999511719 179 179 179
22.703125000000 15.734375000000 5.154998779297 169 169 169
22.703125000000 15.718750000000 5.199005126953 161 161 161
22.703125000000 15.734375000000 5.240005493164 156 156 156
22.703125000000 15.718750000000 5.285003662109 160 160 160
22.687500000000 15.734375000000 5.324996948242 153 153 153
22.687500000000 15.734375000000 5.367004394531 149 149 149
22.687500000000 15.734375000000 5.411010742188 149 149 149
22.703125000000 15.734375000000 5.454010009766 145 145 145
22.687500000000 15.734375000000 5.497009277344 166 166 166
22.703125000000 15.734375000000 5.541000366211 179 179 179
22.703125000000 15.734375000000 5.583999633789 176 176 176
22.687500000000 15.734375000000 5.626998901367 173 173 173
22.687500000000 15.734375000000 5.669998168945 171 171 171
22.687500000000 15.734375000000 5.714004516602 169 169 169
22.703125000000 15.734375000000 5.762008666992 170 170 170
22.687500000000 15.734375000000 5.801010131836 138 138 138
22.671875000000 15.734375000000 5.844009399414 36 36 36
22.468750000000 16.046875000000 5.268005371094 28 28 28
22.484375000000 16.046875000000 5.309997558594 152 152 152
22.484375000000 16.062500000000 5.352996826172 154 154 154
22.484375000000 16.046875000000 5.393005371094 166 166 166
22.453125000000 16.062500000000 5.432998657227 212 212 212
22.468750000000 16.046875000000 5.475997924805 179 179 179
22.453125000000 16.046875000000 5.516006469727 83 83 83
22.484375000000 16.046875000000 5.816009521484 137 137 137
22.453125000000 16.062500000000 5.857009887695 188 188 188
22.453125000000 16.062500000000 5.899002075195 199 199 199
22.468750000000 16.062500000000 5.945007324219 164 164 164
22.468750000000 16.062500000000 5.986999511719 164 164 164
22.453125000000 16.062500000000 6.027999877930 154 154 154
22.453125000000 16.062500000000 6.065002441406 20 20 20
22.390625000000 16.250000000000 5.947006225586 116 116 116
22.390625000000 16.234375000000 5.425003051758 131 131 131
22.453125000000 16.203125000000 5.385009765625 187 187 187
22.687500000000 15.765625000000 6.044006347656 172 172 172
22.687500000000 15.765625000000 5.993011474609 190 190 190
22.687500000000 15.765625000000 5.944000244141 192 192 192
22.671875000000 15.781250000000 5.891998291016 193 193 193
22.671875000000 15.765625000000 5.842010498047 191 191 191
22.671875000000 15.781250000000 5.792007446289 189 189 189
22.671875000000 15.765625000000 5.742004394531 186 186 186
22.671875000000 15.765625000000 5.691009521484 183 183 183
22.671875000000 15.765625000000 5.641998291016 178 178 178
22.640625000000 15.781250000000 5.591003417969 174 174 174
22.640625000000 15.781250000000 5.542007446289 177 177 177
22.640625000000 15.781250000000 5.492004394531 171 171 171
22.640625000000 15.765625000000 5.441009521484 175 175 175
22.640625000000 15.765625000000 5.391998291016 177 177 177
22.640625000000 15.781250000000 5.342010498047 183 183 183
22.640625000000 15.765625000000 5.294006347656 189 189 189
22.640625000000 15.765625000000 5.247009277344 194 194 194
22.640625000000 15.781250000000 5.195999145508 196 196 196
22.640625000000 15.781250000000 5.148010253906 198 198 198
22.640625000000 15.781250000000 5.100006103516 201 201 201
22.640625000000 15.781250000000 5.050003051758 205 205 205
22.625000000000 15.781250000000 5.001998901367 211 211 211
22.625000000000 15.781250000000 4.954010009766 216 216 216
22.640625000000 15.781250000000 4.906005859375 219 219 219
22.625000000000 15.781250000000 4.857009887695 217 217 217
22.625000000000 15.781250000000 4.809005737305 221 221 221
22.625000000000 15.781250000000 4.761001586914 221 221 221
22.625000000000 15.781250000000 4.712997436523 227 227 227
22.609375000000 15.765625000000 4.665008544922 222 222 222
22.625000000000 15.781250000000 4.617004394531 225 225 225
22.609375000000 15.765625000000 4.569000244141 229 229 229
22.609375000000 15.765625000000 4.521011352539 227 227 227
22.609375000000 15.765625000000 4.473007202148 232 232 232
22.609375000000 15.781250000000 4.425003051758 239 239 239
22.609375000000 15.765625000000 4.376998901367 241 241 241
22.609375000000 15.765625000000 4.329010009766 246 246 246
22.609375000000 15.765625000000 4.281997680664 242 242 242
22.609375000000 15.765625000000 4.234008789063 240 240 240
22.609375000000 15.765625000000 4.186004638672 232 232 232
22.609375000000 15.765625000000 4.138000488281 219 219 219
22.609375000000 15.765625000000 4.090011596680 226 226 226
22.609375000000 15.765625000000 4.042007446289 200 200 200
22.609375000000 15.765625000000 3.994003295898 191 191 191
22.625000000000 15.750000000000 3.945999145508 186 186 186
22.609375000000 15.765625000000 3.898010253906 183 183 183
22.625000000000 15.750000000000 3.850006103516 177 177 177
22.625000000000 15.750000000000 3.802001953125 168 168 168
22.625000000000 15.750000000000 3.753997802734 167 167 167
22.625000000000 15.750000000000 3.705001831055 155 155 155
22.609375000000 15.765625000000 3.658004760742 144 144 144
22.625000000000 15.750000000000 3.609008789063 133 133 133
22.609375000000 15.750000000000 3.561004638672 129 129 129
22.609375000000 15.750000000000 3.513000488281 127 127 127
22.609375000000 15.750000000000 3.464004516602 119 119 119
22.609375000000 15.750000000000 3.416000366211 114 114 114
22.609375000000 15.750000000000 3.367004394531 110 110 110
22.609375000000 15.750000000000 3.319000244141 101 101 101
22.640625000000 15.750000000000 3.266998291016 93 93 93
22.640625000000 15.750000000000 3.219009399414 85 85 85
22.640625000000 15.734375000000 3.169006347656 71 71 71
22.640625000000 15.734375000000 3.120010375977 54 54 54
22.640625000000 15.750000000000 3.072998046875 33 33 33
22.640625000000 15.750000000000 3.024002075195 16 16 16
22.453125000000 16.125000000000 5.285003662109 117 117 117
22.453125000000 16.125000000000 5.327011108398 155 155 155
22.453125000000 16.109375000000 5.370010375977 152 152 152
22.453125000000 16.125000000000 5.408996582031 192 192 192
22.453125000000 16.125000000000 5.451004028320 206 206 206
22.453125000000 16.125000000000 5.493011474609 153 153 153
22.468750000000 16.125000000000 5.794998168945 101 101 101
22.468750000000 16.125000000000 5.837005615234 180 180 180
22.453125000000 16.125000000000 5.876007080078 199 199 199
22.453125000000 16.109375000000 5.917007446289 186 186 186
22.453125000000 16.125000000000 5.962997436523 152 152 152
22.453125000000 16.125000000000 6.005996704102 163 163 163
22.453125000000 16.109375000000 6.046997070313 105 105 105
22.609375000000 15.828125000000 2.664001464844 179 179 179
22.625000000000 15.812500000000 2.705001831055 178 178 178
22.625000000000 15.812500000000 2.748001098633 176 176 176
22.625000000000 15.812500000000 2.790008544922 175 175 175
22.640625000000 15.812500000000 2.832000732422 176 176 176
22.625000000000 15.812500000000 2.875000000000 172 172 172
22.625000000000 15.812500000000 2.917007446289 172 172 172
22.625000000000 15.812500000000 2.960006713867 171 171 171
22.625000000000 15.812500000000 3.001998901367 169 169 169
22.625000000000 15.812500000000 3.044006347656 171 171 171
22.625000000000 15.812500000000 3.087005615234 167 167 167
22.640625000000 15.812500000000 3.128005981445 167 167 167
22.640625000000 15.812500000000 3.169998168945 169 169 169
22.625000000000 15.812500000000 3.214004516602 169 169 169
22.640625000000 15.812500000000 3.253997802734 168 168 168
22.609375000000 15.812500000000 3.296997070313 170 170 170
22.625000000000 15.812500000000 3.337997436523 168 168 168
22.640625000000 15.812500000000 3.380004882813 164 164 164
22.640625000000 15.812500000000 3.421005249023 166 166 166
22.640625000000 15.812500000000 3.462005615234 171 171 171
22.656250000000 15.812500000000 3.503005981445 175 175 175
22.656250000000 15.812500000000 3.544006347656 174 174 174
22.656250000000 15.812500000000 3.585998535156 174 174 174
22.656250000000 15.812500000000 3.628005981445 175 175 175
22.656250000000 15.812500000000 3.669998168945 174 174 174
22.656250000000 15.812500000000 3.710998535156 173 173 173
22.656250000000 15.828125000000 3.751998901367 175 175 175
22.656250000000 15.828125000000 3.794006347656 175 175 175
22.656250000000 15.828125000000 3.835998535156 174 174 174
22.671875000000 15.812500000000 3.876998901367 178 178 178
22.671875000000 15.812500000000 3.919006347656 174 174 174
22.671875000000 15.812500000000 3.960006713867 173 173 173
22.671875000000 15.812500000000 4.001998901367 173 173 173
22.671875000000 15.812500000000 4.042999267578 177 177 177
22.671875000000 15.812500000000 4.085006713867 177 177 177
22.671875000000 15.812500000000 4.126998901367 178 178 178
22.671875000000 15.812500000000 4.167999267578 181 181 181
22.671875000000 15.812500000000 4.210006713867 175 175 175
22.671875000000 15.812500000000 4.251998901367 176 176 176
22.671875000000 15.812500000000 4.292999267578 180 180 180
22.671875000000 15.812500000000 4.335006713867 178 178 178
22.671875000000 15.812500000000 4.376998901367 180 180 180
22.671875000000 15.812500000000 4.419006347656 174 174 174
22.671875000000 15.812500000000 4.460998535156 180 180 180
22.671875000000 15.812500000000 4.501998901367 183 183 183
22.671875000000 15.812500000000 4.544006347656 183 183 183
22.671875000000 15.812500000000 4.585998535156 182 182 182
22.703125000000 15.796875000000 4.628005981445 182 182 182
22.671875000000 15.812500000000 4.669998168945 180 180 180
22.687500000000 15.796875000000 4.712005615234 173 173 173
22.671875000000 15.812500000000 4.753997802734 175 175 175
22.687500000000 15.796875000000 4.796997070313 167 167 167
22.671875000000 15.812500000000 4.837997436523 158 158 158
22.687500000000 15.796875000000 4.880996704102 158 158 158
22.671875000000 15.812500000000 4.923004150391 157 157 157
22.703125000000 15.796875000000 4.967010498047 157 157 157
22.671875000000 15.812500000000 5.005996704102 149 149 149
22.671875000000 15.812500000000 5.049011230469 154 154 154
22.703125000000 15.796875000000 5.093002319336 151 151 151
22.687500000000 15.796875000000 5.135009765625 148 148 148
22.687500000000 15.796875000000 5.178009033203 148 148 148
22.671875000000 15.812500000000 5.220001220703 140 140 140
22.671875000000 15.812500000000 5.261001586914 141 141 141
22.671875000000 15.812500000000 5.303009033203 134 134 134
22.671875000000 15.812500000000 5.348007202148 133 133 133
22.671875000000 15.812500000000 5.391006469727 129 129 129
22.671875000000 15.796875000000 5.430999755859 122 122 122
22.671875000000 15.812500000000 5.475997924805 126 126 126
22.671875000000 15.812500000000 5.518997192383 168 168 168
22.671875000000 15.812500000000 5.561996459961 172 172 172
22.671875000000 15.812500000000 5.608001708984 173 173 173
22.671875000000 15.812500000000 5.649002075195 171 171 171
22.671875000000 15.812500000000 5.692001342773 166 166 166
22.687500000000 15.796875000000 5.740005493164 164 164 164
22.671875000000 15.812500000000 5.779998779297 158 158 158
22.671875000000 15.796875000000 5.822006225586 76 76 76
23.031250000000 15.500000000000 5.339004516602 171 171 171
22.937500000000 15.500000000000 5.369003295898 183 183 183
22.921875000000 15.500000000000 5.411010742188 182 182 182
22.937500000000 15.484375000000 5.456008911133 173 173 173
22.937500000000 15.484375000000 5.501007080078 202 202 202
22.937500000000 15.484375000000 5.544998168945 166 166 166
22.906250000000 15.500000000000 5.723007202148 147 147 147
22.906250000000 15.500000000000 5.766006469727 193 193 193
22.906250000000 15.500000000000 5.811996459961 179 179 179
22.890625000000 15.500000000000 5.854003906250 146 146 146
22.906250000000 15.500000000000 5.902008056641 146 146 146
23.093750000000 15.484375000000 5.995010375977 160 160 160
22.468750000000 16.093750000000 5.335006713867 235 235 235
22.468750000000 16.093750000000 5.383010864258 244 244 244
22.468750000000 16.093750000000 5.429000854492 241 241 241
22.468750000000 16.093750000000 5.475997924805 230 230 230
22.468750000000 16.093750000000 5.524002075195 238 238 238
22.468750000000 16.093750000000 5.570007324219 21 21 21
22.468750000000 16.093750000000 5.809997558594 205 205 205
22.468750000000 16.093750000000 5.859008789063 230 230 230
22.468750000000 16.093750000000 5.906005859375 226 226 226
22.468750000000 16.093750000000 5.953002929688 240 240 240
22.468750000000 16.093750000000 6.001007080078 240 240 240
22.453125000000 16.078125000000 6.048004150391 204 204 204
22.609375000000 15.890625000000 5.477005004883 225 225 225
22.609375000000 15.890625000000 5.526000976563 241 241 241
22.609375000000 15.890625000000 5.574996948242 239 239 239
22.609375000000 15.875000000000 5.621002197266 242 242 242
22.609375000000 15.875000000000 5.669998168945 235 235 235
22.609375000000 15.890625000000 5.721008300781 240 240 240
22.609375000000 15.875000000000 5.768005371094 244 244 244
22.625000000000 15.890625000000 5.819000244141 244 244 244
22.609375000000 15.875000000000 5.867004394531 239 239 239
22.812500000000 15.656250000000 5.475997924805 186 186 186
22.781250000000 15.671875000000 5.524002075195 231 231 231
22.781250000000 15.671875000000 5.574005126953 227 227 227
22.781250000000 15.671875000000 5.622009277344 239 239 239
22.781250000000 15.671875000000 5.671997070313 239 239 239
22.781250000000 15.671875000000 5.721008300781 236 236 236
22.781250000000 15.656250000000 5.770004272461 239 239 239
22.781250000000 15.656250000000 5.820007324219 237 237 237
22.812500000000 15.656250000000 5.876998901367 29 29 29
22.968750000000 15.453125000000 5.318008422852 220 220 220
22.968750000000 15.453125000000 5.369003295898 251 251 251
22.953125000000 15.453125000000 5.419006347656 244 244 244
22.953125000000 15.453125000000 5.469009399414 207 207 207
22.953125000000 15.453125000000 5.520004272461 238 238 238
22.937500000000 15.437500000000 5.569000244141 153 153 153
22.937500000000 15.437500000000 5.772003173828 210 210 210
22.937500000000 15.437500000000 5.822006225586 205 205 205
22.937500000000 15.437500000000 5.873001098633 230 230 230
22.937500000000 15.437500000000 5.923004150391 241 241 241
22.937500000000 15.437500000000 5.973999023438 237 237 237
23.187500000000 15.281250000000 5.359008789063 246 246 246
23.125000000000 15.250000000000 5.404006958008 245 245 245
23.093750000000 15.218750000000 5.913009643555 237 237 237
23.109375000000 15.234375000000 5.970001220703 243 243 243
22.953125000000 15.531250000000 5.359008789063 85 85 85
22.921875000000 15.515625000000 5.406005859375 246 246 246
22.921875000000 15.515625000000 5.455001831055 201 201 201
22.906250000000 15.515625000000 5.503997802734 240 240 240
22.906250000000 15.515625000000 5.555007934570 214 214 214
22.906250000000 15.515625000000 5.605010986328 232 232 232
22.906250000000 15.500000000000 5.704010009766 198 198 198
22.906250000000 15.515625000000 5.753997802734 225 225 225
22.890625000000 15.500000000000 5.803009033203 225 225 225
22.890625000000 15.500000000000 5.854003906250 241 241 241
22.890625000000 15.500000000000 5.904006958008 239 239 239
22.921875000000 15.500000000000 5.960006713867 51 51 51
22.656250000000 15.734375000000 2.651000976563 183 183 183
22.671875000000 15.734375000000 2.699996948242 179 179 179
22.656250000000 15.734375000000 2.750000000000 183 183 183
22.640625000000 15.734375000000 2.800003051758 181 181 181
22.640625000000 15.734375000000 2.850006103516 187 187 187
22.656250000000 15.734375000000 2.897003173828 185 185 185
22.640625000000 15.734375000000 2.947006225586 184 184 184
22.640625000000 15.734375000000 2.997009277344 188 188 188
22.640625000000 15.734375000000 3.044006347656 189 189 189
22.640625000000 15.734375000000 3.093002319336 189 189 189
22.640625000000 15.734375000000 3.141006469727 191 191 191
22.640625000000 15.734375000000 3.190002441406 190 190 190
22.640625000000 15.734375000000 3.238998413086 190 190 190
22.640625000000 15.734375000000 3.288009643555 188 188 188
22.640625000000 15.734375000000 3.335006713867 191 191 191
22.640625000000 15.734375000000 3.384002685547 193 193 193
22.640625000000 15.734375000000 3.430999755859 197 197 197
22.640625000000 15.734375000000 3.480010986328 192 192 192
22.640625000000 15.734375000000 3.527999877930 191 191 191
22.640625000000 15.734375000000 3.576004028320 189 189 189
22.640625000000 15.718750000000 3.624008178711 193 193 193
22.640625000000 15.734375000000 3.671005249023 196 196 196
22.640625000000 15.718750000000 3.719009399414 199 199 199
22.640625000000 15.734375000000 3.766998291016 194 194 194
22.640625000000 15.718750000000 3.815002441406 200 200 200
22.640625000000 15.718750000000 3.861999511719 204 204 204
22.625000000000 15.718750000000 3.910003662109 203 203 203
22.625000000000 15.718750000000 3.957000732422 209 209 209
22.625000000000 15.718750000000 4.005004882813 202 202 202
22.625000000000 15.718750000000 4.052001953125 205 205 205
22.625000000000 15.718750000000 4.098999023438 207 207 207
22.625000000000 15.718750000000 4.147003173828 209 209 209
22.625000000000 15.718750000000 4.194000244141 210 210 210
22.625000000000 15.718750000000 4.240997314453 210 210 210
22.625000000000 15.718750000000 4.288009643555 208 208 208
22.625000000000 15.718750000000 4.335998535156 212 212 212
22.625000000000 15.718750000000 4.383010864258 208 208 208
22.625000000000 15.718750000000 4.430007934570 208 208 208
22.625000000000 15.718750000000 4.477005004883 207 207 207
22.625000000000 15.718750000000 4.525009155273 204 204 204
22.625000000000 15.718750000000 4.572006225586 205 205 205
22.625000000000 15.718750000000 4.619003295898 198 198 198
22.625000000000 15.718750000000 4.667007446289 192 192 192
22.625000000000 15.718750000000 4.714004516602 189 189 189
22.625000000000 15.718750000000 4.761001586914 181 181 181
22.625000000000 15.718750000000 4.809005737305 178 178 178
22.625000000000 15.718750000000 4.856002807617 174 174 174
22.625000000000 15.718750000000 4.904006958008 168 168 168
22.609375000000 15.718750000000 4.951004028320 171 171 171
22.625000000000 15.718750000000 4.999008178711 168 168 168
22.625000000000 15.718750000000 5.046005249023 164 164 164
22.609375000000 15.703125000000 5.093002319336 159 159 159
22.625000000000 15.718750000000 5.141998291016 158 158 158
22.625000000000 15.718750000000 5.189010620117 159 159 159
22.625000000000 15.718750000000 5.236999511719 157 157 157
22.609375000000 15.718750000000 5.283996582031 153 153 153
22.609375000000 15.718750000000 5.333007812500 157 157 157
22.609375000000 15.718750000000 5.380004882813 156 156 156
22.640625000000 15.718750000000 5.430999755859 162 162 162
22.640625000000 15.718750000000 5.479003906250 163 163 163
22.640625000000 15.734375000000 5.529006958008 175 175 175
22.640625000000 15.734375000000 5.577011108398 172 172 172
22.640625000000 15.734375000000 5.628005981445 178 178 178
22.640625000000 15.734375000000 5.677001953125 184 184 184
22.671875000000 15.718750000000 5.725997924805 188 188 188
22.671875000000 15.718750000000 5.776000976563 188 188 188
22.671875000000 15.718750000000 5.824005126953 187 187 187
22.640625000000 15.734375000000 5.872009277344 184 184 184
22.656250000000 15.718750000000 5.921997070313 180 180 180
22.671875000000 15.718750000000 5.971008300781 174 174 174
22.656250000000 15.718750000000 6.020004272461 167 167 167
22.609375000000 15.718750000000 6.061004638672 67 67 67
22.531250000000 16.015625000000 5.380996704102 240 240 240
22.515625000000 16.015625000000 5.428009033203 243 243 243
22.515625000000 16.015625000000 5.475997924805 241 241 241
22.531250000000 16.015625000000 5.524002075195 243 243 243
22.515625000000 16.015625000000 5.570007324219 238 238 238
22.515625000000 16.015625000000 5.762008666992 212 212 212
22.515625000000 16.015625000000 5.811004638672 240 240 240
22.515625000000 16.015625000000 5.857009887695 233 233 233
22.515625000000 16.015625000000 5.906997680664 242 242 242
22.515625000000 16.015625000000 5.955001831055 242 242 242
22.515625000000 16.015625000000 6.003005981445 191 191 191
22.968750000000 15.421875000000 5.995010375977 63 63 63
22.968750000000 15.437500000000 5.942001342773 84 84 84
22.968750000000 15.421875000000 5.891006469727 88 88 88
22.968750000000 15.421875000000 5.842010498047 108 108 108
22.968750000000 15.437500000000 5.787002563477 78 78 78
22.968750000000 15.421875000000 5.533996582031 61 61 61
23.015625000000 15.406250000000 5.488006591797 122 122 122
23.015625000000 15.406250000000 5.439010620117 123 123 123
23.015625000000 15.406250000000 5.388000488281 115 115 115
23.031250000000 15.390625000000 5.337997436523 144 144 144
23.062500000000 15.375000000000 5.289001464844 80 80 80
22.531250000000 16.046875000000 6.018997192383 115 115 115
22.531250000000 16.046875000000 5.970001220703 108 108 108
22.515625000000 16.062500000000 5.917999267578 125 125 125
22.531250000000 16.046875000000 5.874008178711 140 140 140
22.546875000000 16.046875000000 5.827011108398 129 129 129
22.515625000000 16.062500000000 5.529998779297 88 88 88
22.515625000000 16.078125000000 5.481002807617 118 118 118
22.515625000000 16.062500000000 5.434005737305 89 89 89
22.546875000000 16.046875000000 5.391006469727 88 88 88
22.562500000000 16.046875000000 5.347000122070 107 107 107
22.906250000000 15.515625000000 5.911010742188 144 144 144
22.906250000000 15.515625000000 5.863006591797 144 144 144
22.906250000000 15.515625000000 5.820999145508 174 174 174
22.906250000000 15.515625000000 5.772003173828 185 185 185
22.937500000000 15.515625000000 5.732009887695 154 154 154
22.937500000000 15.515625000000 5.598007202148 170 170 170
22.906250000000 15.515625000000 5.551010131836 182 182 182
22.937500000000 15.515625000000 5.509002685547 186 186 186
22.937500000000 15.515625000000 5.465011596680 184 184 184
22.921875000000 15.515625000000 5.419006347656 173 173 173
23.062500000000 15.515625000000 5.397003173828 206 206 206
22.640625000000 15.859375000000 5.901000976563 64 64 64
22.640625000000 15.875000000000 5.860000610352 164 164 164
22.656250000000 15.875000000000 5.818008422852 147 147 147
22.656250000000 15.875000000000 5.773010253906 163 163 163
22.656250000000 15.875000000000 5.730010986328 145 145 145
22.640625000000 15.859375000000 5.682998657227 143 143 143
22.640625000000 15.875000000000 5.637008666992 143 143 143
22.640625000000 15.875000000000 5.597000122070 147 147 147
22.640625000000 15.875000000000 5.555007934570 146 146 146
22.640625000000 15.875000000000 5.509002685547 142 142 142
22.625000000000 15.875000000000 5.464004516602 103 103 103
22.375000000000 16.234375000000 5.975997924805 77 77 77
22.375000000000 16.234375000000 5.934997558594 116 116 116
22.390625000000 16.234375000000 5.432998657227 115 115 115
22.390625000000 16.234375000000 5.391998291016 83 83 83
22.468750000000 16.125000000000 5.314010620117 240 240 240
22.484375000000 16.109375000000 5.361007690430 243 243 243
22.484375000000 16.109375000000 5.408004760742 239 239 239
22.468750000000 16.093750000000 5.454010009766 225 225 225
22.468750000000 16.093750000000 5.500000000000 239 239 239
22.484375000000 16.109375000000 5.790008544922 46 46 46
22.468750000000 16.093750000000 5.833999633789 239 239 239
22.484375000000 16.109375000000 5.883010864258 217 217 217
22.484375000000 16.109375000000 5.930999755859 241 241 241
22.484375000000 16.109375000000 5.980010986328 238 238 238
22.468750000000 16.093750000000 6.025009155273 239 239 239
22.484375000000 16.109375000000 6.078002929688 9 9 9
22.640625000000 15.875000000000 5.465011596680 229 229 229
22.640625000000 15.875000000000 5.514007568359 242 242 242
22.640625000000 15.875000000000 5.561996459961 241 241 241
22.640625000000 15.859375000000 5.610000610352 242 242 242
22.640625000000 15.859375000000 5.658996582031 236 236 236
22.640625000000 15.875000000000 5.708999633789 244 244 244
22.640625000000 15.859375000000 5.755996704102 244 244 244
22.640625000000 15.875000000000 5.805999755859 244 244 244
22.640625000000 15.859375000000 5.854003906250 237 237 237
22.828125000000 15.640625000000 5.475997924805 241 241 241
22.828125000000 15.640625000000 5.525009155273 203 203 203
22.828125000000 15.640625000000 5.574996948242 238 238 238
22.812500000000 15.625000000000 5.623001098633 237 237 237
22.812500000000 15.640625000000 5.673004150391 243 243 243
22.812500000000 15.625000000000 5.721008300781 236 236 236
22.812500000000 15.625000000000 5.771011352539 240 240 240
22.812500000000 15.625000000000 5.820007324219 233 233 233
22.812500000000 15.609375000000 5.872009277344 8 8 8
23.000000000000 15.406250000000 5.277999877930 205 205 205
23.000000000000 15.406250000000 5.328002929688 242 242 242
23.000000000000 15.406250000000 5.378005981445 246 246 246
23.000000000000 15.406250000000 5.429000854492 224 224 224
23.000000000000 15.406250000000 5.480010986328 242 242 242
23.000000000000 15.390625000000 5.529006958008 159 159 159
22.984375000000 15.390625000000 5.783004760742 205 205 205
22.968750000000 15.390625000000 5.832000732422 230 230 230
22.968750000000 15.390625000000 5.884002685547 240 240 240
22.968750000000 15.390625000000 5.934997558594 243 243 243
22.968750000000 15.390625000000 5.985000610352 237 237 237
23.000000000000 15.390625000000 6.044006347656 20 20 20
22.546875000000 16.015625000000 5.970001220703 123 123 123
22.562500000000 16.015625000000 5.930007934570 163 163 163
22.562500000000 16.015625000000 5.885009765625 151 151 151
22.546875000000 16.015625000000 5.840011596680 182 182 182
22.562500000000 16.015625000000 5.798004150391 144 144 144
22.562500000000 16.015625000000 5.755004882813 154 154 154
22.546875000000 16.015625000000 5.582000732422 142 142 142
22.562500000000 16.015625000000 5.540008544922 142 142 142
22.562500000000 16.015625000000 5.498001098633 145 145 145
22.562500000000 16.015625000000 5.454010009766 145 145 145
22.578125000000 16.000000000000 5.414001464844 151 151 151
22.546875000000 16.015625000000 5.368011474609 97 97 97
22.656250000000 15.671875000000 6.065002441406 156 156 156
22.625000000000 15.671875000000 6.010009765625 173 173 173
22.625000000000 15.671875000000 5.965011596680 171 171 171
22.625000000000 15.671875000000 5.921997070313 168 168 168
22.625000000000 15.671875000000 5.876998901367 162 162 162
22.625000000000 15.671875000000 5.835006713867 161 161 161
22.625000000000 15.671875000000 5.790008544922 160 160 160
22.625000000000 15.671875000000 5.747009277344 162 162 162
22.625000000000 15.671875000000 5.704010009766 158 158 158
22.625000000000 15.671875000000 5.662002563477 156 156 156
22.625000000000 15.671875000000 5.617004394531 155 155 155
22.625000000000 15.671875000000 5.574996948242 151 151 151
22.640625000000 15.656250000000 5.533004760742 150 150 150
22.640625000000 15.656250000000 5.488998413086 148 148 148
22.625000000000 15.671875000000 5.445999145508 139 139 139
22.640625000000 15.656250000000 5.404998779297 140 140 140
22.656250000000 15.671875000000 5.361999511719 140 140 140
22.656250000000 15.671875000000 5.320999145508 145 145 145
22.671875000000 15.656250000000 5.281997680664 157 157 157
22.671875000000 15.656250000000 5.238998413086 168 168 168
22.687500000000 15.671875000000 5.199005126953 182 182 182
22.656250000000 15.656250000000 5.152999877930 128 128 128
22.656250000000 15.656250000000 5.111007690430 128 128 128
22.656250000000 15.671875000000 5.067001342773 131 131 131
22.656250000000 15.671875000000 5.024002075195 110 110 110
22.671875000000 15.656250000000 4.984008789063 113 113 113
22.656250000000 15.656250000000 4.941009521484 115 115 115
22.656250000000 15.656250000000 4.900009155273 115 115 115
22.671875000000 15.671875000000 4.859008789063 108 108 108
22.671875000000 15.656250000000 4.816009521484 104 104 104
22.671875000000 15.671875000000 4.775009155273 105 105 105
22.671875000000 15.656250000000 4.733001708984 88 88 88
22.687500000000 15.656250000000 4.650009155273 92 92 92
23.046875000000 15.312500000000 6.063003540039 87 87 87
23.031250000000 15.328125000000 6.013000488281 138 138 138
23.046875000000 15.312500000000 5.969009399414 142 142 142
23.031250000000 15.328125000000 5.921005249023 141 141 141
23.031250000000 15.328125000000 5.875000000000 136 136 136
23.031250000000 15.328125000000 5.829010009766 106 106 106
23.062500000000 15.328125000000 5.468002319336 53 53 53
23.062500000000 15.328125000000 5.425003051758 168 168 168
23.062500000000 15.328125000000 5.380004882813 186 186 186
23.062500000000 15.328125000000 5.335006713867 186 186 186
23.062500000000 15.328125000000 5.290008544922 182 182 182
23.062500000000 15.328125000000 5.244003295898 113 113 113
22.546875000000 16.015625000000 5.973999023438 56 56 56
22.578125000000 16.000000000000 5.932998657227 103 103 103
22.578125000000 16.000000000000 5.880996704102 109 109 109
22.578125000000 16.000000000000 5.835006713867 111 111 111
22.578125000000 16.000000000000 5.785003662109 107 107 107
22.609375000000 15.984375000000 5.738998413086 97 97 97
22.640625000000 15.937500000000 5.701004028320 33 33 33
22.578125000000 16.000000000000 5.587997436523 92 92 92
22.609375000000 15.984375000000 5.542999267578 80 80 80
22.578125000000 16.000000000000 5.492004394531 87 87 87
22.593750000000 15.984375000000 5.445007324219 82 82 82
22.578125000000 16.000000000000 5.393005371094 67 67 67
22.984375000000 15.437500000000 6.001998901367 40 40 40
22.968750000000 15.437500000000 5.947006225586 79 79 79
22.968750000000 15.421875000000 5.895004272461 83 83 83
22.968750000000 15.421875000000 5.844009399414 109 109 109
22.968750000000 15.421875000000 5.794006347656 96 96 96
23.000000000000 15.406250000000 5.490005493164 95 95 95
23.031250000000 15.390625000000 5.444000244141 135 135 135
23.031250000000 15.390625000000 5.393005371094 115 115 115
23.062500000000 15.375000000000 5.343002319336 141 141 141
23.062500000000 15.375000000000 5.292999267578 131 131 131
23.078125000000 15.359375000000 5.243011474609 51 51 51
7.375000000000 1.984375000000 4.626998901367 107 107 107
7.343750000000 2.000000000000 4.581008911133 207 207 207
7.343750000000 2.000000000000 4.533996582031 211 211 211
7.375000000000 1.984375000000 4.486999511719 210 210 210
7.375000000000 1.984375000000 4.440002441406 208 208 208
7.343750000000 2.000000000000 4.393005371094 199 199 199
7.343750000000 1.984375000000 4.206008911133 188 188 188
7.343750000000 2.000000000000 4.158996582031 210 210 210
7.359375000000 2.000000000000 4.111999511719 209 209 209
7.343750000000 2.000000000000 4.065002441406 214 214 214
7.343750000000 2.000000000000 4.018005371094 209 209 209
7.375000000000 1.984375000000 3.972000122070 127 127 127
7.390625000000 2.312500000000 4.699996948242 29 29 29
7.359375000000 2.312500000000 4.656005859375 174 174 174
7.375000000000 2.312500000000 4.608001708984 179 179 179
7.375000000000 2.312500000000 4.559997558594 174 174 174
7.375000000000 2.312500000000 4.513000488281 170 170 170
7.406250000000 2.312500000000 4.465011596680 167 167 167
7.406250000000 2.312500000000 4.419006347656 163 163 163
7.406250000000 2.312500000000 4.372009277344 166 166 166
7.406250000000 2.312500000000 4.324996948242 170 170 170
7.406250000000 2.312500000000 4.279006958008 171 171 171
7.437500000000 2.312500000000 4.232009887695 167 167 167
7.421875000000 2.312500000000 4.184997558594 177 177 177
7.437500000000 2.312500000000 4.139007568359 172 172 172
7.437500000000 2.312500000000 4.092010498047 181 181 181
7.421875000000 2.312500000000 4.046005249023 186 186 186
7.437500000000 2.312500000000 3.999008178711 187 187 187
7.437500000000 2.312500000000 3.953002929688 193 193 193
7.437500000000 2.296875000000 3.906997680664 201 201 201
7.437500000000 2.312500000000 3.861007690430 220 220 220
7.437500000000 2.296875000000 3.814010620117 230 230 230
7.437500000000 2.296875000000 3.768005371094 223 223 223
7.437500000000 2.296875000000 3.722000122070 210 210 210
7.437500000000 2.296875000000 3.675003051758 211 211 211
7.437500000000 2.296875000000 3.628997802734 208 208 208
7.437500000000 2.296875000000 3.582000732422 203 203 203
7.437500000000 2.296875000000 3.536010742188 208 208 208
7.437500000000 2.296875000000 3.488998413086 203 203 203
7.437500000000 2.296875000000 3.443008422852 200 200 200
7.437500000000 2.296875000000 3.396011352539 198 198 198
7.453125000000 2.312500000000 3.350006103516 198 198 198
7.453125000000 2.312500000000 3.303009033203 191 191 191
7.453125000000 2.312500000000 3.255996704102 191 191 191
7.453125000000 2.312500000000 3.210006713867 188 188 188
7.453125000000 2.312500000000 3.163009643555 186 186 186
7.453125000000 2.312500000000 3.115997314453 190 190 190
7.453125000000 2.312500000000 3.069000244141 186 186 186
7.453125000000 2.312500000000 3.023010253906 184 184 184
7.468750000000 2.328125000000 2.975997924805 185 185 185
7.468750000000 2.328125000000 2.930007934570 183 183 183
7.453125000000 2.312500000000 2.880996704102 182 182 182
7.468750000000 2.328125000000 2.835006713867 180 180 180
7.468750000000 2.328125000000 2.788009643555 183 183 183
7.453125000000 2.312500000000 2.738998413086 179 179 179
7.468750000000 2.328125000000 2.692001342773 181 181 181
7.468750000000 2.328125000000 2.645004272461 180 180 180
7.468750000000 2.312500000000 2.598999023438 171 171 171
7.468750000000 2.312500000000 2.550003051758 173 173 173
7.468750000000 2.312500000000 2.503005981445 170 170 170
7.468750000000 2.312500000000 2.455001831055 169 169 169
7.468750000000 2.312500000000 2.406997680664 167 167 167
7.468750000000 2.312500000000 2.359008789063 166 166 166
7.468750000000 2.312500000000 2.309997558594 159 159 159
7.468750000000 2.312500000000 2.262008666992 158 158 158
7.468750000000 2.312500000000 2.212997436523 159 159 159
7.484375000000 2.328125000000 2.166000366211 149 149 149
7.468750000000 2.312500000000 2.115005493164 150 150 150
7.484375000000 2.328125000000 2.069000244141 143 143 143
7.484375000000 2.328125000000 2.020004272461 144 144 144
7.484375000000 2.328125000000 1.970001220703 143 143 143
7.468750000000 2.312500000000 1.919006347656 154 154 154
7.468750000000 2.312500000000 1.868011474609 151 151 151
7.468750000000 2.312500000000 1.819000244141 154 154 154
7.468750000000 2.328125000000 1.766998291016 149 149 149
7.468750000000 2.312500000000 1.718002319336 157 157 157
7.468750000000 2.328125000000 1.666000366211 162 162 162
7.468750000000 2.328125000000 1.615005493164 166 166 166
7.468750000000 2.328125000000 1.565002441406 159 159 159
7.187500000000 2.656250000000 4.597000122070 107 107 107
7.203125000000 2.656250000000 4.548004150391 208 208 208
7.203125000000 2.640625000000 4.500000000000 208 208 208
7.203125000000 2.640625000000 4.452011108398 204 204 204
7.203125000000 2.640625000000 4.404006958008 203 203 203
7.203125000000 2.640625000000 4.356002807617 185 185 185
7.218750000000 2.640625000000 4.212997436523 160 160 160
7.218750000000 2.640625000000 4.165008544922 208 208 208
7.218750000000 2.640625000000 4.117004394531 198 198 198
7.218750000000 2.640625000000 4.070007324219 194 194 194
7.218750000000 2.640625000000 4.022003173828 199 199 199
7.218750000000 2.640625000000 3.973999023438 178 178 178
7.406250000000 1.718750000000 4.007003784180 169 169 169
7.390625000000 1.703125000000 4.059997558594 167 167 167
7.390625000000 1.734375000000 4.539001464844 157 157 157
7.390625000000 1.734375000000 4.592010498047 134 134 134
7.312500000000 2.015625000000 3.975997924805 79 79 79
7.328125000000 2.015625000000 4.029006958008 213 213 213
7.312500000000 2.015625000000 4.083007812500 213 213 213
7.312500000000 2.015625000000 4.136001586914 213 213 213
7.312500000000 2.031250000000 4.190002441406 209 209 209
7.296875000000 2.015625000000 4.244003295898 57 57 57
7.312500000000 2.031250000000 4.350997924805 155 155 155
7.312500000000 2.015625000000 4.404998779297 210 210 210
7.312500000000 2.031250000000 4.458007812500 208 208 208
7.312500000000 2.031250000000 4.512008666992 206 206 206
7.312500000000 2.031250000000 4.565002441406 201 201 201
7.328125000000 2.312500000000 1.738006591797 131 131 131
7.328125000000 2.328125000000 1.796005249023 136 136 136
7.234375000000 2.250000000000 1.822006225586 54 54 54
7.343750000000 2.328125000000 1.917999267578 118 118 118
7.343750000000 2.328125000000 1.975006103516 119 119 119
7.359375000000 2.343750000000 2.033004760742 121 121 121
7.375000000000 2.343750000000 2.092010498047 117 117 117
7.375000000000 2.343750000000 2.148010253906 128 128 128
7.375000000000 2.343750000000 2.205001831055 126 126 126
7.375000000000 2.343750000000 2.260009765625 133 133 133
7.343750000000 2.328125000000 2.313003540039 140 140 140
7.359375000000 2.343750000000 2.370010375977 146 146 146
7.359375000000 2.343750000000 2.426010131836 149 149 149
7.375000000000 2.343750000000 2.482009887695 151 151 151
7.375000000000 2.343750000000 2.539001464844 153 153 153
7.375000000000 2.343750000000 2.595001220703 158 158 158
7.375000000000 2.343750000000 2.649002075195 162 162 162
7.375000000000 2.343750000000 2.705001831055 158 158 158
7.375000000000 2.343750000000 2.760009765625 153 153 153
7.375000000000 2.343750000000 2.816009521484 158 158 158
7.375000000000 2.343750000000 2.869003295898 151 151 151
7.406250000000 2.359375000000 3.199996948242 147 147 147
7.406250000000 2.359375000000 3.253005981445 145 145 145
7.406250000000 2.375000000000 3.307998657227 151 151 151
7.406250000000 2.375000000000 3.361999511719 156 156 156
7.406250000000 2.375000000000 3.415008544922 163 163 163
7.390625000000 2.375000000000 3.469009399414 167 167 167
7.390625000000 2.375000000000 3.522003173828 170 170 170
7.390625000000 2.375000000000 3.576004028320 178 178 178
7.390625000000 2.375000000000 3.630004882813 180 180 180
7.390625000000 2.375000000000 3.682006835938 184 184 184
7.390625000000 2.375000000000 3.736007690430 188 188 188
7.406250000000 2.375000000000 3.790008544922 193 193 193
7.390625000000 2.375000000000 3.843002319336 197 197 197
7.390625000000 2.375000000000 3.896011352539 211 211 211
7.390625000000 2.375000000000 3.949005126953 221 221 221
7.390625000000 2.375000000000 4.003005981445 228 228 228
7.390625000000 2.375000000000 4.055999755859 240 240 240
7.390625000000 2.375000000000 4.109008789063 251 251 251
7.390625000000 2.375000000000 4.162002563477 252 252 252
7.390625000000 2.375000000000 4.215011596680 248 248 248
7.390625000000 2.375000000000 4.268997192383 228 228 228
7.390625000000 2.375000000000 4.322006225586 229 229 229
7.390625000000 2.375000000000 4.375000000000 222 222 222
7.375000000000 2.390625000000 4.428009033203 217 217 217
7.390625000000 2.375000000000 4.481002807617 212 212 212
7.375000000000 2.390625000000 4.535003662109 213 213 213
7.375000000000 2.390625000000 4.587997436523 217 217 217
7.375000000000 2.390625000000 4.641006469727 212 212 212
7.375000000000 2.390625000000 4.695007324219 56 56 56
7.218750000000 2.593750000000 4.024002075195 209 209 209
7.218750000000 2.593750000000 4.079010009766 192 192 192
7.187500000000 2.609375000000 4.133010864258 206 206 206
7.187500000000 2.609375000000 4.186996459961 205 205 205
7.187500000000 2.609375000000 4.242004394531 118 118 118
7.156250000000 2.593750000000 4.296005249023 95 95 95
7.187500000000 2.593750000000 4.350997924805 216 216 216
7.171875000000 2.593750000000 4.406005859375 205 205 205
7.187500000000 2.593750000000 4.460006713867 217 217 217
7.187500000000 2.593750000000 4.514999389648 213 213 213
7.187500000000 2.609375000000 4.569000244141 8 8 8
7.140625000000 2.890625000000 3.886001586914 97 97 97
7.125000000000 2.890625000000 3.941009521484 199 199 199
7.125000000000 2.890625000000 3.996002197266 215 215 215
7.109375000000 2.890625000000 4.051010131836 168 168 168
7.109375000000 2.875000000000 4.490997314453 208 208 208
7.109375000000 2.875000000000 4.546005249023 214 214 214
7.109375000000 2.875000000000 4.600997924805 214 214 214
7.093750000000 2.890625000000 4.656005859375 170 170 170
7.437500000000 1.687500000000 4.042007446289 41 41 41
7.343750000000 2.062500000000 4.557006835938 112 112 112
7.375000000000 2.062500000000 4.501998901367 117 117 117
7.343750000000 2.062500000000 4.447998046875 129 129 129
7.375000000000 2.062500000000 4.393005371094 119 119 119
7.343750000000 2.062500000000 4.339004516602 87 87 87
7.328125000000 2.078125000000 4.283996582031 16 16 16
7.343750000000 2.062500000000 4.230010986328 135 135 135
7.343750000000 2.062500000000 4.175003051758 127 127 127
7.343750000000 2.062500000000 4.121002197266 126 126 126
7.343750000000 2.062500000000 4.067001342773 134 134 134
7.375000000000 2.046875000000 4.013000488281 39 39 39
7.421875000000 2.343750000000 4.694000244141 132 132 132
7.437500000000 2.343750000000 4.639007568359 183 183 183
7.437500000000 2.343750000000 4.585006713867 182 182 182
7.437500000000 2.343750000000 4.531997680664 179 179 179
7.437500000000 2.343750000000 4.477996826172 182 182 182
7.437500000000 2.343750000000 4.424011230469 187 187 187
7.437500000000 2.343750000000 4.370010375977 184 184 184
7.437500000000 2.343750000000 4.316009521484 184 184 184
7.437500000000 2.343750000000 4.262008666992 182 182 182
7.437500000000 2.343750000000 4.208007812500 185 185 185
7.453125000000 2.343750000000 4.154998779297 188 188 188
7.437500000000 2.343750000000 4.100997924805 190 190 190
7.453125000000 2.343750000000 4.046997070313 192 192 192
7.453125000000 2.343750000000 3.993011474609 195 195 195
7.468750000000 2.343750000000 3.940002441406 208 208 208
7.468750000000 2.328125000000 3.886001586914 198 198 198
7.453125000000 2.343750000000 3.832000732422 191 191 191
7.468750000000 2.343750000000 3.777999877930 185 185 185
7.468750000000 2.343750000000 3.723999023438 179 179 179
7.453125000000 2.343750000000 3.669998168945 179 179 179
7.468750000000 2.343750000000 3.615997314453 179 179 179
7.468750000000 2.328125000000 3.563003540039 173 173 173
7.468750000000 2.328125000000 3.509002685547 174 174 174
7.468750000000 2.328125000000 3.455001831055 173 173 173
7.468750000000 2.328125000000 3.400009155273 169 169 169
7.468750000000 2.328125000000 3.347000122070 167 167 167
7.468750000000 2.328125000000 3.292999267578 165 165 165
7.468750000000 2.328125000000 3.238998413086 166 166 166
7.468750000000 2.312500000000 3.184997558594 163 163 163
7.468750000000 2.312500000000 3.130004882813 160 160 160
7.468750000000 2.328125000000 3.076004028320 159 159 159
7.468750000000 2.312500000000 3.022003173828 160 160 160
7.484375000000 2.328125000000 2.968002319336 155 155 155
7.484375000000 2.328125000000 2.913009643555 159 159 159
7.468750000000 2.328125000000 2.857009887695 159 159 159
7.484375000000 2.328125000000 2.804000854492 153 153 153
7.500000000000 2.312500000000 2.750000000000 154 154 154
7.500000000000 2.312500000000 2.695999145508 153 153 153
7.500000000000 2.312500000000 2.641998291016 148 148 148
7.500000000000 2.312500000000 2.585006713867 154 154 154
7.500000000000 2.312500000000 2.529998779297 144 144 144
7.500000000000 2.312500000000 2.475006103516 144 144 144
7.500000000000 2.312500000000 2.419998168945 145 145 145
7.500000000000 2.312500000000 2.363006591797 144 144 144
7.500000000000 2.296875000000 2.309997558594 144 144 144
7.500000000000 2.312500000000 2.251998901367 143 143 143
7.500000000000 2.296875000000 2.199005126953 135 135 135
7.500000000000 2.312500000000 2.141006469727 131 131 131
7.500000000000 2.312500000000 2.083007812500 131 131 131
7.500000000000 2.312500000000 2.026000976563 160 160 160
7.500000000000 2.312500000000 1.971008300781 155 155 155
7.484375000000 2.328125000000 1.906997680664 160 160 160
7.500000000000 2.312500000000 1.855010986328 163 163 163
7.500000000000 2.312500000000 1.799011230469 161 161 161
