20.906250000000 14.078125000000 49.596000671387 200 200 200
20.906250000000 14.078125000000 49.633995056152 197 197 197
20.906250000000 14.078125000000 49.674003601074 165 165 165
20.937500000000 14.085937500000 49.834007263184 134 134 134
20.937500000000 14.085937500000 49.873008728027 187 187 187
20.937500000000 14.093750000000 49.915000915527 189 189 189
20.937500000000 14.085937500000 49.952003479004 182 182 182
20.937500000000 14.085937500000 49.993003845215 184 184 184
20.937500000000 14.093750000000 50.032997131348 183 183 183
20.937500000000 14.093750000000 50.073005676270 142 142 142
21.031250000000 14.343750000000 50.202995300293 201 201 201
21.062500000000 14.328125000000 50.159004211426 253 253 253
21.062500000000 14.320312500000 50.114997863770 6 6 6
21.031250000000 14.343750000000 50.065010070801 235 235 235
21.046875000000 14.328125000000 50.019996643066 240 240 240
21.046875000000 14.328125000000 49.974998474121 177 177 177
21.015625000000 14.343750000000 49.608009338379 65 65 65
21.031250000000 14.335937500000 49.562995910645 243 243 243
21.031250000000 14.335937500000 49.519004821777 254 254 254
21.031250000000 14.335937500000 49.472999572754 245 245 245
21.031250000000 14.320312500000 49.429008483887 3 3 3
21.031250000000 14.328125000000 49.383003234863 212 212 212
20.937500000000 14.101562500000 50.069007873535 235 235 235
20.937500000000 14.093750000000 50.025001525879 1 1 1
20.937500000000 14.093750000000 49.980003356934 6 6 6
20.937500000000 14.093750000000 49.935005187988 6 6 6
20.937500000000 14.093750000000 49.890998840332 13 13 13
20.937500000000 14.101562500000 49.843009948730 214 214 214
20.937500000000 14.093750000000 49.754005432129 191 191 191
20.921875000000 14.093750000000 49.708000183105 242 242 242
20.921875000000 14.093750000000 49.665000915527 10 10 10
20.921875000000 14.093750000000 49.618995666504 245 245 245
20.937500000000 14.085937500000 49.575996398926 16 16 16
20.906250000000 14.109375000000 49.530006408691 237 237 237
20.750000000000 13.898437500000 50.191001892090 138 138 138
20.765625000000 13.890625000000 50.148002624512 163 163 163
20.765625000000 13.890625000000 50.103996276855 157 157 157
20.765625000000 13.890625000000 50.060005187988 161 161 161
20.765625000000 13.890625000000 50.015007019043 158 158 158
20.765625000000 13.890625000000 49.971000671387 161 161 161
20.734375000000 13.906250000000 49.922996520996 199 199 199
20.734375000000 13.906250000000 49.879997253418 216 216 216
20.781250000000 13.875000000000 49.842002868652 161 161 161
20.781250000000 13.875000000000 49.797996520996 161 161 161
20.765625000000 13.890625000000 49.752006530762 178 178 178
20.718750000000 13.914062500000 49.704002380371 223 223 223
20.781250000000 13.875000000000 49.668006896973 158 158 158
20.781250000000 13.875000000000 49.624000549316 165 165 165
20.781250000000 13.875000000000 49.580009460449 160 160 160
20.750000000000 13.890625000000 49.536003112793 165 165 165
20.781250000000 13.867187500000 49.493995666504 171 171 171
20.781250000000 13.875000000000 49.448997497559 166 166 166
20.750000000000 13.890625000000 49.405998229980 159 159 159
20.781250000000 13.875000000000 49.362998962402 157 157 157
20.765625000000 13.875000000000 49.319999694824 159 159 159
20.765625000000 13.875000000000 49.276008605957 159 159 159
20.765625000000 13.875000000000 49.233009338379 163 163 163
20.765625000000 13.875000000000 49.190010070801 162 162 162
20.781250000000 13.867187500000 49.146995544434 158 158 158
20.781250000000 13.867187500000 49.103996276855 165 165 165
20.765625000000 13.875000000000 49.060005187988 160 160 160
20.781250000000 13.867187500000 49.017005920410 159 159 159
20.781250000000 13.867187500000 48.974006652832 160 160 160
20.781250000000 13.867187500000 48.931007385254 157 157 157
20.781250000000 13.867187500000 48.887001037598 158 158 158
20.781250000000 13.867187500000 48.844001770020 158 158 158
20.781250000000 13.867187500000 48.801002502441 166 166 166
20.765625000000 13.867187500000 48.758003234863 159 159 159
20.781250000000 13.867187500000 48.713996887207 161 161 161
20.781250000000 13.867187500000 48.670997619629 208 208 208
20.765625000000 13.867187500000 48.627998352051 158 158 158
20.781250000000 13.867187500000 48.584007263184 158 158 158
20.781250000000 13.859375000000 48.541007995605 158 158 158
20.765625000000 13.867187500000 48.498008728027 160 160 160
20.781250000000 13.859375000000 48.454002380371 169 169 169
20.781250000000 13.859375000000 48.411003112793 162 162 162
20.765625000000 13.867187500000 48.368003845215 148 148 148
20.765625000000 13.867187500000 48.323997497559 160 160 160
20.781250000000 13.859375000000 48.280006408691 160 160 160
20.781250000000 13.859375000000 48.236000061035 164 164 164
20.781250000000 13.859375000000 48.193000793457 153 153 153
20.781250000000 13.859375000000 48.150001525879 157 157 157
20.750000000000 13.859375000000 48.105995178223 159 159 159
20.781250000000 13.859375000000 48.062004089355 160 160 160
20.750000000000 13.859375000000 48.019996643066 158 158 158
20.781250000000 13.851562500000 47.974006652832 164 164 164
20.750000000000 13.859375000000 47.931007385254 151 151 151
20.750000000000 13.859375000000 47.887001037598 158 158 158
20.781250000000 13.851562500000 47.842002868652 158 158 158
20.750000000000 13.859375000000 47.799003601074 162 162 162
20.750000000000 13.859375000000 47.754997253418 163 163 163
20.781250000000 13.851562500000 47.709999084473 167 167 167
20.781250000000 13.851562500000 47.665000915527 164 164 164
20.781250000000 13.851562500000 47.621009826660 164 164 164
20.750000000000 13.859375000000 47.577003479004 161 161 161
20.750000000000 13.859375000000 47.532005310059 161 161 161
20.750000000000 13.859375000000 47.487998962402 161 161 161
20.750000000000 13.859375000000 47.444007873535 168 168 168
20.765625000000 13.851562500000 47.396995544434 155 155 155
20.750000000000 13.859375000000 47.353004455566 159 159 159
20.750000000000 13.859375000000 47.308998107910 168 168 168
20.750000000000 13.859375000000 47.263999938965 168 168 168
20.750000000000 13.859375000000 47.218009948730 173 173 173
20.750000000000 13.859375000000 47.172004699707 171 171 171
20.750000000000 13.859375000000 47.125999450684 160 160 160
20.750000000000 13.859375000000 47.080009460449 167 167 167
20.750000000000 13.851562500000 47.034996032715 167 167 167
20.750000000000 13.851562500000 46.989006042480 165 165 165
20.750000000000 13.851562500000 46.944007873535 157 157 157
20.750000000000 13.851562500000 46.896003723145 150 150 150
20.750000000000 13.851562500000 46.851997375488 154 154 154
20.750000000000 13.851562500000 46.806007385254 148 148 148
20.750000000000 13.851562500000 46.758995056152 143 143 143
20.734375000000 13.859375000000 46.715003967285 150 150 150
20.718750000000 13.867187500000 46.672996520996 150 150 150
20.703125000000 13.875000000000 46.629997253418 143 143 143
20.718750000000 13.867187500000 46.581001281738 157 157 157
20.718750000000 13.617187500000 50.071006774902 189 189 189
20.734375000000 13.609375000000 50.028999328613 241 241 241
20.734375000000 13.609375000000 49.986000061035 251 251 251
20.703125000000 13.625000000000 49.939002990723 231 231 231
20.718750000000 13.617187500000 49.896995544434 227 227 227
20.718750000000 13.609375000000 49.853004455566 239 239 239
20.734375000000 13.609375000000 49.810997009277 83 83 83
20.734375000000 13.609375000000 49.769004821777 217 217 217
20.734375000000 13.609375000000 49.724998474121 218 218 218
20.734375000000 13.609375000000 49.681007385254 226 226 226
20.718750000000 13.609375000000 49.637001037598 222 222 222
20.734375000000 13.609375000000 49.596000671387 223 223 223
20.718750000000 13.601562500000 49.552009582520 227 227 227
20.625000000000 13.390625000000 50.207008361816 227 227 227
20.625000000000 13.382812500000 50.166007995605 246 246 246
20.625000000000 13.382812500000 50.122001647949 241 241 241
20.625000000000 13.382812500000 50.079002380371 242 242 242
20.625000000000 13.390625000000 50.034004211426 239 239 239
20.625000000000 13.390625000000 49.991996765137 228 228 228
20.656250000000 13.367187500000 49.652000427246 23 23 23
20.625000000000 13.382812500000 49.608009338379 239 239 239
20.625000000000 13.375000000000 49.566001892090 227 227 227
20.625000000000 13.375000000000 49.523002624512 231 231 231
20.656250000000 13.367187500000 49.482002258301 0 0 0
20.625000000000 13.375000000000 49.439002990723 247 247 247
20.625000000000 13.382812500000 49.394996643066 191 191 191
21.031250000000 14.382812500000 49.500999450684 196 196 196
20.906250000000 14.078125000000 49.506996154785 174 174 174
20.906250000000 14.070312500000 49.545005798340 201 201 201
20.906250000000 14.070312500000 49.584007263184 204 204 204
20.906250000000 14.078125000000 49.623008728027 198 198 198
20.906250000000 14.070312500000 49.661003112793 199 199 199
20.906250000000 14.070312500000 49.700004577637 196 196 196
20.906250000000 14.070312500000 49.737998962402 156 156 156
20.906250000000 14.078125000000 49.818000793457 156 156 156
20.937500000000 14.070312500000 49.858009338379 189 189 189
20.937500000000 14.070312500000 49.898002624512 187 187 187
20.906250000000 14.078125000000 49.935997009277 183 183 183
20.937500000000 14.070312500000 49.976997375488 185 185 185
20.937500000000 14.070312500000 50.017005920410 183 183 183
20.937500000000 14.070312500000 50.056999206543 119 119 119
20.656250000000 13.804687500000 46.601005554199 159 159 159
20.656250000000 13.796875000000 46.646003723145 146 146 146
20.656250000000 13.804687500000 46.681999206543 139 139 139
20.671875000000 13.796875000000 46.720008850098 135 135 135
20.687500000000 13.804687500000 46.754997253418 141 141 141
20.687500000000 13.796875000000 46.790000915527 155 155 155
20.718750000000 13.796875000000 46.827995300293 155 155 155
20.718750000000 13.796875000000 46.864997863770 156 156 156
20.718750000000 13.796875000000 46.905998229980 157 157 157
20.734375000000 13.789062500000 46.942008972168 164 164 164
20.718750000000 13.796875000000 46.984001159668 160 160 160
20.718750000000 13.804687500000 47.023002624512 166 166 166
20.718750000000 13.796875000000 47.064002990723 168 168 168
20.718750000000 13.796875000000 47.101997375488 168 168 168
20.734375000000 13.789062500000 47.140998840332 168 168 168
20.718750000000 13.796875000000 47.181007385254 169 169 169
20.734375000000 13.789062500000 47.219001770020 173 173 173
20.718750000000 13.796875000000 47.258995056152 172 172 172
20.718750000000 13.796875000000 47.297004699707 175 175 175
20.718750000000 13.781250000000 47.336006164551 177 177 177
20.734375000000 13.789062500000 47.374000549316 176 176 176
20.734375000000 13.789062500000 47.411994934082 173 173 173
20.734375000000 13.789062500000 47.450996398926 176 176 176
20.718750000000 13.796875000000 47.491004943848 175 175 175
20.718750000000 13.796875000000 47.528999328613 179 179 179
20.718750000000 13.781250000000 47.566001892090 179 179 179
20.734375000000 13.789062500000 47.603004455566 178 178 178
20.734375000000 13.789062500000 47.642005920410 178 178 178
20.718750000000 13.781250000000 47.680000305176 179 179 179
20.718750000000 13.781250000000 47.718009948730 179 179 179
20.718750000000 13.781250000000 47.756004333496 180 180 180
20.734375000000 13.789062500000 47.793006896973 179 179 179
20.734375000000 13.789062500000 47.830009460449 179 179 179
20.734375000000 13.789062500000 47.868995666504 176 176 176
20.734375000000 13.789062500000 47.905998229980 177 177 177
20.734375000000 13.796875000000 47.943000793457 178 178 178
20.734375000000 13.789062500000 47.982002258301 178 178 178
20.734375000000 13.789062500000 48.019004821777 179 179 179
20.734375000000 13.789062500000 48.056007385254 179 179 179
20.734375000000 13.789062500000 48.094001770020 178 178 178
20.734375000000 13.789062500000 48.131004333496 176 176 176
20.734375000000 13.796875000000 48.168006896973 177 177 177
20.734375000000 13.789062500000 48.205009460449 173 173 173
20.734375000000 13.789062500000 48.241996765137 174 174 174
20.734375000000 13.789062500000 48.280006408691 172 172 172
20.734375000000 13.789062500000 48.317008972168 175 175 175
20.734375000000 13.789062500000 48.353996276855 169 169 169
20.750000000000 13.789062500000 48.390998840332 169 169 169
20.750000000000 13.789062500000 48.428001403809 161 161 161
20.750000000000 13.789062500000 48.465003967285 163 163 163
20.750000000000 13.789062500000 48.502006530762 166 166 166
20.750000000000 13.789062500000 48.539009094238 160 160 160
20.750000000000 13.789062500000 48.575996398926 161 161 161
20.750000000000 13.781250000000 48.612998962402 161 161 161
20.765625000000 13.773437500000 48.650001525879 162 162 162
20.750000000000 13.789062500000 48.687004089355 156 156 156
20.750000000000 13.789062500000 48.724998474121 155 155 155
20.750000000000 13.781250000000 48.762001037598 157 157 157
20.750000000000 13.789062500000 48.799003601074 155 155 155
20.750000000000 13.789062500000 48.836006164551 156 156 156
20.750000000000 13.789062500000 48.873008728027 152 152 152
20.750000000000 13.789062500000 48.909996032715 150 150 150
20.750000000000 13.789062500000 48.946998596191 149 149 149
20.750000000000 13.789062500000 48.985008239746 151 151 151
20.750000000000 13.789062500000 49.021995544434 150 150 150
20.750000000000 13.789062500000 49.058998107910 147 147 147
20.750000000000 13.781250000000 49.096000671387 148 148 148
20.765625000000 13.773437500000 49.133995056152 145 145 145
20.765625000000 13.773437500000 49.170997619629 146 146 146
20.750000000000 13.789062500000 49.208000183105 143 143 143
20.750000000000 13.773437500000 49.246009826660 146 146 146
20.765625000000 13.773437500000 49.282997131348 142 142 142
20.765625000000 13.773437500000 49.321006774902 142 142 142
20.750000000000 13.773437500000 49.358009338379 142 142 142
20.750000000000 13.789062500000 49.394996643066 142 142 142
20.750000000000 13.773437500000 49.433006286621 136 136 136
20.750000000000 13.773437500000 49.471000671387 134 134 134
20.750000000000 13.773437500000 49.508003234863 134 134 134
20.750000000000 13.773437500000 49.545997619629 135 135 135
20.765625000000 13.773437500000 49.584999084473 133 133 133
20.781250000000 13.781250000000 49.624000549316 156 156 156
20.781250000000 13.773437500000 49.663002014160 186 186 186
20.765625000000 13.773437500000 49.700004577637 185 185 185
20.765625000000 13.773437500000 49.737007141113 187 187 187
20.765625000000 13.773437500000 49.776008605957 191 191 191
20.781250000000 13.781250000000 49.815010070801 187 187 187
20.781250000000 13.781250000000 49.853004455566 193 193 193
20.781250000000 13.773437500000 49.892005920410 186 186 186
20.781250000000 13.773437500000 49.930000305176 182 182 182
20.765625000000 13.773437500000 49.969001770020 120 120 120
20.765625000000 13.773437500000 50.006996154785 122 122 122
20.765625000000 13.773437500000 50.045997619629 121 121 121
20.765625000000 13.773437500000 50.084007263184 118 118 118
20.765625000000 13.773437500000 50.123008728027 111 111 111
20.781250000000 13.773437500000 50.164009094238 109 109 109
20.656250000000 13.484375000000 49.439002990723 31 31 31
20.656250000000 13.484375000000 49.476997375488 186 186 186
20.656250000000 13.476562500000 49.513999938965 209 209 209
20.671875000000 13.484375000000 49.552009582520 194 194 194
20.656250000000 13.484375000000 49.588005065918 194 194 194
20.671875000000 13.484375000000 49.625999450684 201 201 201
20.671875000000 13.484375000000 49.664009094238 193 193 193
20.671875000000 13.492187500000 49.702995300293 89 89 89
20.656250000000 13.476562500000 49.888008117676 142 142 142
20.656250000000 13.484375000000 49.924995422363 202 202 202
20.640625000000 13.476562500000 49.961997985840 204 204 204
20.656250000000 13.476562500000 50.002006530762 203 203 203
20.656250000000 13.484375000000 50.039009094238 200 200 200
20.656250000000 13.476562500000 50.077995300293 201 201 201
20.656250000000 13.476562500000 50.116004943848 195 195 195
21.000000000000 14.289062500000 49.400001525879 146 146 146
21.000000000000 14.281250000000 49.444999694824 144 144 144
21.000000000000 14.296875000000 49.489006042480 153 153 153
21.000000000000 14.289062500000 49.534004211426 152 152 152
21.000000000000 14.296875000000 49.577995300293 152 152 152
21.093750000000 14.351562500000 49.633003234863 186 186 186
21.046875000000 14.312500000000 49.989006042480 149 149 149
21.031250000000 14.304687500000 50.030998229980 184 184 184
21.015625000000 14.296875000000 50.075004577637 169 169 169
21.031250000000 14.304687500000 50.122001647949 152 152 152
21.031250000000 14.304687500000 50.168006896973 135 135 135
20.625000000000 13.796875000000 46.560005187988 152 152 152
20.625000000000 13.796875000000 46.605995178223 151 151 151
20.640625000000 13.804687500000 46.649009704590 155 155 155
20.640625000000 13.804687500000 46.694007873535 150 150 150
20.656250000000 13.804687500000 46.734001159668 151 151 151
20.671875000000 13.812500000000 46.778007507324 157 157 157
20.671875000000 13.812500000000 46.823997497559 151 151 151
20.687500000000 13.828125000000 46.866004943848 142 142 142
20.687500000000 13.820312500000 46.911994934082 146 146 146
20.687500000000 13.828125000000 46.957008361816 149 149 149
20.687500000000 13.828125000000 46.999000549316 151 151 151
20.687500000000 13.828125000000 47.045005798340 152 152 152
20.687500000000 13.835937500000 47.088005065918 151 151 151
20.687500000000 13.828125000000 47.133995056152 156 156 156
20.687500000000 13.828125000000 47.179008483887 152 152 152
20.687500000000 13.828125000000 47.224006652832 153 153 153
20.687500000000 13.828125000000 47.267005920410 149 149 149
20.687500000000 13.828125000000 47.314002990723 153 153 153
20.687500000000 13.828125000000 47.355995178223 154 154 154
20.687500000000 13.828125000000 47.400001525879 150 150 150
20.703125000000 13.828125000000 47.443000793457 156 156 156
20.703125000000 13.828125000000 47.486000061035 153 153 153
20.687500000000 13.820312500000 47.530998229980 152 152 152
20.687500000000 13.820312500000 47.575996398926 156 156 156
20.687500000000 13.828125000000 47.620002746582 157 157 157
20.703125000000 13.828125000000 47.659996032715 163 163 163
20.687500000000 13.820312500000 47.705009460449 161 161 161
20.703125000000 13.835937500000 47.747001647949 165 165 165
20.703125000000 13.835937500000 47.790000915527 160 160 160
20.703125000000 13.828125000000 47.834007263184 163 163 163
20.687500000000 13.820312500000 47.877998352051 166 166 166
20.703125000000 13.828125000000 47.920005798340 158 158 158
20.703125000000 13.828125000000 47.963996887207 158 158 158
20.687500000000 13.820312500000 48.006996154785 159 159 159
20.703125000000 13.828125000000 48.049003601074 161 161 161
20.703125000000 13.835937500000 48.090995788574 162 162 162
20.718750000000 13.835937500000 48.133003234863 161 161 161
20.703125000000 13.828125000000 48.177009582520 162 162 162
20.703125000000 13.835937500000 48.219001770020 164 164 164
20.703125000000 13.835937500000 48.262001037598 162 162 162
20.703125000000 13.828125000000 48.305000305176 164 164 164
20.718750000000 13.835937500000 48.346000671387 162 162 162
20.703125000000 13.835937500000 48.390007019043 163 163 163
20.718750000000 13.835937500000 48.431007385254 162 162 162
20.703125000000 13.835937500000 48.474006652832 158 158 158
20.718750000000 13.835937500000 48.515998840332 155 155 155
20.718750000000 13.835937500000 48.558998107910 160 160 160
20.718750000000 13.835937500000 48.601005554199 160 160 160
20.718750000000 13.835937500000 48.644004821777 161 161 161
20.718750000000 13.843750000000 48.685997009277 158 158 158
20.718750000000 13.828125000000 48.728004455566 158 158 158
20.718750000000 13.835937500000 48.771003723145 161 161 161
20.718750000000 13.828125000000 48.812995910645 163 163 163
20.718750000000 13.843750000000 48.855003356934 159 159 159
20.718750000000 13.828125000000 48.898002624512 158 158 158
20.718750000000 13.828125000000 48.940010070801 159 159 159
20.718750000000 13.828125000000 48.983009338379 160 160 160
20.718750000000 13.835937500000 49.025001525879 159 159 159
20.718750000000 13.828125000000 49.067008972168 157 157 157
20.718750000000 13.835937500000 49.110008239746 160 160 160
20.718750000000 13.828125000000 49.152000427246 160 160 160
20.718750000000 13.828125000000 49.194007873535 158 158 158
20.718750000000 13.828125000000 49.237007141113 158 158 158
20.734375000000 13.843750000000 49.280006408691 159 159 159
20.718750000000 13.835937500000 49.323005676270 162 162 162
20.718750000000 13.835937500000 49.364997863770 160 160 160
20.718750000000 13.835937500000 49.407997131348 159 159 159
20.718750000000 13.828125000000 49.450004577637 157 157 157
20.718750000000 13.835937500000 49.493003845215 158 158 158
20.734375000000 13.843750000000 49.536003112793 163 163 163
20.734375000000 13.843750000000 49.579002380371 159 159 159
20.718750000000 13.835937500000 49.621009826660 162 162 162
20.734375000000 13.843750000000 49.665000915527 162 162 162
20.750000000000 13.843750000000 49.708000183105 160 160 160
20.734375000000 13.843750000000 49.750999450684 162 162 162
20.734375000000 13.843750000000 49.793998718262 164 164 164
20.734375000000 13.843750000000 49.836997985840 166 166 166
20.750000000000 13.843750000000 49.881004333496 168 168 168
20.734375000000 13.843750000000 49.924003601074 168 168 168
20.750000000000 13.843750000000 49.968009948730 163 163 163
20.750000000000 13.843750000000 50.011009216309 159 159 159
20.750000000000 13.843750000000 50.055000305176 151 151 151
20.750000000000 13.843750000000 50.097999572754 150 150 150
20.734375000000 13.843750000000 50.140998840332 149 149 149
20.750000000000 13.843750000000 50.185005187988 135 135 135
20.671875000000 13.507812500000 49.506004333496 141 141 141
20.671875000000 13.507812500000 49.547996520996 183 183 183
20.671875000000 13.507812500000 49.590995788574 164 164 164
20.671875000000 13.507812500000 49.633003234863 176 176 176
20.671875000000 13.507812500000 49.674995422363 183 183 183
20.687500000000 13.515625000000 49.719001770020 113 113 113
20.687500000000 13.507812500000 49.890007019043 45 45 45
20.656250000000 13.500000000000 49.930000305176 158 158 158
20.656250000000 13.500000000000 49.972007751465 182 182 182
20.656250000000 13.492187500000 50.013999938965 175 175 175
20.656250000000 13.500000000000 50.058998107910 138 138 138
20.656250000000 13.500000000000 50.101997375488 158 158 158
20.656250000000 13.492187500000 50.142997741699 71 71 71
20.656250000000 13.523437500000 49.499000549316 116 116 116
20.656250000000 13.539062500000 49.543006896973 181 181 181
20.656250000000 13.539062500000 49.586006164551 166 166 166
20.656250000000 13.539062500000 49.627998352051 185 185 185
20.687500000000 13.554687500000 49.672996520996 176 176 176
20.656250000000 13.539062500000 49.713996887207 125 125 125
20.656250000000 13.539062500000 49.842002868652 114 114 114
20.656250000000 13.531250000000 49.883003234863 172 172 172
20.656250000000 13.531250000000 49.927009582520 175 175 175
20.656250000000 13.531250000000 49.969001770020 151 151 151
20.656250000000 13.539062500000 50.013008117676 139 139 139
20.656250000000 13.523437500000 50.054008483887 145 145 145
20.875000000000 14.046875000000 49.502006530762 76 76 76
20.859375000000 14.023437500000 49.543006896973 147 147 147
20.875000000000 14.031250000000 49.588005065918 147 147 147
20.859375000000 14.023437500000 49.631996154785 159 159 159
20.875000000000 14.031250000000 49.676002502441 140 140 140
20.859375000000 14.023437500000 49.719001770020 149 149 149
20.875000000000 14.039062500000 49.765007019043 20 20 20
20.875000000000 14.046875000000 49.810005187988 117 117 117
20.875000000000 14.046875000000 49.853996276855 137 137 137
20.875000000000 14.039062500000 49.898002624512 129 129 129
20.875000000000 14.046875000000 49.943000793457 138 138 138
20.875000000000 14.046875000000 49.987998962402 130 130 130
20.906250000000 14.054687500000 50.036003112793 91 91 91
20.531250000000 13.226562500000 50.056007385254 14 14 14
20.562500000000 13.218750000000 49.549995422363 90 90 90
20.546875000000 13.226562500000 49.506996154785 145 145 145
20.656250000000 13.523437500000 50.099998474121 166 166 166
20.656250000000 13.531250000000 50.054008483887 231 231 231
20.671875000000 13.531250000000 50.013008117676 236 236 236
20.656250000000 13.531250000000 49.967002868652 226 226 226
20.656250000000 13.531250000000 49.922996520996 203 203 203
20.656250000000 13.531250000000 49.879997253418 228 228 228
20.656250000000 13.531250000000 49.838005065918 144 144 144
20.671875000000 13.531250000000 49.709007263184 213 213 213
20.671875000000 13.531250000000 49.666007995605 208 208 208
20.671875000000 13.531250000000 49.623008728027 217 217 217
20.671875000000 13.531250000000 49.580009460449 204 204 204
20.656250000000 13.539062500000 49.536003112793 206 206 206
20.671875000000 13.531250000000 49.493995666504 206 206 206
20.718750000000 13.867187500000 50.168998718262 83 83 83
20.718750000000 13.867187500000 50.125999450684 130 130 130
20.734375000000 13.859375000000 50.084007263184 103 103 103
20.718750000000 13.867187500000 50.038002014160 102 102 102
20.734375000000 13.859375000000 49.997001647949 108 108 108
20.734375000000 13.859375000000 49.952995300293 103 103 103
20.687500000000 13.890625000000 49.903007507324 175 175 175
20.671875000000 13.890625000000 49.857002258301 211 211 211
20.781250000000 13.828125000000 49.825004577637 167 167 167
20.765625000000 13.843750000000 49.780006408691 160 160 160
20.734375000000 13.859375000000 49.733009338379 170 170 170
20.687500000000 13.890625000000 49.685005187988 218 218 218
20.750000000000 13.851562500000 49.646995544434 152 152 152
20.734375000000 13.859375000000 49.601997375488 156 156 156
20.750000000000 13.851562500000 49.560005187988 152 152 152
20.750000000000 13.867187500000 49.515998840332 153 153 153
20.750000000000 13.851562500000 49.472999572754 156 156 156
20.750000000000 13.851562500000 49.430000305176 152 152 152
20.750000000000 13.859375000000 49.387001037598 150 150 150
20.765625000000 13.851562500000 49.344001770020 142 142 142
20.765625000000 13.851562500000 49.299995422363 149 149 149
20.765625000000 13.851562500000 49.256996154785 153 153 153
20.765625000000 13.851562500000 49.213005065918 149 149 149
20.765625000000 13.851562500000 49.170005798340 152 152 152
20.765625000000 13.851562500000 49.127006530762 148 148 148
20.765625000000 13.851562500000 49.083000183105 146 146 146
20.765625000000 13.851562500000 49.040000915527 157 157 157
20.765625000000 13.851562500000 48.997001647949 151 151 151
20.781250000000 13.851562500000 48.952995300293 156 156 156
20.765625000000 13.851562500000 48.909996032715 159 159 159
20.765625000000 13.851562500000 48.866004943848 159 159 159
20.781250000000 13.851562500000 48.823005676270 158 158 158
20.781250000000 13.851562500000 48.778999328613 160 160 160
20.781250000000 13.851562500000 48.736000061035 162 162 162
20.750000000000 13.859375000000 48.693000793457 153 153 153
20.750000000000 13.859375000000 48.650001525879 173 173 173
20.750000000000 13.859375000000 48.605995178223 149 149 149
20.750000000000 13.859375000000 48.562995910645 134 134 134
20.750000000000 13.859375000000 48.519004821777 125 125 125
20.750000000000 13.859375000000 48.476005554199 126 126 126
20.781250000000 13.851562500000 48.431007385254 127 127 127
20.750000000000 13.859375000000 48.388008117676 120 120 120
20.781250000000 13.851562500000 48.344001770020 109 109 109
20.750000000000 13.859375000000 48.301002502441 114 114 114
20.750000000000 13.859375000000 48.258003234863 113 113 113
20.781250000000 13.851562500000 48.213005065918 106 106 106
20.750000000000 13.859375000000 48.170005798340 105 105 105
20.750000000000 13.859375000000 48.125999450684 105 105 105
20.750000000000 13.859375000000 48.083000183105 98 98 98
20.750000000000 13.859375000000 48.038002014160 105 105 105
20.750000000000 13.859375000000 47.993995666504 97 97 97
20.750000000000 13.875000000000 47.952003479004 97 97 97
20.750000000000 13.875000000000 47.907005310059 82 82 82
20.765625000000 13.867187500000 47.862007141113 83 83 83
20.750000000000 13.875000000000 47.818000793457 75 75 75
20.750000000000 13.875000000000 47.775001525879 65 65 65
20.750000000000 13.882812500000 47.730003356934 36 36 36
20.750000000000 13.882812500000 47.685005187988 15 15 15
20.937500000000 14.101562500000 50.095008850098 150 150 150
20.937500000000 14.117187500000 50.047004699707 237 237 237
20.937500000000 14.117187500000 50.002998352051 246 246 246
20.937500000000 14.117187500000 49.957008361816 238 238 238
20.937500000000 14.117187500000 49.911994934082 247 247 247
20.906250000000 14.125000000000 49.864997863770 228 228 228
20.906250000000 14.125000000000 49.685005187988 210 210 210
20.906250000000 14.125000000000 49.640007019043 238 238 238
20.906250000000 14.125000000000 49.596000671387 239 239 239
20.906250000000 14.125000000000 49.551002502441 239 239 239
20.906250000000 14.125000000000 49.506004333496 243 243 243
20.906250000000 14.125000000000 49.461006164551 215 215 215
20.593750000000 13.414062500000 50.174003601074 64 64 64
20.593750000000 13.414062500000 50.135002136230 198 198 198
20.593750000000 13.414062500000 50.096000671387 197 197 197
20.593750000000 13.414062500000 50.058006286621 203 203 203
20.593750000000 13.414062500000 50.019996643066 206 206 206
20.593750000000 13.414062500000 49.983009338379 191 191 191
20.593750000000 13.414062500000 49.944007873535 200 200 200
20.593750000000 13.414062500000 49.907005310059 124 124 124
20.625000000000 13.414062500000 49.646995544434 173 173 173
20.625000000000 13.429687500000 49.608009338379 200 200 200
20.609375000000 13.421875000000 49.569999694824 207 207 207
20.609375000000 13.421875000000 49.532997131348 194 194 194
20.625000000000 13.429687500000 49.496009826660 195 195 195
20.625000000000 13.429687500000 49.459999084473 193 193 193
20.625000000000 13.429687500000 49.422004699707 151 151 151
20.734375000000 13.796875000000 50.153999328613 161 161 161
20.734375000000 13.796875000000 50.114997863770 164 164 164
20.750000000000 13.789062500000 50.075996398926 162 162 162
20.750000000000 13.789062500000 50.036994934082 167 167 167
20.734375000000 13.796875000000 49.996009826660 153 153 153
20.750000000000 13.789062500000 49.959999084473 163 163 163
20.734375000000 13.796875000000 49.918998718262 160 160 160
20.750000000000 13.796875000000 49.881996154785 159 159 159
20.734375000000 13.796875000000 49.842002868652 160 160 160
20.734375000000 13.796875000000 49.803001403809 161 161 161
20.734375000000 13.796875000000 49.763999938965 161 161 161
20.734375000000 13.796875000000 49.726005554199 164 164 164
20.734375000000 13.796875000000 49.689002990723 161 161 161
20.734375000000 13.796875000000 49.649009704590 166 166 166
20.734375000000 13.796875000000 49.612007141113 157 157 157
20.734375000000 13.796875000000 49.573005676270 164 164 164
20.750000000000 13.796875000000 49.536994934082 166 166 166
20.734375000000 13.796875000000 49.497001647949 161 161 161
20.734375000000 13.796875000000 49.459999084473 164 164 164
20.718750000000 13.804687500000 49.420997619629 161 161 161
20.718750000000 13.804687500000 49.383003234863 162 162 162
20.718750000000 13.812500000000 49.346000671387 164 164 164
20.718750000000 13.804687500000 49.308006286621 167 167 167
20.718750000000 13.804687500000 49.269996643066 159 159 159
20.703125000000 13.804687500000 49.232002258301 160 160 160
20.718750000000 13.804687500000 49.194999694824 161 161 161
20.718750000000 13.804687500000 49.157005310059 158 158 158
20.703125000000 13.804687500000 49.120002746582 159 159 159
20.687500000000 13.804687500000 49.082008361816 154 154 154
20.703125000000 13.804687500000 49.045005798340 157 157 157
20.703125000000 13.804687500000 49.006996154785 151 151 151
20.687500000000 13.804687500000 48.970008850098 147 147 147
20.687500000000 13.820312500000 48.933006286621 148 148 148
20.687500000000 13.812500000000 48.894996643066 146 146 146
20.687500000000 13.812500000000 48.858009338379 145 145 145
20.687500000000 13.812500000000 48.821006774902 141 141 141
20.671875000000 13.812500000000 48.784004211426 141 141 141
20.671875000000 13.812500000000 48.747001647949 144 144 144
20.687500000000 13.820312500000 48.709999084473 147 147 147
20.671875000000 13.812500000000 48.672996520996 147 147 147
20.671875000000 13.812500000000 48.636009216309 151 151 151
20.671875000000 13.812500000000 48.599006652832 142 142 142
20.656250000000 13.804687500000 48.562004089355 153 153 153
20.671875000000 13.812500000000 48.525001525879 153 153 153
20.656250000000 13.812500000000 48.489006042480 147 147 147
20.656250000000 13.812500000000 48.452003479004 144 144 144
20.671875000000 13.812500000000 48.415000915527 139 139 139
20.671875000000 13.812500000000 48.377998352051 134 134 134
20.656250000000 13.812500000000 48.340995788574 128 128 128
20.671875000000 13.812500000000 48.303001403809 134 134 134
20.656250000000 13.820312500000 48.267005920410 127 127 127
20.656250000000 13.812500000000 48.230003356934 126 126 126
20.656250000000 13.820312500000 48.192008972168 123 123 123
20.656250000000 13.820312500000 48.155006408691 126 126 126
20.656250000000 13.820312500000 48.118003845215 124 124 124
20.656250000000 13.812500000000 48.082008361816 123 123 123
20.656250000000 13.812500000000 48.043998718262 124 124 124
20.656250000000 13.812500000000 48.008003234863 135 135 135
20.656250000000 13.812500000000 47.970008850098 137 137 137
20.656250000000 13.820312500000 47.931999206543 128 128 128
20.640625000000 13.828125000000 47.896003723145 125 125 125
20.640625000000 13.828125000000 47.859001159668 123 123 123
20.640625000000 13.828125000000 47.821998596191 125 125 125
20.640625000000 13.828125000000 47.784004211426 133 133 133
20.640625000000 13.828125000000 47.747001647949 134 134 134
20.640625000000 13.828125000000 47.709007263184 135 135 135
20.625000000000 13.828125000000 47.672004699707 134 134 134
20.625000000000 13.828125000000 47.635002136230 139 139 139
20.640625000000 13.828125000000 47.596000671387 142 142 142
20.640625000000 13.828125000000 47.556999206543 142 142 142
20.625000000000 13.835937500000 47.521995544434 147 147 147
20.625000000000 13.835937500000 47.484001159668 149 149 149
20.640625000000 13.828125000000 47.444999694824 154 154 154
20.625000000000 13.835937500000 47.407005310059 152 152 152
20.625000000000 13.835937500000 47.368995666504 152 152 152
20.625000000000 13.835937500000 47.331001281738 153 153 153
20.625000000000 13.835937500000 47.291007995605 146 146 146
20.640625000000 13.828125000000 47.250999450684 142 142 142
20.640625000000 13.828125000000 47.211997985840 144 144 144
20.656250000000 13.835937500000 47.172004699707 143 143 143
20.656250000000 13.835937500000 47.131996154785 147 147 147
20.656250000000 13.843750000000 47.090995788574 143 143 143
20.656250000000 13.835937500000 47.049003601074 152 152 152
20.671875000000 13.835937500000 47.004997253418 155 155 155
20.687500000000 13.835937500000 46.963005065918 176 176 176
20.687500000000 13.835937500000 46.924003601074 168 168 168
20.687500000000 13.835937500000 46.883995056152 154 154 154
20.671875000000 13.835937500000 46.845008850098 145 145 145
20.671875000000 13.835937500000 46.808006286621 129 129 129
20.656250000000 13.851562500000 46.771003723145 123 123 123
20.656250000000 13.843750000000 46.732002258301 117 117 117
20.656250000000 13.843750000000 46.693000793457 122 122 122
20.671875000000 13.835937500000 46.644996643066 133 133 133
20.718750000000 13.843750000000 46.586997985840 147 147 147
20.953125000000 14.164062500000 50.103996276855 169 169 169
20.937500000000 14.179687500000 50.062995910645 182 182 182
20.937500000000 14.179687500000 50.021995544434 183 183 183
20.937500000000 14.179687500000 49.982002258301 194 194 194
20.937500000000 14.179687500000 49.943000793457 184 184 184
20.937500000000 14.179687500000 49.903999328613 179 179 179
20.906250000000 14.171875000000 49.661003112793 117 117 117
20.906250000000 14.179687500000 49.624000549316 190 190 190
20.906250000000 14.179687500000 49.584999084473 198 198 198
20.921875000000 14.187500000000 49.545997619629 195 195 195
20.906250000000 14.179687500000 49.506996154785 199 199 199
20.906250000000 14.179687500000 49.467002868652 194 194 194
20.906250000000 14.179687500000 49.428001403809 184 184 184
20.953125000000 14.195312500000 49.443000793457 137 137 137
20.953125000000 14.195312500000 49.487998962402 138 138 138
20.968750000000 14.195312500000 49.532005310059 153 153 153
20.953125000000 14.195312500000 49.575996398926 140 140 140
20.953125000000 14.195312500000 49.620002746582 149 149 149
20.937500000000 14.179687500000 49.663002014160 92 92 92
20.968750000000 14.195312500000 49.890998840332 40 40 40
20.968750000000 14.179687500000 49.933998107910 134 134 134
20.984375000000 14.203125000000 49.982002258301 178 178 178
20.968750000000 14.179687500000 50.023002624512 136 136 136
20.968750000000 14.187500000000 50.069007873535 130 130 130
20.968750000000 14.187500000000 50.114997863770 123 123 123
20.687500000000 13.765625000000 46.569007873535 149 149 149
20.687500000000 13.765625000000 46.616996765137 147 147 147
20.703125000000 13.757812500000 46.657997131348 150 150 150
20.703125000000 13.757812500000 46.702003479004 154 154 154
20.687500000000 13.757812500000 46.752998352051 152 152 152
20.703125000000 13.757812500000 46.795005798340 157 157 157
20.703125000000 13.757812500000 46.840995788574 157 157 157
20.718750000000 13.773437500000 46.883995056152 160 160 160
20.718750000000 13.773437500000 46.929008483887 157 157 157
20.718750000000 13.781250000000 46.972999572754 163 163 163
20.734375000000 13.773437500000 47.017005920410 170 170 170
20.734375000000 13.773437500000 47.062995910645 174 174 174
20.750000000000 13.773437500000 47.107002258301 179 179 179
20.750000000000 13.781250000000 47.149009704590 182 182 182
20.781250000000 13.789062500000 47.185997009277 239 239 239
20.734375000000 13.765625000000 47.246009826660 150 150 150
20.734375000000 13.773437500000 47.288002014160 147 147 147
20.734375000000 13.773437500000 47.333000183105 148 148 148
20.734375000000 13.773437500000 47.377998352051 148 148 148
20.734375000000 13.765625000000 47.422996520996 145 145 145
20.718750000000 13.757812500000 47.468009948730 135 135 135
20.734375000000 13.765625000000 47.512001037598 133 133 133
20.718750000000 13.757812500000 47.556999206543 128 128 128
20.718750000000 13.757812500000 47.601997375488 126 126 126
20.734375000000 13.765625000000 47.644004821777 128 128 128
20.734375000000 13.765625000000 47.687995910645 126 126 126
20.734375000000 13.765625000000 47.730995178223 127 127 127
20.734375000000 13.765625000000 47.775001525879 125 125 125
20.718750000000 13.757812500000 47.819007873535 120 120 120
20.718750000000 13.757812500000 47.862998962402 122 122 122
20.718750000000 13.757812500000 47.905998229980 125 125 125
20.734375000000 13.765625000000 47.948997497559 129 129 129
20.750000000000 13.750000000000 47.991996765137 123 123 123
20.750000000000 13.750000000000 48.034996032715 122 122 122
20.718750000000 13.757812500000 48.080009460449 119 119 119
20.734375000000 13.742187500000 48.122001647949 121 121 121
20.750000000000 13.750000000000 48.165000915527 118 118 118
20.750000000000 13.757812500000 48.206001281738 117 117 117
20.734375000000 13.742187500000 48.250999450684 123 123 123
20.750000000000 13.750000000000 48.293998718262 122 122 122
20.750000000000 13.750000000000 48.336006164551 126 126 126
20.750000000000 13.757812500000 48.377998352051 120 120 120
20.750000000000 13.757812500000 48.422004699707 119 119 119
20.734375000000 13.742187500000 48.465003967285 117 117 117
20.734375000000 13.742187500000 48.508003234863 116 116 116
20.750000000000 13.750000000000 48.549995422363 113 113 113
20.734375000000 13.742187500000 48.593009948730 113 113 113
20.750000000000 13.750000000000 48.635002136230 101 101 101
20.750000000000 13.757812500000 48.678001403809 97 97 97
20.750000000000 13.750000000000 48.721000671387 90 90 90
20.750000000000 13.750000000000 48.763008117676 81 81 81
20.750000000000 13.750000000000 48.806007385254 74 74 74
20.750000000000 13.750000000000 48.849006652832 60 60 60
20.765625000000 13.757812500000 48.890998840332 45 45 45
20.750000000000 13.742187500000 48.933998107910 36 36 36
20.765625000000 13.765625000000 48.976997375488 27 27 27
20.765625000000 13.757812500000 49.019996643066 17 17 17
20.781250000000 13.750000000000 49.621009826660 60 60 60
20.781250000000 13.750000000000 49.664009094238 144 144 144
20.781250000000 13.757812500000 49.708000183105 153 153 153
20.765625000000 13.742187500000 49.749000549316 154 154 154
20.781250000000 13.742187500000 49.793006896973 152 152 152
20.765625000000 13.734375000000 49.834999084473 159 159 159
20.781250000000 13.742187500000 49.879005432129 150 150 150
20.765625000000 13.742187500000 49.922004699707 154 154 154
20.765625000000 13.742187500000 49.965995788574 63 63 63
20.593750000000 13.320312500000 49.371009826660 71 71 71
20.593750000000 13.320312500000 49.413002014160 145 145 145
20.609375000000 13.328125000000 49.455009460449 144 144 144
20.609375000000 13.328125000000 49.498008728027 167 167 167
20.609375000000 13.328125000000 49.539009094238 182 182 182
20.609375000000 13.328125000000 49.581001281738 143 143 143
20.593750000000 13.304687500000 50.002998352051 108 108 108
20.578125000000 13.296875000000 50.040000915527 144 144 144
20.593750000000 13.304687500000 50.086997985840 142 142 142
20.593750000000 13.304687500000 50.129005432129 150 150 150
20.593750000000 13.304687500000 50.172004699707 106 106 106
20.921875000000 14.093750000000 50.053001403809 182 182 182
20.921875000000 14.093750000000 50.015007019043 183 183 183
20.921875000000 14.085937500000 49.972999572754 181 181 181
20.921875000000 14.093750000000 49.933006286621 184 184 184
20.921875000000 14.085937500000 49.892997741699 181 181 181
20.921875000000 14.093750000000 49.855003356934 178 178 178
20.906250000000 14.093750000000 49.733009338379 144 144 144
20.906250000000 14.093750000000 49.694999694824 194 194 194
20.906250000000 14.093750000000 49.655998229980 198 198 198
20.906250000000 14.093750000000 49.616996765137 196 196 196
20.906250000000 14.093750000000 49.577995300293 205 205 205
20.906250000000 14.093750000000 49.540000915527 198 198 198
20.921875000000 14.085937500000 49.500999450684 179 179 179
20.765625000000 13.765625000000 50.157005310059 41 41 41
20.765625000000 13.757812500000 50.116004943848 49 49 49
20.765625000000 13.765625000000 50.077003479004 60 60 60
20.750000000000 13.757812500000 50.036003112793 69 69 69
20.765625000000 13.765625000000 50.000999450684 70 70 70
20.765625000000 13.765625000000 49.961006164551 143 143 143
20.765625000000 13.757812500000 49.920997619629 187 187 187
20.765625000000 13.757812500000 49.883003234863 194 194 194
20.765625000000 13.765625000000 49.845008850098 195 195 195
20.765625000000 13.765625000000 49.806007385254 193 193 193
20.765625000000 13.757812500000 49.767005920410 193 193 193
20.765625000000 13.757812500000 49.728996276855 186 186 186
20.765625000000 13.765625000000 49.691001892090 191 191 191
20.765625000000 13.765625000000 49.653007507324 185 185 185
20.765625000000 13.757812500000 49.614006042480 103 103 103
20.750000000000 13.757812500000 49.573997497559 106 106 106
20.750000000000 13.757812500000 49.536994934082 103 103 103
20.750000000000 13.757812500000 49.499000549316 109 109 109
20.750000000000 13.757812500000 49.461006164551 112 112 112
20.750000000000 13.757812500000 49.422996520996 110 110 110
20.750000000000 13.757812500000 49.386009216309 115 115 115
20.750000000000 13.757812500000 49.347007751465 120 120 120
20.750000000000 13.757812500000 49.310005187988 115 115 115
20.750000000000 13.757812500000 49.271995544434 113 113 113
20.750000000000 13.757812500000 49.235008239746 118 118 118
20.750000000000 13.757812500000 49.196998596191 122 122 122
20.750000000000 13.757812500000 49.159004211426 119 119 119
20.750000000000 13.757812500000 49.122001647949 118 118 118
20.750000000000 13.757812500000 49.084999084473 126 126 126
20.750000000000 13.757812500000 49.047004699707 123 123 123
20.750000000000 13.757812500000 49.010002136230 119 119 119
20.750000000000 13.757812500000 48.972007751465 120 120 120
20.750000000000 13.757812500000 48.935005187988 123 123 123
20.750000000000 13.757812500000 48.898002624512 128 128 128
20.750000000000 13.750000000000 48.860008239746 126 126 126
20.734375000000 13.765625000000 48.823005676270 123 123 123
20.750000000000 13.757812500000 48.786003112793 128 128 128
20.750000000000 13.757812500000 48.749000549316 128 128 128
20.750000000000 13.757812500000 48.711006164551 123 123 123
20.750000000000 13.750000000000 48.674003601074 125 125 125
20.750000000000 13.757812500000 48.637001037598 127 127 127
20.750000000000 13.757812500000 48.599998474121 127 127 127
20.750000000000 13.757812500000 48.562004089355 128 128 128
20.750000000000 13.757812500000 48.525001525879 132 132 132
20.734375000000 13.765625000000 48.487998962402 130 130 130
20.750000000000 13.757812500000 48.450996398926 128 128 128
20.734375000000 13.765625000000 48.414009094238 124 124 124
20.750000000000 13.750000000000 48.375999450684 132 132 132
20.734375000000 13.765625000000 48.338996887207 133 133 133
20.750000000000 13.750000000000 48.301002502441 130 130 130
20.734375000000 13.765625000000 48.263999938965 139 139 139
20.750000000000 13.750000000000 48.226997375488 135 135 135
20.750000000000 13.750000000000 48.189002990723 135 135 135
20.750000000000 13.757812500000 48.150001525879 170 170 170
20.750000000000 13.757812500000 48.112998962402 146 146 146
20.812500000000 13.750000000000 48.069007873535 236 236 236
20.750000000000 13.757812500000 48.038002014160 146 146 146
20.812500000000 13.757812500000 47.991996765137 231 231 231
20.781250000000 13.757812500000 47.957008361816 225 225 225
20.750000000000 13.757812500000 47.924003601074 144 144 144
20.734375000000 13.765625000000 47.888008117676 143 143 143
20.734375000000 13.765625000000 47.851005554199 145 145 145
20.750000000000 13.750000000000 47.812004089355 147 147 147
20.718750000000 13.757812500000 47.776008605957 146 146 146
20.734375000000 13.765625000000 47.736000061035 149 149 149
20.734375000000 13.765625000000 47.698005676270 149 149 149
20.718750000000 13.757812500000 47.661994934082 144 144 144
20.718750000000 13.757812500000 47.623008728027 143 143 143
20.734375000000 13.765625000000 47.584007263184 145 145 145
20.718750000000 13.757812500000 47.545997619629 146 146 146
20.718750000000 13.757812500000 47.508003234863 149 149 149
20.734375000000 13.765625000000 47.468009948730 145 145 145
20.718750000000 13.757812500000 47.430000305176 150 150 150
20.750000000000 13.750000000000 47.390007019043 146 146 146
20.718750000000 13.757812500000 47.353004455566 144 144 144
20.765625000000 13.765625000000 47.303001403809 211 211 211
20.781250000000 13.757812500000 47.263008117676 219 219 219
20.718750000000 13.757812500000 47.236000061035 146 146 146
20.781250000000 13.757812500000 47.183006286621 221 221 221
20.765625000000 13.765625000000 47.146003723145 224 224 224
20.765625000000 13.757812500000 47.105995178223 210 210 210
20.765625000000 13.757812500000 47.066001892090 218 218 218
20.718750000000 13.750000000000 47.041007995605 143 143 143
20.765625000000 13.757812500000 46.987007141113 211 211 211
20.750000000000 13.750000000000 46.950996398926 208 208 208
20.750000000000 13.750000000000 46.915000915527 187 187 187
20.750000000000 13.757812500000 46.874000549316 182 182 182
20.718750000000 13.757812500000 46.836997985840 170 170 170
20.718750000000 13.750000000000 46.802009582520 160 160 160
20.687500000000 13.757812500000 46.765007019043 159 159 159
