7.187500000000 14.898437500000 51.317008972168 210 210 210
7.187500000000 14.890625000000 51.366004943848 199 199 199
7.187500000000 14.890625000000 51.416007995605 202 202 202
7.187500000000 14.898437500000 51.463005065918 205 205 205
7.218750000000 14.906250000000 51.508995056152 193 193 193
7.218750000000 14.921875000000 51.555000305176 112 112 112
7.156250000000 14.570312500000 51.303001403809 202 202 202
7.171875000000 14.570312500000 51.353004455566 194 194 194
7.171875000000 14.570312500000 51.403007507324 205 205 205
7.187500000000 14.578125000000 51.450996398926 193 193 193
7.187500000000 14.585937500000 51.498008728027 204 204 204
7.187500000000 14.601562500000 51.543998718262 139 139 139
7.218750000000 14.609375000000 51.586006164551 20 20 20
7.140625000000 14.257812500000 51.291007995605 108 108 108
7.156250000000 14.273437500000 51.338005065918 206 206 206
7.156250000000 14.273437500000 51.387001037598 171 171 171
7.156250000000 14.265625000000 51.441001892090 169 169 169
7.156250000000 14.273437500000 51.489997863770 180 180 180
7.156250000000 14.281250000000 51.536994934082 204 204 204
7.203125000000 14.289062500000 51.577995300293 126 126 126
7.125000000000 13.960937500000 51.317008972168 150 150 150
7.140625000000 13.968750000000 51.364997863770 206 206 206
7.140625000000 13.968750000000 51.416999816895 210 210 210
7.156250000000 13.960937500000 51.465003967285 211 211 211
7.156250000000 13.968750000000 51.513999938965 209 209 209
7.156250000000 13.968750000000 51.562995910645 186 186 186
7.171875000000 13.984375000000 51.611000061035 108 108 108
7.125000000000 13.664062500000 51.590003967285 19 19 19
7.156250000000 13.679687500000 51.629005432129 102 102 102
7.140625000000 13.367187500000 51.605003356934 111 111 111
7.156250000000 13.375000000000 51.706001281738 50 50 50
7.125000000000 13.062500000000 51.590995788574 114 114 114
7.062500000000 13.039062500000 51.713005065918 19 19 19
7.093750000000 12.750000000000 51.584007263184 115 115 115
7.062500000000 12.429687500000 51.569007873535 121 121 121
7.000000000000 12.382812500000 51.916007995605 14 14 14
7.031250000000 12.093750000000 51.551002502441 104 104 104
7.062500000000 12.117187500000 51.592002868652 13 13 13
7.000000000000 11.789062500000 51.532997131348 37 37 37
7.000000000000 11.796875000000 51.580009460449 54 54 54
7.000000000000 11.484375000000 51.564002990723 92 92 92
6.968750000000 11.179687500000 51.549995422363 112 112 112
6.968750000000 11.179687500000 52.420997619629 14 14 14
6.937500000000 10.851562500000 51.536994934082 72 72 72
6.968750000000 10.859375000000 51.581001281738 25 25 25
6.875000000000 10.500000000000 46.715003967285 199 199 199
6.875000000000 10.500000000000 46.767997741699 217 217 217
6.875000000000 10.500000000000 46.821006774902 227 227 227
6.843750000000 10.507812500000 46.868995666504 250 250 250
6.921875000000 10.531250000000 46.937995910645 140 140 140
6.921875000000 10.531250000000 46.989997863770 145 145 145
6.906250000000 10.539062500000 47.039009094238 137 137 137
6.921875000000 10.531250000000 47.092002868652 127 127 127
6.937500000000 10.546875000000 47.144996643066 123 123 123
6.921875000000 10.539062500000 47.194999694824 129 129 129
6.921875000000 10.539062500000 47.246009826660 129 129 129
6.937500000000 10.546875000000 47.297996520996 139 139 139
6.921875000000 10.539062500000 47.347007751465 141 141 141
6.921875000000 10.539062500000 47.396995544434 137 137 137
6.921875000000 10.539062500000 47.446998596191 154 154 154
6.921875000000 10.539062500000 47.497001647949 151 151 151
6.921875000000 10.539062500000 47.547004699707 144 144 144
6.921875000000 10.539062500000 47.597007751465 149 149 149
6.937500000000 10.546875000000 47.648002624512 152 152 152
6.921875000000 10.539062500000 47.696998596191 146 146 146
6.921875000000 10.539062500000 47.746009826660 153 153 153
6.921875000000 10.539062500000 47.795997619629 151 151 151
6.921875000000 10.539062500000 47.845008850098 147 147 147
6.921875000000 10.539062500000 47.894004821777 172 172 172
6.921875000000 10.531250000000 47.942008972168 170 170 170
6.921875000000 10.539062500000 47.993003845215 147 147 147
6.921875000000 10.539062500000 48.041007995605 151 151 151
6.921875000000 10.539062500000 48.090995788574 158 158 158
6.921875000000 10.531250000000 48.138999938965 167 167 167
6.921875000000 10.539062500000 48.189002990723 166 166 166
6.921875000000 10.539062500000 48.237007141113 186 186 186
6.921875000000 10.539062500000 48.286003112793 186 186 186
6.921875000000 10.539062500000 48.334999084473 181 181 181
6.937500000000 10.546875000000 48.383995056152 186 186 186
6.937500000000 10.546875000000 48.433006286621 182 182 182
6.937500000000 10.554687500000 48.482002258301 185 185 185
6.937500000000 10.546875000000 48.530006408691 188 188 188
6.937500000000 10.546875000000 48.579002380371 187 187 187
6.921875000000 10.539062500000 48.627006530762 187 187 187
6.937500000000 10.554687500000 48.676002502441 188 188 188
6.937500000000 10.546875000000 48.724006652832 188 188 188
6.937500000000 10.554687500000 48.773002624512 189 189 189
6.937500000000 10.554687500000 48.821006774902 189 189 189
6.937500000000 10.554687500000 48.870002746582 191 191 191
6.937500000000 10.554687500000 48.918006896973 198 198 198
6.937500000000 10.554687500000 48.965995788574 196 196 196
6.937500000000 10.554687500000 49.015007019043 193 193 193
6.937500000000 10.554687500000 49.062995910645 200 200 200
6.937500000000 10.554687500000 49.111000061035 189 189 189
6.937500000000 10.554687500000 49.159996032715 196 196 196
6.937500000000 10.554687500000 49.208000183105 197 197 197
6.937500000000 10.554687500000 49.256004333496 196 196 196
6.937500000000 10.562500000000 49.304008483887 190 190 190
6.937500000000 10.554687500000 49.353004455566 194 194 194
6.937500000000 10.554687500000 49.401008605957 193 193 193
6.937500000000 10.554687500000 49.450004577637 190 190 190
6.937500000000 10.562500000000 49.498008728027 183 183 183
6.937500000000 10.554687500000 49.547004699707 181 181 181
6.937500000000 10.554687500000 49.595008850098 182 182 182
6.937500000000 10.562500000000 49.644004821777 184 184 184
6.937500000000 10.554687500000 49.692008972168 187 187 187
6.937500000000 10.562500000000 49.739997863770 183 183 183
6.937500000000 10.562500000000 49.789009094238 183 183 183
6.937500000000 10.562500000000 49.838005065918 186 186 186
6.937500000000 10.554687500000 49.887001037598 183 183 183
6.937500000000 10.554687500000 49.935997009277 183 183 183
6.937500000000 10.562500000000 49.984001159668 185 185 185
6.937500000000 10.562500000000 50.034004211426 186 186 186
6.937500000000 10.554687500000 50.083000183105 182 182 182
6.937500000000 10.554687500000 50.131996154785 181 181 181
6.937500000000 10.562500000000 50.181007385254 181 181 181
6.937500000000 10.562500000000 50.230003356934 184 184 184
6.968750000000 10.562500000000 50.278007507324 185 185 185
6.968750000000 10.562500000000 50.327003479004 180 180 180
6.937500000000 10.554687500000 50.379997253418 174 174 174
6.953125000000 10.570312500000 50.427009582520 178 178 178
6.937500000000 10.562500000000 50.478004455566 182 182 182
6.953125000000 10.570312500000 50.527000427246 190 190 190
6.953125000000 10.570312500000 50.577003479004 183 183 183
6.968750000000 10.562500000000 50.625999450684 190 190 190
6.937500000000 10.562500000000 50.678001403809 189 189 189
6.953125000000 10.570312500000 50.726997375488 191 191 191
6.937500000000 10.562500000000 50.778999328613 185 185 185
6.937500000000 10.562500000000 50.829002380371 183 183 183
6.953125000000 10.570312500000 50.879005432129 188 188 188
6.953125000000 10.570312500000 50.930000305176 188 188 188
6.968750000000 10.562500000000 50.980003356934 186 186 186
6.968750000000 10.562500000000 51.030998229980 185 185 185
6.937500000000 10.562500000000 51.084007263184 186 186 186
6.937500000000 10.562500000000 51.135002136230 189 189 189
6.968750000000 10.562500000000 51.183998107910 182 182 182
6.968750000000 10.562500000000 51.237007141113 181 181 181
6.968750000000 10.562500000000 51.286994934082 184 184 184
6.968750000000 10.562500000000 51.340003967285 185 185 185
6.937500000000 10.562500000000 51.394996643066 182 182 182
6.968750000000 10.562500000000 51.446006774902 183 183 183
6.968750000000 10.562500000000 51.497001647949 189 189 189
7.000000000000 10.578125000000 51.541007995605 150 150 150
7.000000000000 10.585937500000 51.590995788574 151 151 151
6.968750000000 10.562500000000 51.655006408691 181 181 181
6.968750000000 10.562500000000 51.709999084473 187 187 187
6.968750000000 10.562500000000 51.762001037598 185 185 185
6.968750000000 10.562500000000 51.816001892090 185 185 185
6.968750000000 10.562500000000 51.868995666504 187 187 187
6.968750000000 10.562500000000 51.924003601074 186 186 186
6.968750000000 10.570312500000 51.974006652832 179 179 179
6.968750000000 10.562500000000 52.032005310059 180 180 180
6.968750000000 10.562500000000 52.084999084473 183 183 183
6.968750000000 10.570312500000 52.138999938965 184 184 184
6.968750000000 10.562500000000 52.198997497559 181 181 181
6.968750000000 10.570312500000 52.250007629395 182 182 182
6.968750000000 10.570312500000 52.306007385254 181 181 181
6.968750000000 10.562500000000 52.362998962402 179 179 179
6.968750000000 10.562500000000 52.420005798340 176 176 176
6.968750000000 10.570312500000 52.472999572754 176 176 176
6.984375000000 10.578125000000 52.528007507324 175 175 175
6.984375000000 10.578125000000 52.582008361816 171 171 171
6.984375000000 10.578125000000 52.640998840332 172 172 172
6.968750000000 10.570312500000 52.700996398926 169 169 169
6.984375000000 10.578125000000 52.756004333496 179 179 179
6.984375000000 10.578125000000 52.814002990723 175 175 175
7.234375000000 19.554687500000 49.157005310059 21 21 21
7.234375000000 19.554687500000 49.116004943848 51 51 51
7.218750000000 19.562500000000 49.075996398926 68 68 68
7.218750000000 19.562500000000 49.036003112793 85 85 85
7.218750000000 19.546875000000 48.995002746582 107 107 107
7.218750000000 19.562500000000 48.955009460449 118 118 118
7.218750000000 19.562500000000 48.914009094238 133 133 133
7.218750000000 19.546875000000 48.874000549316 137 137 137
7.218750000000 19.562500000000 48.833000183105 142 142 142
7.218750000000 19.562500000000 48.793006896973 147 147 147
7.218750000000 19.562500000000 48.752006530762 151 151 151
7.218750000000 19.546875000000 48.711997985840 150 150 150
7.218750000000 19.546875000000 48.670997619629 149 149 149
7.218750000000 19.546875000000 48.631004333496 153 153 153
7.218750000000 19.546875000000 48.590003967285 154 154 154
7.218750000000 19.562500000000 48.549995422363 163 163 163
7.218750000000 19.546875000000 48.508995056152 159 159 159
7.218750000000 19.562500000000 48.469001770020 156 156 156
7.218750000000 19.554687500000 48.428001403809 160 160 160
7.218750000000 19.546875000000 48.388008117676 163 163 163
7.218750000000 19.554687500000 48.346000671387 165 165 165
7.218750000000 19.554687500000 48.306007385254 162 162 162
7.218750000000 19.554687500000 48.265007019043 168 168 168
7.218750000000 19.554687500000 48.224006652832 162 162 162
7.218750000000 19.554687500000 48.183006286621 172 172 172
7.218750000000 19.554687500000 48.142005920410 167 167 167
7.203125000000 19.546875000000 48.101005554199 166 166 166
7.203125000000 19.546875000000 48.060005187988 170 170 170
7.218750000000 19.554687500000 48.019996643066 167 167 167
7.218750000000 19.546875000000 47.980003356934 177 177 177
7.203125000000 19.546875000000 47.937004089355 168 168 168
7.187500000000 19.554687500000 47.894996643066 170 170 170
7.203125000000 19.546875000000 47.853996276855 170 170 170
7.187500000000 19.546875000000 47.812004089355 165 165 165
7.171875000000 19.546875000000 47.769004821777 166 166 166
7.171875000000 19.546875000000 47.728004455566 165 165 165
7.187500000000 19.554687500000 47.687004089355 166 166 166
7.171875000000 19.546875000000 47.644004821777 166 166 166
7.171875000000 19.546875000000 47.601997375488 163 163 163
7.171875000000 19.546875000000 47.560005187988 167 167 167
7.171875000000 19.546875000000 47.517997741699 164 164 164
7.171875000000 19.539062500000 47.474998474121 170 170 170
7.156250000000 19.539062500000 47.430000305176 183 183 183
7.156250000000 19.546875000000 47.390007019043 169 169 169
7.156250000000 19.539062500000 47.347007751465 174 174 174
7.156250000000 19.539062500000 47.301002502441 179 179 179
7.156250000000 19.539062500000 47.260002136230 181 181 181
7.203125000000 19.546875000000 47.228996276855 179 179 179
7.156250000000 19.531250000000 47.177009582520 172 172 172
7.171875000000 19.539062500000 47.136009216309 183 183 183
7.156250000000 19.539062500000 47.088996887207 185 185 185
7.156250000000 19.531250000000 47.043006896973 182 182 182
7.156250000000 19.539062500000 47.002998352051 177 177 177
7.156250000000 19.539062500000 46.957008361816 183 183 183
7.156250000000 19.531250000000 46.911003112793 179 179 179
7.125000000000 19.539062500000 46.866004943848 178 178 178
7.125000000000 19.539062500000 46.819999694824 180 180 180
7.125000000000 19.539062500000 46.778007507324 180 180 180
7.125000000000 19.539062500000 46.728996276855 183 183 183
7.125000000000 19.539062500000 46.687995910645 180 180 180
7.156250000000 19.539062500000 46.650001525879 185 185 185
7.187500000000 19.546875000000 46.618995666504 184 184 184
7.250000000000 19.531250000000 46.594001770020 189 189 189
7.437500000000 19.289062500000 52.937004089355 115 115 115
7.406250000000 19.289062500000 52.892997741699 108 108 108
7.421875000000 19.281250000000 52.834007263184 92 92 92
7.406250000000 19.289062500000 52.786994934082 86 86 86
7.421875000000 19.281250000000 52.730003356934 63 63 63
7.406250000000 19.281250000000 52.685997009277 113 113 113
7.406250000000 19.281250000000 52.637001037598 63 63 63
7.375000000000 19.281250000000 52.588996887207 25 25 25
7.343750000000 19.281250000000 51.571998596191 83 83 83
7.328125000000 19.281250000000 51.536994934082 83 83 83
7.343750000000 18.976562500000 51.553001403809 105 105 105
7.312500000000 18.976562500000 51.519004821777 22 22 22
7.328125000000 18.679687500000 51.534004211426 114 114 114
7.328125000000 18.390625000000 52.334999084473 15 15 15
7.312500000000 18.382812500000 51.515998840332 119 119 119
7.343750000000 18.078125000000 52.208000183105 18 18 18
7.343750000000 18.078125000000 51.528999328613 77 77 77
7.312500000000 18.078125000000 51.495002746582 60 60 60
7.312500000000 17.796875000000 52.086006164551 21 21 21
7.312500000000 17.789062500000 51.513008117676 127 127 127
7.296875000000 17.500000000000 51.965995788574 25 25 25
7.296875000000 17.500000000000 51.536003112793 37 37 37
7.296875000000 17.500000000000 51.489006042480 115 115 115
7.312500000000 17.195312500000 51.842002868652 38 38 38
7.312500000000 17.195312500000 51.512001037598 107 107 107
7.312500000000 17.195312500000 51.467002868652 41 41 41
7.281250000000 16.890625000000 51.734001159668 30 30 30
7.281250000000 16.890625000000 51.498008728027 132 132 132
7.296875000000 16.585937500000 51.614997863770 133 133 133
7.250000000000 16.585937500000 51.584999084473 20 20 20
7.281250000000 16.585937500000 51.524009704590 64 64 64
7.281250000000 16.578125000000 51.484001159668 110 110 110
7.281250000000 16.289062500000 51.500999450684 129 129 129
7.281250000000 16.000000000000 51.521995544434 93 93 93
7.250000000000 15.992187500000 51.486000061035 168 168 168
7.250000000000 15.992187500000 51.439002990723 212 212 212
7.250000000000 16.000000000000 51.394004821777 209 209 209
7.234375000000 15.992187500000 51.353004455566 209 209 209
7.234375000000 15.992187500000 51.306999206543 210 210 210
7.218750000000 16.000000000000 51.267997741699 210 210 210
7.218750000000 16.000000000000 51.224998474121 150 150 150
7.250000000000 15.695312500000 51.508995056152 149 149 149
7.250000000000 15.695312500000 51.463005065918 209 209 209
7.250000000000 15.695312500000 51.418998718262 155 155 155
7.250000000000 15.710937500000 51.377006530762 177 177 177
7.234375000000 15.703125000000 51.333000183105 205 205 205
7.234375000000 15.703125000000 51.290000915527 211 211 211
7.218750000000 15.703125000000 51.246009826660 195 195 195
7.250000000000 15.398437500000 51.536003112793 118 118 118
7.250000000000 15.398437500000 51.491004943848 198 198 198
7.250000000000 15.398437500000 51.448005676270 195 195 195
7.250000000000 15.398437500000 51.403007507324 135 135 135
7.234375000000 15.390625000000 51.361000061035 154 154 154
7.218750000000 15.406250000000 51.316001892090 208 208 208
7.218750000000 15.398437500000 51.273002624512 205 205 205
7.187500000000 15.398437500000 51.237007141113 43 43 43
7.250000000000 15.093750000000 51.568000793457 16 16 16
7.218750000000 15.101562500000 51.525001525879 147 147 147
7.218750000000 15.101562500000 51.480003356934 208 208 208
7.218750000000 15.101562500000 51.433006286621 207 207 207
7.218750000000 15.093750000000 51.390007019043 210 210 210
7.218750000000 15.093750000000 51.349006652832 158 158 158
7.218750000000 15.093750000000 51.302009582520 204 204 204
7.203125000000 15.093750000000 51.261009216309 185 185 185
7.234375000000 14.796875000000 51.552009582520 138 138 138
7.218750000000 14.789062500000 51.513008117676 207 207 207
7.187500000000 14.804687500000 51.469001770020 208 208 208
7.187500000000 14.804687500000 51.424003601074 210 210 210
7.187500000000 14.804687500000 51.377998352051 210 210 210
7.187500000000 14.796875000000 51.334007263184 207 207 207
7.187500000000 14.796875000000 51.289009094238 201 201 201
7.218750000000 14.515625000000 51.575996398926 113 113 113
7.187500000000 14.507812500000 51.541999816895 184 184 184
7.187500000000 14.507812500000 51.496009826660 193 193 193
7.171875000000 14.515625000000 51.450996398926 159 159 159
7.171875000000 14.515625000000 51.405998229980 179 179 179
7.171875000000 14.507812500000 51.362007141113 184 184 184
7.171875000000 14.507812500000 51.314002990723 205 205 205
7.156250000000 14.507812500000 51.276008605957 43 43 43
7.203125000000 14.218750000000 51.603004455566 69 69 69
7.187500000000 14.210937500000 51.562004089355 150 150 150
7.171875000000 14.218750000000 51.524009704590 206 206 206
7.171875000000 14.226562500000 51.476005554199 31 31 31
7.171875000000 14.218750000000 51.429008483887 171 171 171
7.171875000000 14.218750000000 51.381996154785 179 179 179
7.171875000000 14.218750000000 51.338005065918 204 204 204
7.156250000000 14.210937500000 51.293998718262 124 124 124
7.203125000000 13.921875000000 51.629997253418 65 65 65
7.187500000000 13.906250000000 51.590003967285 130 130 130
7.156250000000 13.914062500000 51.551002502441 187 187 187
7.156250000000 13.914062500000 51.504997253418 210 210 210
7.156250000000 13.914062500000 51.459007263184 208 208 208
7.156250000000 13.906250000000 51.416007995605 208 208 208
7.156250000000 13.906250000000 51.368995666504 210 210 210
7.156250000000 13.914062500000 51.321006774902 189 189 189
7.156250000000 13.617187500000 51.679008483887 90 90 90
7.171875000000 13.609375000000 51.623008728027 127 127 127
7.156250000000 13.617187500000 51.580009460449 98 98 98
7.140625000000 13.304687500000 51.614006042480 104 104 104
7.125000000000 13.304687500000 51.579002380371 33 33 33
7.078125000000 13.023437500000 51.709999084473 14 14 14
7.125000000000 13.015625000000 51.599006652832 123 123 123
7.046875000000 12.726562500000 51.790000915527 19 19 19
7.109375000000 12.718750000000 51.577995300293 122 122 122
7.000000000000 12.429687500000 51.892005920410 30 30 30
7.093750000000 12.421875000000 51.558998107910 121 121 121
7.000000000000 12.117187500000 52.013008117676 16 16 16
7.062500000000 12.125000000000 51.588996887207 23 23 23
7.046875000000 12.117187500000 51.549003601074 104 104 104
7.000000000000 11.835937500000 52.140007019043 23 23 23
7.031250000000 11.828125000000 51.575004577637 82 82 82
7.015625000000 11.828125000000 51.532005310059 65 65 65
7.000000000000 11.539062500000 52.267997741699 23 23 23
7.000000000000 11.531250000000 51.562004089355 112 112 112
6.968750000000 11.234375000000 52.407997131348 28 28 28
6.968750000000 11.234375000000 51.547004699707 122 122 122
6.968750000000 10.937500000000 51.575996398926 65 65 65
6.937500000000 10.929687500000 51.536994934082 65 65 65
6.921875000000 10.640625000000 52.810997009277 88 88 88
6.937500000000 10.640625000000 52.745002746582 64 64 64
6.953125000000 10.632812500000 52.685005187988 66 66 66
6.937500000000 10.648437500000 52.631996154785 107 107 107
6.937500000000 10.640625000000 52.584999084473 87 87 87
6.937500000000 10.648437500000 52.524009704590 69 69 69
6.937500000000 10.632812500000 52.478004455566 64 64 64
6.937500000000 10.640625000000 52.422004699707 73 73 73
6.937500000000 10.632812500000 52.373008728027 63 63 63
6.937500000000 10.640625000000 52.317008972168 59 59 59
6.937500000000 10.632812500000 52.265998840332 64 64 64
6.937500000000 10.632812500000 52.213996887207 66 66 66
6.937500000000 10.632812500000 52.161003112793 64 64 64
6.937500000000 10.632812500000 52.110008239746 71 71 71
6.937500000000 10.640625000000 52.056007385254 75 75 75
6.937500000000 10.632812500000 52.006996154785 73 73 73
6.937500000000 10.632812500000 51.956001281738 83 83 83
6.937500000000 10.640625000000 51.903999328613 91 91 91
6.937500000000 10.640625000000 51.853996276855 89 89 89
6.937500000000 10.632812500000 51.806999206543 99 99 99
6.953125000000 10.632812500000 51.750007629395 94 94 94
6.937500000000 10.640625000000 51.702995300293 100 100 100
6.937500000000 10.632812500000 51.657005310059 110 110 110
6.937500000000 10.632812500000 51.608009338379 108 108 108
6.937500000000 10.632812500000 51.558006286621 118 118 118
6.937500000000 10.640625000000 51.508003234863 100 100 100
6.937500000000 10.632812500000 51.461006164551 99 99 99
6.937500000000 10.632812500000 51.411994934082 105 105 105
6.937500000000 10.625000000000 51.362998962402 117 117 117
6.937500000000 10.625000000000 51.315010070801 121 121 121
6.937500000000 10.632812500000 51.269996643066 128 128 128
6.937500000000 10.617187500000 51.221000671387 134 134 134
6.937500000000 10.625000000000 51.172004699707 134 134 134
6.937500000000 10.632812500000 51.129005432129 141 141 141
6.937500000000 10.617187500000 51.080009460449 140 140 140
6.937500000000 10.632812500000 51.034996032715 146 146 146
6.937500000000 10.632812500000 50.989997863770 151 151 151
6.937500000000 10.617187500000 50.939002990723 147 147 147
6.937500000000 10.632812500000 50.898002624512 154 154 154
6.937500000000 10.617187500000 50.847999572754 154 154 154
6.937500000000 10.632812500000 50.804008483887 152 152 152
6.937500000000 10.617187500000 50.756004333496 157 157 157
6.937500000000 10.617187500000 50.711997985840 160 160 160
6.937500000000 10.617187500000 50.666007995605 166 166 166
6.937500000000 10.632812500000 50.623008728027 166 166 166
6.937500000000 10.617187500000 50.577995300293 169 169 169
6.937500000000 10.617187500000 50.530998229980 174 174 174
6.937500000000 10.617187500000 50.485008239746 170 170 170
6.937500000000 10.617187500000 50.442008972168 174 174 174
6.937500000000 10.617187500000 50.399009704590 176 176 176
6.937500000000 10.617187500000 50.351997375488 179 179 179
6.937500000000 10.617187500000 50.308998107910 183 183 183
6.937500000000 10.617187500000 50.263999938965 181 181 181
6.937500000000 10.617187500000 50.221000671387 183 183 183
6.890625000000 10.617187500000 50.185997009277 156 156 156
6.921875000000 10.625000000000 50.136009216309 172 172 172
6.937500000000 10.617187500000 50.088996887207 182 182 182
6.937500000000 10.617187500000 50.045005798340 183 183 183
6.937500000000 10.617187500000 50.000999450684 187 187 187
6.937500000000 10.617187500000 49.956001281738 186 186 186
6.968750000000 10.617187500000 49.911003112793 184 184 184
6.937500000000 10.617187500000 49.871009826660 184 184 184
6.937500000000 10.617187500000 49.827003479004 183 183 183
6.937500000000 10.617187500000 49.782997131348 188 188 188
6.937500000000 10.617187500000 49.741004943848 184 184 184
6.937500000000 10.617187500000 49.696998596191 182 182 182
6.937500000000 10.617187500000 49.655006408691 189 189 189
6.968750000000 10.609375000000 49.611000061035 186 186 186
6.906250000000 10.625000000000 49.573997497559 164 164 164
6.937500000000 10.617187500000 49.527000427246 179 179 179
6.937500000000 10.617187500000 49.484001159668 189 189 189
6.953125000000 10.609375000000 49.441001892090 189 189 189
6.953125000000 10.609375000000 49.398002624512 189 189 189
6.937500000000 10.617187500000 49.355995178223 191 191 191
6.953125000000 10.609375000000 49.312995910645 189 189 189
6.937500000000 10.617187500000 49.271003723145 186 186 186
6.953125000000 10.609375000000 49.228004455566 191 191 191
6.937500000000 10.617187500000 49.185997009277 189 189 189
6.953125000000 10.609375000000 49.142997741699 193 193 193
6.953125000000 10.609375000000 49.101005554199 190 190 190
6.953125000000 10.609375000000 49.058998107910 191 191 191
6.937500000000 10.617187500000 49.017005920410 195 195 195
6.953125000000 10.609375000000 48.974006652832 190 190 190
6.937500000000 10.609375000000 48.931999206543 195 195 195
6.953125000000 10.609375000000 48.890007019043 193 193 193
6.937500000000 10.609375000000 48.847999572754 190 190 190
6.937500000000 10.609375000000 48.806007385254 192 192 192
6.937500000000 10.609375000000 48.763008117676 190 190 190
6.937500000000 10.609375000000 48.721000671387 191 191 191
6.937500000000 10.609375000000 48.679008483887 192 192 192
6.937500000000 10.609375000000 48.637001037598 196 196 196
6.937500000000 10.609375000000 48.594001770020 197 197 197
6.937500000000 10.609375000000 48.552009582520 194 194 194
6.937500000000 10.609375000000 48.510002136230 193 193 193
6.921875000000 10.601562500000 48.467002868652 191 191 191
6.937500000000 10.609375000000 48.424995422363 188 188 188
6.937500000000 10.601562500000 48.383003234863 198 198 198
6.921875000000 10.601562500000 48.340003967285 195 195 195
6.921875000000 10.601562500000 48.297004699707 193 193 193
6.921875000000 10.601562500000 48.254997253418 192 192 192
6.937500000000 10.593750000000 48.213005065918 185 185 185
6.937500000000 10.601562500000 48.170997619629 190 190 190
6.921875000000 10.601562500000 48.127006530762 190 190 190
6.921875000000 10.601562500000 48.084999084473 190 190 190
6.921875000000 10.601562500000 48.043006896973 208 208 208
6.921875000000 10.601562500000 48.000007629395 202 202 202
6.921875000000 10.601562500000 47.957008361816 197 197 197
6.921875000000 10.601562500000 47.914009094238 197 197 197
6.921875000000 10.601562500000 47.871009826660 188 188 188
6.921875000000 10.601562500000 47.829002380371 182 182 182
6.921875000000 10.601562500000 47.784996032715 186 186 186
6.921875000000 10.601562500000 47.743003845215 183 183 183
6.921875000000 10.601562500000 47.698997497559 183 183 183
6.921875000000 10.601562500000 47.655998229980 183 183 183
6.921875000000 10.601562500000 47.612998962402 182 182 182
6.921875000000 10.601562500000 47.569007873535 179 179 179
6.921875000000 10.601562500000 47.526008605957 186 186 186
6.906250000000 10.593750000000 47.480995178223 188 188 188
6.921875000000 10.601562500000 47.439002990723 179 179 179
6.906250000000 10.593750000000 47.394004821777 180 180 180
6.906250000000 10.593750000000 47.349998474121 183 183 183
6.906250000000 10.593750000000 47.306999206543 179 179 179
6.906250000000 10.593750000000 47.263008117676 183 183 183
6.937500000000 10.593750000000 47.220008850098 177 177 177
6.906250000000 10.593750000000 47.172996520996 180 180 180
6.906250000000 10.593750000000 47.129005432129 181 181 181
6.906250000000 10.593750000000 47.084999084473 178 178 178
6.906250000000 10.593750000000 47.040000915527 185 185 185
6.937500000000 10.593750000000 46.998008728027 173 173 173
6.937500000000 10.585937500000 46.952003479004 173 173 173
6.937500000000 10.593750000000 46.907997131348 173 173 173
7.000000000000 10.593750000000 46.702003479004 180 180 180
6.875000000000 10.593750000000 46.713005065918 132 132 132
7.375000000000 19.468750000000 51.573997497559 16 16 16
7.375000000000 19.468750000000 51.521003723145 14 14 14
7.375000000000 19.468750000000 51.471000671387 21 21 21
7.375000000000 19.468750000000 51.420005798340 34 34 34
7.359375000000 19.484375000000 51.374000549316 48 48 48
7.359375000000 19.484375000000 51.323997497559 75 75 75
7.343750000000 19.476562500000 51.275001525879 79 79 79
7.343750000000 19.476562500000 51.226005554199 90 90 90
7.375000000000 19.468750000000 51.172996520996 94 94 94
7.343750000000 19.476562500000 51.129005432129 101 101 101
7.343750000000 19.476562500000 51.077003479004 106 106 106
7.343750000000 19.484375000000 51.032997131348 115 115 115
7.343750000000 19.476562500000 50.982002258301 117 117 117
7.343750000000 19.476562500000 50.931007385254 120 120 120
7.328125000000 19.484375000000 50.886009216309 132 132 132
7.328125000000 19.484375000000 50.836006164551 135 135 135
7.343750000000 19.476562500000 50.784996032715 136 136 136
7.328125000000 19.484375000000 50.741004943848 145 145 145
7.328125000000 19.484375000000 50.692008972168 138 138 138
7.312500000000 19.492187500000 50.646003723145 153 153 153
7.328125000000 19.484375000000 50.597999572754 145 145 145
7.328125000000 19.484375000000 50.547004699707 148 148 148
7.328125000000 19.484375000000 50.500999450684 149 149 149
7.328125000000 19.484375000000 50.454002380371 149 149 149
7.312500000000 19.484375000000 50.407005310059 155 155 155
7.312500000000 19.484375000000 50.359001159668 162 162 162
7.312500000000 19.484375000000 50.312995910645 160 160 160
7.312500000000 19.476562500000 50.263999938965 162 162 162
7.312500000000 19.484375000000 50.218009948730 157 157 157
7.312500000000 19.484375000000 50.172004699707 163 163 163
7.312500000000 19.484375000000 50.123008728027 163 163 163
7.312500000000 19.484375000000 50.075996398926 162 162 162
7.312500000000 19.484375000000 50.030006408691 166 166 166
7.312500000000 19.484375000000 49.983009338379 168 168 168
7.296875000000 19.492187500000 49.937004089355 169 169 169
7.312500000000 19.476562500000 49.890007019043 170 170 170
7.296875000000 19.492187500000 49.844001770020 166 166 166
7.296875000000 19.492187500000 49.797004699707 169 169 169
7.296875000000 19.492187500000 49.750007629395 168 168 168
7.296875000000 19.492187500000 49.702995300293 171 171 171
7.296875000000 19.492187500000 49.657005310059 171 171 171
7.296875000000 19.492187500000 49.611000061035 169 169 169
7.281250000000 19.484375000000 49.564002990723 167 167 167
7.281250000000 19.484375000000 49.517997741699 166 166 166
7.281250000000 19.492187500000 49.472007751465 165 165 165
7.281250000000 19.492187500000 49.424995422363 163 163 163
7.281250000000 19.492187500000 49.379005432129 169 169 169
7.281250000000 19.492187500000 49.332008361816 167 167 167
7.281250000000 19.492187500000 49.286003112793 165 165 165
7.281250000000 19.492187500000 49.239997863770 166 166 166
7.265625000000 19.507812500000 49.193000793457 166 166 166
7.265625000000 19.507812500000 49.146995544434 169 169 169
7.281250000000 19.492187500000 49.099998474121 169 169 169
7.281250000000 19.492187500000 49.054008483887 169 169 169
7.265625000000 19.507812500000 49.008003234863 170 170 170
7.265625000000 19.507812500000 48.961006164551 165 165 165
7.265625000000 19.507812500000 48.915000915527 167 167 167
7.265625000000 19.507812500000 48.868003845215 170 170 170
7.265625000000 19.507812500000 48.821998596191 161 161 161
7.265625000000 19.500000000000 48.775001525879 168 168 168
7.250000000000 19.507812500000 48.728004455566 169 169 169
7.250000000000 19.507812500000 48.681007385254 169 169 169
7.250000000000 19.507812500000 48.635002136230 169 169 169
7.250000000000 19.507812500000 48.588005065918 169 169 169
7.234375000000 19.507812500000 48.541007995605 165 165 165
7.250000000000 19.507812500000 48.493995666504 165 165 165
7.250000000000 19.500000000000 48.446998596191 165 165 165
7.234375000000 19.507812500000 48.400001525879 165 165 165
7.234375000000 19.507812500000 48.353004455566 170 170 170
7.250000000000 19.500000000000 48.306007385254 163 163 163
7.250000000000 19.500000000000 48.258995056152 163 163 163
7.218750000000 19.523437500000 48.209999084473 164 164 164
7.218750000000 19.523437500000 48.163002014160 163 163 163
7.218750000000 19.507812500000 48.116996765137 164 164 164
7.218750000000 19.523437500000 48.069007873535 159 159 159
7.218750000000 19.523437500000 48.021003723145 166 166 166
7.218750000000 19.523437500000 47.972999572754 130 130 130
7.218750000000 19.523437500000 47.924995422363 136 136 136
7.218750000000 19.523437500000 47.877006530762 155 155 155
7.218750000000 19.523437500000 47.829002380371 156 156 156
7.187500000000 19.523437500000 47.780998229980 157 157 157
7.203125000000 19.515625000000 47.733009338379 150 150 150
7.187500000000 19.523437500000 47.683998107910 150 150 150
7.187500000000 19.523437500000 47.636009216309 152 152 152
7.187500000000 19.523437500000 47.586006164551 145 145 145
7.187500000000 19.523437500000 47.536994934082 149 149 149
7.187500000000 19.523437500000 47.489997863770 147 147 147
7.187500000000 19.523437500000 47.443000793457 145 145 145
7.187500000000 19.523437500000 47.392005920410 150 150 150
7.093750000000 19.570312500000 46.717002868652 175 175 175
7.093750000000 19.578125000000 46.663002014160 175 175 175
7.156250000000 19.539062500000 46.631004333496 186 186 186
7.203125000000 19.507812500000 46.601005554199 178 178 178
7.203125000000 19.507812500000 46.903007507324 134 134 134
7.343750000000 19.195312500000 51.556999206543 124 124 124
7.281250000000 19.226562500000 51.526008605957 23 23 23
7.328125000000 18.898437500000 51.536994934082 120 120 120
7.343750000000 18.601562500000 52.414009094238 9 9 9
7.312500000000 18.601562500000 51.524009704590 110 110 110
7.312500000000 18.296875000000 51.552009582520 44 44 44
7.312500000000 18.304687500000 51.504005432129 49 49 49
7.312500000000 18.015625000000 52.200996398926 15 15 15
7.312500000000 18.015625000000 51.524009704590 104 104 104
7.312500000000 17.726562500000 51.543006896973 35 35 35
7.312500000000 17.726562500000 51.493003845215 89 89 89
7.296875000000 17.445312500000 51.944999694824 14 14 14
7.312500000000 17.421875000000 51.521995544434 77 77 77
7.281250000000 17.437500000000 51.478996276855 23 23 23
7.296875000000 17.132812500000 51.823997497559 16 16 16
7.281250000000 17.132812500000 51.515007019043 113 113 113
7.296875000000 16.828125000000 51.694999694824 12 12 12
7.296875000000 16.828125000000 51.538002014160 21 21 21
7.281250000000 16.835937500000 51.493003845215 105 105 105
7.265625000000 16.554687500000 51.670005798340 22 22 22
7.281250000000 16.546875000000 51.616996765137 112 112 112
7.265625000000 16.554687500000 51.515007019043 110 110 110
7.281250000000 16.242187500000 51.530006408691 53 53 53
7.281250000000 16.250000000000 51.486000061035 81 81 81
7.281250000000 15.960937500000 51.513999938965 135 135 135
7.250000000000 15.960937500000 51.468009948730 194 194 194
7.250000000000 15.976562500000 51.422004699707 178 178 178
7.218750000000 15.984375000000 51.373008728027 171 171 171
7.218750000000 15.984375000000 51.323997497559 181 181 181
7.218750000000 15.984375000000 51.273002624512 199 199 199
7.218750000000 15.992187500000 51.228996276855 125 125 125
7.265625000000 15.648437500000 51.541007995605 80 80 80
7.250000000000 15.664062500000 51.493003845215 180 180 180
7.250000000000 15.671875000000 51.444999694824 191 191 191
7.250000000000 15.664062500000 51.396995544434 186 186 186
7.250000000000 15.664062500000 51.347999572754 194 194 194
7.234375000000 15.671875000000 51.299995422363 200 200 200
7.218750000000 15.687500000000 51.256004333496 180 180 180
7.250000000000 15.367187500000 51.568000793457 30 30 30
7.250000000000 15.359375000000 51.519004821777 162 162 162
7.250000000000 15.359375000000 51.467002868652 196 196 196
7.218750000000 15.382812500000 51.426002502441 61 61 61
7.218750000000 15.382812500000 51.374000549316 155 155 155
7.218750000000 15.382812500000 51.321998596191 200 200 200
7.218750000000 15.398437500000 51.276008605957 197 197 197
7.250000000000 15.078125000000 51.536994934082 136 136 136
7.218750000000 15.078125000000 51.491004943848 198 198 198
7.218750000000 15.078125000000 51.442008972168 198 198 198
7.218750000000 15.085937500000 51.392997741699 201 201 201
7.218750000000 15.093750000000 51.349006652832 151 151 151
7.218750000000 15.093750000000 51.297004699707 201 201 201
7.218750000000 14.789062500000 51.567008972168 113 113 113
7.218750000000 14.789062500000 51.524009704590 194 194 194
7.203125000000 14.804687500000 51.474006652832 203 203 203
7.203125000000 14.804687500000 51.424003601074 202 202 202
7.187500000000 14.804687500000 51.374000549316 198 198 198
7.187500000000 14.812500000000 51.325996398926 197 197 197
7.187500000000 14.812500000000 51.276008605957 142 142 142
7.218750000000 14.492187500000 51.601005554199 43 43 43
7.218750000000 14.500000000000 51.555000305176 147 147 147
7.187500000000 14.507812500000 51.508003234863 195 195 195
7.187500000000 14.515625000000 51.458000183105 154 154 154
7.187500000000 14.515625000000 51.409004211426 167 167 167
7.187500000000 14.515625000000 51.357002258301 186 186 186
7.156250000000 14.523437500000 51.310005187988 188 188 188
7.187500000000 14.203125000000 51.582008361816 133 133 133
7.187500000000 14.210937500000 51.534004211426 196 196 196
7.156250000000 14.242187500000 51.495002746582 150 150 150
7.156250000000 14.234375000000 51.442008972168 161 161 161
7.156250000000 14.234375000000 51.387001037598 177 177 177
7.156250000000 14.234375000000 51.336006164551 196 196 196
7.203125000000 13.914062500000 51.653999328613 44 44 44
7.203125000000 13.914062500000 51.599998474121 123 123 123
7.156250000000 13.937500000000 51.560997009277 161 161 161
7.156250000000 13.937500000000 51.508995056152 203 203 203
7.156250000000 13.937500000000 51.458000183105 201 201 201
7.156250000000 13.937500000000 51.409004211426 200 200 200
7.140625000000 13.945312500000 51.359001159668 198 198 198
7.140625000000 13.945312500000 51.306999206543 42 42 42
7.187500000000 13.632812500000 51.629005432129 113 113 113
7.125000000000 13.351562500000 51.728996276855 37 37 37
7.125000000000 13.351562500000 51.624000549316 104 104 104
7.093750000000 13.085937500000 51.724006652832 22 22 22
7.125000000000 13.062500000000 51.607002258301 111 111 111
7.031250000000 12.820312500000 51.774009704590 20 20 20
7.093750000000 12.773437500000 51.586997985840 108 108 108
7.000000000000 12.546875000000 51.859001159668 20 20 20
7.078125000000 12.507812500000 51.616996765137 20 20 20
7.062500000000 12.515625000000 51.569007873535 90 90 90
6.984375000000 12.265625000000 51.946998596191 19 19 19
7.046875000000 12.226562500000 51.599006652832 73 73 73
7.046875000000 12.226562500000 51.543998718262 31 31 31
7.015625000000 11.937500000000 51.586997985840 67 67 67
7.015625000000 11.937500000000 51.539009094238 15 15 15
7.000000000000 11.640625000000 51.579002380371 85 85 85
6.984375000000 11.351562500000 51.558998107910 105 105 105
6.968750000000 11.085937500000 52.471000671387 17 17 17
6.968750000000 11.078125000000 51.588996887207 65 65 65
6.937500000000 11.093750000000 51.540000915527 19 19 19
6.937500000000 10.828125000000 52.575996398926 14 14 14
6.937500000000 10.812500000000 51.569007873535 116 116 116
6.968750000000 10.492187500000 52.830009460449 154 154 154
6.968750000000 10.492187500000 52.771003723145 156 156 156
6.968750000000 10.500000000000 52.719001770020 147 147 147
6.968750000000 10.500000000000 52.659996032715 155 155 155
6.968750000000 10.484375000000 52.595008850098 157 157 157
6.968750000000 10.484375000000 52.539009094238 153 153 153
6.968750000000 10.500000000000 52.486000061035 159 159 159
6.968750000000 10.500000000000 52.427009582520 158 158 158
6.968750000000 10.500000000000 52.372001647949 152 152 152
6.937500000000 10.507812500000 52.317008972168 152 152 152
6.953125000000 10.500000000000 52.258995056152 151 151 151
6.937500000000 10.507812500000 52.207008361816 158 158 158
6.968750000000 10.500000000000 52.144004821777 153 153 153
6.953125000000 10.500000000000 52.092002868652 157 157 157
6.953125000000 10.500000000000 52.032005310059 155 155 155
6.953125000000 10.500000000000 51.978996276855 150 150 150
6.937500000000 10.507812500000 51.929008483887 152 152 152
6.937500000000 10.507812500000 51.874000549316 158 158 158
6.937500000000 10.500000000000 51.821006774902 161 161 161
6.953125000000 10.500000000000 51.760002136230 156 156 156
6.953125000000 10.500000000000 51.708000183105 157 157 157
6.937500000000 10.500000000000 51.655998229980 160 160 160
6.937500000000 10.500000000000 51.605003356934 163 163 163
6.937500000000 10.500000000000 51.549003601074 151 151 151
6.937500000000 10.500000000000 51.497001647949 155 155 155
6.937500000000 10.500000000000 51.444007873535 161 161 161
6.937500000000 10.500000000000 51.392005920410 161 161 161
6.937500000000 10.500000000000 51.336006164551 162 162 162
6.937500000000 10.500000000000 51.284996032715 157 157 157
6.921875000000 10.515625000000 51.234001159668 157 157 157
6.937500000000 10.500000000000 51.179008483887 170 170 170
6.937500000000 10.500000000000 51.127998352051 163 163 163
6.906250000000 10.507812500000 51.077995300293 164 164 164
6.906250000000 10.507812500000 51.025001525879 168 168 168
6.937500000000 10.500000000000 50.972007751465 166 166 166
6.937500000000 10.500000000000 50.918998718262 164 164 164
6.921875000000 10.492187500000 50.868995666504 166 166 166
6.906250000000 10.507812500000 50.818000793457 170 170 170
6.906250000000 10.507812500000 50.767005920410 169 169 169
6.906250000000 10.507812500000 50.717002868652 170 170 170
6.921875000000 10.492187500000 50.664009094238 167 167 167
6.921875000000 10.492187500000 50.612998962402 168 168 168
6.921875000000 10.492187500000 50.562004089355 171 171 171
6.906250000000 10.507812500000 50.512001037598 172 172 172
6.906250000000 10.507812500000 50.461997985840 168 168 168
6.906250000000 10.507812500000 50.411994934082 169 169 169
6.906250000000 10.507812500000 50.361000061035 173 173 173
6.906250000000 10.507812500000 50.310997009277 174 174 174
6.906250000000 10.515625000000 50.263008117676 174 174 174
6.906250000000 10.507812500000 50.211006164551 173 173 173
6.906250000000 10.507812500000 50.161994934082 169 169 169
6.906250000000 10.515625000000 50.112007141113 172 172 172
6.906250000000 10.507812500000 50.060997009277 174 174 174
6.906250000000 10.507812500000 50.011009216309 174 174 174
6.906250000000 10.507812500000 49.961006164551 175 175 175
6.906250000000 10.507812500000 49.911003112793 175 175 175
6.906250000000 10.507812500000 49.862007141113 180 180 180
6.890625000000 10.507812500000 49.812995910645 180 180 180
6.906250000000 10.507812500000 49.763008117676 178 178 178
6.906250000000 10.507812500000 49.713005065918 177 177 177
6.890625000000 10.507812500000 49.664009094238 180 180 180
6.906250000000 10.500000000000 49.614006042480 177 177 177
6.890625000000 10.507812500000 49.566001892090 175 175 175
6.906250000000 10.500000000000 49.515998840332 174 174 174
6.906250000000 10.500000000000 49.467002868652 178 178 178
6.906250000000 10.500000000000 49.416999816895 181 181 181
6.890625000000 10.507812500000 49.368003845215 176 176 176
6.906250000000 10.500000000000 49.319007873535 182 182 182
6.906250000000 10.500000000000 49.269004821777 179 179 179
6.875000000000 10.500000000000 49.221000671387 183 183 183
6.906250000000 10.500000000000 49.170997619629 182 182 182
6.875000000000 10.500000000000 49.122001647949 178 178 178
6.875000000000 10.500000000000 49.073005676270 178 178 178
6.875000000000 10.500000000000 49.024009704590 177 177 177
6.875000000000 10.500000000000 48.974006652832 177 177 177
6.875000000000 10.500000000000 48.924995422363 167 167 167
6.875000000000 10.500000000000 48.875999450684 178 178 178
6.875000000000 10.500000000000 48.827003479004 170 170 170
6.875000000000 10.500000000000 48.777000427246 170 170 170
6.875000000000 10.500000000000 48.728004455566 171 171 171
6.875000000000 10.492187500000 48.679008483887 174 174 174
6.875000000000 10.492187500000 48.629005432129 172 172 172
6.875000000000 10.500000000000 48.580009460449 174 174 174
6.875000000000 10.500000000000 48.530006408691 168 168 168
6.875000000000 10.492187500000 48.480995178223 170 170 170
6.875000000000 10.492187500000 48.431999206543 169 169 169
6.875000000000 10.500000000000 48.381996154785 161 161 161
6.875000000000 10.500000000000 48.332008361816 163 163 163
6.859375000000 10.515625000000 48.282005310059 164 164 164
6.875000000000 10.500000000000 48.233009338379 161 161 161
6.875000000000 10.500000000000 48.181999206543 157 157 157
6.859375000000 10.515625000000 48.131996154785 154 154 154
6.859375000000 10.515625000000 48.082008361816 152 152 152
6.859375000000 10.515625000000 48.032005310059 156 156 156
6.859375000000 10.515625000000 47.982002258301 148 148 148
6.859375000000 10.515625000000 47.931999206543 140 140 140
6.859375000000 10.515625000000 47.881996154785 140 140 140
6.875000000000 10.500000000000 47.832008361816 132 132 132
6.875000000000 10.500000000000 47.782005310059 124 124 124
6.859375000000 10.515625000000 47.730003356934 125 125 125
6.843750000000 10.507812500000 47.679008483887 132 132 132
6.875000000000 10.500000000000 47.631004333496 125 125 125
6.875000000000 10.500000000000 47.579002380371 119 119 119
6.875000000000 10.500000000000 47.528007507324 120 120 120
6.843750000000 10.507812500000 47.476005554199 118 118 118
6.859375000000 10.492187500000 47.427009582520 112 112 112
6.843750000000 10.507812500000 47.373008728027 109 109 109
6.875000000000 10.500000000000 47.325996398926 104 104 104
6.859375000000 10.492187500000 47.273002624512 104 104 104
6.843750000000 10.507812500000 47.219001770020 110 110 110
6.843750000000 10.507812500000 47.166007995605 99 99 99
6.859375000000 10.492187500000 47.118003845215 92 92 92
6.843750000000 10.500000000000 47.062995910645 98 98 98
6.843750000000 10.500000000000 47.011009216309 90 90 90
6.750000000000 10.546875000000 46.726005554199 188 188 188
6.750000000000 10.546875000000 46.672004699707 174 174 174
6.937500000000 10.460937500000 52.207008361816 8 8 8
6.937500000000 10.445312500000 52.269004821777 15 15 15
6.937500000000 10.460937500000 52.318000793457 24 24 24
6.937500000000 10.468750000000 52.370002746582 21 21 21
6.937500000000 10.445312500000 52.437995910645 29 29 29
6.937500000000 10.468750000000 52.483009338379 20 20 20
6.937500000000 10.460937500000 52.547004699707 30 30 30
6.937500000000 10.453125000000 52.605995178223 39 39 39
6.937500000000 10.460937500000 52.659996032715 65 65 65
6.937500000000 10.453125000000 52.722007751465 35 35 35
6.937500000000 10.468750000000 52.771995544434 42 42 42
6.953125000000 10.476562500000 52.825996398926 68 68 68
6.906250000000 10.828125000000 51.541999816895 112 112 112
6.937500000000 11.218750000000 51.556999206543 106 106 106
6.937500000000 11.218750000000 52.375999450684 6 6 6
6.968750000000 11.617187500000 51.527000427246 72 72 72
6.984375000000 11.632812500000 51.573005676270 33 33 33
7.000000000000 12.023437500000 51.540000915527 118 118 118
7.031250000000 12.031250000000 51.586997985840 41 41 41
6.968750000000 11.984375000000 52.043006896973 23 23 23
7.031250000000 12.406250000000 51.556007385254 120 120 120
6.968750000000 12.359375000000 51.907997131348 8 8 8
7.062500000000 12.812500000000 51.568000793457 120 120 120
7.031250000000 12.773437500000 51.743995666504 15 15 15
7.093750000000 13.195312500000 51.586006164551 116 116 116
7.093750000000 13.187500000000 51.696998596191 24 24 24
7.093750000000 13.570312500000 51.565010070801 72 72 72
7.125000000000 13.601562500000 51.603996276855 135 135 135
7.125000000000 13.593750000000 51.659996032715 92 92 92
7.109375000000 13.968750000000 51.331001281738 207 207 207
