20.171875000000 15.640625000000 1.653991699219 185 185 185
20.187500000000 15.640625000000 1.692001342773 185 185 185
20.171875000000 15.640625000000 1.731994628906 187 187 187
20.171875000000 15.640625000000 1.770004272461 187 187 187
20.171875000000 15.640625000000 1.806991577148 190 190 190
20.187500000000 15.640625000000 1.841995239258 190 190 190
20.187500000000 15.640625000000 1.880996704102 192 192 192
20.171875000000 15.640625000000 1.919998168945 190 190 190
20.187500000000 15.640625000000 1.955993652344 189 189 189
20.187500000000 15.640625000000 1.994003295898 187 187 187
20.046875000000 15.562500000000 2.070999145508 155 155 155
20.046875000000 15.562500000000 2.110000610352 157 157 157
20.046875000000 15.562500000000 2.143997192383 143 143 143
20.046875000000 15.562500000000 2.181991577148 140 140 140
20.046875000000 15.562500000000 2.218002319336 137 137 137
20.171875000000 15.625000000000 2.216003417969 185 185 185
20.203125000000 15.640625000000 2.250000000000 191 191 191
20.203125000000 15.640625000000 2.283996582031 178 178 178
20.328125000000 15.703125000000 2.289001464844 131 131 131
20.765625000000 15.953125000000 2.227005004883 143 143 143
20.250000000000 15.328125000000 1.565002441406 151 151 151
20.234375000000 15.312500000000 1.608001708984 180 180 180
20.250000000000 15.312500000000 1.645996093750 181 181 181
20.234375000000 15.312500000000 1.684997558594 185 185 185
20.234375000000 15.312500000000 1.723999023438 187 187 187
20.250000000000 15.312500000000 1.759994506836 191 191 191
20.250000000000 15.312500000000 1.798004150391 192 192 192
20.265625000000 15.312500000000 1.835998535156 190 190 190
20.265625000000 15.312500000000 1.873992919922 195 195 195
20.234375000000 15.312500000000 1.914993286133 195 195 195
20.250000000000 15.312500000000 1.951995849609 191 191 191
20.265625000000 15.312500000000 1.987991333008 196 196 196
20.203125000000 15.281250000000 2.042999267578 178 178 178
20.140625000000 15.250000000000 2.095993041992 182 182 182
20.140625000000 15.250000000000 2.134002685547 177 177 177
20.140625000000 15.250000000000 2.169998168945 163 163 163
20.140625000000 15.250000000000 2.207000732422 158 158 158
20.203125000000 15.281250000000 2.225997924805 174 174 174
20.265625000000 15.312500000000 2.246002197266 192 192 192
20.281250000000 15.328125000000 2.277999877930 169 169 169
20.390625000000 15.375000000000 2.289993286133 114 114 114
20.546875000000 15.468750000000 2.292999267578 102 102 102
20.109375000000 15.218750000000 2.643005371094 54 54 54
20.109375000000 15.234375000000 2.675003051758 23 23 23
20.203125000000 14.937500000000 2.089996337891 197 197 197
20.203125000000 14.937500000000 2.126998901367 201 201 201
20.203125000000 14.921875000000 2.164993286133 204 204 204
20.203125000000 14.921875000000 2.201004028320 204 204 204
20.218750000000 14.937500000000 2.235000610352 169 169 169
20.781250000000 15.234375000000 2.134002685547 154 154 154
20.796875000000 15.250000000000 2.171997070313 152 152 152
20.796875000000 15.250000000000 2.214004516602 156 156 156
20.796875000000 15.250000000000 2.248992919922 31 31 31
20.765625000000 15.234375000000 2.378005981445 54 54 54
20.765625000000 15.218750000000 2.419998168945 93 93 93
20.765625000000 15.218750000000 2.459991455078 120 120 120
20.765625000000 15.218750000000 2.500000000000 143 143 143
20.296875000000 14.968750000000 2.619995117188 160 160 160
20.765625000000 15.218750000000 2.578994750977 114 114 114
20.750000000000 15.218750000000 2.619995117188 98 98 98
20.765625000000 15.218750000000 2.656005859375 90 90 90
20.296875000000 14.609375000000 2.083999633789 209 209 209
20.265625000000 14.609375000000 2.125000000000 220 220 220
20.265625000000 14.609375000000 2.160995483398 221 221 221
20.281250000000 14.609375000000 2.197998046875 222 222 222
20.343750000000 14.640625000000 2.216995239258 4 4 4
20.828125000000 14.906250000000 2.139999389648 212 212 212
20.828125000000 14.906250000000 2.179992675781 208 208 208
20.843750000000 14.921875000000 2.218002319336 196 196 196
20.328125000000 14.625000000000 2.595001220703 52 52 52
20.343750000000 14.296875000000 2.083999633789 194 194 194
20.343750000000 14.296875000000 2.121994018555 224 224 224
20.343750000000 14.296875000000 2.160003662109 221 221 221
20.343750000000 14.296875000000 2.197998046875 222 222 222
20.421875000000 14.328125000000 2.218994140625 255 255 255
20.890625000000 14.593750000000 2.141998291016 223 223 223
20.890625000000 14.593750000000 2.184997558594 219 219 219
20.906250000000 14.593750000000 2.223999023438 198 198 198
20.437500000000 14.343750000000 2.555999755859 44 44 44
20.828125000000 14.546875000000 2.565994262695 42 42 42
20.406250000000 13.984375000000 2.084991455078 187 187 187
20.421875000000 13.984375000000 2.123001098633 223 223 223
20.406250000000 13.984375000000 2.162002563477 224 224 224
20.406250000000 13.968750000000 2.199996948242 223 223 223
20.953125000000 14.265625000000 2.108993530273 197 197 197
20.953125000000 14.281250000000 2.147994995117 223 223 223
20.953125000000 14.265625000000 2.190994262695 204 204 204
20.953125000000 14.265625000000 2.233993530273 178 178 178
20.578125000000 14.062500000000 2.511993408203 32 32 32
20.484375000000 13.671875000000 2.080001831055 162 162 162
20.484375000000 13.671875000000 2.119003295898 222 222 222
20.484375000000 13.671875000000 2.160003662109 219 219 219
20.484375000000 13.671875000000 2.197998046875 223 223 223
20.515625000000 13.687500000000 2.227996826172 223 223 223
20.984375000000 13.937500000000 2.156997680664 143 143 143
21.000000000000 13.937500000000 2.196990966797 200 200 200
21.000000000000 13.937500000000 2.238998413086 146 146 146
20.671875000000 13.765625000000 2.470993041992 58 58 58
20.859375000000 13.859375000000 2.475997924805 41 41 41
20.562500000000 13.359375000000 2.074005126953 92 92 92
20.562500000000 13.359375000000 2.113998413086 225 225 225
20.562500000000 13.359375000000 2.153991699219 223 223 223
20.562500000000 13.359375000000 2.194000244141 222 222 222
20.625000000000 13.390625000000 2.218994140625 245 245 245
21.046875000000 13.609375000000 2.160995483398 222 222 222
21.046875000000 13.609375000000 2.203002929688 217 217 217
21.062500000000 13.609375000000 2.242004394531 91 91 91
20.796875000000 13.468750000000 2.423004150391 62 62 62
20.859375000000 13.515625000000 2.449005126953 35 35 35
20.656250000000 13.046875000000 2.065994262695 38 38 38
20.640625000000 13.046875000000 2.108993530273 223 223 223
20.640625000000 13.046875000000 2.151000976563 223 223 223
20.625000000000 13.031250000000 2.192993164063 221 221 221
20.703125000000 13.078125000000 2.216003417969 239 239 239
21.093750000000 13.281250000000 2.166992187500 221 221 221
21.078125000000 13.281250000000 2.210998535156 216 216 216
20.703125000000 12.734375000000 2.108993530273 218 218 218
20.703125000000 12.734375000000 2.149002075195 221 221 221
20.703125000000 12.718750000000 2.190002441406 217 217 217
20.781250000000 12.765625000000 2.216003417969 234 234 234
21.140625000000 12.953125000000 2.173995971680 203 203 203
21.156250000000 12.953125000000 2.216003417969 206 206 206
20.781250000000 12.406250000000 2.110992431641 221 221 221
20.796875000000 12.406250000000 2.151000976563 221 221 221
20.796875000000 12.406250000000 2.190994262695 223 223 223
20.937500000000 12.484375000000 2.199996948242 237 237 237
21.203125000000 12.625000000000 2.184005737305 220 220 220
21.203125000000 12.640625000000 2.225006103516 180 180 180
20.859375000000 12.093750000000 2.104995727539 221 221 221
20.859375000000 12.093750000000 2.147994995117 223 223 223
20.859375000000 12.093750000000 2.190002441406 222 222 222
21.109375000000 12.234375000000 2.173004150391 230 230 230
21.234375000000 12.312500000000 2.190994262695 219 219 219
21.250000000000 12.312500000000 2.231994628906 108 108 108
21.078125000000 12.203125000000 2.311996459961 33 33 33
20.953125000000 11.781250000000 2.100997924805 221 221 221
20.953125000000 11.781250000000 2.143997192383 226 226 226
20.953125000000 11.781250000000 2.186004638672 221 221 221
21.062500000000 11.843750000000 2.201004028320 232 232 232
21.265625000000 11.968750000000 2.201004028320 211 211 211
21.156250000000 11.890625000000 2.268005371094 57 57 57
21.046875000000 11.468750000000 2.093994140625 206 206 206
21.031250000000 11.468750000000 2.138000488281 211 211 211
21.031250000000 11.468750000000 2.181991577148 212 212 212
21.218750000000 11.562500000000 2.184005737305 230 230 230
21.296875000000 11.625000000000 2.209991455078 208 208 208
21.109375000000 11.156250000000 2.095993041992 222 222 222
21.109375000000 11.156250000000 2.139999389648 224 224 224
21.109375000000 11.156250000000 2.184005737305 220 220 220
21.359375000000 11.296875000000 2.173995971680 219 219 219
21.375000000000 11.312500000000 2.214996337891 117 117 117
21.203125000000 10.843750000000 2.052001953125 57 57 57
21.187500000000 10.843750000000 2.095993041992 219 219 219
21.203125000000 10.843750000000 2.139999389648 222 222 222
21.203125000000 10.843750000000 2.182998657227 220 220 220
21.421875000000 10.968750000000 2.182998657227 213 213 213
21.265625000000 10.546875000000 2.052001953125 118 118 118
21.265625000000 10.546875000000 2.095993041992 205 205 205
21.265625000000 10.546875000000 2.140991210938 176 176 176
21.234375000000 10.515625000000 2.192001342773 153 153 153
21.250000000000 10.531250000000 2.231994628906 165 165 165
21.265625000000 10.531250000000 2.274993896484 162 162 162
21.265625000000 10.531250000000 2.317993164063 176 176 176
21.250000000000 10.531250000000 2.363998413086 127 127 127
21.343750000000 10.234375000000 2.048995971680 143 143 143
21.328125000000 10.218750000000 2.097991943359 210 210 210
21.328125000000 10.218750000000 2.140991210938 209 209 209
21.421875000000 10.265625000000 2.168991088867 224 224 224
21.531250000000 10.328125000000 2.192001342773 77 77 77
21.390625000000 9.906250000000 2.054000854492 182 182 182
21.390625000000 9.906250000000 2.100006103516 191 191 191
21.406250000000 9.906250000000 2.145004272461 215 215 215
21.546875000000 9.968750000000 2.160995483398 209 209 209
21.484375000000 9.593750000000 2.057998657227 210 210 210
21.484375000000 9.593750000000 2.104003906250 210 210 210
21.484375000000 9.593750000000 2.149993896484 211 211 211
21.609375000000 9.656250000000 2.169998168945 118 118 118
21.546875000000 9.265625000000 2.067993164063 220 220 220
21.546875000000 9.265625000000 2.113998413086 213 213 213
21.609375000000 9.296875000000 2.147994995117 211 211 211
21.625000000000 8.953125000000 2.024002075195 119 119 119
21.625000000000 8.953125000000 2.071990966797 172 172 172
21.625000000000 8.953125000000 2.119003295898 212 212 212
21.703125000000 9.000000000000 2.147994995117 160 160 160
21.687500000000 8.640625000000 2.029998779297 196 196 196
21.703125000000 8.640625000000 2.076995849609 220 220 220
21.703125000000 8.640625000000 2.123001098633 212 212 212
21.750000000000 8.312500000000 2.041992187500 212 212 212
21.765625000000 8.312500000000 2.087997436523 212 212 212
21.781250000000 8.328125000000 2.132003784180 146 146 146
21.843750000000 8.000000000000 2.048004150391 219 219 219
21.828125000000 8.000000000000 2.100006103516 218 218 218
21.875000000000 8.015625000000 2.139999389648 14 14 14
21.890625000000 7.687500000000 2.011993408203 182 182 182
21.906250000000 7.687500000000 2.061004638672 218 218 218
21.921875000000 7.687500000000 2.108001708984 186 186 186
21.968750000000 7.359375000000 2.020996093750 213 213 213
21.968750000000 7.359375000000 2.070999145508 219 219 219
21.984375000000 7.375000000000 2.117996215820 62 62 62
22.046875000000 7.062500000000 1.983001708984 75 75 75
22.031250000000 7.062500000000 2.035003662109 221 221 221
22.046875000000 7.062500000000 2.083999633789 203 203 203
22.109375000000 6.734375000000 1.998001098633 188 188 188
22.109375000000 6.734375000000 2.048004150391 215 215 215
22.109375000000 6.750000000000 2.097000122070 113 113 113
22.171875000000 6.421875000000 2.009002685547 204 204 204
22.171875000000 6.421875000000 2.061004638672 215 215 215
20.859375000000 16.203125000000 2.270996093750 123 123 123
20.781250000000 16.203125000000 2.248992919922 170 170 170
20.734375000000 16.203125000000 2.222991943359 168 168 168
20.734375000000 16.203125000000 2.188003540039 170 170 170
20.734375000000 16.203125000000 2.152999877930 169 169 169
20.734375000000 16.203125000000 2.117996215820 171 171 171
20.734375000000 16.203125000000 2.087005615234 167 167 167
19.796875000000 16.250000000000 2.261993408203 155 155 155
19.703125000000 16.250000000000 2.253997802734 143 143 143
19.671875000000 16.234375000000 2.235000610352 142 142 142
19.640625000000 16.234375000000 2.216003417969 133 133 133
19.640625000000 16.234375000000 2.186996459961 125 125 125
19.609375000000 16.234375000000 2.162002563477 120 120 120
19.609375000000 16.234375000000 2.132995605469 125 125 125
19.609375000000 16.234375000000 2.106002807617 129 129 129
19.609375000000 16.234375000000 2.076004028320 127 127 127
19.593750000000 16.234375000000 2.054000854492 117 117 117
20.765625000000 15.843750000000 2.229003906250 161 161 161
20.765625000000 15.843750000000 2.195999145508 164 164 164
20.765625000000 15.843750000000 2.160995483398 166 166 166
20.765625000000 15.843750000000 2.125000000000 169 169 169
20.765625000000 15.843750000000 2.089004516602 157 157 157
19.921875000000 15.875000000000 2.214996337891 146 146 146
19.890625000000 15.875000000000 2.192993164063 149 149 149
19.734375000000 15.890625000000 2.196990966797 163 163 163
19.796875000000 15.875000000000 2.153991699219 153 153 153
19.828125000000 15.875000000000 2.119995117188 158 158 158
19.828125000000 15.875000000000 2.087997436523 132 132 132
20.546875000000 15.859375000000 1.727005004883 27 27 27
20.500000000000 15.500000000000 2.296997070313 95 95 95
20.296875000000 15.500000000000 2.300994873047 107 107 107
20.234375000000 15.500000000000 2.283004760742 181 181 181
20.234375000000 15.500000000000 2.253997802734 184 184 184
20.140625000000 15.500000000000 2.238998413086 166 166 166
20.093750000000 15.500000000000 2.218994140625 161 161 161
20.078125000000 15.500000000000 2.188995361328 162 162 162
20.093750000000 15.500000000000 2.156997680664 170 170 170
20.109375000000 15.500000000000 2.123992919922 170 170 170
20.078125000000 15.500000000000 2.095001220703 163 163 163
20.171875000000 15.500000000000 2.042999267578 169 169 169
20.203125000000 15.500000000000 1.998992919922 173 173 173
20.234375000000 15.500000000000 1.962005615234 181 181 181
20.234375000000 15.500000000000 1.929000854492 199 199 199
20.234375000000 15.500000000000 1.897003173828 187 187 187
20.234375000000 15.500000000000 1.861999511719 193 193 193
20.234375000000 15.500000000000 1.830993652344 187 187 187
20.218750000000 15.500000000000 1.798995971680 188 188 188
20.234375000000 15.500000000000 1.763992309570 188 188 188
20.234375000000 15.500000000000 1.727996826172 185 185 185
20.234375000000 15.500000000000 1.695999145508 176 176 176
20.234375000000 15.500000000000 1.664001464844 155 155 155
20.234375000000 15.500000000000 1.630004882813 157 157 157
20.234375000000 15.500000000000 1.595001220703 146 146 146
20.328125000000 15.484375000000 1.526000976563 131 131 131
20.343750000000 15.484375000000 1.486999511719 128 128 128
20.328125000000 15.484375000000 1.455001831055 124 124 124
20.343750000000 15.484375000000 1.416992187500 123 123 123
20.328125000000 15.484375000000 1.382995605469 132 132 132
20.328125000000 15.484375000000 1.348999023438 134 134 134
20.343750000000 15.484375000000 1.311996459961 138 138 138
20.812500000000 15.125000000000 2.668991088867 26 26 26
20.171875000000 15.140625000000 2.682998657227 144 144 144
20.171875000000 15.140625000000 2.651000976563 143 143 143
20.171875000000 15.140625000000 2.621002197266 142 142 142
20.171875000000 15.140625000000 2.589004516602 150 150 150
20.171875000000 15.140625000000 2.557998657227 118 118 118
20.171875000000 15.140625000000 2.528991699219 90 90 90
20.140625000000 15.140625000000 2.500991821289 72 72 72
20.828125000000 15.125000000000 2.248001098633 130 130 130
20.812500000000 15.125000000000 2.214996337891 159 159 159
20.828125000000 15.125000000000 2.177993774414 168 168 168
20.828125000000 15.125000000000 2.141998291016 167 167 167
20.203125000000 15.140625000000 2.240005493164 156 156 156
20.171875000000 15.140625000000 2.212997436523 163 163 163
20.171875000000 15.140625000000 2.181991577148 160 160 160
20.171875000000 15.140625000000 2.151000976563 167 167 167
20.171875000000 15.140625000000 2.119995117188 166 166 166
20.171875000000 15.140625000000 2.087005615234 158 158 158
20.140625000000 15.140625000000 2.061996459961 27 27 27
20.828125000000 14.406250000000 2.561004638672 43 43 43
20.421875000000 14.406250000000 2.548995971680 33 33 33
20.953125000000 14.390625000000 2.222000122070 202 202 202
20.953125000000 14.390625000000 2.184997558594 219 219 219
20.953125000000 14.390625000000 2.149002075195 215 215 215
20.421875000000 14.406250000000 2.220993041992 250 250 250
20.328125000000 14.421875000000 2.207000732422 215 215 215
20.343750000000 14.421875000000 2.173004150391 218 218 218
20.328125000000 14.421875000000 2.140991210938 219 219 219
20.328125000000 14.421875000000 2.108993530273 216 216 216
20.343750000000 14.421875000000 2.074005126953 114 114 114
20.843750000000 14.046875000000 2.503997802734 51 51 51
20.578125000000 14.062500000000 2.507995605469 62 62 62
21.015625000000 14.031250000000 2.225997924805 199 199 199
21.000000000000 14.031250000000 2.190002441406 196 196 196
21.000000000000 14.031250000000 2.153991699219 197 197 197
20.437500000000 14.046875000000 2.233001708984 224 224 224
20.421875000000 14.046875000000 2.203002929688 220 220 220
20.421875000000 14.046875000000 2.168991088867 217 217 217
20.421875000000 14.046875000000 2.136993408203 213 213 213
20.421875000000 14.046875000000 2.104003906250 214 214 214
20.859375000000 13.687500000000 2.481002807617 37 37 37
20.703125000000 13.687500000000 2.466995239258 65 65 65
21.046875000000 13.671875000000 2.231002807617 205 205 205
21.078125000000 13.671875000000 2.192001342773 217 217 217
21.062500000000 13.671875000000 2.156005859375 215 215 215
20.515625000000 13.703125000000 2.231002807617 217 217 217
20.500000000000 13.703125000000 2.199005126953 216 216 216
20.515625000000 13.703125000000 2.162994384766 215 215 215
20.515625000000 13.703125000000 2.130004882813 218 218 218
20.484375000000 13.703125000000 2.097991943359 193 193 193
20.859375000000 13.312500000000 2.423004150391 82 82 82
21.109375000000 13.312500000000 2.235992431641 189 189 189
21.109375000000 13.312500000000 2.197998046875 217 217 217
21.109375000000 13.312500000000 2.162002563477 216 216 216
20.578125000000 13.328125000000 2.227996826172 217 217 217
20.578125000000 13.328125000000 2.194000244141 217 217 217
20.578125000000 13.343750000000 2.162002563477 215 215 215
20.578125000000 13.328125000000 2.125991821289 215 215 215
20.578125000000 13.328125000000 2.093002319336 174 174 174
20.937500000000 12.953125000000 2.393005371094 51 51 51
21.171875000000 12.937500000000 2.244995117188 127 127 127
21.171875000000 12.937500000000 2.205993652344 207 207 207
21.171875000000 12.937500000000 2.169998168945 201 201 201
20.671875000000 12.968750000000 2.225997924805 217 217 217
20.671875000000 12.968750000000 2.194000244141 214 214 214
20.671875000000 12.968750000000 2.158996582031 213 213 213
20.671875000000 12.968750000000 2.123001098633 216 216 216
20.671875000000 12.968750000000 2.087005615234 159 159 159
21.218750000000 12.593750000000 2.214004516602 215 215 215
21.203125000000 12.593750000000 2.177001953125 217 217 217
20.781250000000 12.609375000000 2.222000122070 221 221 221
20.765625000000 12.609375000000 2.192001342773 212 212 212
20.765625000000 12.609375000000 2.156005859375 214 214 214
20.765625000000 12.609375000000 2.119003295898 213 213 213
20.765625000000 12.609375000000 2.084991455078 129 129 129
21.265625000000 12.234375000000 2.222991943359 200 200 200
21.265625000000 12.234375000000 2.184997558594 215 215 215
20.890625000000 12.250000000000 2.220001220703 223 223 223
20.843750000000 12.250000000000 2.192001342773 211 211 211
20.843750000000 12.250000000000 2.156005859375 215 215 215
20.843750000000 12.250000000000 2.119003295898 215 215 215
20.859375000000 12.250000000000 2.080001831055 84 84 84
21.312500000000 11.875000000000 2.231994628906 164 164 164
21.296875000000 11.875000000000 2.195999145508 213 213 213
20.953125000000 11.875000000000 2.222000122070 212 212 212
20.937500000000 11.875000000000 2.188995361328 211 211 211
20.937500000000 11.875000000000 2.151992797852 215 215 215
20.937500000000 11.875000000000 2.115005493164 206 206 206
20.953125000000 11.875000000000 2.074996948242 70 70 70
21.250000000000 11.515625000000 2.257003784180 43 43 43
21.359375000000 11.500000000000 2.199005126953 219 219 219
21.078125000000 11.515625000000 2.214004516602 220 220 220
21.015625000000 11.515625000000 2.184997558594 216 216 216
21.015625000000 11.515625000000 2.147994995117 211 211 211
21.015625000000 11.515625000000 2.111999511719 212 212 212
21.046875000000 11.515625000000 2.069992065430 55 55 55
21.390625000000 11.140625000000 2.209991455078 188 188 188
21.265625000000 11.156250000000 2.194000244141 218 218 218
21.140625000000 11.140625000000 2.179992675781 217 217 217
21.140625000000 11.140625000000 2.143005371094 214 214 214
21.140625000000 11.140625000000 2.102996826172 213 213 213
21.171875000000 11.140625000000 2.059005737305 57 57 57
21.453125000000 10.781250000000 2.181991577148 212 212 212
21.234375000000 10.781250000000 2.181991577148 213 213 213
21.218750000000 10.781250000000 2.145996093750 215 215 215
21.218750000000 10.781250000000 2.108001708984 215 215 215
21.234375000000 10.781250000000 2.067993164063 156 156 156
21.515625000000 10.421875000000 2.192001342773 184 184 184
21.328125000000 10.437500000000 2.184005737305 215 215 215
21.296875000000 10.437500000000 2.149993896484 211 211 211
21.312500000000 10.437500000000 2.110000610352 212 212 212
21.312500000000 10.437500000000 2.070999145508 192 192 192
21.593750000000 10.062500000000 2.194992065430 14 14 14
21.484375000000 10.062500000000 2.175003051758 215 215 215
21.375000000000 10.078125000000 2.152999877930 211 211 211
21.390625000000 10.078125000000 2.112991333008 195 195 195
21.390625000000 10.078125000000 2.072998046875 204 204 204
21.593750000000 9.703125000000 2.169998168945 206 206 206
21.468750000000 9.703125000000 2.151000976563 214 214 214
21.484375000000 9.703125000000 2.110000610352 172 172 172
21.468750000000 9.703125000000 2.070999145508 200 200 200
21.671875000000 9.328125000000 2.171005249023 134 134 134
21.546875000000 9.343750000000 2.149002075195 205 205 205
21.546875000000 9.343750000000 2.108993530273 180 180 180
21.546875000000 9.343750000000 2.069000244141 206 206 206
21.671875000000 8.968750000000 2.147003173828 203 203 203
21.640625000000 8.968750000000 2.112991333008 188 188 188
21.640625000000 8.968750000000 2.069992065430 181 181 181
21.671875000000 8.968750000000 2.024993896484 85 85 85
21.796875000000 8.609375000000 2.147994995117 147 147 147
21.734375000000 8.609375000000 2.117004394531 212 212 212
21.718750000000 8.609375000000 2.076995849609 213 213 213
21.734375000000 8.609375000000 2.033004760742 176 176 176
21.796875000000 8.250000000000 2.123001098633 200 200 200
21.796875000000 8.250000000000 2.080993652344 207 207 207
21.796875000000 8.250000000000 2.037994384766 208 208 208
21.890625000000 7.875000000000 2.119003295898 193 193 193
21.890625000000 7.875000000000 2.078994750977 212 212 212
21.890625000000 7.875000000000 2.035995483398 201 201 201
21.984375000000 7.515625000000 2.119995117188 157 157 157
21.953125000000 7.515625000000 2.080001831055 210 210 210
21.968750000000 7.515625000000 2.035995483398 207 207 207
22.062500000000 7.171875000000 2.123001098633 26 26 26
22.046875000000 7.171875000000 2.083999633789 211 211 211
22.046875000000 7.171875000000 2.039993286133 210 210 210
22.062500000000 7.171875000000 1.992004394531 74 74 74
22.109375000000 6.796875000000 2.089996337891 198 198 198
22.109375000000 6.796875000000 2.046997070313 208 208 208
22.109375000000 6.796875000000 2.000991821289 174 174 174
22.171875000000 6.437500000000 2.097000122070 158 158 158
22.187500000000 6.437500000000 2.050994873047 205 205 205
22.187500000000 6.437500000000 2.007003784180 188 188 188
20.968750000000 16.296875000000 2.266998291016 67 67 67
20.828125000000 16.390625000000 2.259994506836 108 108 108
20.765625000000 16.437500000000 2.233001708984 137 137 137
20.765625000000 16.437500000000 2.194000244141 133 133 133
20.750000000000 16.437500000000 2.154998779297 138 138 138
20.750000000000 16.437500000000 2.115005493164 136 136 136
20.765625000000 16.437500000000 2.072998046875 137 137 137
20.765625000000 16.421875000000 2.029998779297 95 95 95
20.796875000000 16.046875000000 2.242996215820 45 45 45
20.796875000000 16.046875000000 2.205993652344 124 124 124
20.796875000000 16.046875000000 2.166000366211 120 120 120
20.796875000000 16.046875000000 2.125000000000 124 124 124
20.765625000000 16.062500000000 2.087005615234 109 109 109
20.703125000000 15.750000000000 2.246994018555 140 140 140
20.640625000000 15.781250000000 2.222991943359 163 163 163
20.625000000000 15.796875000000 2.186004638672 160 160 160
20.625000000000 15.796875000000 2.147003173828 164 164 164
20.609375000000 15.812500000000 2.111999511719 154 154 154
20.578125000000 15.828125000000 2.082992553711 131 131 131
20.578125000000 15.828125000000 2.039993286133 121 121 121
20.640625000000 15.781250000000 1.981994628906 93 93 93
19.921875000000 16.234375000000 2.156997680664 154 154 154
20.625000000000 15.796875000000 1.906997680664 103 103 103
20.625000000000 15.796875000000 1.865997314453 112 112 112
20.609375000000 15.796875000000 1.828002929688 129 129 129
20.640625000000 15.781250000000 1.781005859375 181 181 181
20.546875000000 15.843750000000 1.768997192383 162 162 162
20.546875000000 15.828125000000 1.727005004883 157 157 157
20.546875000000 15.843750000000 1.688003540039 165 165 165
20.546875000000 15.843750000000 1.647994995117 163 163 163
20.546875000000 15.843750000000 1.608993530273 165 165 165
20.546875000000 15.843750000000 1.569000244141 95 95 95
20.765625000000 15.328125000000 2.686004638672 52 52 52
20.796875000000 15.328125000000 2.643997192383 18 18 18
20.796875000000 15.328125000000 2.522994995117 66 66 66
20.796875000000 15.328125000000 2.483001708984 72 72 72
20.796875000000 15.328125000000 2.444000244141 87 87 87
20.781250000000 15.328125000000 2.406005859375 110 110 110
20.796875000000 15.328125000000 2.363998413086 99 99 99
20.781250000000 15.328125000000 2.326004028320 88 88 88
20.781250000000 15.328125000000 2.285995483398 77 77 77
20.578125000000 15.453125000000 2.292999267578 115 115 115
20.421875000000 15.546875000000 2.293991088867 101 101 101
20.265625000000 15.640625000000 2.294998168945 140 140 140
20.203125000000 15.687500000000 2.270996093750 175 175 175
20.203125000000 15.687500000000 2.235000610352 173 173 173
20.203125000000 15.687500000000 2.199005126953 173 173 173
20.078125000000 15.765625000000 2.195999145508 159 159 159
19.750000000000 15.968750000000 2.255004882813 124 124 124
19.671875000000 16.015625000000 2.248001098633 131 131 131
19.640625000000 16.031250000000 2.220001220703 141 141 141
19.640625000000 16.015625000000 2.184997558594 149 149 149
19.640625000000 16.015625000000 2.151992797852 156 156 156
19.640625000000 16.031250000000 2.121002197266 145 145 145
19.640625000000 16.015625000000 2.084991455078 147 147 147
19.640625000000 16.015625000000 2.052001953125 145 145 145
19.703125000000 16.000000000000 1.998992919922 185 185 185
20.203125000000 15.687500000000 1.787994384766 169 169 169
20.203125000000 15.687500000000 1.750991821289 168 168 168
20.203125000000 15.687500000000 1.710998535156 168 168 168
20.187500000000 15.687500000000 1.677993774414 167 167 167
20.203125000000 15.687500000000 1.636001586914 166 166 166
20.203125000000 15.687500000000 1.595993041992 165 165 165
20.328125000000 15.609375000000 1.509002685547 164 164 164
20.343750000000 15.593750000000 1.462005615234 159 159 159
20.343750000000 15.593750000000 1.421005249023 155 155 155
20.343750000000 15.593750000000 1.378997802734 156 156 156
20.359375000000 15.593750000000 1.335998535156 156 156 156
20.890625000000 14.890625000000 2.236999511719 164 164 164
20.859375000000 14.906250000000 2.199996948242 189 189 189
20.843750000000 14.921875000000 2.166000366211 182 182 182
20.859375000000 14.906250000000 2.119003295898 183 183 183
20.875000000000 14.906250000000 2.074005126953 104 104 104
20.140625000000 15.359375000000 2.229995727539 136 136 136
20.140625000000 15.359375000000 2.192993164063 114 114 114
20.140625000000 15.359375000000 2.158004760742 128 128 128
20.140625000000 15.359375000000 2.121994018555 107 107 107
20.125000000000 15.359375000000 2.087005615234 106 106 106
20.859375000000 14.546875000000 2.584991455078 14 14 14
20.953125000000 14.484375000000 2.235000610352 165 165 165
20.953125000000 14.484375000000 2.194992065430 186 186 186
20.953125000000 14.484375000000 2.153991699219 198 198 198
20.953125000000 14.484375000000 2.111999511719 191 191 191
20.343750000000 14.859375000000 2.227005004883 72 72 72
20.234375000000 14.921875000000 2.216003417969 170 170 170
20.265625000000 14.921875000000 2.175994873047 177 177 177
20.234375000000 14.921875000000 2.141998291016 175 175 175
20.234375000000 14.921875000000 2.104995727539 176 176 176
20.250000000000 14.921875000000 2.065994262695 67 67 67
20.859375000000 14.187500000000 2.522003173828 30 30 30
20.437500000000 14.437500000000 2.561996459961 23 23 23
21.031250000000 14.078125000000 2.238998413086 153 153 153
21.015625000000 14.078125000000 2.196990966797 186 186 186
21.015625000000 14.078125000000 2.156997680664 199 199 199
21.015625000000 14.078125000000 2.112991333008 195 195 195
20.359375000000 14.484375000000 2.238998413086 132 132 132
20.328125000000 14.500000000000 2.208999633789 198 198 198
20.328125000000 14.500000000000 2.169998168945 198 198 198
20.328125000000 14.500000000000 2.132995605469 198 198 198
20.328125000000 14.500000000000 2.097000122070 190 190 190
21.093750000000 13.671875000000 2.244003295898 72 72 72
21.078125000000 13.671875000000 2.203002929688 194 194 194
21.078125000000 13.671875000000 2.160995483398 200 200 200
21.078125000000 13.671875000000 2.119003295898 195 195 195
20.453125000000 14.062500000000 2.231002807617 153 153 153
20.421875000000 14.078125000000 2.203002929688 197 197 197
20.421875000000 14.078125000000 2.162994384766 196 196 196
20.421875000000 14.078125000000 2.125000000000 198 198 198
20.421875000000 14.078125000000 2.084991455078 170 170 170
20.875000000000 13.437500000000 2.434997558594 50 50 50
21.156250000000 13.265625000000 2.248001098633 32 32 32
21.140625000000 13.281250000000 2.210998535156 194 194 194
21.140625000000 13.265625000000 2.166000366211 197 197 197
21.140625000000 13.265625000000 2.123992919922 197 197 197
20.515625000000 13.656250000000 2.231994628906 182 182 182
20.515625000000 13.656250000000 2.192001342773 196 196 196
20.515625000000 13.656250000000 2.153991699219 196 196 196
20.515625000000 13.656250000000 2.113998413086 196 196 196
20.531250000000 13.656250000000 2.071990966797 39 39 39
21.015625000000 12.609375000000 2.354995727539 20 20 20
21.265625000000 12.468750000000 2.218002319336 187 187 187
21.265625000000 12.484375000000 2.175003051758 194 194 194
21.250000000000 12.484375000000 2.132995605469 199 199 199
20.734375000000 12.796875000000 2.212997436523 193 193 193
20.734375000000 12.796875000000 2.171997070313 195 195 195
20.734375000000 12.796875000000 2.130004882813 193 193 193
20.734375000000 12.796875000000 2.089996337891 161 161 161
21.093750000000 12.203125000000 2.315002441406 19 19 19
21.328125000000 12.062500000000 2.220001220703 177 177 177
21.328125000000 12.062500000000 2.177993774414 200 200 200
21.296875000000 12.078125000000 2.138000488281 198 198 198
20.828125000000 12.359375000000 2.203994750977 192 192 192
20.828125000000 12.359375000000 2.162994384766 194 194 194
20.828125000000 12.359375000000 2.121002197266 197 197 197
20.843750000000 12.359375000000 2.078002929688 73 73 73
21.296875000000 11.718750000000 2.248992919922 105 105 105
21.359375000000 11.687500000000 2.192993164063 198 198 198
21.109375000000 11.828125000000 2.203002929688 218 218 218
20.937500000000 11.937500000000 2.199996948242 194 194 194
20.953125000000 11.937500000000 2.156997680664 194 194 194
20.953125000000 11.937500000000 2.115005493164 190 190 190
20.953125000000 11.937500000000 2.071990966797 18 18 18
21.390625000000 11.296875000000 2.205993652344 178 178 178
21.328125000000 11.343750000000 2.175003051758 205 205 205
21.046875000000 11.500000000000 2.194992065430 192 192 192
21.046875000000 11.500000000000 2.152999877930 192 192 192
21.046875000000 11.500000000000 2.108001708984 194 194 194
21.484375000000 10.875000000000 2.207000732422 135 135 135
21.421875000000 10.906250000000 2.171997070313 191 191 191
21.171875000000 11.062500000000 2.184005737305 190 190 190
21.187500000000 11.046875000000 2.138992309570 195 195 195
21.187500000000 11.062500000000 2.095001220703 186 186 186
21.343750000000 10.609375000000 2.343994140625 80 80 80
21.328125000000 10.609375000000 2.302001953125 64 64 64
21.328125000000 10.609375000000 2.257995605469 22 22 22
21.421875000000 10.546875000000 2.188995361328 144 144 144
21.281250000000 10.640625000000 2.177993774414 194 194 194
21.296875000000 10.640625000000 2.132003784180 192 192 192
21.296875000000 10.640625000000 2.087005615234 188 188 188
21.578125000000 10.078125000000 2.173995971680 179 179 179
21.390625000000 10.203125000000 2.171997070313 188 188 188
21.375000000000 10.218750000000 2.128997802734 178 178 178
21.375000000000 10.218750000000 2.083999633789 186 186 186
21.671875000000 9.656250000000 2.177993774414 60 60 60
21.515625000000 9.750000000000 2.162994384766 186 186 186
21.468750000000 9.781250000000 2.128005981445 164 164 164
21.468750000000 9.796875000000 2.082992553711 181 181 181
21.687500000000 9.296875000000 2.151000976563 174 174 174
21.578125000000 9.359375000000 2.128005981445 187 187 187
21.546875000000 9.375000000000 2.082992553711 176 176 176
21.578125000000 9.359375000000 2.033004760742 104 104 104
21.765625000000 8.875000000000 2.156997680664 124 124 124
21.671875000000 8.937500000000 2.128997802734 179 179 179
21.671875000000 8.937500000000 2.082000732422 164 164 164
21.671875000000 8.937500000000 2.031997680664 131 131 131
21.765625000000 8.515625000000 2.130004882813 175 175 175
21.765625000000 8.515625000000 2.082000732422 187 187 187
21.765625000000 8.500000000000 2.031997680664 159 159 159
21.859375000000 8.078125000000 2.128005981445 160 160 160
21.843750000000 8.078125000000 2.082992553711 185 185 185
21.843750000000 8.093750000000 2.035003662109 176 176 176
21.968750000000 7.640625000000 2.125991821289 117 117 117
21.953125000000 7.640625000000 2.080001831055 187 187 187
21.953125000000 7.640625000000 2.028991699219 184 184 184
22.031250000000 7.250000000000 2.085998535156 188 188 188
22.031250000000 7.250000000000 2.035003662109 188 188 188
22.140625000000 6.812500000000 2.089996337891 192 192 192
22.140625000000 6.828125000000 2.043991088867 185 185 185
22.359375000000 6.328125000000 2.231994628906 118 118 118
22.359375000000 6.328125000000 2.179000854492 214 214 214
22.234375000000 6.390625000000 2.097991943359 112 112 112
22.203125000000 6.421875000000 2.052001953125 186 186 186
22.218750000000 6.406250000000 1.998992919922 148 148 148
8.421875000000 3.296875000000 2.229003906250 159 159 159
8.437500000000 3.296875000000 2.195999145508 110 110 110
8.453125000000 3.296875000000 2.160003662109 95 95 95
8.390625000000 3.312500000000 2.111999511719 200 200 200
8.359375000000 3.312500000000 2.069992065430 213 213 213
8.328125000000 3.640625000000 2.268005371094 167 167 167
8.562500000000 3.625000000000 2.272994995117 155 155 155
8.609375000000 3.625000000000 2.244003295898 148 148 148
8.609375000000 3.625000000000 2.210998535156 163 163 163
8.625000000000 3.625000000000 2.177001953125 162 162 162
8.625000000000 3.625000000000 2.141998291016 161 161 161
8.625000000000 3.625000000000 2.106994628906 157 157 157
9.609375000000 3.593750000000 2.281005859375 137 137 137
9.734375000000 3.578125000000 2.279998779297 148 148 148
9.828125000000 3.578125000000 2.272003173828 171 171 171
9.828125000000 3.578125000000 2.246002197266 184 184 184
9.828125000000 3.578125000000 2.216003417969 183 183 183
9.828125000000 3.578125000000 2.186004638672 189 189 189
9.828125000000 3.578125000000 2.158996582031 184 184 184
9.828125000000 3.578125000000 2.128997802734 179 179 179
9.828125000000 3.578125000000 2.100006103516 180 180 180
9.828125000000 3.578125000000 2.071990966797 181 181 181
9.796875000000 3.578125000000 2.035003662109 172 172 172
8.921875000000 3.937500000000 2.289993286133 109 109 109
9.078125000000 3.937500000000 2.285003662109 87 87 87
9.171875000000 3.921875000000 2.272003173828 95 95 95
9.203125000000 3.921875000000 2.244995117188 113 113 113
9.234375000000 3.921875000000 2.218994140625 118 118 118
9.484375000000 3.921875000000 2.242996215820 153 153 153
9.468750000000 3.921875000000 2.207992553711 148 148 148
9.468750000000 3.921875000000 2.177001953125 148 148 148
9.484375000000 3.921875000000 2.149002075195 144 144 144
9.484375000000 3.921875000000 2.119003295898 147 147 147
9.484375000000 3.921875000000 2.085998535156 136 136 136
9.250000000000 3.921875000000 1.998992919922 145 145 145
9.234375000000 3.921875000000 1.962005615234 144 144 144
9.234375000000 3.921875000000 1.930999755859 149 149 149
9.234375000000 3.921875000000 1.895004272461 153 153 153
9.234375000000 3.921875000000 1.865005493164 152 152 152
9.234375000000 3.921875000000 1.832000732422 152 152 152
9.234375000000 3.921875000000 1.798995971680 158 158 158
9.250000000000 3.921875000000 1.766998291016 159 159 159
9.234375000000 3.921875000000 1.733001708984 162 162 162
9.250000000000 3.921875000000 1.701004028320 163 163 163
9.250000000000 3.921875000000 1.666992187500 171 171 171
9.234375000000 3.921875000000 1.632995605469 165 165 165
9.234375000000 3.921875000000 1.595001220703 175 175 175
8.968750000000 4.265625000000 2.315994262695 116 116 116
9.171875000000 4.250000000000 2.319992065430 120 120 120
9.234375000000 4.250000000000 2.302993774414 190 190 190
9.234375000000 4.250000000000 2.270996093750 188 188 188
9.359375000000 4.250000000000 2.263000488281 170 170 170
9.390625000000 4.250000000000 2.238998413086 178 178 178
9.390625000000 4.250000000000 2.207992553711 174 174 174
9.390625000000 4.250000000000 2.177001953125 178 178 178
9.390625000000 4.250000000000 2.145996093750 172 172 172
9.390625000000 4.250000000000 2.112991333008 175 175 175
9.296875000000 4.250000000000 2.056991577148 177 177 177
9.234375000000 4.250000000000 2.013000488281 172 172 172
9.234375000000 4.250000000000 1.979995727539 173 173 173
9.234375000000 4.250000000000 1.949005126953 173 173 173
9.234375000000 4.250000000000 1.916000366211 178 178 178
9.234375000000 4.250000000000 1.882003784180 178 178 178
9.234375000000 4.250000000000 1.848999023438 179 179 179
9.234375000000 4.250000000000 1.815994262695 158 158 158
9.234375000000 4.250000000000 1.783996582031 171 171 171
9.234375000000 4.250000000000 1.750991821289 177 177 177
9.234375000000 4.250000000000 1.716003417969 172 172 172
9.234375000000 4.250000000000 1.682998657227 157 157 157
9.250000000000 4.250000000000 1.651992797852 170 170 170
9.234375000000 4.250000000000 1.615997314453 158 158 158
9.109375000000 4.265625000000 1.535003662109 106 106 106
9.093750000000 4.265625000000 1.496994018555 103 103 103
9.078125000000 4.265625000000 1.457992553711 97 97 97
9.078125000000 4.265625000000 1.421005249023 97 97 97
9.078125000000 4.265625000000 1.384002685547 88 88 88
9.078125000000 4.265625000000 1.350997924805 88 88 88
9.031250000000 4.265625000000 1.294998168945 150 150 150
9.078125000000 4.265625000000 1.278991699219 107 107 107
9.093750000000 4.265625000000 1.250000000000 124 124 124
9.156250000000 4.265625000000 1.235992431641 121 121 121
9.203125000000 4.250000000000 1.222991943359 161 161 161
9.234375000000 4.250000000000 1.197998046875 189 189 189
9.265625000000 4.250000000000 1.169998168945 195 195 195
8.718750000000 4.609375000000 2.701004028320 92 92 92
9.296875000000 4.562500000000 2.703994750977 89 89 89
9.296875000000 4.562500000000 2.641998291016 54 54 54
9.296875000000 4.562500000000 2.610992431641 129 129 129
9.296875000000 4.562500000000 2.580993652344 139 139 139
9.296875000000 4.562500000000 2.550994873047 141 141 141
9.296875000000 4.562500000000 2.518997192383 157 157 157
9.328125000000 4.562500000000 2.490005493164 170 170 170
9.328125000000 4.562500000000 2.458999633789 169 169 169
9.328125000000 4.562500000000 2.427993774414 164 164 164
9.296875000000 4.562500000000 2.393005371094 162 162 162
9.265625000000 4.562500000000 2.358001708984 174 174 174
9.296875000000 4.562500000000 2.328994750977 165 165 165
8.765625000000 4.609375000000 2.190994262695 151 151 151
9.312500000000 4.562500000000 2.270996093750 212 212 212
9.359375000000 4.578125000000 2.250000000000 180 180 180
9.359375000000 4.578125000000 2.218994140625 185 185 185
9.359375000000 4.578125000000 2.186996459961 181 181 181
9.375000000000 4.578125000000 2.158996582031 178 178 178
9.375000000000 4.578125000000 2.126998901367 174 174 174
9.375000000000 4.578125000000 2.095001220703 87 87 87
8.765625000000 4.921875000000 2.653991699219 66 66 66
8.718750000000 4.937500000000 2.268997192383 210 210 210
8.718750000000 4.937500000000 2.235000610352 216 216 216
8.734375000000 4.937500000000 2.201004028320 217 217 217
8.734375000000 4.937500000000 2.168991088867 207 207 207
9.328125000000 4.906250000000 2.257995605469 220 220 220
9.328125000000 4.906250000000 2.227996826172 220 220 220
9.343750000000 4.906250000000 2.195999145508 220 220 220
9.328125000000 4.906250000000 2.162002563477 223 223 223
9.343750000000 4.906250000000 2.134002685547 215 215 215
9.187500000000 5.234375000000 2.625000000000 59 59 59
8.703125000000 5.265625000000 2.285003662109 169 169 169
8.718750000000 5.265625000000 2.250991821289 193 193 193
8.703125000000 5.265625000000 2.214996337891 215 215 215
8.718750000000 5.265625000000 2.181991577148 218 218 218
9.296875000000 5.218750000000 2.265991210938 224 224 224
9.312500000000 5.234375000000 2.236999511719 218 218 218
9.312500000000 5.234375000000 2.205001831055 221 221 221
9.312500000000 5.234375000000 2.171997070313 221 221 221
9.328125000000 5.234375000000 2.143005371094 215 215 215
9.328125000000 5.234375000000 2.110992431641 46 46 46
8.828125000000 5.578125000000 2.593002319336 76 76 76
9.125000000000 5.562500000000 2.600997924805 79 79 79
8.703125000000 5.593750000000 2.298004150391 51 51 51
8.703125000000 5.593750000000 2.265991210938 198 198 198
8.703125000000 5.593750000000 2.229995727539 216 216 216
8.703125000000 5.593750000000 2.194992065430 221 221 221
9.250000000000 5.562500000000 2.270004272461 234 234 234
9.296875000000 5.562500000000 2.248001098633 218 218 218
9.296875000000 5.546875000000 2.214004516602 217 217 217
9.296875000000 5.562500000000 2.184997558594 218 218 218
9.296875000000 5.546875000000 2.149993896484 222 222 222
9.296875000000 5.546875000000 2.119003295898 115 115 115
9.046875000000 5.890625000000 2.572998046875 76 76 76
8.703125000000 5.921875000000 2.281997680664 196 196 196
8.703125000000 5.921875000000 2.248992919922 205 205 205
8.703125000000 5.921875000000 2.214004516602 198 198 198
8.703125000000 5.921875000000 2.175003051758 190 190 190
9.265625000000 5.875000000000 2.259002685547 218 218 218
9.265625000000 5.875000000000 2.227005004883 214 214 214
9.281250000000 5.875000000000 2.195999145508 217 217 217
9.265625000000 5.875000000000 2.162002563477 216 216 216
9.281250000000 5.875000000000 2.132995605469 168 168 168
8.953125000000 6.218750000000 2.544998168945 80 80 80
8.703125000000 6.250000000000 2.300994873047 81 81 81
8.703125000000 6.250000000000 2.265991210938 209 209 209
8.703125000000 6.250000000000 2.231002807617 221 221 221
8.734375000000 6.234375000000 2.201004028320 214 214 214
9.265625000000 6.203125000000 2.270996093750 218 218 218
9.250000000000 6.203125000000 2.236999511719 221 221 221
9.265625000000 6.203125000000 2.205993652344 219 219 219
9.250000000000 6.203125000000 2.171997070313 219 219 219
9.265625000000 6.203125000000 2.141998291016 197 197 197
8.984375000000 6.546875000000 2.500000000000 80 80 80
8.734375000000 6.562500000000 2.289001464844 184 184 184
8.734375000000 6.562500000000 2.253005981445 221 221 221
8.734375000000 6.562500000000 2.218002319336 220 220 220
9.156250000000 6.531250000000 2.268005371094 235 235 235
9.234375000000 6.531250000000 2.250000000000 219 219 219
9.234375000000 6.531250000000 2.218002319336 218 218 218
9.234375000000 6.531250000000 2.186996459961 218 218 218
9.234375000000 6.531250000000 2.152999877930 218 218 218
8.953125000000 6.875000000000 2.479003906250 74 74 74
8.734375000000 6.890625000000 2.306991577148 77 77 77
8.734375000000 6.890625000000 2.272003173828 211 211 211
8.734375000000 6.890625000000 2.238998413086 186 186 186
9.093750000000 6.875000000000 2.272003173828 212 212 212
9.203125000000 6.859375000000 2.261993408203 218 218 218
9.203125000000 6.859375000000 2.229995727539 212 212 212
9.203125000000 6.859375000000 2.196990966797 214 214 214
9.203125000000 6.859375000000 2.164001464844 218 218 218
9.171875000000 6.859375000000 2.125991821289 64 64 64
8.953125000000 7.203125000000 2.462005615234 46 46 46
8.734375000000 7.218750000000 2.289993286133 200 200 200
8.734375000000 7.218750000000 2.253997802734 215 215 215
8.765625000000 7.218750000000 2.223999023438 212 212 212
9.171875000000 7.187500000000 2.270004272461 223 223 223
9.187500000000 7.187500000000 2.238998413086 215 215 215
9.171875000000 7.187500000000 2.205993652344 220 220 220
9.171875000000 7.187500000000 2.173004150391 217 217 217
9.171875000000 7.187500000000 2.138992309570 131 131 131
8.734375000000 7.546875000000 2.302993774414 134 134 134
8.750000000000 7.546875000000 2.270004272461 209 209 209
8.750000000000 7.546875000000 2.235000610352 215 215 215
9.140625000000 7.515625000000 2.277999877930 219 219 219
9.156250000000 7.515625000000 2.246994018555 219 219 219
9.140625000000 7.531250000000 2.212005615234 221 221 221
9.156250000000 7.531250000000 2.179992675781 218 218 218
9.156250000000 7.531250000000 2.147994995117 173 173 173
8.921875000000 7.859375000000 2.386001586914 42 42 42
8.765625000000 7.875000000000 2.289001464844 202 202 202
8.765625000000 7.875000000000 2.251998901367 216 216 216
9.093750000000 7.859375000000 2.279998779297 217 217 217
9.140625000000 7.843750000000 2.255996704102 205 205 205
9.140625000000 7.843750000000 2.222000122070 219 219 219
9.140625000000 7.843750000000 2.188995361328 215 215 215
9.140625000000 7.843750000000 2.156997680664 196 196 196
8.921875000000 8.187500000000 2.365997314453 73 73 73
8.734375000000 8.203125000000 2.302001953125 36 36 36
8.781250000000 8.203125000000 2.274002075195 212 212 212
8.796875000000 8.187500000000 2.240997314453 219 219 219
9.109375000000 8.171875000000 2.268005371094 215 215 215
9.109375000000 8.171875000000 2.233993530273 215 215 215
9.109375000000 8.171875000000 2.201995849609 217 217 217
9.109375000000 8.171875000000 2.167999267578 215 215 215
9.093750000000 8.171875000000 2.130996704102 30 30 30
8.781250000000 8.515625000000 2.292999267578 71 71 71
8.796875000000 8.515625000000 2.259002685547 215 215 215
8.984375000000 8.500000000000 2.259994506836 219 219 219
9.046875000000 8.500000000000 2.242004394531 222 222 222
9.062500000000 8.500000000000 2.208999633789 220 220 220
