21.734375000000 15.953125000000 2.054992675781 106 106 106
21.765625000000 15.968750000000 2.093002319336 73 73 73
21.734375000000 15.953125000000 2.472000122070 109 109 109
21.734375000000 15.953125000000 2.516998291016 113 113 113
21.734375000000 15.953125000000 2.563003540039 111 111 111
21.734375000000 15.953125000000 2.608993530273 118 118 118
21.734375000000 15.953125000000 2.654998779297 116 116 116
21.734375000000 15.953125000000 2.699996948242 115 115 115
21.750000000000 15.968750000000 2.744003295898 116 116 116
21.734375000000 15.953125000000 2.791000366211 116 116 116
21.734375000000 15.953125000000 2.837005615234 115 115 115
21.734375000000 15.953125000000 2.880996704102 118 118 118
21.734375000000 15.953125000000 2.927001953125 124 124 124
21.828125000000 16.000000000000 2.964996337891 189 189 189
21.796875000000 15.984375000000 3.013000488281 171 171 171
21.765625000000 15.984375000000 3.059997558594 163 163 163
21.828125000000 16.000000000000 3.102005004883 199 199 199
21.796875000000 16.000000000000 3.149993896484 168 168 168
21.781250000000 15.984375000000 3.195999145508 160 160 160
21.734375000000 15.953125000000 3.244003295898 157 157 157
21.734375000000 15.953125000000 3.289001464844 163 163 163
21.734375000000 15.953125000000 3.333999633789 158 158 158
21.765625000000 15.984375000000 3.378005981445 166 166 166
21.796875000000 16.000000000000 3.423004150391 177 177 177
21.796875000000 15.984375000000 3.468002319336 167 167 167
21.796875000000 16.000000000000 3.513992309570 157 157 157
21.796875000000 16.000000000000 3.559005737305 155 155 155
21.750000000000 15.968750000000 3.604995727539 112 112 112
21.734375000000 15.968750000000 3.649002075195 94 94 94
21.734375000000 15.968750000000 3.694992065430 94 94 94
21.734375000000 15.968750000000 3.740005493164 92 92 92
21.734375000000 15.968750000000 3.785003662109 87 87 87
21.734375000000 15.968750000000 3.830001831055 50 50 50
21.734375000000 15.968750000000 3.875000000000 67 67 67
21.734375000000 15.968750000000 3.919998168945 69 69 69
21.734375000000 15.968750000000 3.964996337891 41 41 41
21.734375000000 15.968750000000 4.011001586914 41 41 41
21.734375000000 15.968750000000 4.055999755859 41 41 41
21.765625000000 15.984375000000 4.102996826172 197 197 197
21.765625000000 15.984375000000 4.147994995117 210 210 210
21.750000000000 15.984375000000 4.192993164063 209 209 209
21.734375000000 15.968750000000 4.237991333008 209 209 209
21.750000000000 15.984375000000 4.283996582031 210 210 210
21.750000000000 15.984375000000 4.330001831055 206 206 206
21.750000000000 15.984375000000 4.375000000000 206 206 206
21.750000000000 15.984375000000 4.421005249023 155 155 155
21.734375000000 15.968750000000 4.647003173828 74 74 74
21.609375000000 15.906250000000 4.671997070313 130 130 130
21.578125000000 15.906250000000 4.714996337891 122 122 122
21.609375000000 15.921875000000 4.764999389648 120 120 120
21.609375000000 15.906250000000 4.806991577148 120 120 120
21.609375000000 15.906250000000 4.899002075195 137 137 137
21.687500000000 16.265625000000 3.897994995117 10 10 10
21.687500000000 16.265625000000 3.942001342773 201 201 201
21.687500000000 16.265625000000 3.986999511719 192 192 192
21.687500000000 16.265625000000 4.031997680664 201 201 201
21.687500000000 16.265625000000 4.076995849609 211 211 211
21.671875000000 16.265625000000 4.121002197266 215 215 215
21.703125000000 16.265625000000 4.166992187500 120 120 120
21.687500000000 16.265625000000 4.347000122070 164 164 164
21.671875000000 16.265625000000 4.390991210938 202 202 202
21.671875000000 16.265625000000 4.436004638672 206 206 206
21.671875000000 16.265625000000 4.481994628906 202 202 202
21.671875000000 16.265625000000 4.526992797852 206 206 206
21.671875000000 16.265625000000 4.571990966797 199 199 199
21.953125000000 15.328125000000 4.514999389648 85 85 85
21.937500000000 15.343750000000 3.992996215820 134 134 134
21.937500000000 15.343750000000 3.945999145508 83 83 83
21.625000000000 15.843750000000 4.910003662109 24 24 24
21.562500000000 15.890625000000 4.850997924805 148 148 148
21.593750000000 15.875000000000 4.811996459961 131 131 131
21.781250000000 15.750000000000 4.798995971680 106 106 106
21.593750000000 15.875000000000 4.720993041992 105 105 105
21.609375000000 15.859375000000 4.679000854492 109 109 109
21.671875000000 15.812500000000 4.643005371094 17 17 17
21.687500000000 15.812500000000 4.598999023438 144 144 144
21.703125000000 15.812500000000 4.552993774414 136 136 136
21.859375000000 15.718750000000 4.481994628906 132 132 132
21.859375000000 15.718750000000 4.434005737305 141 141 141
21.859375000000 15.718750000000 4.388000488281 145 145 145
21.859375000000 15.718750000000 4.341995239258 183 183 183
21.859375000000 15.718750000000 4.294998168945 148 148 148
21.828125000000 15.718750000000 4.246002197266 118 118 118
21.859375000000 15.718750000000 4.201004028320 187 187 187
21.828125000000 15.718750000000 4.152999877930 178 178 178
21.828125000000 15.718750000000 4.106994628906 199 199 199
21.859375000000 15.718750000000 4.061004638672 171 171 171
21.843750000000 15.718750000000 4.013992309570 105 105 105
21.734375000000 16.109375000000 4.811004638672 109 109 109
21.953125000000 16.000000000000 4.800003051758 51 51 51
21.718750000000 16.125000000000 4.485000610352 108 108 108
21.734375000000 16.109375000000 4.440994262695 154 154 154
21.734375000000 16.125000000000 4.393997192383 153 153 153
21.734375000000 16.125000000000 4.347991943359 158 158 158
21.734375000000 16.125000000000 4.302001953125 151 151 151
21.734375000000 16.125000000000 4.255996704102 130 130 130
21.734375000000 16.109375000000 4.212005615234 148 148 148
21.750000000000 16.109375000000 4.166000366211 151 151 151
21.734375000000 16.109375000000 4.119995117188 131 131 131
21.734375000000 16.109375000000 4.074005126953 143 143 143
21.734375000000 16.125000000000 4.027999877930 114 114 114
22.015625000000 15.953125000000 3.570999145508 114 114 114
22.015625000000 15.953125000000 3.524002075195 124 124 124
21.984375000000 15.968750000000 3.475997924805 135 135 135
22.015625000000 15.953125000000 3.429000854492 132 132 132
21.968750000000 15.984375000000 3.382995605469 114 114 114
21.953125000000 15.984375000000 3.335998535156 148 148 148
21.937500000000 16.000000000000 3.289993286133 158 158 158
21.890625000000 16.031250000000 3.244995117188 135 135 135
21.953125000000 16.000000000000 3.194992065430 182 182 182
21.921875000000 16.015625000000 3.149002075195 170 170 170
21.906250000000 16.015625000000 3.104003906250 186 186 186
21.890625000000 16.031250000000 3.057998657227 189 189 189
21.921875000000 16.015625000000 3.009002685547 175 175 175
21.984375000000 15.968750000000 2.955001831055 127 127 127
21.968750000000 15.984375000000 2.910003662109 175 175 175
21.640625000000 16.515625000000 4.537002563477 116 116 116
21.640625000000 16.515625000000 4.490005493164 118 118 118
21.640625000000 16.515625000000 3.994003295898 134 134 134
21.656250000000 16.500000000000 3.949005126953 100 100 100
22.093750000000 16.234375000000 3.492996215820 19 19 19
21.968750000000 16.328125000000 3.447998046875 87 87 87
21.953125000000 16.328125000000 3.401000976563 88 88 88
21.937500000000 16.343750000000 3.354995727539 61 61 61
21.703125000000 16.500000000000 4.668991088867 76 76 76
21.703125000000 16.500000000000 4.623001098633 140 140 140
21.703125000000 16.500000000000 4.576995849609 162 162 162
21.703125000000 16.484375000000 4.533004760742 177 177 177
21.703125000000 16.484375000000 4.486999511719 180 180 180
21.703125000000 16.484375000000 4.442993164063 81 81 81
21.703125000000 16.468750000000 4.035003662109 152 152 152
21.703125000000 16.484375000000 3.990005493164 150 150 150
21.703125000000 16.468750000000 3.944992065430 148 148 148
21.703125000000 16.468750000000 3.899993896484 142 142 142
21.703125000000 16.484375000000 3.854003906250 120 120 120
21.984375000000 16.296875000000 3.537002563477 107 107 107
21.984375000000 16.312500000000 3.490005493164 122 122 122
21.984375000000 16.312500000000 3.442993164063 140 140 140
21.968750000000 16.312500000000 3.397003173828 127 127 127
21.984375000000 16.312500000000 3.348999023438 125 125 125
21.968750000000 16.312500000000 3.302993774414 131 131 131
21.968750000000 16.312500000000 3.255996704102 126 126 126
21.984375000000 16.296875000000 3.207992553711 85 85 85
22.218750000000 16.156250000000 3.145996093750 22 22 22
21.734375000000 16.140625000000 4.837997436523 151 151 151
21.859375000000 16.078125000000 4.815994262695 123 123 123
22.000000000000 15.984375000000 4.793991088867 27 27 27
21.796875000000 16.093750000000 4.712005615234 45 45 45
21.796875000000 16.093750000000 4.432998657227 130 130 130
21.796875000000 16.093750000000 4.388000488281 157 157 157
21.796875000000 16.093750000000 4.341003417969 157 157 157
21.796875000000 16.078125000000 4.296005249023 157 157 157
21.796875000000 16.078125000000 4.250000000000 146 146 146
21.796875000000 16.078125000000 4.205001831055 155 155 155
21.812500000000 16.078125000000 4.158996582031 127 127 127
21.796875000000 16.078125000000 4.112991333008 145 145 145
21.796875000000 16.078125000000 4.065994262695 105 105 105
22.109375000000 15.890625000000 3.608993530273 27 27 27
22.109375000000 15.890625000000 3.561004638672 111 111 111
22.093750000000 15.906250000000 3.513992309570 126 126 126
22.015625000000 15.953125000000 3.466995239258 135 135 135
21.984375000000 15.968750000000 3.421005249023 147 147 147
21.921875000000 16.015625000000 3.375991821289 144 144 144
21.890625000000 16.031250000000 3.330993652344 151 151 151
21.859375000000 16.046875000000 3.285995483398 146 146 146
21.859375000000 16.046875000000 3.240005493164 123 123 123
21.968750000000 15.968750000000 3.186996459961 171 171 171
21.937500000000 16.000000000000 3.141998291016 165 165 165
21.921875000000 16.000000000000 3.095993041992 190 190 190
21.921875000000 16.000000000000 3.050003051758 187 187 187
21.953125000000 15.984375000000 3.000991821289 169 169 169
22.046875000000 15.921875000000 2.944000244141 85 85 85
22.015625000000 15.937500000000 2.899002075195 9 9 9
21.609375000000 15.875000000000 4.845001220703 94 94 94
21.671875000000 15.828125000000 4.811004638672 114 114 114
21.828125000000 15.734375000000 4.792999267578 22 22 22
21.921875000000 15.687500000000 4.524002075195 135 135 135
21.921875000000 15.687500000000 4.475997924805 141 141 141
21.921875000000 15.687500000000 4.429992675781 148 148 148
21.921875000000 15.687500000000 4.382995605469 185 185 185
21.921875000000 15.687500000000 4.335998535156 167 167 167
21.906250000000 15.687500000000 4.287994384766 15 15 15
21.890625000000 15.703125000000 4.192993164063 114 114 114
21.906250000000 15.687500000000 4.147003173828 181 181 181
21.906250000000 15.687500000000 4.100997924805 180 180 180
21.906250000000 15.687500000000 4.054000854492 187 187 187
21.906250000000 15.687500000000 4.007003784180 178 178 178
21.906250000000 15.687500000000 3.960998535156 105 105 105
21.703125000000 16.359375000000 3.893997192383 184 184 184
21.703125000000 16.359375000000 3.938995361328 198 198 198
21.703125000000 16.359375000000 3.983993530273 196 196 196
21.687500000000 16.359375000000 4.028991699219 205 205 205
21.703125000000 16.359375000000 4.074005126953 204 204 204
21.703125000000 16.359375000000 4.119003295898 192 192 192
21.687500000000 16.359375000000 4.388992309570 197 197 197
21.671875000000 16.343750000000 4.432998657227 222 222 222
21.671875000000 16.343750000000 4.479003906250 210 210 210
21.671875000000 16.343750000000 4.524002075195 205 205 205
21.687500000000 16.359375000000 4.569992065430 203 203 203
21.687500000000 16.343750000000 4.615005493164 143 143 143
21.937500000000 16.171875000000 2.960998535156 17 17 17
21.937500000000 16.171875000000 3.007003784180 126 126 126
21.953125000000 16.171875000000 3.052993774414 132 132 132
21.953125000000 16.187500000000 3.098999023438 132 132 132
21.953125000000 16.187500000000 3.145996093750 135 135 135
21.921875000000 16.171875000000 3.194000244141 169 169 169
21.937500000000 16.171875000000 3.240005493164 166 166 166
21.875000000000 16.140625000000 3.289001464844 161 161 161
21.859375000000 16.125000000000 3.334991455078 188 188 188
21.859375000000 16.125000000000 3.380996704102 197 197 197
21.859375000000 16.140625000000 3.427001953125 182 182 182
21.921875000000 16.171875000000 3.472000122070 155 155 155
21.984375000000 16.187500000000 3.518005371094 139 139 139
21.968750000000 16.187500000000 3.565002441406 138 138 138
21.765625000000 16.062500000000 4.063995361328 176 176 176
21.765625000000 16.062500000000 4.108993530273 209 209 209
21.765625000000 16.062500000000 4.154998779297 198 198 198
21.765625000000 16.062500000000 4.199005126953 209 209 209
21.765625000000 16.062500000000 4.244995117188 207 207 207
21.765625000000 16.062500000000 4.291000366211 207 207 207
21.765625000000 16.062500000000 4.335998535156 207 207 207
21.765625000000 16.062500000000 4.382003784180 211 211 211
21.765625000000 16.062500000000 4.427993774414 184 184 184
21.671875000000 16.015625000000 4.645004272461 63 63 63
21.609375000000 15.984375000000 4.680999755859 121 121 121
21.609375000000 15.984375000000 4.723999023438 105 105 105
21.703125000000 16.031250000000 4.789001464844 106 106 106
21.546875000000 15.937500000000 4.802001953125 129 129 129
21.578125000000 15.953125000000 4.852996826172 141 141 141
21.640625000000 16.000000000000 4.912994384766 50 50 50
22.031250000000 15.890625000000 2.946990966797 118 118 118
22.015625000000 15.875000000000 2.996002197266 119 119 119
22.015625000000 15.875000000000 3.042999267578 115 115 115
22.015625000000 15.875000000000 3.089996337891 111 111 111
22.015625000000 15.875000000000 3.136993408203 121 121 121
22.015625000000 15.875000000000 3.184005737305 141 141 141
22.031250000000 15.890625000000 3.231002807617 121 121 121
21.984375000000 15.859375000000 3.278991699219 155 155 155
21.937500000000 15.843750000000 3.328002929688 173 173 173
21.921875000000 15.828125000000 3.375000000000 169 169 169
21.953125000000 15.843750000000 3.421005249023 173 173 173
22.015625000000 15.875000000000 3.466003417969 157 157 157
22.046875000000 15.890625000000 3.513000488281 146 146 146
22.046875000000 15.890625000000 3.559997558594 140 140 140
21.828125000000 15.765625000000 4.018005371094 185 185 185
21.828125000000 15.765625000000 4.063995361328 200 200 200
21.828125000000 15.765625000000 4.110000610352 215 215 215
21.828125000000 15.765625000000 4.156005859375 201 201 201
21.828125000000 15.765625000000 4.201995849609 197 197 197
21.828125000000 15.765625000000 4.248001098633 203 203 203
21.828125000000 15.781250000000 4.296005249023 215 215 215
21.843750000000 15.781250000000 4.341995239258 212 212 212
21.828125000000 15.781250000000 4.388000488281 220 220 220
21.828125000000 15.781250000000 4.434005737305 212 212 212
21.828125000000 15.781250000000 4.481002807617 160 160 160
21.843750000000 15.781250000000 4.809005737305 68 68 68
21.906250000000 15.484375000000 3.871002197266 200 200 200
21.906250000000 15.484375000000 3.916992187500 207 207 207
21.906250000000 15.484375000000 3.962997436523 203 203 203
21.906250000000 15.484375000000 4.009994506836 216 216 216
21.906250000000 15.484375000000 4.055999755859 207 207 207
21.921875000000 15.484375000000 4.102996826172 89 89 89
21.921875000000 15.484375000000 4.430999755859 203 203 203
21.921875000000 15.484375000000 4.477005004883 223 223 223
21.906250000000 15.484375000000 4.524002075195 212 212 212
21.921875000000 15.484375000000 4.571990966797 221 221 221
21.921875000000 15.484375000000 4.619003295898 216 216 216
21.921875000000 15.484375000000 4.666000366211 94 94 94
21.671875000000 16.468750000000 3.819000244141 152 152 152
21.671875000000 16.468750000000 3.858001708984 193 193 193
21.671875000000 16.468750000000 3.897003173828 184 184 184
21.671875000000 16.468750000000 3.934997558594 196 196 196
21.671875000000 16.468750000000 3.975006103516 191 191 191
21.671875000000 16.468750000000 4.013992309570 201 201 201
21.671875000000 16.468750000000 4.052001953125 83 83 83
21.671875000000 16.468750000000 4.406997680664 82 82 82
21.671875000000 16.468750000000 4.445999145508 200 200 200
21.656250000000 16.468750000000 4.485000610352 220 220 220
21.671875000000 16.468750000000 4.524993896484 204 204 204
21.671875000000 16.468750000000 4.565994262695 213 213 213
21.671875000000 16.468750000000 4.604995727539 209 209 209
21.656250000000 16.468750000000 4.645004272461 170 170 170
21.984375000000 16.140625000000 2.927001953125 36 36 36
21.953125000000 16.140625000000 2.970001220703 125 125 125
21.953125000000 16.140625000000 3.011001586914 161 161 161
21.937500000000 16.140625000000 3.050994873047 173 173 173
21.984375000000 16.140625000000 3.089996337891 133 133 133
21.953125000000 16.140625000000 3.130996704102 140 140 140
21.953125000000 16.140625000000 3.171997070313 177 177 177
21.984375000000 16.140625000000 3.212005615234 122 122 122
21.953125000000 16.140625000000 3.253005981445 140 140 140
21.890625000000 16.140625000000 3.293991088867 174 174 174
21.859375000000 16.140625000000 3.333999633789 186 186 186
21.859375000000 16.140625000000 3.373992919922 176 176 176
21.875000000000 16.140625000000 3.414001464844 178 178 178
21.937500000000 16.140625000000 3.455001831055 162 162 162
21.984375000000 16.140625000000 3.496002197266 144 144 144
22.000000000000 16.140625000000 3.537002563477 139 139 139
22.015625000000 16.140625000000 3.578002929688 105 105 105
21.765625000000 16.140625000000 4.003997802734 148 148 148
21.765625000000 16.140625000000 4.042999267578 189 189 189
21.765625000000 16.140625000000 4.082992553711 181 181 181
21.765625000000 16.140625000000 4.121994018555 188 188 188
21.765625000000 16.140625000000 4.162002563477 200 200 200
21.750000000000 16.140625000000 4.201995849609 198 198 198
21.750000000000 16.140625000000 4.240997314453 199 199 199
21.734375000000 16.140625000000 4.281005859375 208 208 208
21.750000000000 16.125000000000 4.320999145508 205 205 205
21.750000000000 16.125000000000 4.360992431641 204 204 204
21.750000000000 16.125000000000 4.401000976563 205 205 205
21.734375000000 16.125000000000 4.440994262695 197 197 197
21.750000000000 16.125000000000 4.481994628906 19 19 19
21.843750000000 16.140625000000 4.785995483398 100 100 100
21.640625000000 16.140625000000 4.785995483398 97 97 97
22.046875000000 15.812500000000 2.983001708984 35 35 35
22.046875000000 15.812500000000 3.024002075195 102 102 102
22.015625000000 15.812500000000 3.065994262695 111 111 111
22.046875000000 15.812500000000 3.106002807617 113 113 113
22.062500000000 15.812500000000 3.147003173828 127 127 127
22.046875000000 15.812500000000 3.188003540039 146 146 146
22.046875000000 15.812500000000 3.229003906250 170 170 170
22.015625000000 15.812500000000 3.270996093750 158 158 158
21.953125000000 15.812500000000 3.311996459961 174 174 174
21.953125000000 15.812500000000 3.352005004883 177 177 177
21.953125000000 15.812500000000 3.393005371094 180 180 180
21.968750000000 15.812500000000 3.432998657227 171 171 171
22.046875000000 15.812500000000 3.475006103516 159 159 159
22.078125000000 15.796875000000 3.516998291016 140 140 140
22.078125000000 15.796875000000 3.557998657227 143 143 143
21.843750000000 15.812500000000 4.031005859375 159 159 159
21.828125000000 15.796875000000 4.069000244141 199 199 199
21.828125000000 15.812500000000 4.110000610352 194 194 194
21.828125000000 15.796875000000 4.151000976563 205 205 205
21.828125000000 15.796875000000 4.190002441406 211 211 211
21.828125000000 15.812500000000 4.231002807617 197 197 197
21.843750000000 15.812500000000 4.272994995117 196 196 196
21.843750000000 15.812500000000 4.313995361328 191 191 191
21.828125000000 15.812500000000 4.354003906250 193 193 193
21.828125000000 15.812500000000 4.395004272461 192 192 192
21.859375000000 15.812500000000 4.438003540039 162 162 162
21.718750000000 15.796875000000 4.537002563477 106 106 106
21.703125000000 15.796875000000 4.576004028320 106 106 106
21.734375000000 15.796875000000 4.658996582031 21 21 21
21.671875000000 15.796875000000 4.690994262695 76 76 76
21.906250000000 15.812500000000 4.777999877930 69 69 69
21.875000000000 15.812500000000 4.813003540039 111 111 111
21.609375000000 15.812500000000 4.796997070313 121 121 121
21.609375000000 15.812500000000 4.839004516602 78 78 78
21.921875000000 15.484375000000 3.848999023438 177 177 177
21.921875000000 15.484375000000 3.889999389648 202 202 202
21.921875000000 15.484375000000 3.929992675781 206 206 206
21.921875000000 15.484375000000 3.970001220703 200 200 200
21.906250000000 15.484375000000 4.011001586914 208 208 208
21.921875000000 15.484375000000 4.052001953125 201 201 201
21.921875000000 15.484375000000 4.093002319336 85 85 85
21.921875000000 15.484375000000 4.380996704102 34 34 34
21.921875000000 15.484375000000 4.423995971680 193 193 193
21.921875000000 15.484375000000 4.464996337891 195 195 195
21.921875000000 15.484375000000 4.507003784180 190 190 190
21.921875000000 15.484375000000 4.548004150391 196 196 196
21.921875000000 15.484375000000 4.589996337891 194 194 194
21.937500000000 15.484375000000 4.632003784180 174 174 174
21.890625000000 15.593750000000 4.580001831055 182 182 182
21.890625000000 15.593750000000 4.539001464844 184 184 184
21.890625000000 15.593750000000 4.498001098633 190 190 190
21.890625000000 15.593750000000 4.455001831055 199 199 199
21.890625000000 15.593750000000 4.414001464844 193 193 193
21.890625000000 15.593750000000 4.373001098633 188 188 188
21.890625000000 15.593750000000 4.332992553711 49 49 49
21.890625000000 15.593750000000 4.208999633789 147 147 147
21.875000000000 15.609375000000 4.167999267578 205 205 205
21.859375000000 15.609375000000 4.125991821289 207 207 207
21.875000000000 15.609375000000 4.085998535156 195 195 195
21.875000000000 15.609375000000 4.046005249023 193 193 193
21.859375000000 15.609375000000 4.005004882813 199 199 199
21.875000000000 15.609375000000 3.964996337891 123 123 123
22.109375000000 15.593750000000 3.485992431641 24 24 24
22.109375000000 15.593750000000 3.444000244141 84 84 84
22.109375000000 15.593750000000 3.402999877930 88 88 88
22.109375000000 15.593750000000 3.360992431641 69 69 69
21.640625000000 15.968750000000 4.916992187500 75 75 75
21.578125000000 15.968750000000 4.860992431641 83 83 83
21.656250000000 15.968750000000 4.837997436523 96 96 96
21.671875000000 15.968750000000 4.800003051758 106 106 106
21.625000000000 15.968750000000 4.750991821289 99 99 99
21.640625000000 15.968750000000 4.714004516602 136 136 136
21.671875000000 15.968750000000 4.680999755859 119 119 119
21.765625000000 15.953125000000 4.658996582031 98 98 98
21.765625000000 15.953125000000 4.617004394531 100 100 100
21.765625000000 15.953125000000 4.578002929688 112 112 112
21.765625000000 15.953125000000 4.537002563477 125 125 125
21.781250000000 15.953125000000 4.498001098633 118 118 118
21.765625000000 15.953125000000 4.455001831055 124 124 124
21.781250000000 15.968750000000 4.416000366211 185 185 185
21.765625000000 15.968750000000 4.375000000000 186 186 186
21.781250000000 15.968750000000 4.335998535156 189 189 189
21.781250000000 15.968750000000 4.296005249023 193 193 193
21.765625000000 15.968750000000 4.253997802734 193 193 193
21.781250000000 15.968750000000 4.214996337891 188 188 188
21.796875000000 15.968750000000 4.177001953125 188 188 188
21.796875000000 15.968750000000 4.136001586914 179 179 179
21.765625000000 15.968750000000 4.095001220703 107 107 107
21.765625000000 15.968750000000 4.054000854492 102 102 102
21.765625000000 15.968750000000 4.013992309570 98 98 98
21.765625000000 15.968750000000 3.973999023438 84 84 84
21.765625000000 15.968750000000 3.934997558594 81 81 81
21.781250000000 15.968750000000 3.895996093750 73 73 73
21.781250000000 15.968750000000 3.856002807617 41 41 41
21.765625000000 15.968750000000 3.815994262695 27 27 27
21.984375000000 15.968750000000 3.625000000000 54 54 54
22.015625000000 15.968750000000 3.585998535156 141 141 141
22.000000000000 15.968750000000 3.544998168945 133 133 133
21.984375000000 15.984375000000 3.503997802734 132 132 132
22.015625000000 15.968750000000 3.462997436523 146 146 146
21.984375000000 15.984375000000 3.421997070313 147 147 147
21.781250000000 15.968750000000 3.382003784180 149 149 149
21.765625000000 15.984375000000 3.341995239258 152 152 152
21.765625000000 15.984375000000 3.302993774414 144 144 144
21.781250000000 15.984375000000 3.263000488281 136 136 136
21.968750000000 15.984375000000 3.218994140625 172 172 172
21.937500000000 15.984375000000 3.179992675781 146 146 146
21.890625000000 15.984375000000 3.139999389648 187 187 187
21.890625000000 15.984375000000 3.100006103516 199 199 199
21.890625000000 15.984375000000 3.059997558594 189 189 189
21.937500000000 15.984375000000 3.018005371094 172 172 172
22.000000000000 15.984375000000 2.972991943359 130 130 130
21.984375000000 15.984375000000 2.934005737305 171 171 171
21.687500000000 16.343750000000 4.662002563477 67 67 67
21.687500000000 16.343750000000 4.621994018555 200 200 200
21.703125000000 16.343750000000 4.582992553711 205 205 205
21.671875000000 16.343750000000 4.539993286133 200 200 200
21.671875000000 16.343750000000 4.500000000000 210 210 210
21.671875000000 16.343750000000 4.459991455078 210 210 210
21.687500000000 16.343750000000 4.421997070313 183 183 183
21.703125000000 16.343750000000 4.145004272461 69 69 69
21.703125000000 16.343750000000 4.106994628906 196 196 196
21.703125000000 16.343750000000 4.067001342773 185 185 185
21.703125000000 16.343750000000 4.026992797852 191 191 191
21.687500000000 16.343750000000 3.987991333008 180 180 180
21.703125000000 16.343750000000 3.949005126953 186 186 186
21.703125000000 16.343750000000 3.910003662109 182 182 182
21.937500000000 15.484375000000 4.656997680664 110 110 110
21.921875000000 15.484375000000 4.608001708984 132 132 132
21.937500000000 15.484375000000 4.561004638672 135 135 135
21.921875000000 15.484375000000 4.513000488281 151 151 151
21.921875000000 15.484375000000 4.464004516602 152 152 152
21.921875000000 15.500000000000 4.416992187500 71 71 71
21.906250000000 15.500000000000 4.132995605469 132 132 132
21.921875000000 15.500000000000 4.087005615234 178 178 178
21.921875000000 15.500000000000 4.039993286133 153 153 153
21.921875000000 15.500000000000 3.992996215820 138 138 138
21.906250000000 15.515625000000 3.945999145508 142 142 142
21.937500000000 15.484375000000 3.901000976563 17 17 17
21.671875000000 16.015625000000 4.908996582031 80 80 80
21.640625000000 16.046875000000 4.854995727539 87 87 87
21.734375000000 15.984375000000 4.826004028320 101 101 101
21.703125000000 16.000000000000 4.776000976563 93 93 93
21.703125000000 16.000000000000 4.727996826172 120 120 120
21.718750000000 15.984375000000 4.684997558594 112 112 112
21.796875000000 15.937500000000 4.651000976563 118 118 118
21.781250000000 15.953125000000 4.602996826172 123 123 123
21.796875000000 15.937500000000 4.557998657227 152 152 152
21.796875000000 15.937500000000 4.511001586914 146 146 146
21.781250000000 15.953125000000 4.464004516602 147 147 147
21.796875000000 15.937500000000 4.418991088867 149 149 149
21.796875000000 15.953125000000 4.371994018555 153 153 153
21.796875000000 15.937500000000 4.326004028320 144 144 144
21.796875000000 15.937500000000 4.279998779297 159 159 159
21.796875000000 15.953125000000 4.233993530273 155 155 155
21.796875000000 15.937500000000 4.188003540039 152 152 152
21.796875000000 15.953125000000 4.141998291016 142 142 142
21.796875000000 15.953125000000 4.095993041992 119 119 119
21.796875000000 15.953125000000 4.050003051758 115 115 115
21.796875000000 15.953125000000 4.003997802734 107 107 107
21.781250000000 15.953125000000 3.957992553711 112 112 112
21.796875000000 15.953125000000 3.912002563477 109 109 109
21.796875000000 15.953125000000 3.865997314453 105 105 105
21.796875000000 15.953125000000 3.820999145508 107 107 107
21.796875000000 15.953125000000 3.774993896484 104 104 104
21.796875000000 15.953125000000 3.729003906250 104 104 104
21.796875000000 15.953125000000 3.682998657227 100 100 100
21.796875000000 15.953125000000 3.636993408203 106 106 106
21.828125000000 15.921875000000 3.591003417969 143 143 143
21.828125000000 15.937500000000 3.544998168945 148 148 148
21.828125000000 15.937500000000 3.498992919922 139 139 139
21.828125000000 15.937500000000 3.453002929688 139 139 139
21.796875000000 15.953125000000 3.408004760742 142 142 142
21.765625000000 15.968750000000 3.362991333008 133 133 133
21.781250000000 15.968750000000 3.317001342773 132 132 132
21.765625000000 15.968750000000 3.272003173828 133 133 133
21.843750000000 15.937500000000 3.222000122070 159 159 159
21.828125000000 15.937500000000 3.175994873047 134 134 134
21.859375000000 15.937500000000 3.128005981445 149 149 149
21.859375000000 15.937500000000 3.082000732422 147 147 147
21.875000000000 15.921875000000 3.033996582031 122 122 122
21.859375000000 15.921875000000 2.987991333008 69 69 69
21.671875000000 16.390625000000 4.651000976563 141 141 141
21.703125000000 16.375000000000 4.606994628906 140 140 140
21.687500000000 16.390625000000 4.561004638672 155 155 155
21.687500000000 16.390625000000 4.514999389648 181 181 181
21.703125000000 16.375000000000 4.470001220703 162 162 162
21.703125000000 16.375000000000 4.425003051758 37 37 37
21.703125000000 16.375000000000 4.106994628906 124 124 124
21.703125000000 16.375000000000 4.061996459961 136 136 136
21.703125000000 16.375000000000 4.016998291016 138 138 138
21.703125000000 16.390625000000 3.970993041992 133 133 133
21.687500000000 16.390625000000 3.925994873047 133 133 133
21.687500000000 16.390625000000 3.880996704102 97 97 97
21.984375000000 16.218750000000 3.610000610352 14 14 14
21.984375000000 16.218750000000 3.563003540039 111 111 111
21.984375000000 16.218750000000 3.515991210938 111 111 111
21.953125000000 16.234375000000 3.470001220703 117 117 117
21.953125000000 16.234375000000 3.423004150391 118 118 118
21.953125000000 16.250000000000 3.375991821289 117 117 117
21.953125000000 16.250000000000 3.328994750977 119 119 119
21.953125000000 16.250000000000 3.281997680664 118 118 118
21.953125000000 16.234375000000 3.235000610352 93 93 93
22.015625000000 16.203125000000 3.184005737305 58 58 58
22.140625000000 16.125000000000 3.128005981445 10 10 10
21.937500000000 15.421875000000 3.837997436523 25 25 25
21.921875000000 15.406250000000 3.884002685547 198 198 198
21.921875000000 15.406250000000 3.929992675781 210 210 210
21.921875000000 15.406250000000 3.977005004883 202 202 202
21.921875000000 15.406250000000 4.022994995117 211 211 211
21.921875000000 15.406250000000 4.069000244141 212 212 212
21.937500000000 15.406250000000 4.442993164063 101 101 101
21.921875000000 15.406250000000 4.490005493164 215 215 215
21.937500000000 15.406250000000 4.537002563477 215 215 215
21.937500000000 15.421875000000 4.584991455078 217 217 217
21.953125000000 15.421875000000 4.632003784180 222 222 222
21.937500000000 15.406250000000 4.677993774414 212 212 212
22.046875000000 15.843750000000 2.968002319336 110 110 110
22.015625000000 15.843750000000 3.015991210938 103 103 103
22.015625000000 15.828125000000 3.063995361328 115 115 115
22.015625000000 15.828125000000 3.111999511719 102 102 102
22.015625000000 15.828125000000 3.158004760742 108 108 108
22.015625000000 15.843750000000 3.205001831055 169 169 169
22.046875000000 15.843750000000 3.250991821289 104 104 104
22.031250000000 15.843750000000 3.298995971680 145 145 145
21.953125000000 15.796875000000 3.347991943359 166 166 166
21.953125000000 15.796875000000 3.395004272461 171 171 171
21.953125000000 15.796875000000 3.440994262695 170 170 170
22.000000000000 15.828125000000 3.486999511719 154 154 154
22.062500000000 15.843750000000 3.533004760742 150 150 150
22.046875000000 15.843750000000 3.580001831055 138 138 138
22.046875000000 15.843750000000 3.626998901367 58 58 58
21.843750000000 15.718750000000 4.037994384766 107 107 107
21.843750000000 15.734375000000 4.083999633789 205 205 205
21.843750000000 15.734375000000 4.130004882813 216 216 216
21.843750000000 15.718750000000 4.175994873047 212 212 212
21.843750000000 15.734375000000 4.222000122070 207 207 207
21.843750000000 15.734375000000 4.268005371094 209 209 209
21.859375000000 15.734375000000 4.313995361328 221 221 221
21.859375000000 15.734375000000 4.360000610352 214 214 214
21.859375000000 15.734375000000 4.406997680664 215 215 215
21.859375000000 15.734375000000 4.453002929688 217 217 217
21.859375000000 15.734375000000 4.500000000000 179 179 179
21.890625000000 15.750000000000 4.830001831055 52 52 52
21.953125000000 16.171875000000 3.089004516602 106 106 106
21.953125000000 16.171875000000 3.136001586914 127 127 127
21.953125000000 16.171875000000 3.181991577148 134 134 134
21.953125000000 16.171875000000 3.229003906250 126 126 126
21.953125000000 16.171875000000 3.274993896484 133 133 133
21.890625000000 16.125000000000 3.324996948242 166 166 166
21.859375000000 16.125000000000 3.371994018555 182 182 182
21.859375000000 16.125000000000 3.416992187500 176 176 176
21.890625000000 16.125000000000 3.462997436523 172 172 172
21.953125000000 16.171875000000 3.507003784180 139 139 139
21.984375000000 16.171875000000 3.554000854492 141 141 141
21.984375000000 16.187500000000 3.600006103516 105 105 105
21.781250000000 16.062500000000 4.052001953125 108 108 108
21.765625000000 16.046875000000 4.097000122070 206 206 206
21.765625000000 16.046875000000 4.141998291016 202 202 202
21.781250000000 16.062500000000 4.188003540039 207 207 207
21.765625000000 16.046875000000 4.233001708984 220 220 220
21.765625000000 16.046875000000 4.277999877930 203 203 203
21.765625000000 16.046875000000 4.322998046875 215 215 215
21.765625000000 16.046875000000 4.369003295898 207 207 207
21.765625000000 16.046875000000 4.414001464844 211 211 211
21.765625000000 16.046875000000 4.459991455078 203 203 203
21.640625000000 15.984375000000 4.714004516602 87 87 87
21.828125000000 16.093750000000 4.837997436523 104 104 104
21.578125000000 15.953125000000 4.837997436523 67 67 67
21.609375000000 15.968750000000 4.890991210938 19 19 19
21.703125000000 16.375000000000 3.889999389648 195 195 195
21.703125000000 16.375000000000 3.934997558594 199 199 199
21.703125000000 16.375000000000 3.979003906250 198 198 198
21.703125000000 16.375000000000 4.024002075195 203 203 203
21.703125000000 16.375000000000 4.067993164063 208 208 208
21.703125000000 16.375000000000 4.112991333008 144 144 144
21.687500000000 16.375000000000 4.425994873047 148 148 148
21.671875000000 16.375000000000 4.470001220703 215 215 215
21.671875000000 16.375000000000 4.515991210938 216 216 216
21.687500000000 16.375000000000 4.561004638672 205 205 205
21.687500000000 16.375000000000 4.606994628906 207 207 207
21.687500000000 16.375000000000 4.651992797852 205 205 205
21.671875000000 16.406250000000 3.865997314453 198 198 198
21.671875000000 16.406250000000 3.910995483398 202 202 202
21.671875000000 16.406250000000 3.955001831055 194 194 194
21.671875000000 16.406250000000 4.000000000000 210 210 210
21.671875000000 16.390625000000 4.043991088867 212 212 212
21.671875000000 16.390625000000 4.089004516602 170 170 170
21.671875000000 16.390625000000 4.402999877930 195 195 195
21.671875000000 16.375000000000 4.446990966797 219 219 219
21.671875000000 16.390625000000 4.494003295898 219 219 219
21.671875000000 16.390625000000 4.539001464844 211 211 211
21.671875000000 16.390625000000 4.583999633789 205 205 205
21.671875000000 16.390625000000 4.628997802734 162 162 162
21.921875000000 16.203125000000 3.063003540039 92 92 92
21.937500000000 16.203125000000 3.108993530273 128 128 128
21.937500000000 16.203125000000 3.156005859375 129 129 129
21.953125000000 16.218750000000 3.201995849609 127 127 127
21.937500000000 16.203125000000 3.248992919922 137 137 137
21.859375000000 16.171875000000 3.298004150391 168 168 168
21.843750000000 16.156250000000 3.345001220703 180 180 180
21.843750000000 16.156250000000 3.390991210938 178 178 178
21.859375000000 16.171875000000 3.436004638672 172 172 172
21.953125000000 16.203125000000 3.481002807617 144 144 144
21.984375000000 16.218750000000 3.526992797852 132 132 132
21.953125000000 16.218750000000 3.574005126953 96 96 96
21.765625000000 16.078125000000 4.026000976563 99 99 99
21.765625000000 16.078125000000 4.070999145508 210 210 210
21.750000000000 16.078125000000 4.115997314453 203 203 203
21.750000000000 16.078125000000 4.162002563477 209 209 209
21.734375000000 16.078125000000 4.207000732422 220 220 220
21.734375000000 16.078125000000 4.251998901367 205 205 205
21.750000000000 16.062500000000 4.296997070313 210 210 210
21.750000000000 16.078125000000 4.343002319336 210 210 210
21.750000000000 16.078125000000 4.388992309570 210 210 210
21.750000000000 16.062500000000 4.434005737305 189 189 189
21.656250000000 16.015625000000 4.647003173828 30 30 30
21.609375000000 15.984375000000 4.686004638672 110 110 110
21.671875000000 16.031250000000 4.742004394531 65 65 65
21.828125000000 16.125000000000 4.815994262695 111 111 111
21.609375000000 15.984375000000 4.863998413086 119 119 119
22.015625000000 15.890625000000 2.936004638672 112 112 112
22.000000000000 15.890625000000 2.983993530273 114 114 114
22.000000000000 15.890625000000 3.031005859375 115 115 115
21.984375000000 15.875000000000 3.078994750977 115 115 115
21.984375000000 15.875000000000 3.125991821289 108 108 108
22.000000000000 15.875000000000 3.171997070313 169 169 169
22.031250000000 15.890625000000 3.218002319336 111 111 111
22.015625000000 15.890625000000 3.264999389648 137 137 137
21.937500000000 15.843750000000 3.315994262695 163 163 163
21.921875000000 15.843750000000 3.361999511719 171 171 171
21.937500000000 15.843750000000 3.408996582031 171 171 171
22.015625000000 15.875000000000 3.453994750977 157 157 157
22.046875000000 15.890625000000 3.500000000000 148 148 148
22.046875000000 15.890625000000 3.546997070313 136 136 136
22.046875000000 15.890625000000 3.595001220703 53 53 53
21.828125000000 15.765625000000 4.005996704102 102 102 102
21.828125000000 15.765625000000 4.050994873047 207 207 207
21.828125000000 15.750000000000 4.097000122070 221 221 221
21.828125000000 15.750000000000 4.141998291016 206 206 206
21.828125000000 15.765625000000 4.188995361328 208 208 208
21.828125000000 15.750000000000 4.235000610352 209 209 209
21.828125000000 15.750000000000 4.281005859375 218 218 218
21.828125000000 15.750000000000 4.328002929688 218 218 218
21.828125000000 15.750000000000 4.373992919922 219 219 219
21.828125000000 15.750000000000 4.421005249023 218 218 218
21.828125000000 15.750000000000 4.466995239258 183 183 183
21.859375000000 15.781250000000 4.796005249023 70 70 70
21.890625000000 15.468750000000 3.847991943359 194 194 194
21.906250000000 15.468750000000 3.893997192383 210 210 210
21.890625000000 15.453125000000 3.940002441406 211 211 211
21.906250000000 15.453125000000 3.986999511719 199 199 199
21.890625000000 15.453125000000 4.033004760742 212 212 212
21.906250000000 15.453125000000 4.080001831055 112 112 112
21.921875000000 15.468750000000 4.408004760742 136 136 136
21.921875000000 15.453125000000 4.453994750977 220 220 220
21.921875000000 15.453125000000 4.500991821289 221 221 221
21.921875000000 15.453125000000 4.548004150391 221 221 221
21.921875000000 15.453125000000 4.595001220703 222 222 222
21.921875000000 15.453125000000 4.643997192383 205 205 205
21.656250000000 16.531250000000 4.531005859375 179 179 179
21.640625000000 16.531250000000 4.490005493164 183 183 183
21.656250000000 16.531250000000 4.018005371094 100 100 100
21.671875000000 16.531250000000 3.979995727539 183 183 183
21.671875000000 16.531250000000 3.940994262695 129 129 129
21.734375000000 16.171875000000 4.485000610352 191 191 191
21.734375000000 16.171875000000 4.445999145508 204 204 204
21.734375000000 16.171875000000 4.403991699219 202 202 202
21.734375000000 16.171875000000 4.365997314453 198 198 198
21.734375000000 16.171875000000 4.324996948242 202 202 202
21.734375000000 16.171875000000 4.283996582031 193 193 193
21.765625000000 16.171875000000 4.248001098633 59 59 59
21.750000000000 16.171875000000 4.205993652344 191 191 191
21.765625000000 16.171875000000 4.166992187500 200 200 200
21.750000000000 16.171875000000 4.125991821289 191 191 191
21.765625000000 16.171875000000 4.087005615234 178 178 178
21.750000000000 16.171875000000 4.046997070313 183 183 183
21.734375000000 16.171875000000 4.007003784180 179 179 179
21.750000000000 16.171875000000 3.966995239258 17 17 17
22.000000000000 16.171875000000 3.580993652344 109 109 109
22.000000000000 16.171875000000 3.539993286133 139 139 139
21.984375000000 16.171875000000 3.498992919922 144 144 144
21.921875000000 16.171875000000 3.457000732422 171 171 171
21.859375000000 16.171875000000 3.416992187500 181 181 181
21.859375000000 16.171875000000 3.376998901367 188 188 188
21.859375000000 16.171875000000 3.337005615234 187 187 187
21.890625000000 16.171875000000 3.296005249023 163 163 163
21.953125000000 16.171875000000 3.255004882813 161 161 161
21.953125000000 16.171875000000 3.214996337891 177 177 177
21.953125000000 16.171875000000 3.173995971680 135 135 135
21.984375000000 16.171875000000 3.132995605469 129 129 129
21.953125000000 16.171875000000 3.093002319336 124 124 124
21.968750000000 16.171875000000 3.052001953125 124 124 124
21.968750000000 16.171875000000 3.011993408203 97 97 97
21.625000000000 15.812500000000 4.847000122070 109 109 109
21.640625000000 15.812500000000 4.809997558594 119 119 119
21.890625000000 15.812500000000 4.820999145508 101 101 101
21.812500000000 15.796875000000 4.763992309570 54 54 54
21.671875000000 15.812500000000 4.695999145508 95 95 95
21.718750000000 15.812500000000 4.664001464844 45 45 45
21.734375000000 15.812500000000 4.583999633789 145 145 145
21.734375000000 15.812500000000 4.546005249023 121 121 121
21.859375000000 15.812500000000 4.440994262695 166 166 166
21.859375000000 15.812500000000 4.401992797852 191 191 191
21.828125000000 15.812500000000 4.358993530273 188 188 188
21.843750000000 15.812500000000 4.317993164063 188 188 188
21.828125000000 15.796875000000 4.276000976563 192 192 192
21.828125000000 15.796875000000 4.235992431641 200 200 200
21.843750000000 15.812500000000 4.195999145508 201 201 201
21.828125000000 15.812500000000 4.154998779297 200 200 200
21.828125000000 15.812500000000 4.115005493164 192 192 192
21.828125000000 15.796875000000 4.074005126953 200 200 200
21.828125000000 15.796875000000 4.033004760742 93 93 93
22.093750000000 15.796875000000 3.561004638672 144 144 144
22.078125000000 15.796875000000 3.518997192383 143 143 143
22.046875000000 15.796875000000 3.477005004883 150 150 150
21.984375000000 15.812500000000 3.436004638672 177 177 177
21.953125000000 15.812500000000 3.395004272461 179 179 179
21.953125000000 15.812500000000 3.354003906250 174 174 174
21.984375000000 15.812500000000 3.313003540039 168 168 168
22.015625000000 15.796875000000 3.272003173828 140 140 140
22.031250000000 15.796875000000 3.231002807617 174 174 174
22.046875000000 15.796875000000 3.190002441406 139 139 139
22.078125000000 15.796875000000 3.147994995117 121 121 121
22.046875000000 15.796875000000 3.106994628906 104 104 104
22.031250000000 15.796875000000 3.067001342773 102 102 102
22.046875000000 15.796875000000 3.024993896484 88 88 88
22.046875000000 15.796875000000 2.983001708984 13 13 13
21.937500000000 15.453125000000 4.684997558594 16 16 16
21.953125000000 15.453125000000 4.643997192383 191 191 191
21.937500000000 15.453125000000 4.602005004883 190 190 190
21.953125000000 15.453125000000 4.561004638672 188 188 188
21.953125000000 15.453125000000 4.518997192383 196 196 196
21.953125000000 15.453125000000 4.477996826172 194 194 194
21.953125000000 15.453125000000 4.436004638672 166 166 166
21.921875000000 15.453125000000 4.063003540039 178 178 178
21.921875000000 15.453125000000 4.022003173828 197 197 197
21.921875000000 15.453125000000 3.981994628906 195 195 195
21.921875000000 15.453125000000 3.940002441406 199 199 199
21.921875000000 15.453125000000 3.899993896484 199 199 199
21.921875000000 15.453125000000 3.858993530273 183 183 183
21.921875000000 15.453125000000 3.817993164063 67 67 67
22.203125000000 16.281250000000 3.464996337891 26 26 26
22.140625000000 16.312500000000 3.417999267578 26 26 26
21.906250000000 16.093750000000 4.800994873047 83 83 83
21.765625000000 16.171875000000 4.496994018555 93 93 93
21.765625000000 16.171875000000 4.453002929688 144 144 144
21.765625000000 16.171875000000 4.406005859375 142 142 142
21.765625000000 16.171875000000 4.360000610352 141 141 141
21.765625000000 16.171875000000 4.313995361328 146 146 146
21.765625000000 16.171875000000 4.268997192383 117 117 117
21.781250000000 16.171875000000 4.222991943359 120 120 120
21.796875000000 16.156250000000 4.177993774414 146 146 146
21.796875000000 16.156250000000 4.132003784180 135 135 135
21.781250000000 16.156250000000 4.085998535156 126 126 126
21.765625000000 16.171875000000 4.039001464844 134 134 134
21.765625000000 16.171875000000 3.994003295898 79 79 79
22.062500000000 16.000000000000 3.582992553711 96 96 96
22.046875000000 16.000000000000 3.535995483398 134 134 134
22.046875000000 16.000000000000 3.488998413086 122 122 122
22.031250000000 16.015625000000 3.442001342773 126 126 126
21.937500000000 16.078125000000 3.397003173828 134 134 134
21.921875000000 16.093750000000 3.350997924805 129 129 129
21.984375000000 16.062500000000 3.302001953125 142 142 142
21.984375000000 16.062500000000 3.255004882813 135 135 135
21.984375000000 16.046875000000 3.207992553711 156 156 156
22.000000000000 16.046875000000 3.160003662109 144 144 144
21.968750000000 16.062500000000 3.115005493164 166 166 166
21.953125000000 16.062500000000 3.069000244141 167 167 167
21.953125000000 16.062500000000 3.020996093750 148 148 148
22.015625000000 16.031250000000 2.970001220703 126 126 126
22.000000000000 16.046875000000 2.923995971680 146 146 146
21.640625000000 15.890625000000 4.867004394531 117 117 117
21.578125000000 15.937500000000 4.809997558594 134 134 134
21.859375000000 15.765625000000 4.817001342773 106 106 106
21.640625000000 15.875000000000 4.733001708984 57 57 57
21.640625000000 15.890625000000 4.686004638672 103 103 103
21.687500000000 15.859375000000 4.647994995117 49 49 49
21.734375000000 15.828125000000 4.608993530273 92 92 92
21.734375000000 15.828125000000 4.563995361328 138 138 138
21.765625000000 15.812500000000 4.520004272461 14 14 14
21.890625000000 15.750000000000 4.490005493164 103 103 103
21.890625000000 15.750000000000 4.444992065430 133 133 133
21.906250000000 15.734375000000 4.399993896484 135 135 135
21.906250000000 15.734375000000 4.352005004883 166 166 166
21.906250000000 15.734375000000 4.304992675781 155 155 155
21.890625000000 15.750000000000 4.257003784180 96 96 96
21.875000000000 15.750000000000 4.209991455078 157 157 157
21.875000000000 15.750000000000 4.162994384766 173 173 173
21.875000000000 15.750000000000 4.115997314453 173 173 173
21.875000000000 15.750000000000 4.069992065430 169 169 169
21.890625000000 15.750000000000 4.024002075195 129 129 129
21.546875000000 15.875000000000 4.841003417969 146 146 146
7.453125000000 3.343750000000 4.653991699219 157 157 157
7.437500000000 3.343750000000 4.617004394531 100 100 100
7.437500000000 3.343750000000 4.115005493164 160 160 160
7.500000000000 3.656250000000 4.671997070313 211 211 211
7.484375000000 3.656250000000 4.630996704102 228 228 228
7.484375000000 3.656250000000 4.589004516602 228 228 228
7.484375000000 3.656250000000 4.546997070313 227 227 227
7.484375000000 3.656250000000 4.505004882813 230 230 230
7.500000000000 3.656250000000 4.462005615234 223 223 223
7.468750000000 3.671875000000 4.341003417969 84 84 84
7.484375000000 3.671875000000 4.298995971680 232 232 232
7.468750000000 3.671875000000 4.257995605469 248 248 248
7.453125000000 3.671875000000 4.218002319336 249 249 249
