9.000000000000 12.687500000000 3.009002685547 91 91 91
9.000000000000 12.687500000000 2.932983398438 168 168 168
9.875000000000 12.187500000000 3.063995361328 92 92 92
9.875000000000 12.187500000000 3.005004882813 157 157 157
9.875000000000 12.187500000000 2.938995361328 164 164 164
9.875000000000 12.187500000000 2.876983642578 165 165 165
9.875000000000 12.187500000000 2.812011718750 50 50 50
8.875000000000 12.687500000000 2.839996337891 132 132 132
9.062500000000 12.750000000000 2.951995849609 183 183 183
9.000000000000 12.750000000000 2.868011474609 164 164 164
9.875000000000 12.312500000000 3.011993408203 155 155 155
9.937500000000 12.250000000000 2.949981689453 154 154 154
9.875000000000 12.312500000000 2.882995605469 162 162 162
9.875000000000 12.312500000000 2.803009033203 222 222 222
9.500000000000 12.687500000000 3.050994873047 128 128 128
9.500000000000 12.687500000000 2.984008789063 151 151 151
9.875000000000 12.500000000000 3.001983642578 176 176 176
9.875000000000 12.437500000000 2.940002441406 174 174 174
9.875000000000 12.437500000000 2.872985839844 173 173 173
9.562500000000 12.625000000000 2.717987060547 123 123 123
9.562500000000 12.625000000000 2.648010253906 124 124 124
9.562500000000 12.625000000000 2.579986572266 126 126 126
9.562500000000 12.625000000000 2.510009765625 126 126 126
9.562500000000 12.625000000000 2.442993164063 122 122 122
9.562500000000 12.625000000000 2.364990234375 172 172 172
9.312500000000 12.750000000000 1.962982177734 144 144 144
9.500000000000 12.687500000000 1.958984375000 166 166 166
9.562500000000 12.750000000000 3.074981689453 103 103 103
9.625000000000 12.750000000000 3.023010253906 176 176 176
9.812500000000 12.625000000000 3.001007080078 142 142 142
9.812500000000 12.625000000000 2.936004638672 142 142 142
9.812500000000 12.625000000000 2.868988037109 150 150 150
9.625000000000 12.750000000000 2.751983642578 176 176 176
9.625000000000 12.750000000000 2.683990478516 177 177 177
9.625000000000 12.750000000000 2.614990234375 174 174 174
9.625000000000 12.750000000000 2.542999267578 175 175 175
9.625000000000 12.750000000000 2.472991943359 177 177 177
9.625000000000 12.750000000000 2.404998779297 175 175 175
9.500000000000 12.812500000000 2.285003662109 130 130 130
9.562500000000 12.812500000000 2.217987060547 124 124 124
9.562500000000 12.812500000000 2.141998291016 129 129 129
9.562500000000 12.812500000000 2.066009521484 122 122 122
9.562500000000 12.812500000000 1.996002197266 119 119 119
9.625000000000 12.750000000000 1.950988769531 180 180 180
9.500000000000 12.937500000000 3.069000244141 101 101 101
9.625000000000 12.875000000000 3.027984619141 179 179 179
9.750000000000 12.812500000000 2.988983154297 159 159 159
9.750000000000 12.812500000000 2.921997070313 161 161 161
9.750000000000 12.812500000000 2.851989746094 159 159 159
9.687500000000 12.875000000000 2.760009765625 177 177 177
9.625000000000 12.875000000000 2.688995361328 187 187 187
9.687500000000 12.875000000000 2.622009277344 189 189 189
9.687500000000 12.875000000000 2.553985595703 185 185 185
9.687500000000 12.875000000000 2.483001708984 183 183 183
9.687500000000 12.875000000000 2.411987304688 149 149 149
9.562500000000 12.937500000000 2.304992675781 129 129 129
9.562500000000 12.937500000000 2.230010986328 112 112 112
9.625000000000 12.937500000000 2.161987304688 108 108 108
9.625000000000 12.937500000000 2.087982177734 111 111 111
9.625000000000 12.937500000000 2.014984130859 113 113 113
9.687500000000 12.937500000000 1.971984863281 167 167 167
9.312500000000 13.250000000000 3.016998291016 159 159 159
9.687500000000 13.062500000000 3.031982421875 180 180 180
9.812500000000 12.937500000000 2.996002197266 173 173 173
9.812500000000 12.937500000000 2.932983398438 165 165 165
9.812500000000 12.937500000000 2.867004394531 160 160 160
9.687500000000 13.062500000000 2.763000488281 182 182 182
9.687500000000 13.062500000000 2.696990966797 178 178 178
9.687500000000 13.062500000000 2.623992919922 178 178 178
9.687500000000 13.062500000000 2.559997558594 177 177 177
9.687500000000 13.000000000000 2.492004394531 175 175 175
9.687500000000 13.000000000000 2.420989990234 176 176 176
9.750000000000 13.000000000000 2.350982666016 106 106 106
9.250000000000 13.437500000000 2.997009277344 160 160 160
9.250000000000 13.437500000000 2.923004150391 158 158 158
9.812500000000 13.062500000000 2.998992919922 169 169 169
9.812500000000 13.062500000000 2.937011718750 165 165 165
9.812500000000 13.062500000000 2.871002197266 161 161 161
9.250000000000 13.562500000000 3.001983642578 194 194 194
9.187500000000 13.562500000000 2.927001953125 231 231 231
9.812500000000 13.250000000000 3.006011962891 173 173 173
9.812500000000 13.250000000000 2.937988281250 165 165 165
9.812500000000 13.250000000000 2.872985839844 164 164 164
9.250000000000 13.750000000000 3.006011962891 178 178 178
9.250000000000 13.750000000000 2.932983398438 222 222 222
9.812500000000 13.437500000000 3.006988525391 164 164 164
9.812500000000 13.437500000000 2.941986083984 161 161 161
9.812500000000 13.437500000000 2.877990722656 163 163 163
9.250000000000 13.812500000000 3.014007568359 162 162 162
9.250000000000 13.812500000000 2.937011718750 237 237 237
9.812500000000 13.500000000000 3.010009765625 212 212 212
9.812500000000 13.500000000000 2.945983886719 221 221 221
9.812500000000 13.500000000000 2.878997802734 222 222 222
9.250000000000 13.937500000000 3.016998291016 63 63 63
9.250000000000 13.937500000000 2.945007324219 234 234 234
9.812500000000 13.687500000000 3.011993408203 219 219 219
9.875000000000 13.687500000000 2.949981689453 223 223 223
9.875000000000 13.687500000000 2.882995605469 227 227 227
9.312500000000 14.125000000000 2.957000732422 231 231 231
9.812500000000 13.875000000000 3.010009765625 231 231 231
9.875000000000 13.812500000000 2.954010009766 218 218 218
9.875000000000 13.812500000000 2.889007568359 224 224 224
9.312500000000 14.250000000000 2.963989257813 231 231 231
9.812500000000 14.000000000000 3.011993408203 227 227 227
9.875000000000 14.000000000000 2.958984375000 217 217 217
9.875000000000 14.000000000000 2.891998291016 221 221 221
9.312500000000 14.375000000000 2.971984863281 231 231 231
9.312500000000 14.437500000000 2.898986816406 216 216 216
9.812500000000 14.125000000000 2.962982177734 207 207 207
9.812500000000 14.125000000000 2.899993896484 217 217 217
9.375000000000 14.500000000000 2.983001708984 209 209 209
9.312500000000 14.500000000000 2.908996582031 223 223 223
9.812500000000 14.250000000000 2.967987060547 219 219 219
9.812500000000 14.250000000000 2.902984619141 218 218 218
9.375000000000 14.625000000000 2.989990234375 223 223 223
9.687500000000 14.437500000000 3.003997802734 118 118 118
9.812500000000 14.375000000000 2.967987060547 225 225 225
9.812500000000 14.375000000000 2.904998779297 220 220 220
9.375000000000 14.750000000000 2.997985839844 217 217 217
9.375000000000 14.750000000000 2.930999755859 228 228 228
9.875000000000 14.562500000000 2.971984863281 216 216 216
9.812500000000 14.562500000000 2.906005859375 219 219 219
9.437500000000 14.937500000000 3.001007080078 204 204 204
9.437500000000 14.937500000000 2.936004638672 235 235 235
9.812500000000 14.687500000000 2.972991943359 221 221 221
9.875000000000 14.687500000000 2.911010742188 221 221 221
9.437500000000 15.000000000000 3.007995605469 176 176 176
9.437500000000 15.000000000000 2.940002441406 227 227 227
9.875000000000 14.812500000000 2.975006103516 219 219 219
9.875000000000 14.812500000000 2.911010742188 218 218 218
9.500000000000 15.125000000000 3.013000488281 152 152 152
9.500000000000 15.125000000000 2.945007324219 226 226 226
9.875000000000 14.937500000000 2.973999023438 220 220 220
9.875000000000 14.937500000000 2.911010742188 220 220 220
9.437500000000 15.312500000000 2.954010009766 219 219 219
9.812500000000 15.125000000000 2.979003906250 215 215 215
9.812500000000 15.125000000000 2.911987304688 218 218 218
9.500000000000 15.437500000000 2.958984375000 227 227 227
9.812500000000 15.250000000000 2.976989746094 219 219 219
9.812500000000 15.250000000000 2.914001464844 213 213 213
9.500000000000 15.562500000000 2.967987060547 220 220 220
9.812500000000 15.437500000000 2.979003906250 221 221 221
9.812500000000 15.437500000000 2.915008544922 213 213 213
9.500000000000 15.687500000000 2.975982666016 213 213 213
9.812500000000 15.500000000000 2.979003906250 218 218 218
9.812500000000 15.500000000000 2.915985107422 216 216 216
9.562500000000 15.812500000000 2.984985351563 222 222 222
9.812500000000 15.687500000000 2.980987548828 220 220 220
9.812500000000 15.687500000000 2.919006347656 212 212 212
9.625000000000 15.937500000000 2.993988037109 216 216 216
9.812500000000 15.812500000000 2.980987548828 221 221 221
9.812500000000 15.812500000000 2.919006347656 219 219 219
9.750000000000 15.812500000000 2.848999023438 38 38 38
9.625000000000 16.062500000000 3.002990722656 186 186 186
9.812500000000 16.000000000000 2.984985351563 213 213 213
9.812500000000 16.000000000000 2.920989990234 221 221 221
9.812500000000 16.000000000000 2.856994628906 65 65 65
9.625000000000 16.187500000000 3.007995605469 155 155 155
9.750000000000 16.062500000000 2.984008789063 224 224 224
9.750000000000 16.062500000000 2.923004150391 194 194 194
9.750000000000 16.062500000000 2.859985351563 79 79 79
9.625000000000 16.375000000000 3.011993408203 69 69 69
9.812500000000 16.312500000000 2.986999511719 219 219 219
9.812500000000 16.312500000000 2.924011230469 219 219 219
9.812500000000 16.312500000000 2.863006591797 82 82 82
9.750000000000 16.500000000000 3.154998779297 175 175 175
9.687500000000 16.500000000000 3.089996337891 171 171 171
9.687500000000 16.500000000000 3.026000976563 138 138 138
9.812500000000 16.437500000000 2.988983154297 215 215 215
9.812500000000 16.437500000000 2.925994873047 214 214 214
9.812500000000 16.437500000000 2.863983154297 125 125 125
9.812500000000 16.625000000000 2.990997314453 210 210 210
9.812500000000 16.625000000000 2.925994873047 220 220 220
9.812500000000 16.625000000000 2.863983154297 139 139 139
9.812500000000 16.687500000000 2.993988037109 208 208 208
9.875000000000 16.687500000000 2.930999755859 213 213 213
9.875000000000 16.687500000000 2.868011474609 182 182 182
9.875000000000 16.875000000000 2.997009277344 201 201 201
9.875000000000 16.875000000000 2.933990478516 210 210 210
9.875000000000 16.875000000000 2.868011474609 190 190 190
9.812500000000 17.000000000000 2.998992919922 188 188 188
9.812500000000 17.000000000000 2.937011718750 204 204 204
9.812500000000 17.000000000000 2.873992919922 190 190 190
9.875000000000 12.250000000000 2.829986572266 118 118 118
9.875000000000 12.250000000000 2.893981933594 140 140 140
9.875000000000 12.187500000000 2.957000732422 146 146 146
9.875000000000 12.187500000000 3.022003173828 127 127 127
9.937500000000 12.375000000000 2.838989257813 119 119 119
9.937500000000 12.375000000000 2.901000976563 137 137 137
9.875000000000 12.375000000000 2.964996337891 139 139 139
9.875000000000 12.375000000000 3.027984619141 132 132 132
9.875000000000 12.500000000000 2.882995605469 161 161 161
9.875000000000 12.500000000000 2.949005126953 161 161 161
9.875000000000 12.437500000000 3.016998291016 133 133 133
9.875000000000 12.625000000000 2.885009765625 183 183 183
9.875000000000 12.625000000000 2.950988769531 185 185 185
9.875000000000 12.625000000000 3.016998291016 181 181 181
9.625000000000 12.687500000000 2.411010742188 84 84 84
9.625000000000 12.687500000000 2.486999511719 64 64 64
9.625000000000 12.687500000000 2.553985595703 23 23 23
9.750000000000 12.750000000000 2.873992919922 185 185 185
9.750000000000 12.750000000000 2.937988281250 186 186 186
9.750000000000 12.750000000000 3.005004882813 182 182 182
9.000000000000 12.187500000000 2.859985351563 119 119 119
9.000000000000 12.187500000000 2.937011718750 122 122 122
8.937500000000 12.187500000000 3.002990722656 126 126 126
9.625000000000 12.812500000000 1.959991455078 162 162 162
9.687500000000 12.875000000000 2.359008789063 93 93 93
9.625000000000 12.812500000000 2.419006347656 176 176 176
9.625000000000 12.812500000000 2.488983154297 179 179 179
9.625000000000 12.812500000000 2.557006835938 176 176 176
9.625000000000 12.812500000000 2.626983642578 176 176 176
9.625000000000 12.812500000000 2.695983886719 176 176 176
9.625000000000 12.812500000000 2.763000488281 180 180 180
9.812500000000 12.937500000000 2.875000000000 138 138 138
9.812500000000 12.937500000000 2.941009521484 135 135 135
9.750000000000 12.937500000000 3.003997802734 150 150 150
9.625000000000 12.812500000000 3.032989501953 178 178 178
9.000000000000 12.375000000000 2.942993164063 121 121 121
8.937500000000 12.312500000000 3.007995605469 130 130 130
9.625000000000 12.937500000000 1.980987548828 160 160 160
9.562500000000 12.937500000000 2.022003173828 126 126 126
9.562500000000 12.937500000000 2.096008300781 126 126 126
9.562500000000 12.937500000000 2.171997070313 124 124 124
9.562500000000 12.937500000000 2.243011474609 131 131 131
9.625000000000 13.000000000000 2.337005615234 139 139 139
9.687500000000 13.000000000000 2.428985595703 138 138 138
9.687500000000 13.062500000000 2.493011474609 185 185 185
9.687500000000 13.062500000000 2.562011718750 184 184 184
9.687500000000 13.062500000000 2.631988525391 190 190 190
9.625000000000 12.937500000000 2.697998046875 178 178 178
9.687500000000 13.062500000000 2.768981933594 175 175 175
9.812500000000 13.062500000000 2.877990722656 146 146 146
9.812500000000 13.062500000000 2.945007324219 143 143 143
9.812500000000 13.062500000000 3.010009765625 140 140 140
9.687500000000 13.062500000000 3.039001464844 178 178 178
9.500000000000 12.875000000000 3.063995361328 97 97 97
9.000000000000 12.562500000000 3.010986328125 106 106 106
9.500000000000 13.062500000000 1.993988037109 112 112 112
9.500000000000 13.062500000000 2.062011718750 114 114 114
9.500000000000 13.062500000000 2.136993408203 110 110 110
9.500000000000 13.062500000000 2.210998535156 105 105 105
9.687500000000 13.125000000000 2.350982666016 181 181 181
9.687500000000 13.125000000000 2.424011230469 187 187 187
9.687500000000 13.125000000000 2.494995117188 186 186 186
9.687500000000 13.125000000000 2.563995361328 184 184 184
9.687500000000 13.125000000000 2.631011962891 185 185 185
9.687500000000 13.125000000000 2.699981689453 187 187 187
9.687500000000 13.125000000000 2.768005371094 185 185 185
9.750000000000 13.187500000000 2.877990722656 143 143 143
9.750000000000 13.187500000000 2.944000244141 152 152 152
9.750000000000 13.187500000000 3.009002685547 148 148 148
9.625000000000 13.062500000000 3.033996582031 180 180 180
9.437500000000 13.000000000000 3.055999755859 110 110 110
9.500000000000 13.125000000000 2.352996826172 185 185 185
9.500000000000 13.125000000000 2.427001953125 170 170 170
9.500000000000 13.125000000000 2.496002197266 174 174 174
9.500000000000 13.125000000000 2.569000244141 162 162 162
9.500000000000 13.125000000000 2.638000488281 167 167 167
9.500000000000 13.125000000000 2.707000732422 164 164 164
9.812500000000 13.375000000000 2.881011962891 142 142 142
9.812500000000 13.375000000000 2.945007324219 151 151 151
9.812500000000 13.375000000000 3.010986328125 154 154 154
9.437500000000 13.187500000000 2.984985351563 160 160 160
9.437500000000 13.187500000000 3.049987792969 149 149 149
9.312500000000 13.250000000000 2.359008789063 96 96 96
9.312500000000 13.250000000000 2.430999755859 71 71 71
9.312500000000 13.250000000000 2.505004882813 50 50 50
9.312500000000 13.250000000000 2.576995849609 23 23 23
9.812500000000 13.500000000000 2.882995605469 197 197 197
9.750000000000 13.500000000000 2.945983886719 210 210 210
9.750000000000 13.500000000000 3.009002685547 192 192 192
9.187500000000 13.125000000000 2.912994384766 131 131 131
9.187500000000 13.125000000000 2.984985351563 127 127 127
9.812500000000 13.687500000000 2.885009765625 212 212 212
9.812500000000 13.687500000000 2.949005126953 210 210 210
9.812500000000 13.625000000000 3.010986328125 191 191 191
9.187500000000 13.312500000000 2.916992187500 115 115 115
9.187500000000 13.312500000000 2.990997314453 113 113 113
9.812500000000 13.812500000000 2.888000488281 205 205 205
9.812500000000 13.812500000000 2.951995849609 210 210 210
9.812500000000 13.812500000000 3.013000488281 184 184 184
9.187500000000 13.375000000000 2.920989990234 119 119 119
9.187500000000 13.375000000000 2.993011474609 120 120 120
9.875000000000 14.000000000000 2.893005371094 198 198 198
9.812500000000 14.000000000000 2.954010009766 201 201 201
9.187500000000 13.625000000000 2.851989746094 194 194 194
9.187500000000 13.625000000000 2.928985595703 210 210 210
9.187500000000 13.625000000000 3.000000000000 153 153 153
9.812500000000 14.125000000000 2.893981933594 205 205 205
9.812500000000 14.125000000000 2.958007812500 196 196 196
9.187500000000 13.750000000000 2.854003906250 196 196 196
9.250000000000 13.812500000000 2.938995361328 202 202 202
9.187500000000 13.750000000000 3.009002685547 80 80 80
9.812500000000 14.250000000000 2.898010253906 202 202 202
9.812500000000 14.250000000000 2.962005615234 203 203 203
9.250000000000 13.937500000000 2.869995117188 186 186 186
9.250000000000 13.875000000000 2.946990966797 210 210 210
9.812500000000 14.437500000000 2.903991699219 208 208 208
9.812500000000 14.437500000000 2.967010498047 202 202 202
9.312500000000 14.125000000000 2.886993408203 195 195 195
9.312500000000 14.125000000000 2.958007812500 208 208 208
9.812500000000 14.625000000000 2.906005859375 205 205 205
9.812500000000 14.625000000000 2.970001220703 194 194 194
9.312500000000 14.250000000000 2.898010253906 196 196 196
9.312500000000 14.250000000000 2.967010498047 206 206 206
9.812500000000 14.812500000000 2.908996582031 206 206 206
9.812500000000 14.812500000000 2.971984863281 205 205 205
9.312500000000 14.437500000000 2.904998779297 206 206 206
9.312500000000 14.437500000000 2.975006103516 196 196 196
9.812500000000 14.875000000000 2.910003662109 204 204 204
9.812500000000 14.875000000000 2.973999023438 199 199 199
9.375000000000 14.625000000000 2.920989990234 107 107 107
9.312500000000 14.562500000000 2.983001708984 197 197 197
9.812500000000 15.062500000000 2.910003662109 211 211 211
9.812500000000 15.062500000000 2.973999023438 205 205 205
9.375000000000 14.812500000000 2.919982910156 201 201 201
9.375000000000 14.812500000000 2.988006591797 196 196 196
9.812500000000 15.187500000000 2.907989501953 206 206 206
9.812500000000 15.187500000000 2.972991943359 191 191 191
9.437500000000 15.000000000000 2.925994873047 203 203 203
9.375000000000 14.937500000000 2.993988037109 194 194 194
9.812500000000 15.312500000000 2.906982421875 202 202 202
9.812500000000 15.375000000000 2.968994140625 200 200 200
9.437500000000 15.062500000000 2.933990478516 200 200 200
9.437500000000 15.062500000000 2.998992919922 184 184 184
9.812500000000 15.500000000000 2.906982421875 200 200 200
9.812500000000 15.500000000000 2.971008300781 201 201 201
9.437500000000 15.312500000000 2.941986083984 197 197 197
9.437500000000 15.312500000000 3.007995605469 108 108 108
9.812500000000 15.687500000000 2.906005859375 199 199 199
9.812500000000 15.687500000000 2.972991943359 196 196 196
9.500000000000 15.437500000000 2.950988769531 198 198 198
9.812500000000 15.812500000000 2.910003662109 194 194 194
9.812500000000 15.812500000000 2.975006103516 197 197 197
9.500000000000 15.562500000000 2.962005615234 193 193 193
9.812500000000 16.000000000000 2.915008544922 207 207 207
9.812500000000 16.000000000000 2.977996826172 204 204 204
9.562500000000 15.812500000000 2.976989746094 194 194 194
9.750000000000 16.062500000000 2.850982666016 84 84 84
9.750000000000 16.062500000000 2.915985107422 191 191 191
9.750000000000 16.062500000000 2.980987548828 193 193 193
9.625000000000 16.000000000000 2.988983154297 192 192 192
9.812500000000 16.250000000000 2.860992431641 127 127 127
9.750000000000 16.250000000000 2.919982910156 209 209 209
9.750000000000 16.250000000000 2.984985351563 195 195 195
9.625000000000 16.187500000000 3.001007080078 142 142 142
9.750000000000 16.375000000000 2.863006591797 165 165 165
9.750000000000 16.375000000000 2.924987792969 198 198 198
9.750000000000 16.437500000000 2.988006591797 194 194 194
9.625000000000 16.250000000000 3.005004882813 21 21 21
9.812500000000 16.625000000000 2.868011474609 184 184 184
9.812500000000 16.625000000000 2.930999755859 200 200 200
9.812500000000 16.625000000000 2.993011474609 192 192 192
9.687500000000 16.500000000000 3.027008056641 118 118 118
9.687500000000 16.500000000000 3.092010498047 113 113 113
9.687500000000 16.500000000000 3.156005859375 106 106 106
9.812500000000 16.687500000000 2.869995117188 191 191 191
9.812500000000 16.687500000000 2.932983398438 192 192 192
9.812500000000 16.687500000000 2.993988037109 189 189 189
9.562500000000 16.562500000000 3.066009521484 31 31 31
9.812500000000 16.875000000000 2.872985839844 191 191 191
9.812500000000 16.875000000000 2.934997558594 190 190 190
9.812500000000 16.875000000000 2.993988037109 185 185 185
9.750000000000 17.062500000000 2.868011474609 181 181 181
9.750000000000 17.062500000000 2.932006835938 190 190 190
9.750000000000 17.062500000000 2.988983154297 182 182 182
9.875000000000 12.187500000000 2.819000244141 140 140 140
9.875000000000 12.187500000000 2.876007080078 161 161 161
9.875000000000 12.187500000000 2.929992675781 162 162 162
9.875000000000 12.187500000000 2.986999511719 161 161 161
9.875000000000 12.187500000000 3.041992187500 155 155 155
8.937500000000 12.125000000000 2.911010742188 58 58 58
8.937500000000 12.125000000000 2.976989746094 69 69 69
9.937500000000 12.250000000000 2.821990966797 156 156 156
9.937500000000 12.250000000000 2.881011962891 157 157 157
9.937500000000 12.250000000000 2.934997558594 154 154 154
9.937500000000 12.250000000000 2.989990234375 156 156 156
9.875000000000 12.312500000000 3.044006347656 150 150 150
9.000000000000 12.250000000000 2.920989990234 175 175 175
8.937500000000 12.250000000000 2.983001708984 146 146 146
9.812500000000 12.375000000000 2.867004394531 175 175 175
9.812500000000 12.375000000000 2.923004150391 176 176 176
9.812500000000 12.375000000000 2.977996826172 176 176 176
9.000000000000 12.375000000000 2.859985351563 174 174 174
9.000000000000 12.375000000000 2.925994873047 179 179 179
8.937500000000 12.375000000000 2.988006591797 147 147 147
9.875000000000 12.625000000000 2.871002197266 168 168 168
9.875000000000 12.625000000000 2.927001953125 170 170 170
9.875000000000 12.625000000000 2.980987548828 171 171 171
9.000000000000 12.562500000000 2.863983154297 171 171 171
9.000000000000 12.562500000000 2.929992675781 177 177 177
9.000000000000 12.562500000000 2.993011474609 92 92 92
9.562500000000 12.687500000000 1.979003906250 104 104 104
9.625000000000 12.750000000000 2.338989257813 110 110 110
9.687500000000 12.687500000000 2.402008056641 172 172 172
9.687500000000 12.687500000000 2.463989257813 175 175 175
9.687500000000 12.687500000000 2.524993896484 172 172 172
9.687500000000 12.687500000000 2.584991455078 173 173 173
9.625000000000 12.750000000000 2.643005371094 173 173 173
9.625000000000 12.750000000000 2.704010009766 172 172 172
9.625000000000 12.750000000000 2.763000488281 173 173 173
9.812500000000 12.750000000000 2.856994628906 161 161 161
9.750000000000 12.750000000000 2.911987304688 166 166 166
9.750000000000 12.750000000000 2.968994140625 167 167 167
9.687500000000 12.687500000000 3.005004882813 168 168 168
9.625000000000 12.750000000000 3.052001953125 163 163 163
9.250000000000 12.687500000000 3.044982910156 68 68 68
9.687500000000 12.875000000000 1.964996337891 171 171 171
9.625000000000 12.937500000000 2.001983642578 137 137 137
9.625000000000 12.937500000000 2.057983398438 147 147 147
9.625000000000 12.937500000000 2.126007080078 147 147 147
9.625000000000 12.937500000000 2.188995361328 140 140 140
9.625000000000 12.937500000000 2.253997802734 150 150 150
9.625000000000 12.875000000000 2.339996337891 161 161 161
9.687500000000 12.875000000000 2.411010742188 157 157 157
9.687500000000 12.875000000000 2.471984863281 189 189 189
9.687500000000 12.875000000000 2.531005859375 192 192 192
9.625000000000 12.875000000000 2.591003417969 193 193 193
9.687500000000 12.875000000000 2.652008056641 195 195 195
9.687500000000 12.875000000000 2.712005615234 193 193 193
9.625000000000 12.875000000000 2.769989013672 186 186 186
9.812500000000 12.875000000000 2.860992431641 171 171 171
9.812500000000 12.875000000000 2.916992187500 174 174 174
9.750000000000 12.875000000000 2.973999023438 172 172 172
9.750000000000 12.937500000000 3.019989013672 177 177 177
9.625000000000 12.875000000000 3.054992675781 149 149 149
9.312500000000 12.812500000000 3.057983398438 86 86 86
9.500000000000 13.000000000000 1.977996826172 111 111 111
9.750000000000 13.062500000000 2.355987548828 170 170 170
9.750000000000 13.062500000000 2.419006347656 175 175 175
9.687500000000 13.062500000000 2.475006103516 175 175 175
9.750000000000 13.062500000000 2.537994384766 177 177 177
9.750000000000 13.062500000000 2.597991943359 175 175 175
9.750000000000 13.062500000000 2.657989501953 175 175 175
9.687500000000 13.062500000000 2.716003417969 175 175 175
9.687500000000 13.062500000000 2.774993896484 176 176 176
9.812500000000 13.000000000000 2.863006591797 177 177 177
9.812500000000 13.000000000000 2.920989990234 181 181 181
9.812500000000 13.000000000000 2.976989746094 176 176 176
9.687500000000 13.062500000000 3.007995605469 174 174 174
9.625000000000 13.062500000000 3.059997558594 135 135 135
9.312500000000 13.062500000000 3.058990478516 52 52 52
9.312500000000 13.187500000000 2.367004394531 17 17 17
9.812500000000 13.187500000000 2.868988037109 184 184 184
9.812500000000 13.187500000000 2.925994873047 178 178 178
9.812500000000 13.187500000000 2.980987548828 181 181 181
9.187500000000 13.187500000000 2.914001464844 172 172 172
9.125000000000 13.125000000000 2.971984863281 171 171 171
9.812500000000 13.375000000000 2.869995117188 180 180 180
9.812500000000 13.375000000000 2.927001953125 178 178 178
9.812500000000 13.375000000000 2.981994628906 176 176 176
9.250000000000 13.312500000000 2.915008544922 176 176 176
9.187500000000 13.312500000000 2.975006103516 175 175 175
9.812500000000 13.500000000000 2.872009277344 215 215 215
9.812500000000 13.500000000000 2.928009033203 221 221 221
9.812500000000 13.500000000000 2.984008789063 226 226 226
9.250000000000 13.437500000000 2.917999267578 177 177 177
9.250000000000 13.437500000000 2.980010986328 165 165 165
9.812500000000 13.625000000000 2.875000000000 223 223 223
9.812500000000 13.625000000000 2.927001953125 221 221 221
9.812500000000 13.625000000000 2.984985351563 214 214 214
9.187500000000 13.625000000000 2.919006347656 224 224 224
9.187500000000 13.562500000000 2.984008789063 211 211 211
9.812500000000 13.750000000000 2.875000000000 223 223 223
9.812500000000 13.750000000000 2.930999755859 213 213 213
9.812500000000 13.750000000000 2.986999511719 213 213 213
9.250000000000 13.750000000000 2.923004150391 221 221 221
9.250000000000 13.750000000000 2.984008789063 214 214 214
9.875000000000 13.937500000000 2.876983642578 214 214 214
9.812500000000 13.937500000000 2.930999755859 209 209 209
9.875000000000 13.937500000000 2.986999511719 219 219 219
9.250000000000 13.875000000000 2.927001953125 221 221 221
9.250000000000 13.875000000000 2.988983154297 198 198 198
9.812500000000 14.062500000000 2.876007080078 218 218 218
9.812500000000 14.062500000000 2.932983398438 209 209 209
9.812500000000 14.062500000000 2.988983154297 214 214 214
9.312500000000 14.062500000000 2.932006835938 229 229 229
9.312500000000 14.062500000000 2.994995117188 189 189 189
9.875000000000 14.250000000000 2.878997802734 215 215 215
9.812500000000 14.187500000000 2.932983398438 214 214 214
9.812500000000 14.187500000000 2.989990234375 206 206 206
9.312500000000 14.187500000000 2.937988281250 225 225 225
9.312500000000 14.187500000000 3.000000000000 168 168 168
9.875000000000 14.375000000000 2.881011962891 219 219 219
9.812500000000 14.375000000000 2.936004638672 214 214 214
9.812500000000 14.375000000000 2.990997314453 220 220 220
9.312500000000 14.375000000000 2.945983886719 212 212 212
9.312500000000 14.312500000000 3.002990722656 131 131 131
9.875000000000 14.562500000000 2.884002685547 215 215 215
9.875000000000 14.562500000000 2.940002441406 219 219 219
9.875000000000 14.562500000000 2.994995117188 212 212 212
9.375000000000 14.500000000000 2.951995849609 213 213 213
9.875000000000 14.687500000000 2.885986328125 221 221 221
9.875000000000 14.687500000000 2.941986083984 216 216 216
9.812500000000 14.687500000000 2.996002197266 211 211 211
9.375000000000 14.625000000000 2.959991455078 205 205 205
9.875000000000 14.812500000000 2.886993408203 216 216 216
9.875000000000 14.812500000000 2.945007324219 214 214 214
9.812500000000 14.812500000000 2.996002197266 216 216 216
9.375000000000 14.812500000000 2.966003417969 234 234 234
9.812500000000 14.937500000000 2.889007568359 218 218 218
9.875000000000 14.937500000000 2.945983886719 217 217 217
9.812500000000 14.937500000000 2.997009277344 217 217 217
9.437500000000 15.000000000000 2.972991943359 226 226 226
9.812500000000 15.125000000000 2.890991210938 213 213 213
9.812500000000 15.125000000000 2.945007324219 220 220 220
9.750000000000 15.125000000000 2.993011474609 219 219 219
9.437500000000 15.062500000000 2.979003906250 215 215 215
9.812500000000 15.250000000000 2.890991210938 218 218 218
9.812500000000 15.250000000000 2.946990966797 215 215 215
9.750000000000 15.312500000000 2.992004394531 218 218 218
9.500000000000 15.187500000000 2.984008789063 213 213 213
9.812500000000 15.437500000000 2.889007568359 214 214 214
9.812500000000 15.437500000000 2.945007324219 217 217 217
9.750000000000 15.437500000000 2.990997314453 219 219 219
9.500000000000 15.437500000000 2.988006591797 201 201 201
9.812500000000 15.500000000000 2.889007568359 217 217 217
9.812500000000 15.500000000000 2.941986083984 218 218 218
9.750000000000 15.562500000000 2.988983154297 217 217 217
9.500000000000 15.562500000000 2.993988037109 177 177 177
9.812500000000 15.687500000000 2.889007568359 215 215 215
9.812500000000 15.687500000000 2.941986083984 219 219 219
9.750000000000 15.687500000000 2.990997314453 212 212 212
9.500000000000 15.687500000000 2.998992919922 135 135 135
9.812500000000 15.812500000000 2.889984130859 217 217 217
9.812500000000 15.812500000000 2.944000244141 217 217 217
9.812500000000 15.812500000000 2.997009277344 204 204 204
9.562500000000 15.812500000000 3.001007080078 87 87 87
9.812500000000 16.062500000000 2.889007568359 221 221 221
9.812500000000 16.062500000000 2.945007324219 217 217 217
9.750000000000 16.000000000000 2.990997314453 192 192 192
9.812500000000 16.125000000000 2.891998291016 213 213 213
9.812500000000 16.125000000000 2.945983886719 215 215 215
9.687500000000 16.125000000000 2.979003906250 214 214 214
9.812500000000 16.312500000000 2.894989013672 219 219 219
9.812500000000 16.312500000000 2.949005126953 220 220 220
9.687500000000 16.312500000000 2.975006103516 224 224 224
9.812500000000 16.437500000000 2.895996093750 216 216 216
9.812500000000 16.437500000000 2.953002929688 214 214 214
9.687500000000 16.437500000000 2.984985351563 176 176 176
9.687500000000 16.437500000000 3.040008544922 154 154 154
9.687500000000 16.437500000000 3.092987060547 171 171 171
9.687500000000 16.437500000000 3.149993896484 171 171 171
9.812500000000 16.625000000000 2.845001220703 75 75 75
9.812500000000 16.625000000000 2.902008056641 217 217 217
9.812500000000 16.625000000000 2.955993652344 201 201 201
9.687500000000 16.625000000000 2.989990234375 159 159 159
9.812500000000 16.687500000000 2.855010986328 137 137 137
9.812500000000 16.687500000000 2.906982421875 209 209 209
9.812500000000 16.687500000000 2.960998535156 214 214 214
9.750000000000 16.687500000000 2.993988037109 98 98 98
9.875000000000 16.875000000000 2.859008789063 142 142 142
9.812500000000 16.875000000000 2.908996582031 208 208 208
9.812500000000 16.875000000000 2.964996337891 211 211 211
9.687500000000 16.812500000000 2.996002197266 60 60 60
18.625000000000 15.687500000000 3.001007080078 32 32 32
18.500000000000 15.625000000000 2.979003906250 225 225 225
18.500000000000 15.625000000000 2.929992675781 217 217 217
18.500000000000 15.625000000000 2.880004882813 217 217 217
18.625000000000 15.750000000000 3.156005859375 171 171 171
18.625000000000 15.750000000000 3.105987548828 183 183 183
18.625000000000 15.750000000000 3.054992675781 190 190 190
18.625000000000 15.750000000000 3.006988525391 160 160 160
18.500000000000 15.812500000000 2.979003906250 227 227 227
18.500000000000 15.812500000000 2.928985595703 223 223 223
18.500000000000 15.812500000000 2.878997802734 220 220 220
18.625000000000 15.937500000000 2.997009277344 196 196 196
18.500000000000 15.937500000000 2.981994628906 222 222 222
18.500000000000 15.875000000000 2.928985595703 222 222 222
18.500000000000 15.937500000000 2.880004882813 224 224 224
18.687500000000 16.062500000000 2.989990234375 220 220 220
18.500000000000 16.062500000000 2.981994628906 225 225 225
18.500000000000 16.062500000000 2.929992675781 223 223 223
18.500000000000 16.062500000000 2.881011962891 220 220 220
18.625000000000 16.187500000000 2.985992431641 219 219 219
18.500000000000 16.250000000000 2.983001708984 226 226 226
18.500000000000 16.187500000000 2.932983398438 215 215 215
18.500000000000 16.187500000000 2.881988525391 217 217 217
18.750000000000 16.375000000000 2.980987548828 201 201 201
18.500000000000 16.375000000000 2.983001708984 225 225 225
18.500000000000 16.375000000000 2.932006835938 221 221 221
18.500000000000 16.375000000000 2.881011962891 219 219 219
18.750000000000 16.500000000000 2.970001220703 207 207 207
18.500000000000 16.500000000000 2.980987548828 224 224 224
18.500000000000 16.500000000000 2.930999755859 217 217 217
18.500000000000 16.500000000000 2.881011962891 216 216 216
18.750000000000 16.625000000000 3.013000488281 116 116 116
18.750000000000 16.687500000000 2.963989257813 219 219 219
18.500000000000 16.625000000000 2.980010986328 204 204 204
18.500000000000 16.625000000000 2.930999755859 197 197 197
18.500000000000 16.625000000000 2.880004882813 201 201 201
18.750000000000 16.812500000000 3.007995605469 205 205 205
18.750000000000 16.812500000000 2.958007812500 225 225 225
18.500000000000 16.812500000000 2.980987548828 217 217 217
18.500000000000 16.812500000000 2.932006835938 211 211 211
18.500000000000 16.812500000000 2.878997802734 217 217 217
18.812500000000 16.937500000000 3.001007080078 231 231 231
18.812500000000 16.937500000000 2.950988769531 223 223 223
18.437500000000 16.937500000000 2.980010986328 220 220 220
18.500000000000 16.937500000000 2.928985595703 213 213 213
18.500000000000 16.937500000000 2.878997802734 212 212 212
18.812500000000 17.062500000000 2.996002197266 228 228 228
18.812500000000 17.062500000000 2.942993164063 226 226 226
18.500000000000 17.125000000000 2.979003906250 229 229 229
18.500000000000 17.125000000000 2.929992675781 214 214 214
18.500000000000 17.125000000000 2.877990722656 214 214 214
18.812500000000 17.250000000000 2.990997314453 228 228 228
18.812500000000 17.250000000000 2.938995361328 224 224 224
18.437500000000 17.187500000000 2.979003906250 228 228 228
18.437500000000 17.187500000000 2.928009033203 218 218 218
18.437500000000 17.187500000000 2.880004882813 219 219 219
18.875000000000 17.437500000000 2.983001708984 224 224 224
18.812500000000 17.375000000000 2.932006835938 228 228 228
18.437500000000 17.375000000000 2.980010986328 228 228 228
18.437500000000 17.375000000000 2.932006835938 212 212 212
18.437500000000 17.375000000000 2.881011962891 217 217 217
18.875000000000 17.562500000000 2.980987548828 205 205 205
18.875000000000 17.562500000000 2.924987792969 228 228 228
18.375000000000 17.562500000000 2.981994628906 223 223 223
18.437500000000 17.562500000000 2.929992675781 219 219 219
18.375000000000 17.562500000000 2.882995605469 218 218 218
18.937500000000 17.687500000000 3.024993896484 21 21 21
18.875000000000 17.687500000000 2.976989746094 169 169 169
18.875000000000 17.687500000000 2.925994873047 172 172 172
18.375000000000 17.687500000000 2.981994628906 227 227 227
18.375000000000 17.687500000000 2.932006835938 216 216 216
18.375000000000 17.687500000000 2.884002685547 213 213 213
18.937500000000 17.812500000000 3.023010253906 113 113 113
18.875000000000 17.812500000000 2.971008300781 223 223 223
18.875000000000 17.875000000000 2.919006347656 231 231 231
18.375000000000 17.812500000000 2.981994628906 221 221 221
18.375000000000 17.812500000000 2.933990478516 215 215 215
18.375000000000 17.812500000000 2.884002685547 217 217 217
18.875000000000 18.000000000000 3.022003173828 171 171 171
18.875000000000 18.000000000000 2.968994140625 218 218 218
18.875000000000 18.000000000000 2.914001464844 229 229 229
18.375000000000 17.937500000000 2.980987548828 229 229 229
18.375000000000 17.937500000000 2.934997558594 211 211 211
18.375000000000 17.937500000000 2.885009765625 217 217 217
18.937500000000 18.125000000000 3.018981933594 192 192 192
18.937500000000 18.125000000000 2.964996337891 227 227 227
18.937500000000 18.125000000000 2.907989501953 226 226 226
18.437500000000 18.187500000000 2.981994628906 221 221 221
18.375000000000 18.125000000000 2.933990478516 216 216 216
18.375000000000 18.125000000000 2.885009765625 218 218 218
18.937500000000 18.312500000000 3.014984130859 219 219 219
18.937500000000 18.312500000000 2.957000732422 231 231 231
18.875000000000 18.312500000000 2.912994384766 230 230 230
18.375000000000 18.312500000000 2.981994628906 226 226 226
18.375000000000 18.250000000000 2.933990478516 211 211 211
18.375000000000 18.312500000000 2.881988525391 219 219 219
18.937500000000 18.437500000000 3.009002685547 226 226 226
18.937500000000 18.437500000000 2.950988769531 235 235 235
18.937500000000 18.437500000000 2.902008056641 236 236 236
18.375000000000 18.437500000000 2.979003906250 229 229 229
18.375000000000 18.437500000000 2.927001953125 216 216 216
18.375000000000 18.437500000000 2.880004882813 226 226 226
18.937500000000 18.625000000000 3.001983642578 224 224 224
18.937500000000 18.625000000000 2.945983886719 217 217 217
18.937500000000 18.625000000000 2.893005371094 234 234 234
18.375000000000 18.562500000000 2.976989746094 229 229 229
18.375000000000 18.562500000000 2.928985595703 213 213 213
18.375000000000 18.562500000000 2.877990722656 220 220 220
19.000000000000 18.687500000000 2.997985839844 218 218 218
19.000000000000 18.687500000000 2.940002441406 210 210 210
18.562500000000 18.750000000000 2.988983154297 255 255 255
18.375000000000 18.750000000000 2.975006103516 229 229 229
18.375000000000 18.750000000000 2.924011230469 219 219 219
18.375000000000 18.750000000000 2.876007080078 221 221 221
19.000000000000 18.875000000000 3.042999267578 71 71 71
19.000000000000 18.937500000000 2.993011474609 175 175 175
19.000000000000 18.937500000000 2.936004638672 180 180 180
18.375000000000 18.875000000000 3.018981933594 202 202 202
18.375000000000 18.937500000000 2.975006103516 204 204 204
18.375000000000 18.937500000000 2.924011230469 191 191 191
18.375000000000 18.937500000000 2.877990722656 188 188 188
19.000000000000 19.062500000000 3.042999267578 93 93 93
19.000000000000 19.062500000000 2.989990234375 184 184 184
19.000000000000 19.062500000000 2.932006835938 180 180 180
18.375000000000 19.000000000000 3.024993896484 169 169 169
18.375000000000 19.000000000000 2.973999023438 172 172 172
18.375000000000 19.000000000000 2.924987792969 169 169 169
18.375000000000 19.000000000000 2.875000000000 169 169 169
19.000000000000 19.187500000000 3.040008544922 125 125 125
19.000000000000 19.187500000000 2.986999511719 174 174 174
19.000000000000 19.187500000000 2.932006835938 179 179 179
18.375000000000 19.187500000000 3.023986816406 168 168 168
18.375000000000 19.187500000000 2.973999023438 179 179 179
18.375000000000 19.187500000000 2.921997070313 176 176 176
18.375000000000 19.187500000000 2.872985839844 176 176 176
18.750000000000 19.187500000000 2.704010009766 69 69 69
18.750000000000 19.187500000000 2.656005859375 93 93 93
18.750000000000 19.187500000000 2.613006591797 97 97 97
18.625000000000 19.187500000000 2.576995849609 97 97 97
18.625000000000 19.187500000000 2.539001464844 107 107 107
18.500000000000 19.125000000000 2.497009277344 119 119 119
18.500000000000 19.187500000000 2.447998046875 126 126 126
18.500000000000 19.187500000000 2.398010253906 130 130 130
18.812500000000 19.312500000000 3.082000732422 142 142 142
18.500000000000 19.312500000000 3.079010009766 143 143 143
18.500000000000 19.312500000000 3.042999267578 185 185 185
18.375000000000 19.312500000000 3.020996093750 179 179 179
18.375000000000 19.312500000000 2.972991943359 183 183 183
18.375000000000 19.312500000000 2.924011230469 186 186 186
18.375000000000 19.312500000000 2.873992919922 179 179 179
18.500000000000 19.312500000000 2.783996582031 185 185 185
18.500000000000 19.312500000000 2.730987548828 187 187 187
18.500000000000 19.312500000000 2.678985595703 183 183 183
18.500000000000 19.312500000000 2.625000000000 186 186 186
18.500000000000 19.312500000000 2.570007324219 183 183 183
18.500000000000 19.312500000000 2.518005371094 181 181 181
18.500000000000 19.312500000000 2.460998535156 180 180 180
18.500000000000 19.312500000000 2.411010742188 182 182 182
18.500000000000 19.312500000000 2.335998535156 153 153 153
18.625000000000 19.312500000000 2.238006591797 116 116 116
18.625000000000 19.312500000000 2.179992675781 124 124 124
18.625000000000 19.312500000000 2.121002197266 127 127 127
18.625000000000 19.312500000000 2.062011718750 127 127 127
18.812500000000 19.500000000000 3.079010009766 146 146 146
18.625000000000 19.500000000000 3.074981689453 152 152 152
18.500000000000 19.500000000000 3.040008544922 191 191 191
18.375000000000 19.437500000000 3.022003173828 176 176 176
18.375000000000 19.437500000000 2.967987060547 176 176 176
18.375000000000 19.437500000000 2.917999267578 180 180 180
18.375000000000 19.437500000000 2.872985839844 170 170 170
18.500000000000 19.500000000000 2.779998779297 185 185 185
18.500000000000 19.500000000000 2.729003906250 186 186 186
18.500000000000 19.500000000000 2.674011230469 189 189 189
18.500000000000 19.500000000000 2.622985839844 187 187 187
18.500000000000 19.500000000000 2.566986083984 186 186 186
18.500000000000 19.500000000000 2.514007568359 183 183 183
18.500000000000 19.500000000000 2.458007812500 182 182 182
18.500000000000 19.500000000000 2.403991699219 185 185 185
18.625000000000 19.500000000000 2.309997558594 152 152 152
18.625000000000 19.500000000000 2.244995117188 138 138 138
18.625000000000 19.500000000000 2.187988281250 130 130 130
18.625000000000 19.500000000000 2.126983642578 131 131 131
18.625000000000 19.500000000000 2.067993164063 134 134 134
18.625000000000 19.500000000000 2.006988525391 139 139 139
19.125000000000 19.687500000000 3.026000976563 149 149 149
18.625000000000 19.625000000000 3.071990966797 133 133 133
18.500000000000 19.562500000000 3.037994384766 180 180 180
18.437500000000 19.625000000000 3.006011962891 172 172 172
18.375000000000 19.625000000000 2.979003906250 166 166 166
18.375000000000 19.625000000000 2.928985595703 158 158 158
18.375000000000 19.625000000000 2.878997802734 160 160 160
18.500000000000 19.562500000000 2.787994384766 187 187 187
18.500000000000 19.562500000000 2.725982666016 187 187 187
18.500000000000 19.562500000000 2.673004150391 181 181 181
18.500000000000 19.562500000000 2.621002197266 183 183 183
18.500000000000 19.562500000000 2.566986083984 184 184 184
18.500000000000 19.562500000000 2.511993408203 184 184 184
18.500000000000 19.562500000000 2.458007812500 186 186 186
18.500000000000 19.562500000000 2.404998779297 185 185 185
18.500000000000 19.562500000000 2.355987548828 46 46 46
19.125000000000 19.812500000000 3.014007568359 187 187 187
19.125000000000 19.812500000000 2.954986572266 179 179 179
19.125000000000 19.812500000000 2.893981933594 181 181 181
18.312500000000 19.750000000000 2.992004394531 173 173 173
18.312500000000 19.750000000000 2.942993164063 170 170 170
18.312500000000 19.750000000000 2.893005371094 165 165 165
18.250000000000 19.687500000000 2.850982666016 111 111 111
19.187500000000 19.937500000000 3.061004638672 157 157 157
19.125000000000 19.937500000000 3.010009765625 182 182 182
19.125000000000 19.937500000000 2.953002929688 172 172 172
19.187500000000 19.937500000000 2.891998291016 178 178 178
18.250000000000 19.875000000000 3.049011230469 115 115 115
18.250000000000 19.875000000000 3.001983642578 174 174 174
18.250000000000 19.875000000000 2.951995849609 173 173 173
18.250000000000 19.875000000000 2.903991699219 168 168 168
18.250000000000 19.875000000000 2.859008789063 152 152 152
19.250000000000 19.937500000000 2.815002441406 106 106 106
19.187500000000 20.062500000000 3.058990478516 169 169 169
19.125000000000 20.062500000000 3.007995605469 176 176 176
19.187500000000 20.062500000000 2.947998046875 166 166 166
19.125000000000 20.062500000000 2.891998291016 170 170 170
18.250000000000 20.062500000000 3.053009033203 168 168 168
18.250000000000 20.062500000000 3.003997802734 184 184 184
18.250000000000 20.062500000000 2.957000732422 180 180 180
18.250000000000 20.062500000000 2.906005859375 178 178 178
18.250000000000 20.062500000000 2.858001708984 178 178 178
18.250000000000 20.187500000000 3.049987792969 173 173 173
18.250000000000 20.187500000000 3.001983642578 181 181 181
18.250000000000 20.187500000000 2.954986572266 174 174 174
18.250000000000 20.187500000000 2.903991699219 176 176 176
18.250000000000 20.250000000000 2.854003906250 170 170 170
18.250000000000 20.312500000000 3.033996582031 135 135 135
18.250000000000 20.312500000000 2.984008789063 146 146 146
18.250000000000 20.312500000000 2.936004638672 147 147 147
18.250000000000 20.312500000000 2.886993408203 145 145 145
18.250000000000 20.312500000000 2.837982177734 132 132 132
19.187500000000 20.187500000000 3.039001464844 175 175 175
19.125000000000 20.187500000000 2.988006591797 160 160 160
19.125000000000 20.187500000000 2.930999755859 164 164 164
19.125000000000 20.187500000000 2.869995117188 155 155 155
18.250000000000 20.187500000000 3.036987304688 180 180 180
18.250000000000 20.187500000000 2.988006591797 181 181 181
18.250000000000 20.187500000000 2.940002441406 181 181 181
18.250000000000 20.187500000000 2.891998291016 180 180 180
18.250000000000 20.187500000000 2.842010498047 173 173 173
19.187500000000 20.000000000000 3.042999267578 172 172 172
19.125000000000 20.000000000000 2.992004394531 186 186 186
19.125000000000 20.000000000000 2.932983398438 182 182 182
19.125000000000 20.000000000000 2.872009277344 171 171 171
18.187500000000 19.937500000000 3.040008544922 180 180 180
18.187500000000 19.937500000000 2.990997314453 183 183 183
18.187500000000 19.937500000000 2.945007324219 159 159 159
18.250000000000 20.000000000000 2.893981933594 177 177 177
18.250000000000 20.000000000000 2.843994140625 174 174 174
19.187500000000 19.875000000000 3.044006347656 114 114 114
19.125000000000 19.875000000000 2.993988037109 184 184 184
19.125000000000 19.875000000000 2.936004638672 183 183 183
19.125000000000 19.875000000000 2.876007080078 171 171 171
18.250000000000 19.875000000000 3.031005859375 124 124 124
18.312500000000 19.812500000000 2.975982666016 184 184 184
18.312500000000 19.812500000000 2.927001953125 179 179 179
18.312500000000 19.812500000000 2.873992919922 166 166 166
19.125000000000 19.750000000000 2.994995117188 190 190 190
19.125000000000 19.812500000000 2.937988281250 182 182 182
19.125000000000 19.812500000000 2.878997802734 185 185 185
18.250000000000 19.687500000000 3.027008056641 128 128 128
18.312500000000 19.687500000000 2.975982666016 153 153 153
18.312500000000 19.687500000000 2.924011230469 153 153 153
18.312500000000 19.687500000000 2.875000000000 152 152 152
