10.812500000000 26.312500000000 4.305999755859 156 156 156
10.875000000000 26.250000000000 4.264984130859 169 169 169
10.812500000000 26.312500000000 4.225006103516 153 153 153
10.812500000000 26.312500000000 4.184997558594 143 143 143
10.812500000000 26.312500000000 4.144989013672 152 152 152
10.812500000000 26.312500000000 4.105010986328 143 143 143
10.812500000000 26.312500000000 4.063995361328 147 147 147
10.812500000000 26.312500000000 4.024993896484 142 142 142
10.812500000000 26.312500000000 3.984008789063 145 145 145
10.812500000000 26.312500000000 3.942993164063 146 146 146
10.812500000000 26.312500000000 3.903991699219 144 144 144
10.812500000000 26.312500000000 3.863006591797 144 144 144
10.812500000000 26.312500000000 3.822998046875 143 143 143
10.812500000000 26.312500000000 3.781982421875 148 148 148
10.812500000000 26.312500000000 3.739990234375 142 142 142
10.812500000000 26.312500000000 3.699981689453 142 142 142
10.812500000000 26.312500000000 3.657989501953 141 141 141
10.812500000000 26.312500000000 3.618011474609 141 141 141
10.812500000000 26.312500000000 3.575988769531 139 139 139
10.812500000000 26.312500000000 3.536987304688 93 93 93
10.875000000000 26.250000000000 3.511993408203 162 162 162
11.062500000000 26.125000000000 3.514984130859 179 179 179
11.125000000000 26.125000000000 3.486999511719 201 201 201
11.125000000000 26.125000000000 3.449981689453 198 198 198
11.125000000000 26.125000000000 3.412994384766 200 200 200
11.125000000000 26.125000000000 3.372985839844 200 200 200
11.125000000000 26.125000000000 3.334991455078 198 198 198
10.875000000000 26.250000000000 3.208007812500 150 150 150
10.937500000000 26.250000000000 3.186004638672 69 69 69
10.875000000000 26.250000000000 3.130004882813 100 100 100
10.875000000000 26.250000000000 3.093994140625 55 55 55
10.875000000000 26.250000000000 3.027008056641 89 89 89
10.812500000000 26.312500000000 2.975006103516 117 117 117
10.812500000000 26.312500000000 2.928985595703 137 137 137
10.812500000000 26.312500000000 2.885009765625 142 142 142
10.812500000000 26.312500000000 2.838989257813 140 140 140
10.812500000000 26.312500000000 2.790985107422 141 141 141
10.875000000000 26.250000000000 2.747985839844 138 138 138
10.812500000000 26.312500000000 2.694000244141 143 143 143
10.812500000000 26.312500000000 2.648986816406 138 138 138
10.812500000000 26.312500000000 2.597991943359 142 142 142
10.875000000000 26.250000000000 2.565002441406 115 115 115
10.812500000000 26.312500000000 2.500000000000 138 138 138
10.812500000000 26.312500000000 2.451995849609 139 139 139
10.750000000000 26.312500000000 2.365997314453 197 197 197
10.812500000000 26.312500000000 2.330993652344 211 211 211
11.000000000000 26.187500000000 2.395996093750 149 149 149
11.000000000000 26.187500000000 2.346984863281 162 162 162
10.937500000000 26.187500000000 2.263000488281 183 183 183
11.000000000000 26.187500000000 2.253997802734 184 184 184
11.062500000000 26.187500000000 2.246002197266 187 187 187
11.125000000000 26.125000000000 2.225006103516 191 191 191
11.125000000000 26.125000000000 2.183990478516 171 171 171
11.125000000000 26.125000000000 2.143981933594 165 165 165
11.250000000000 26.062500000000 2.177001953125 189 189 189
11.125000000000 26.125000000000 2.040985107422 179 179 179
11.125000000000 26.125000000000 1.990997314453 181 181 181
11.125000000000 26.125000000000 1.937988281250 182 182 182
11.125000000000 26.125000000000 1.889984130859 186 186 186
11.375000000000 26.000000000000 2.006011962891 200 200 200
11.125000000000 26.125000000000 1.778991699219 188 188 188
11.125000000000 26.125000000000 1.722991943359 189 189 189
11.187500000000 26.062500000000 1.678009033203 186 186 186
11.250000000000 26.062500000000 1.660003662109 144 144 144
11.250000000000 26.062500000000 1.625000000000 155 155 155
11.312500000000 26.062500000000 1.618988037109 174 174 174
11.375000000000 26.000000000000 1.592987060547 164 164 164
11.375000000000 26.000000000000 1.584991455078 150 150 150
11.437500000000 25.937500000000 1.558990478516 161 161 161
11.062500000000 26.312500000000 6.027008056641 198 198 198
11.062500000000 26.312500000000 5.975982666016 198 198 198
11.062500000000 26.312500000000 5.928009033203 198 198 198
11.062500000000 26.312500000000 5.880004882813 200 200 200
11.062500000000 26.312500000000 5.832000732422 200 200 200
11.062500000000 26.312500000000 5.785003662109 197 197 197
11.062500000000 26.312500000000 5.734008789063 197 197 197
11.062500000000 26.312500000000 5.688995361328 199 199 199
11.062500000000 26.312500000000 5.644989013672 202 202 202
11.062500000000 26.312500000000 5.598999023438 199 199 199
11.062500000000 26.312500000000 5.557006835938 203 203 203
11.062500000000 26.312500000000 5.507995605469 201 201 201
11.062500000000 26.312500000000 5.464996337891 200 200 200
11.062500000000 26.312500000000 5.424987792969 201 201 201
11.062500000000 26.312500000000 5.381011962891 200 200 200
11.062500000000 26.312500000000 5.339996337891 198 198 198
11.062500000000 26.312500000000 5.296997070313 195 195 195
11.062500000000 26.312500000000 5.251983642578 187 187 187
11.062500000000 26.312500000000 5.212982177734 197 197 197
11.062500000000 26.312500000000 5.173004150391 193 193 193
11.062500000000 26.312500000000 5.132995605469 195 195 195
11.062500000000 26.312500000000 5.091003417969 194 194 194
11.062500000000 26.312500000000 5.053009033203 195 195 195
11.062500000000 26.312500000000 5.014007568359 191 191 191
11.062500000000 26.312500000000 4.972991943359 193 193 193
11.062500000000 26.312500000000 4.936004638672 191 191 191
11.062500000000 26.312500000000 4.897003173828 190 190 190
11.062500000000 26.312500000000 4.855987548828 186 186 186
11.062500000000 26.312500000000 4.817993164063 190 190 190
11.062500000000 26.312500000000 4.779998779297 186 186 186
11.062500000000 26.312500000000 4.740997314453 189 189 189
11.062500000000 26.312500000000 4.704010009766 190 190 190
11.062500000000 26.312500000000 4.665985107422 188 188 188
11.062500000000 26.312500000000 4.628997802734 184 184 184
11.062500000000 26.312500000000 4.592010498047 187 187 187
11.062500000000 26.312500000000 4.554992675781 183 183 183
11.062500000000 26.312500000000 4.518005371094 185 185 185
11.062500000000 26.312500000000 4.480987548828 179 179 179
11.062500000000 26.312500000000 4.444000244141 179 179 179
11.125000000000 26.312500000000 4.406982421875 179 179 179
11.125000000000 26.312500000000 4.369995117188 196 196 196
11.125000000000 26.312500000000 4.333007812500 188 188 188
11.125000000000 26.312500000000 4.295989990234 187 187 187
11.125000000000 26.312500000000 4.260009765625 188 188 188
11.062500000000 26.312500000000 4.223999023438 176 176 176
11.062500000000 26.312500000000 4.187011718750 173 173 173
11.062500000000 26.312500000000 4.151000976563 170 170 170
11.062500000000 26.312500000000 4.113983154297 142 142 142
11.062500000000 26.312500000000 4.076995849609 170 170 170
11.125000000000 26.312500000000 4.040985107422 170 170 170
11.062500000000 26.312500000000 4.003997802734 169 169 169
11.125000000000 26.312500000000 3.967010498047 168 168 168
11.062500000000 26.312500000000 3.929992675781 167 167 167
11.125000000000 26.312500000000 3.893981933594 165 165 165
11.062500000000 26.312500000000 3.855987548828 167 167 167
11.062500000000 26.312500000000 3.819000244141 166 166 166
11.125000000000 26.312500000000 3.782989501953 164 164 164
11.062500000000 26.312500000000 3.744995117188 154 154 154
11.125000000000 26.312500000000 3.708984375000 155 155 155
11.062500000000 26.312500000000 3.669982910156 160 160 160
11.125000000000 26.312500000000 3.632995605469 162 162 162
11.062500000000 26.312500000000 3.593994140625 160 160 160
11.125000000000 26.312500000000 3.557006835938 133 133 133
11.125000000000 26.312500000000 3.522003173828 150 150 150
11.125000000000 26.312500000000 3.489990234375 201 201 201
11.125000000000 26.312500000000 3.451995849609 201 201 201
11.125000000000 26.250000000000 3.415985107422 200 200 200
11.125000000000 26.250000000000 3.377990722656 202 202 202
11.125000000000 26.250000000000 3.337982177734 199 199 199
11.125000000000 26.312500000000 3.290008544922 156 156 156
11.125000000000 26.312500000000 3.247985839844 164 164 164
11.125000000000 26.312500000000 3.214996337891 193 193 193
11.125000000000 26.312500000000 3.171997070313 176 176 176
11.125000000000 26.312500000000 3.135986328125 184 184 184
11.125000000000 26.312500000000 3.087005615234 147 147 147
11.062500000000 26.312500000000 3.039001464844 113 113 113
11.125000000000 26.312500000000 3.001983642578 115 115 115
11.125000000000 26.312500000000 2.962982177734 110 110 110
11.125000000000 26.312500000000 2.919982910156 101 101 101
11.125000000000 26.312500000000 2.872009277344 100 100 100
11.125000000000 26.312500000000 2.835998535156 95 95 95
11.125000000000 26.312500000000 2.790985107422 83 83 83
11.125000000000 26.312500000000 2.743988037109 75 75 75
11.125000000000 26.312500000000 2.695983886719 73 73 73
11.062500000000 26.312500000000 2.638000488281 66 66 66
11.125000000000 26.312500000000 2.605987548828 99 99 99
11.125000000000 26.312500000000 2.575988769531 158 158 158
10.875000000000 26.375000000000 2.291992187500 157 157 157
11.000000000000 26.375000000000 2.299011230469 184 184 184
11.062500000000 26.312500000000 2.294006347656 182 182 182
11.125000000000 26.312500000000 2.283996582031 164 164 164
11.125000000000 26.250000000000 2.272003173828 176 176 176
11.250000000000 26.250000000000 2.256988525391 183 183 183
11.250000000000 26.187500000000 2.244995117188 191 191 191
11.312500000000 26.187500000000 2.236999511719 191 191 191
11.312500000000 26.187500000000 2.200988769531 190 190 190
11.312500000000 26.187500000000 2.152984619141 201 201 201
11.375000000000 26.187500000000 2.102996826172 199 199 199
11.375000000000 26.187500000000 2.052001953125 207 207 207
11.375000000000 26.187500000000 2.001007080078 202 202 202
11.375000000000 26.187500000000 1.949981689453 203 203 203
11.375000000000 26.187500000000 1.891998291016 203 203 203
11.375000000000 26.187500000000 1.838989257813 202 202 202
11.375000000000 26.187500000000 1.783996582031 202 202 202
11.375000000000 26.187500000000 1.729003906250 198 198 198
11.375000000000 26.187500000000 1.669006347656 185 185 185
11.375000000000 26.187500000000 1.606994628906 187 187 187
11.375000000000 26.125000000000 1.587005615234 160 160 160
11.437500000000 26.125000000000 1.583007812500 139 139 139
11.125000000000 26.437500000000 3.269989013672 36 36 36
11.125000000000 26.437500000000 3.229003906250 149 149 149
11.125000000000 26.437500000000 3.191986083984 149 149 149
11.125000000000 26.437500000000 3.151000976563 154 154 154
11.125000000000 26.437500000000 3.113983154297 149 149 149
11.187500000000 26.437500000000 3.074005126953 99 99 99
11.125000000000 26.437500000000 3.031982421875 92 92 92
11.187500000000 26.437500000000 2.993011474609 101 101 101
11.125000000000 26.437500000000 2.949005126953 106 106 106
11.125000000000 26.437500000000 2.906982421875 104 104 104
11.125000000000 26.437500000000 2.867004394531 114 114 114
11.187500000000 26.437500000000 2.825988769531 119 119 119
11.187500000000 26.437500000000 2.787994384766 108 108 108
11.187500000000 26.437500000000 2.744995117188 115 115 115
11.187500000000 26.437500000000 2.699981689453 129 129 129
11.187500000000 26.437500000000 2.652008056641 127 127 127
11.187500000000 26.437500000000 2.610992431641 132 132 132
11.125000000000 26.437500000000 2.554992675781 160 160 160
11.187500000000 26.437500000000 2.518005371094 147 147 147
11.187500000000 26.437500000000 2.472991943359 150 150 150
11.187500000000 26.437500000000 2.427001953125 150 150 150
11.125000000000 26.437500000000 2.329986572266 192 192 192
11.125000000000 26.437500000000 2.299011230469 186 186 186
11.187500000000 26.437500000000 2.273010253906 167 167 167
11.187500000000 26.375000000000 2.251983642578 167 167 167
11.250000000000 26.375000000000 2.246002197266 180 180 180
11.312500000000 26.312500000000 2.234985351563 183 183 183
11.375000000000 26.312500000000 2.208007812500 191 191 191
11.375000000000 26.312500000000 2.161010742188 183 183 183
11.375000000000 26.312500000000 2.108001708984 188 188 188
11.375000000000 26.312500000000 2.061004638672 190 190 190
11.375000000000 26.312500000000 2.010009765625 193 193 193
11.375000000000 26.312500000000 1.957000732422 193 193 193
11.375000000000 26.312500000000 1.903991699219 197 197 197
11.375000000000 26.312500000000 1.850006103516 197 197 197
11.375000000000 26.312500000000 1.795989990234 198 198 198
11.375000000000 26.312500000000 1.739990234375 197 197 197
11.375000000000 26.312500000000 1.683990478516 203 203 203
11.375000000000 26.312500000000 1.622985839844 195 195 195
11.375000000000 26.312500000000 1.584991455078 155 155 155
11.437500000000 26.312500000000 1.574005126953 160 160 160
11.250000000000 26.437500000000 2.235992431641 184 184 184
11.312500000000 26.437500000000 2.225982666016 196 196 196
11.375000000000 26.437500000000 2.208984375000 196 196 196
11.375000000000 26.437500000000 2.164001464844 194 194 194
11.375000000000 26.437500000000 2.113983154297 185 185 185
11.375000000000 26.437500000000 2.069000244141 201 201 201
11.375000000000 26.437500000000 2.009002685547 200 200 200
11.375000000000 26.437500000000 1.962982177734 201 201 201
11.375000000000 26.437500000000 1.911010742188 193 193 193
11.375000000000 26.437500000000 1.855987548828 192 192 192
11.375000000000 26.437500000000 1.799987792969 199 199 199
11.375000000000 26.437500000000 1.744995117188 200 200 200
11.375000000000 26.437500000000 1.691986083984 199 199 199
11.375000000000 26.437500000000 1.628997802734 198 198 198
11.375000000000 26.375000000000 1.576995849609 160 160 160
11.437500000000 26.375000000000 1.580993652344 131 131 131
11.437500000000 25.875000000000 1.532989501953 154 154 154
11.375000000000 25.812500000000 1.526000976563 146 146 146
11.312500000000 25.812500000000 1.518981933594 163 163 163
11.250000000000 25.812500000000 1.511993408203 178 178 178
11.437500000000 26.062500000000 1.546997070313 174 174 174
11.375000000000 26.000000000000 1.558990478516 161 161 161
11.375000000000 26.000000000000 1.574981689453 139 139 139
11.312500000000 25.937500000000 1.600006103516 171 171 171
11.250000000000 25.875000000000 1.574981689453 172 172 172
11.187500000000 25.875000000000 1.552001953125 172 172 172
11.125000000000 25.875000000000 1.552001953125 170 170 170
11.312500000000 25.937500000000 1.893981933594 181 181 181
11.187500000000 25.875000000000 1.851989746094 182 182 182
11.125000000000 25.875000000000 1.885009765625 182 182 182
11.125000000000 25.875000000000 1.944000244141 181 181 181
11.187500000000 25.875000000000 2.009002685547 159 159 159
11.125000000000 25.875000000000 2.040008544922 156 156 156
11.437500000000 26.187500000000 1.562988281250 156 156 156
11.437500000000 26.187500000000 1.576995849609 150 150 150
11.375000000000 26.125000000000 1.592987060547 132 132 132
11.312500000000 26.062500000000 1.605987548828 140 140 140
11.312500000000 26.125000000000 1.618011474609 174 174 174
11.250000000000 26.062500000000 1.653991699219 154 154 154
11.250000000000 26.062500000000 1.721984863281 159 159 159
11.187500000000 26.000000000000 1.664001464844 172 172 172
11.062500000000 25.937500000000 1.610992431641 167 167 167
11.125000000000 25.937500000000 1.773986816406 183 183 183
11.250000000000 26.062500000000 2.187011718750 174 174 174
11.187500000000 26.000000000000 2.229003906250 94 94 94
11.187500000000 26.000000000000 2.270996093750 117 117 117
11.437500000000 26.375000000000 1.580993652344 151 151 151
11.375000000000 26.312500000000 1.591003417969 145 145 145
11.375000000000 26.312500000000 1.606994628906 182 182 182
11.312500000000 26.250000000000 1.665008544922 182 182 182
11.375000000000 26.312500000000 1.727996826172 183 183 183
11.375000000000 26.312500000000 1.783996582031 183 183 183
11.312500000000 26.250000000000 1.835998535156 181 181 181
11.375000000000 26.312500000000 1.895996093750 182 182 182
11.312500000000 26.250000000000 1.947998046875 182 182 182
11.312500000000 26.250000000000 1.998992919922 181 181 181
11.312500000000 26.250000000000 2.046997070313 184 184 184
11.312500000000 26.250000000000 2.100982666016 182 182 182
11.312500000000 26.250000000000 2.152008056641 180 180 180
11.312500000000 26.250000000000 2.195983886719 180 180 180
11.312500000000 26.250000000000 2.235992431641 180 180 180
11.250000000000 26.187500000000 2.247009277344 180 180 180
11.187500000000 26.187500000000 2.243011474609 160 160 160
11.125000000000 26.125000000000 3.330993652344 159 159 159
11.125000000000 26.125000000000 3.368988037109 159 159 159
11.125000000000 26.125000000000 3.403991699219 162 162 162
11.125000000000 26.125000000000 3.442993164063 160 160 160
11.125000000000 26.125000000000 3.481994628906 158 158 158
11.125000000000 26.125000000000 3.523010253906 60 60 60
11.437500000000 26.437500000000 1.604003906250 177 177 177
11.375000000000 26.375000000000 1.601989746094 138 138 138
11.375000000000 26.437500000000 1.623992919922 182 182 182
11.375000000000 26.437500000000 1.686004638672 183 183 183
11.375000000000 26.437500000000 1.738006591797 183 183 183
11.375000000000 26.437500000000 1.796997070313 181 181 181
11.375000000000 26.437500000000 1.850982666016 181 181 181
11.375000000000 26.437500000000 1.903991699219 181 181 181
11.375000000000 26.437500000000 1.957000732422 181 181 181
11.375000000000 26.437500000000 2.005004882813 180 180 180
11.375000000000 26.437500000000 2.061004638672 179 179 179
11.375000000000 26.437500000000 2.113006591797 179 179 179
11.375000000000 26.437500000000 2.160003662109 179 179 179
11.375000000000 26.437500000000 2.207000732422 180 180 180
11.312500000000 26.437500000000 2.230987548828 180 180 180
11.250000000000 26.375000000000 2.248992919922 177 177 177
11.250000000000 26.375000000000 2.260009765625 170 170 170
11.187500000000 26.312500000000 2.272003173828 180 180 180
11.187500000000 26.312500000000 2.313995361328 178 178 178
11.125000000000 26.312500000000 2.348999023438 181 181 181
11.187500000000 26.312500000000 2.419982910156 170 170 170
11.125000000000 26.312500000000 2.449005126953 177 177 177
11.187500000000 26.312500000000 2.511993408203 169 169 169
11.187500000000 26.312500000000 2.557983398438 164 164 164
11.187500000000 26.312500000000 2.602996826172 163 163 163
11.187500000000 26.312500000000 2.644989013672 169 169 169
11.187500000000 26.312500000000 2.691009521484 165 165 165
11.187500000000 26.312500000000 2.736999511719 165 165 165
11.187500000000 26.312500000000 2.774993896484 160 160 160
11.187500000000 26.312500000000 2.815002441406 162 162 162
11.187500000000 26.312500000000 2.859985351563 152 152 152
11.187500000000 26.312500000000 2.906005859375 154 154 154
11.187500000000 26.312500000000 2.942993164063 147 147 147
11.187500000000 26.312500000000 2.981994628906 148 148 148
11.187500000000 26.312500000000 3.023986816406 150 150 150
11.187500000000 26.312500000000 3.066009521484 150 150 150
11.187500000000 26.312500000000 3.105987548828 167 167 167
11.187500000000 26.312500000000 3.141998291016 172 172 172
11.125000000000 26.312500000000 3.180999755859 171 171 171
11.125000000000 26.312500000000 3.217987060547 170 170 170
11.125000000000 26.312500000000 3.256988525391 150 150 150
11.125000000000 26.312500000000 3.296997070313 151 151 151
11.125000000000 26.312500000000 3.330993652344 183 183 183
11.125000000000 26.312500000000 3.368988037109 185 185 185
11.125000000000 26.312500000000 3.408996582031 184 184 184
11.125000000000 26.312500000000 3.444000244141 185 185 185
11.125000000000 26.312500000000 3.484008789063 180 180 180
11.125000000000 26.312500000000 3.516998291016 174 174 174
11.125000000000 26.312500000000 3.546997070313 172 172 172
11.125000000000 26.312500000000 3.596008300781 106 106 106
11.125000000000 26.312500000000 3.634002685547 100 100 100
11.125000000000 26.312500000000 3.670989990234 79 79 79
11.125000000000 26.312500000000 3.708007812500 65 65 65
11.312500000000 26.500000000000 1.660003662109 182 182 182
11.312500000000 26.500000000000 1.717987060547 182 182 182
11.312500000000 26.500000000000 1.774993896484 180 180 180
11.312500000000 26.500000000000 1.832000732422 181 181 181
11.312500000000 26.500000000000 1.884002685547 180 180 180
11.312500000000 26.500000000000 1.940002441406 181 181 181
11.312500000000 26.500000000000 2.096984863281 180 180 180
11.312500000000 26.500000000000 2.145996093750 179 179 179
11.312500000000 26.500000000000 2.195007324219 180 180 180
11.312500000000 26.500000000000 2.225982666016 180 180 180
11.250000000000 26.437500000000 2.240997314453 181 181 181
11.250000000000 26.500000000000 2.255004882813 180 180 180
11.125000000000 26.500000000000 2.257995605469 157 157 157
11.125000000000 26.437500000000 2.277008056641 176 176 176
11.062500000000 26.375000000000 2.287994384766 179 179 179
11.000000000000 26.375000000000 2.294006347656 181 181 181
10.875000000000 26.250000000000 2.272003173828 175 175 175
10.750000000000 26.187500000000 2.233001708984 169 169 169
10.937500000000 26.312500000000 2.559997558594 106 106 106
10.937500000000 26.312500000000 2.598999023438 115 115 115
11.125000000000 26.437500000000 3.121002197266 172 172 172
11.125000000000 26.437500000000 3.158996582031 174 174 174
11.125000000000 26.437500000000 3.197998046875 176 176 176
11.062500000000 26.375000000000 3.234008789063 175 175 175
10.937500000000 26.312500000000 3.222991943359 179 179 179
11.000000000000 26.375000000000 3.277008056641 117 117 117
11.000000000000 26.375000000000 3.316009521484 121 121 121
10.937500000000 26.312500000000 3.347991943359 176 176 176
10.937500000000 26.312500000000 3.388000488281 179 179 179
10.937500000000 26.312500000000 3.428985595703 179 179 179
11.000000000000 26.375000000000 3.475982666016 179 179 179
11.000000000000 26.375000000000 3.524993896484 176 176 176
11.062500000000 26.375000000000 3.576995849609 143 143 143
11.125000000000 26.437500000000 3.622009277344 114 114 114
11.125000000000 26.437500000000 3.660003662109 123 123 123
11.125000000000 26.437500000000 3.696990966797 124 124 124
11.125000000000 26.437500000000 3.734985351563 131 131 131
11.062500000000 26.375000000000 3.770996093750 142 142 142
11.125000000000 26.437500000000 3.809997558594 140 140 140
11.062500000000 26.375000000000 3.846008300781 145 145 145
11.062500000000 26.375000000000 3.882995605469 149 149 149
11.062500000000 26.375000000000 3.919006347656 151 151 151
11.125000000000 26.437500000000 3.955993652344 148 148 148
11.125000000000 26.437500000000 3.993011474609 147 147 147
11.062500000000 26.375000000000 4.028991699219 151 151 151
11.062500000000 26.375000000000 4.066009521484 161 161 161
11.125000000000 26.437500000000 4.102996826172 149 149 149
11.125000000000 26.437500000000 4.139007568359 153 153 153
11.062500000000 26.375000000000 4.174987792969 163 163 163
11.125000000000 26.437500000000 4.212005615234 155 155 155
11.062500000000 26.375000000000 4.248992919922 174 174 174
11.125000000000 26.437500000000 4.285003662109 178 178 178
11.062500000000 26.375000000000 4.321990966797 175 175 175
11.062500000000 26.375000000000 4.358001708984 178 178 178
11.062500000000 26.375000000000 4.394989013672 166 166 166
11.062500000000 26.375000000000 4.432983398438 161 161 161
11.062500000000 26.375000000000 4.468994140625 163 163 163
11.062500000000 26.375000000000 4.506011962891 165 165 165
11.062500000000 26.375000000000 4.544006347656 166 166 166
11.062500000000 26.375000000000 4.579986572266 166 166 166
11.062500000000 26.375000000000 4.618011474609 166 166 166
11.062500000000 26.375000000000 4.654998779297 166 166 166
11.062500000000 26.375000000000 4.692993164063 166 166 166
11.062500000000 26.375000000000 4.731994628906 165 165 165
11.062500000000 26.375000000000 4.769989013672 169 169 169
11.062500000000 26.375000000000 4.807006835938 169 169 169
11.062500000000 26.375000000000 4.846984863281 170 170 170
11.062500000000 26.375000000000 4.885009765625 173 173 173
11.062500000000 26.375000000000 4.924011230469 174 174 174
11.062500000000 26.375000000000 4.962005615234 175 175 175
11.062500000000 26.375000000000 5.001983642578 176 176 176
11.062500000000 26.375000000000 5.041992187500 176 176 176
11.062500000000 26.375000000000 5.082000732422 175 175 175
11.062500000000 26.375000000000 5.122009277344 177 177 177
11.062500000000 26.375000000000 5.164001464844 176 176 176
11.062500000000 26.375000000000 5.201995849609 176 176 176
11.062500000000 26.375000000000 5.244995117188 178 178 178
11.062500000000 26.375000000000 5.285003662109 176 176 176
11.062500000000 26.375000000000 5.328002929688 177 177 177
11.062500000000 26.375000000000 5.367004394531 178 178 178
11.062500000000 26.375000000000 5.411987304688 177 177 177
11.062500000000 26.375000000000 5.450988769531 180 180 180
11.062500000000 26.375000000000 5.497009277344 180 180 180
11.000000000000 26.437500000000 5.541992187500 181 181 181
11.062500000000 26.375000000000 5.583984375000 179 179 179
11.000000000000 26.437500000000 5.630004882813 179 179 179
11.062500000000 26.375000000000 5.673004150391 180 180 180
11.000000000000 26.437500000000 5.722991943359 179 179 179
11.000000000000 26.437500000000 5.768005371094 180 180 180
11.000000000000 26.437500000000 5.816009521484 179 179 179
11.000000000000 26.437500000000 5.865997314453 181 181 181
11.000000000000 26.437500000000 5.911987304688 181 181 181
11.000000000000 26.437500000000 5.964996337891 181 181 181
11.000000000000 26.437500000000 6.007995605469 180 180 180
11.000000000000 26.437500000000 6.059997558594 180 180 180
11.000000000000 26.500000000000 2.247985839844 180 180 180
10.937500000000 26.437500000000 2.259002685547 180 180 180
10.875000000000 26.437500000000 2.268005371094 148 148 148
10.875000000000 26.437500000000 2.307983398438 142 142 142
10.875000000000 26.437500000000 2.363006591797 161 161 161
10.875000000000 26.437500000000 2.406982421875 168 168 168
10.875000000000 26.437500000000 2.458007812500 165 165 165
10.875000000000 26.437500000000 2.509002685547 168 168 168
10.875000000000 26.437500000000 2.557006835938 166 166 166
10.875000000000 26.437500000000 2.602996826172 165 165 165
10.875000000000 26.437500000000 2.652984619141 158 158 158
10.875000000000 26.437500000000 2.699005126953 166 166 166
10.875000000000 26.437500000000 2.743011474609 157 157 157
10.875000000000 26.437500000000 2.795989990234 156 156 156
10.875000000000 26.437500000000 2.838989257813 162 162 162
10.875000000000 26.437500000000 2.881988525391 156 156 156
10.875000000000 26.437500000000 2.927001953125 162 162 162
10.875000000000 26.437500000000 2.976989746094 168 168 168
10.875000000000 26.437500000000 3.018981933594 140 140 140
10.875000000000 26.437500000000 3.066009521484 155 155 155
10.875000000000 26.437500000000 3.109985351563 174 174 174
10.875000000000 26.437500000000 3.152984619141 174 174 174
10.875000000000 26.437500000000 3.195983886719 167 167 167
10.875000000000 26.437500000000 3.235992431641 165 165 165
10.875000000000 26.437500000000 3.277008056641 165 165 165
10.875000000000 26.437500000000 3.320983886719 161 161 161
10.875000000000 26.437500000000 3.360992431641 169 169 169
10.875000000000 26.437500000000 3.403991699219 167 167 167
10.875000000000 26.437500000000 3.445007324219 164 164 164
10.875000000000 26.437500000000 3.486999511719 163 163 163
10.875000000000 26.437500000000 3.527984619141 167 167 167
10.812500000000 26.437500000000 3.566986083984 167 167 167
10.875000000000 26.437500000000 3.609008789063 170 170 170
10.875000000000 26.437500000000 3.649993896484 170 170 170
10.812500000000 26.437500000000 3.690002441406 166 166 166
10.875000000000 26.437500000000 3.730987548828 169 169 169
10.875000000000 26.437500000000 3.772003173828 170 170 170
10.812500000000 26.437500000000 3.812011718750 169 169 169
10.812500000000 26.437500000000 3.850982666016 169 169 169
10.875000000000 26.437500000000 3.891998291016 167 167 167
10.812500000000 26.437500000000 3.932006835938 166 166 166
10.812500000000 26.437500000000 3.971008300781 168 168 168
10.812500000000 26.437500000000 4.011993408203 168 168 168
10.812500000000 26.437500000000 4.050994873047 168 168 168
10.812500000000 26.437500000000 4.091003417969 164 164 164
10.812500000000 26.437500000000 4.131011962891 168 168 168
10.812500000000 26.437500000000 4.170989990234 157 157 157
10.875000000000 26.437500000000 4.210998535156 166 166 166
10.812500000000 26.437500000000 4.250000000000 171 171 171
10.812500000000 26.437500000000 4.290008544922 173 173 173
10.875000000000 26.437500000000 4.329986572266 174 174 174
10.875000000000 26.437500000000 4.369995117188 179 179 179
10.812500000000 26.437500000000 4.410003662109 166 166 166
10.812500000000 26.437500000000 4.449981689453 165 165 165
10.812500000000 26.375000000000 4.490997314453 170 170 170
10.812500000000 26.437500000000 4.529998779297 168 168 168
10.812500000000 26.437500000000 4.570983886719 165 165 165
10.812500000000 26.437500000000 4.610992431641 162 162 162
10.812500000000 26.437500000000 4.652008056641 165 165 165
10.812500000000 26.375000000000 4.694000244141 170 170 170
10.812500000000 26.437500000000 4.733001708984 169 169 169
10.812500000000 26.437500000000 4.773986816406 166 166 166
10.812500000000 26.437500000000 4.815002441406 165 165 165
10.812500000000 26.437500000000 4.855010986328 163 163 163
10.812500000000 26.375000000000 4.899993896484 166 166 166
10.812500000000 26.437500000000 4.938995361328 167 167 167
10.812500000000 26.437500000000 4.981994628906 165 165 165
10.812500000000 26.437500000000 5.023010253906 169 169 169
10.812500000000 26.437500000000 5.063995361328 166 166 166
10.812500000000 26.375000000000 5.110992431641 167 167 167
10.812500000000 26.375000000000 5.153991699219 169 169 169
10.812500000000 26.437500000000 5.195007324219 167 167 167
10.812500000000 26.437500000000 5.238006591797 165 165 165
10.812500000000 26.375000000000 5.285003662109 168 168 168
10.812500000000 26.375000000000 5.328002929688 172 172 172
10.812500000000 26.437500000000 5.369995117188 168 168 168
10.812500000000 26.375000000000 5.417999267578 170 170 170
10.812500000000 26.437500000000 5.458984375000 180 180 180
10.750000000000 26.375000000000 5.510009765625 177 177 177
10.812500000000 26.437500000000 5.549011230469 179 179 179
10.750000000000 26.375000000000 5.601989746094 171 171 171
10.750000000000 26.375000000000 5.651000976563 172 172 172
10.750000000000 26.375000000000 5.696990966797 171 171 171
10.750000000000 26.375000000000 5.746002197266 174 174 174
10.750000000000 26.375000000000 5.795989990234 174 174 174
10.750000000000 26.375000000000 5.846008300781 173 173 173
10.750000000000 26.375000000000 5.893981933594 175 175 175
10.750000000000 26.375000000000 5.945007324219 175 175 175
10.750000000000 26.375000000000 5.994995117188 176 176 176
10.750000000000 26.375000000000 6.045989990234 174 174 174
10.750000000000 26.375000000000 6.101989746094 175 175 175
10.750000000000 26.375000000000 6.152008056641 175 175 175
10.750000000000 26.500000000000 2.238006591797 167 167 167
11.375000000000 25.812500000000 1.523010253906 155 155 155
11.375000000000 25.812500000000 1.536987304688 133 133 133
11.312500000000 25.875000000000 1.545989990234 129 129 129
11.250000000000 25.812500000000 1.554992675781 155 155 155
11.187500000000 25.812500000000 1.550994873047 154 154 154
11.125000000000 25.875000000000 1.562988281250 145 145 145
11.125000000000 25.875000000000 1.571990966797 159 159 159
11.062500000000 25.937500000000 1.585998535156 149 149 149
11.125000000000 25.875000000000 1.725006103516 173 173 173
11.187500000000 25.875000000000 1.794982910156 178 178 178
11.125000000000 25.875000000000 1.830993652344 205 205 205
11.187500000000 25.875000000000 1.911010742188 130 130 130
11.187500000000 25.875000000000 1.951995849609 133 133 133
11.125000000000 25.875000000000 1.963989257813 121 121 121
11.062500000000 25.875000000000 1.980987548828 128 128 128
11.250000000000 25.812500000000 2.171997070313 98 98 98
11.187500000000 25.875000000000 2.197998046875 115 115 115
11.437500000000 26.062500000000 1.562988281250 145 145 145
11.437500000000 26.062500000000 1.583984375000 147 147 147
11.375000000000 26.000000000000 1.583984375000 145 145 145
11.312500000000 26.000000000000 1.592987060547 155 155 155
11.250000000000 26.000000000000 1.606994628906 151 151 151
11.187500000000 26.000000000000 1.623992919922 127 127 127
11.187500000000 26.000000000000 1.627990722656 166 166 166
11.250000000000 26.000000000000 1.753997802734 152 152 152
11.062500000000 26.000000000000 1.652984619141 149 149 149
11.187500000000 26.000000000000 1.794006347656 173 173 173
11.062500000000 26.000000000000 1.790985107422 199 199 199
11.375000000000 26.000000000000 2.058990478516 172 172 172
11.250000000000 26.000000000000 2.190002441406 111 111 111
11.312500000000 26.062500000000 2.268005371094 156 156 156
11.437500000000 26.187500000000 1.566986083984 143 143 143
11.437500000000 26.187500000000 1.597991943359 130 130 130
11.375000000000 26.187500000000 1.587982177734 159 159 159
11.375000000000 26.187500000000 1.640991210938 171 171 171
11.375000000000 26.187500000000 1.691009521484 159 159 159
11.375000000000 26.187500000000 1.746002197266 177 177 177
11.375000000000 26.187500000000 1.794982910156 178 178 178
11.375000000000 26.187500000000 1.843994140625 183 183 183
11.375000000000 26.187500000000 1.898010253906 185 185 185
11.375000000000 26.187500000000 1.944000244141 182 182 182
11.312500000000 26.187500000000 1.988006591797 180 180 180
11.375000000000 26.187500000000 2.036987304688 182 182 182
11.375000000000 26.187500000000 2.082000732422 180 180 180
11.312500000000 26.187500000000 2.123992919922 177 177 177
11.312500000000 26.187500000000 2.169006347656 173 173 173
11.312500000000 26.187500000000 2.209991455078 169 169 169
11.312500000000 26.187500000000 2.221008300781 169 169 169
11.250000000000 26.125000000000 2.229003906250 166 166 166
11.187500000000 26.187500000000 2.234008789063 157 157 157
11.125000000000 26.125000000000 2.226989746094 168 168 168
11.000000000000 26.187500000000 2.227996826172 168 168 168
10.937500000000 26.125000000000 2.238006591797 136 136 136
11.000000000000 26.125000000000 2.299011230469 135 135 135
10.937500000000 26.125000000000 2.304992675781 199 199 199
11.125000000000 26.125000000000 3.303985595703 106 106 106
11.125000000000 26.125000000000 3.335998535156 191 191 191
11.125000000000 26.125000000000 3.369995117188 191 191 191
11.125000000000 26.125000000000 3.402984619141 193 193 193
11.125000000000 26.125000000000 3.436004638672 192 192 192
11.125000000000 26.125000000000 3.467987060547 189 189 189
11.125000000000 26.125000000000 3.500000000000 192 192 192
10.937500000000 26.125000000000 3.503997802734 130 130 130
11.437500000000 26.312500000000 1.579986572266 145 145 145
11.375000000000 26.375000000000 1.580993652344 139 139 139
11.375000000000 26.312500000000 1.589996337891 168 168 168
11.375000000000 26.312500000000 1.648986816406 179 179 179
11.375000000000 26.312500000000 1.700988769531 181 181 181
11.375000000000 26.312500000000 1.748992919922 168 168 168
11.375000000000 26.312500000000 1.798004150391 179 179 179
11.375000000000 26.312500000000 1.850982666016 177 177 177
11.375000000000 26.312500000000 1.897003173828 177 177 177
11.375000000000 26.312500000000 1.949981689453 175 175 175
11.375000000000 26.312500000000 1.993988037109 173 173 173
11.375000000000 26.312500000000 2.039001464844 175 175 175
11.375000000000 26.312500000000 2.087982177734 171 171 171
11.375000000000 26.312500000000 2.127990722656 170 170 170
11.375000000000 26.312500000000 2.169982910156 169 169 169
11.375000000000 26.312500000000 2.213989257813 174 174 174
11.312500000000 26.312500000000 2.229003906250 173 173 173
11.250000000000 26.375000000000 2.248992919922 166 166 166
11.187500000000 26.312500000000 2.256011962891 151 151 151
11.187500000000 26.312500000000 2.279998779297 171 171 171
11.187500000000 26.312500000000 2.322998046875 179 179 179
11.187500000000 26.312500000000 2.368988037109 180 180 180
11.187500000000 26.312500000000 2.408996582031 179 179 179
11.187500000000 26.312500000000 2.444000244141 179 179 179
11.187500000000 26.312500000000 2.484008789063 180 180 180
11.187500000000 26.312500000000 2.527984619141 182 182 182
11.187500000000 26.312500000000 2.566009521484 182 182 182
11.187500000000 26.312500000000 2.606994628906 181 181 181
11.187500000000 26.312500000000 2.643981933594 184 184 184
11.187500000000 26.312500000000 2.680999755859 182 182 182
11.187500000000 26.312500000000 2.718994140625 182 182 182
11.187500000000 26.312500000000 2.756011962891 183 183 183
11.187500000000 26.312500000000 2.792999267578 181 181 181
11.187500000000 26.312500000000 2.825988769531 179 179 179
11.187500000000 26.312500000000 2.864990234375 181 181 181
11.187500000000 26.312500000000 2.899993896484 173 173 173
11.187500000000 26.312500000000 2.936004638672 179 179 179
11.187500000000 26.312500000000 2.971008300781 177 177 177
11.187500000000 26.312500000000 3.005004882813 183 183 183
11.187500000000 26.312500000000 3.040985107422 178 178 178
11.187500000000 26.312500000000 3.074005126953 184 184 184
11.187500000000 26.312500000000 3.108001708984 186 186 186
11.187500000000 26.312500000000 3.143005371094 185 185 185
11.187500000000 26.312500000000 3.175994873047 186 186 186
11.125000000000 26.312500000000 3.208984375000 185 185 185
11.187500000000 26.312500000000 3.243988037109 187 187 187
11.187500000000 26.312500000000 3.277008056641 185 185 185
11.125000000000 26.312500000000 3.307983398438 183 183 183
11.125000000000 26.312500000000 3.339996337891 185 185 185
11.125000000000 26.312500000000 3.373992919922 187 187 187
11.125000000000 26.312500000000 3.404998779297 185 185 185
11.125000000000 26.312500000000 3.436004638672 187 187 187
11.125000000000 26.312500000000 3.468994140625 186 186 186
11.125000000000 26.312500000000 3.501983642578 187 187 187
11.125000000000 26.312500000000 3.532989501953 185 185 185
11.125000000000 26.312500000000 3.565002441406 186 186 186
11.125000000000 26.312500000000 3.596984863281 187 187 187
11.125000000000 26.312500000000 3.630004882813 186 186 186
11.125000000000 26.312500000000 3.660003662109 182 182 182
11.125000000000 26.312500000000 3.691009521484 187 187 187
11.125000000000 26.312500000000 3.722991943359 185 185 185
11.125000000000 26.312500000000 3.755004882813 184 184 184
11.125000000000 26.312500000000 3.786010742188 188 188 188
11.125000000000 26.312500000000 3.816986083984 187 187 187
11.125000000000 26.312500000000 3.847991943359 189 189 189
11.125000000000 26.312500000000 3.880004882813 187 187 187
11.125000000000 26.312500000000 3.911010742188 188 188 188
11.125000000000 26.312500000000 3.941986083984 185 185 185
11.125000000000 26.312500000000 3.973999023438 188 188 188
11.125000000000 26.312500000000 4.005004882813 186 186 186
11.125000000000 26.312500000000 4.036987304688 186 186 186
11.125000000000 26.312500000000 4.067993164063 187 187 187
11.125000000000 26.312500000000 4.100006103516 187 187 187
11.125000000000 26.312500000000 4.131011962891 190 190 190
11.125000000000 26.312500000000 4.162994384766 187 187 187
11.125000000000 26.312500000000 4.195007324219 189 189 189
11.125000000000 26.312500000000 4.226989746094 187 187 187
11.125000000000 26.312500000000 4.259002685547 185 185 185
11.125000000000 26.312500000000 4.290985107422 189 189 189
11.125000000000 26.312500000000 4.322998046875 187 187 187
11.125000000000 26.312500000000 4.355010986328 185 185 185
11.125000000000 26.312500000000 4.388000488281 183 183 183
11.125000000000 26.312500000000 4.419982910156 186 186 186
11.062500000000 26.312500000000 4.453002929688 187 187 187
11.125000000000 26.312500000000 4.484985351563 186 186 186
11.062500000000 26.312500000000 4.519989013672 185 185 185
11.062500000000 26.312500000000 4.553985595703 186 186 186
11.062500000000 26.312500000000 4.587005615234 185 185 185
11.062500000000 26.312500000000 4.621002197266 186 186 186
11.062500000000 26.312500000000 4.653991699219 186 186 186
11.062500000000 26.312500000000 4.687988281250 185 185 185
11.062500000000 26.312500000000 4.722991943359 184 184 184
11.062500000000 26.312500000000 4.756988525391 183 183 183
11.062500000000 26.312500000000 4.791992187500 186 186 186
11.062500000000 26.312500000000 4.826995849609 186 186 186
11.062500000000 26.312500000000 4.860992431641 185 185 185
11.062500000000 26.312500000000 4.897003173828 187 187 187
11.062500000000 26.312500000000 4.933990478516 183 183 183
11.062500000000 26.312500000000 4.971008300781 184 184 184
11.062500000000 26.312500000000 5.009002685547 187 187 187
11.062500000000 26.312500000000 5.046997070313 185 185 185
11.062500000000 26.312500000000 5.083984375000 185 185 185
11.062500000000 26.312500000000 5.119995117188 183 183 183
11.062500000000 26.312500000000 5.161010742188 185 185 185
11.062500000000 26.312500000000 5.196990966797 185 185 185
11.062500000000 26.312500000000 5.238983154297 188 188 188
11.062500000000 26.312500000000 5.277008056641 186 186 186
11.062500000000 26.312500000000 5.319000244141 185 185 185
11.062500000000 26.312500000000 5.358001708984 186 186 186
11.062500000000 26.312500000000 5.398986816406 187 187 187
11.062500000000 26.312500000000 5.441986083984 184 184 184
11.062500000000 26.312500000000 5.486999511719 185 185 185
11.062500000000 26.312500000000 5.528991699219 184 184 184
11.062500000000 26.312500000000 5.567993164063 186 186 186
11.062500000000 26.312500000000 5.614990234375 183 183 183
11.062500000000 26.312500000000 5.657989501953 184 184 184
11.062500000000 26.312500000000 5.705993652344 185 185 185
11.062500000000 26.312500000000 5.751983642578 184 184 184
11.062500000000 26.312500000000 5.795989990234 183 183 183
11.062500000000 26.312500000000 5.847991943359 182 182 182
11.062500000000 26.312500000000 5.898010253906 183 183 183
11.062500000000 26.312500000000 5.946990966797 184 184 184
11.000000000000 26.312500000000 6.000000000000 183 183 183
11.062500000000 26.312500000000 6.046997070313 183 183 183
11.375000000000 26.437500000000 1.570983886719 131 131 131
11.375000000000 26.437500000000 1.601989746094 166 166 166
11.375000000000 26.437500000000 1.649993896484 182 182 182
11.375000000000 26.437500000000 1.704986572266 180 180 180
11.375000000000 26.437500000000 1.757995605469 176 176 176
11.375000000000 26.437500000000 1.811004638672 177 177 177
11.375000000000 26.437500000000 1.858001708984 175 175 175
11.375000000000 26.437500000000 1.906005859375 175 175 175
11.375000000000 26.437500000000 1.955993652344 178 178 178
11.375000000000 26.437500000000 1.993011474609 178 178 178
11.375000000000 26.437500000000 2.044982910156 177 177 177
11.375000000000 26.437500000000 2.092010498047 172 172 172
11.375000000000 26.437500000000 2.135009765625 172 172 172
11.375000000000 26.437500000000 2.175994873047 170 170 170
11.312500000000 26.437500000000 2.208007812500 174 174 174
11.312500000000 26.437500000000 2.231994628906 172 172 172
11.250000000000 26.437500000000 2.243988037109 167 167 167
11.187500000000 26.500000000000 2.247009277344 161 161 161
11.125000000000 26.500000000000 2.251983642578 144 144 144
11.062500000000 26.437500000000 2.256011962891 164 164 164
11.000000000000 26.437500000000 2.253997802734 163 163 163
10.937500000000 26.437500000000 2.255004882813 164 164 164
10.812500000000 26.437500000000 2.244995117188 154 154 154
11.375000000000 26.437500000000 1.571990966797 132 132 132
11.375000000000 26.500000000000 1.605987548828 172 172 172
11.375000000000 26.500000000000 1.660003662109 176 176 176
11.375000000000 26.500000000000 1.712982177734 178 178 178
11.375000000000 26.500000000000 1.764007568359 178 178 178
11.375000000000 26.500000000000 1.816009521484 179 179 179
11.375000000000 26.437500000000 1.858001708984 179 179 179
11.375000000000 26.500000000000 1.908996582031 175 175 175
11.375000000000 26.437500000000 1.958007812500 182 182 182
11.375000000000 26.437500000000 2.001983642578 178 178 178
11.375000000000 26.437500000000 2.050994873047 179 179 179
11.312500000000 26.437500000000 2.092010498047 170 170 170
11.375000000000 26.437500000000 2.139984130859 171 171 171
11.312500000000 26.437500000000 2.179992675781 168 168 168
11.312500000000 26.437500000000 2.210998535156 172 172 172
11.250000000000 26.437500000000 2.225982666016 172 172 172
11.250000000000 26.437500000000 2.238006591797 165 165 165
11.187500000000 26.500000000000 2.243011474609 155 155 155
11.125000000000 26.500000000000 2.246002197266 145 145 145
11.062500000000 26.437500000000 2.252990722656 165 165 165
10.937500000000 26.437500000000 2.248992919922 163 163 163
10.875000000000 26.437500000000 2.253997802734 156 156 156
10.812500000000 26.437500000000 2.238006591797 157 157 157
10.812500000000 26.437500000000 5.450988769531 112 112 112
10.812500000000 26.437500000000 5.537994384766 103 103 103
11.437500000000 26.375000000000 1.569000244141 145 145 145
11.375000000000 26.375000000000 1.575988769531 145 145 145
11.375000000000 26.375000000000 1.596008300781 168 168 168
11.375000000000 26.375000000000 1.647003173828 181 181 181
11.375000000000 26.375000000000 1.703002929688 177 177 177
11.375000000000 26.312500000000 1.747985839844 176 176 176
11.375000000000 26.312500000000 1.799011230469 176 176 176
11.375000000000 26.312500000000 1.851989746094 172 172 172
11.375000000000 26.312500000000 1.902984619141 176 176 176
11.375000000000 26.312500000000 1.951995849609 171 171 171
11.375000000000 26.312500000000 1.998992919922 170 170 170
11.375000000000 26.312500000000 2.040008544922 171 171 171
11.375000000000 26.312500000000 2.085998535156 170 170 170
11.375000000000 26.312500000000 2.131011962891 168 168 168
11.312500000000 26.312500000000 2.173004150391 165 165 165
11.312500000000 26.312500000000 2.208007812500 173 173 173
11.312500000000 26.312500000000 2.233001708984 168 168 168
11.250000000000 26.375000000000 2.244995117188 164 164 164
11.187500000000 26.312500000000 2.251983642578 162 162 162
11.187500000000 26.312500000000 2.281982421875 172 172 172
11.187500000000 26.312500000000 2.322998046875 179 179 179
11.187500000000 26.312500000000 2.368988037109 181 181 181
11.187500000000 26.312500000000 2.410003662109 180 180 180
11.187500000000 26.312500000000 2.449005126953 180 180 180
11.187500000000 26.312500000000 2.489990234375 180 180 180
11.187500000000 26.312500000000 2.533996582031 177 177 177
11.187500000000 26.312500000000 2.569000244141 181 181 181
11.187500000000 26.312500000000 2.609985351563 180 180 180
11.187500000000 26.312500000000 2.648010253906 181 181 181
11.187500000000 26.312500000000 2.686004638672 182 182 182
11.187500000000 26.312500000000 2.722991943359 179 179 179
11.187500000000 26.312500000000 2.757995605469 180 180 180
11.187500000000 26.312500000000 2.794982910156 178 178 178
11.187500000000 26.312500000000 2.833007812500 179 179 179
11.187500000000 26.312500000000 2.865997314453 179 179 179
11.187500000000 26.312500000000 2.904998779297 176 176 176
11.187500000000 26.312500000000 2.937988281250 175 175 175
11.187500000000 26.312500000000 2.975982666016 175 175 175
11.187500000000 26.312500000000 3.010009765625 179 179 179
11.187500000000 26.312500000000 3.044982910156 178 178 178
11.187500000000 26.312500000000 3.079010009766 184 184 184
11.187500000000 26.312500000000 3.111999511719 183 183 183
11.187500000000 26.312500000000 3.145996093750 179 179 179
11.187500000000 26.312500000000 3.182006835938 182 182 182
11.187500000000 26.312500000000 3.214996337891 178 178 178
11.125000000000 26.312500000000 3.247009277344 178 178 178
11.125000000000 26.312500000000 3.279998779297 178 178 178
11.125000000000 26.312500000000 3.312988281250 175 175 175
11.125000000000 26.312500000000 3.345001220703 175 175 175
11.125000000000 26.312500000000 3.377990722656 178 178 178
