11.375000000000 12.437500000000 7.993011474609 55 55 55
11.125000000000 12.437500000000 8.613983154297 58 58 58
12.375000000000 12.500000000000 8.062011718750 72 72 72
11.937500000000 12.437500000000 11.048004150391 18 18 18
14.812500000000 12.687500000000 8.261993408203 55 55 55
14.750000000000 12.687500000000 7.468994140625 120 120 120
10.000000000000 12.187500000000 8.600982666016 135 135 135
11.375000000000 12.312500000000 7.988006591797 78 78 78
12.375000000000 12.375000000000 8.045989990234 21 21 21
11.937500000000 12.312500000000 11.040985107422 14 14 14
14.812500000000 12.500000000000 8.266998291016 84 84 84
14.812500000000 12.500000000000 7.470001220703 174 174 174
10.000000000000 12.125000000000 8.591003417969 125 125 125
11.375000000000 12.125000000000 7.976989746094 97 97 97
14.875000000000 12.312500000000 8.256011962891 84 84 84
14.812500000000 12.312500000000 7.467010498047 179 179 179
10.125000000000 12.000000000000 8.582000732422 109 109 109
11.375000000000 12.062500000000 7.962982177734 114 114 114
14.875000000000 12.187500000000 8.248992919922 80 80 80
14.812500000000 12.187500000000 7.475006103516 186 186 186
10.125000000000 11.875000000000 8.584991455078 104 104 104
11.375000000000 11.875000000000 7.967010498047 119 119 119
14.875000000000 12.062500000000 8.247985839844 81 81 81
14.812500000000 12.062500000000 7.464996337891 171 171 171
10.125000000000 11.687500000000 8.579010009766 109 109 109
11.375000000000 11.750000000000 7.971008300781 94 94 94
12.000000000000 11.812500000000 11.019989013672 15 15 15
14.875000000000 11.937500000000 8.236999511719 83 83 83
14.812500000000 11.937500000000 7.467987060547 170 170 170
10.125000000000 11.562500000000 8.579010009766 92 92 92
11.375000000000 11.562500000000 7.967987060547 135 135 135
14.875000000000 11.750000000000 8.230010986328 65 65 65
14.812500000000 11.750000000000 7.473999023438 171 171 171
10.125000000000 11.437500000000 8.582000732422 86 86 86
11.437500000000 11.500000000000 7.954986572266 138 138 138
14.875000000000 11.625000000000 7.471008300781 166 166 166
10.125000000000 11.312500000000 8.570007324219 80 80 80
11.437500000000 11.312500000000 7.958984375000 135 135 135
14.812500000000 11.500000000000 7.467987060547 168 168 168
10.125000000000 11.125000000000 8.571990966797 58 58 58
11.437500000000 11.187500000000 7.959991455078 146 146 146
14.875000000000 11.375000000000 7.475006103516 202 202 202
10.125000000000 10.937500000000 8.574005126953 42 42 42
11.437500000000 11.000000000000 7.960998535156 156 156 156
14.875000000000 11.187500000000 7.483001708984 214 214 214
10.125000000000 10.875000000000 8.572998046875 21 21 21
11.437500000000 10.812500000000 7.954010009766 158 158 158
12.375000000000 11.000000000000 7.996002197266 21 21 21
14.875000000000 11.062500000000 7.467987060547 249 249 249
11.437500000000 10.750000000000 7.941009521484 165 165 165
12.375000000000 10.812500000000 7.989990234375 19 19 19
14.875000000000 10.875000000000 7.466003417969 212 212 212
11.500000000000 10.625000000000 7.941009521484 169 169 169
12.375000000000 10.687500000000 7.980010986328 49 49 49
14.875000000000 10.812500000000 7.463989257813 194 194 194
11.500000000000 10.500000000000 7.941986083984 169 169 169
12.375000000000 10.500000000000 7.985992431641 63 63 63
14.875000000000 10.625000000000 7.459991455078 88 88 88
11.500000000000 10.312500000000 7.941009521484 174 174 174
12.437500000000 10.312500000000 7.971984863281 84 84 84
14.875000000000 10.437500000000 7.470001220703 61 61 61
11.500000000000 10.187500000000 7.938995361328 179 179 179
12.375000000000 10.250000000000 7.983001708984 85 85 85
14.937500000000 10.312500000000 7.462982177734 43 43 43
11.500000000000 10.062500000000 7.937011718750 187 187 187
11.125000000000 10.000000000000 8.529998779297 32 32 32
12.437500000000 10.062500000000 7.984985351563 93 93 93
11.500000000000 9.937500000000 7.929992675781 179 179 179
11.125000000000 9.875000000000 8.523010253906 21 21 21
12.375000000000 9.937500000000 7.977996826172 89 89 89
11.562500000000 9.750000000000 7.936004638672 181 181 181
11.125000000000 9.687500000000 8.520996093750 23 23 23
12.437500000000 9.750000000000 7.963989257813 87 87 87
11.500000000000 9.625000000000 7.930999755859 183 183 183
11.125000000000 9.625000000000 8.519989013672 25 25 25
12.437500000000 9.687500000000 7.971008300781 87 87 87
14.875000000000 9.750000000000 8.205993652344 30 30 30
14.875000000000 9.750000000000 7.476989746094 39 39 39
11.562500000000 9.500000000000 7.928985595703 177 177 177
12.500000000000 9.500000000000 7.958984375000 73 73 73
14.875000000000 9.687500000000 8.212005615234 31 31 31
11.562500000000 9.312500000000 7.921997070313 181 181 181
11.187500000000 9.312500000000 8.510986328125 47 47 47
12.437500000000 9.375000000000 7.964996337891 93 93 93
14.937500000000 9.500000000000 8.210998535156 38 38 38
14.937500000000 9.500000000000 7.477996826172 73 73 73
11.562500000000 9.187500000000 7.916992187500 182 182 182
11.187500000000 9.125000000000 8.503997802734 64 64 64
12.500000000000 9.187500000000 7.955993652344 102 102 102
14.937500000000 9.312500000000 8.213989257813 31 31 31
14.937500000000 9.312500000000 7.467987060547 157 157 157
11.625000000000 9.000000000000 7.915008544922 180 180 180
11.187500000000 9.062500000000 8.506011962891 79 79 79
12.500000000000 9.062500000000 7.955993652344 103 103 103
14.937500000000 9.187500000000 8.204986572266 33 33 33
14.937500000000 9.187500000000 7.467987060547 189 189 189
11.562500000000 8.937500000000 7.919006347656 181 181 181
11.250000000000 8.875000000000 8.489990234375 86 86 86
12.500000000000 8.937500000000 7.951995849609 106 106 106
14.937500000000 9.000000000000 8.210998535156 62 62 62
14.937500000000 9.062500000000 7.462005615234 185 185 185
11.625000000000 8.750000000000 7.915008544922 175 175 175
11.250000000000 8.750000000000 8.493011474609 91 91 91
12.500000000000 8.812500000000 7.958007812500 96 96 96
14.937500000000 8.937500000000 8.195983886719 77 77 77
14.937500000000 8.937500000000 7.458984375000 186 186 186
11.625000000000 8.625000000000 7.911010742188 184 184 184
11.250000000000 8.562500000000 8.497009277344 101 101 101
12.500000000000 8.625000000000 7.941986083984 106 106 106
14.937500000000 8.750000000000 8.195007324219 85 85 85
14.937500000000 8.750000000000 7.467010498047 173 173 173
11.625000000000 8.437500000000 7.911987304688 182 182 182
11.250000000000 8.437500000000 8.484985351563 98 98 98
12.500000000000 8.437500000000 7.937988281250 106 106 106
14.937500000000 8.625000000000 8.186004638672 89 89 89
14.937500000000 8.625000000000 7.462005615234 176 176 176
10.187500000000 8.250000000000 8.493011474609 15 15 15
11.625000000000 8.312500000000 7.902008056641 176 176 176
11.250000000000 8.312500000000 8.497009277344 110 110 110
12.500000000000 8.375000000000 7.954986572266 115 115 115
15.000000000000 8.437500000000 8.179992675781 83 83 83
15.000000000000 8.437500000000 7.462005615234 184 184 184
11.625000000000 8.187500000000 7.898986816406 176 176 176
11.250000000000 8.125000000000 8.477996826172 111 111 111
12.500000000000 8.187500000000 7.940002441406 110 110 110
15.000000000000 8.375000000000 8.188995361328 69 69 69
15.000000000000 8.375000000000 7.460998535156 204 204 204
10.250000000000 7.937500000000 8.475006103516 21 21 21
11.625000000000 8.062500000000 7.899993896484 176 176 176
11.250000000000 8.000000000000 8.473999023438 121 121 121
12.500000000000 8.062500000000 7.936004638672 109 109 109
15.000000000000 8.187500000000 8.175994873047 53 53 53
15.000000000000 8.187500000000 7.459991455078 250 250 250
10.250000000000 7.812500000000 8.468994140625 26 26 26
11.625000000000 7.875000000000 7.895996093750 173 173 173
11.250000000000 7.812500000000 8.480010986328 119 119 119
12.562500000000 7.875000000000 7.932983398438 101 101 101
15.000000000000 8.062500000000 7.458984375000 220 220 220
10.250000000000 7.687500000000 8.460998535156 25 25 25
11.625000000000 7.687500000000 7.885986328125 174 174 174
11.250000000000 7.750000000000 8.481994628906 126 126 126
12.562500000000 7.812500000000 7.933990478516 107 107 107
15.000000000000 7.875000000000 7.449981689453 163 163 163
10.250000000000 7.562500000000 8.463989257813 33 33 33
11.625000000000 7.625000000000 7.895996093750 173 173 173
11.312500000000 7.562500000000 8.476989746094 132 132 132
12.562500000000 7.625000000000 7.932983398438 106 106 106
15.000000000000 7.750000000000 7.462005615234 103 103 103
10.250000000000 7.375000000000 8.459991455078 49 49 49
11.625000000000 7.437500000000 7.895996093750 169 169 169
11.312500000000 7.437500000000 8.470001220703 135 135 135
12.562500000000 7.437500000000 7.933990478516 114 114 114
11.250000000000 7.375000000000 10.873992919922 9 9 9
15.000000000000 7.625000000000 7.476989746094 63 63 63
10.250000000000 7.250000000000 8.454986572266 61 61 61
11.687500000000 7.312500000000 7.885986328125 166 166 166
11.312500000000 7.250000000000 8.477996826172 142 142 142
12.562500000000 7.312500000000 7.920989990234 123 123 123
11.250000000000 7.187500000000 10.869995117188 11 11 11
15.000000000000 7.437500000000 7.458007812500 40 40 40
10.312500000000 7.062500000000 8.464996337891 68 68 68
11.687500000000 7.125000000000 7.881988525391 162 162 162
11.312500000000 7.187500000000 8.475006103516 149 149 149
12.562500000000 7.187500000000 7.925994873047 126 126 126
11.250000000000 7.125000000000 10.872009277344 11 11 11
10.312500000000 6.937500000000 8.454986572266 76 76 76
11.687500000000 7.000000000000 7.885009765625 159 159 159
11.312500000000 7.000000000000 8.467987060547 149 149 149
12.562500000000 7.062500000000 7.924011230469 131 131 131
11.250000000000 6.937500000000 10.855987548828 13 13 13
11.687500000000 6.937500000000 11.549987792969 7 7 7
10.312500000000 6.812500000000 8.451995849609 83 83 83
11.687500000000 6.875000000000 7.885986328125 138 138 138
11.312500000000 6.812500000000 8.473999023438 152 152 152
12.625000000000 6.875000000000 7.921997070313 121 121 121
11.250000000000 6.812500000000 10.859985351563 13 13 13
11.750000000000 6.875000000000 11.523986816406 12 12 12
15.000000000000 7.000000000000 7.454010009766 63 63 63
10.312500000000 6.687500000000 8.453002929688 81 81 81
11.687500000000 6.750000000000 7.876983642578 146 146 146
11.312500000000 6.687500000000 8.471008300781 151 151 151
12.625000000000 6.750000000000 7.917999267578 122 122 122
11.312500000000 6.625000000000 10.855987548828 11 11 11
11.750000000000 6.687500000000 11.527984619141 9 9 9
15.000000000000 6.875000000000 7.460998535156 84 84 84
10.312500000000 6.500000000000 8.449005126953 84 84 84
11.687500000000 6.562500000000 7.885986328125 144 144 144
11.375000000000 6.562500000000 8.463989257813 148 148 148
12.625000000000 6.562500000000 7.916992187500 127 127 127
11.312500000000 6.562500000000 10.859008789063 13 13 13
11.687500000000 6.500000000000 11.549011230469 10 10 10
15.000000000000 6.687500000000 7.468994140625 135 135 135
10.375000000000 6.375000000000 8.441986083984 59 59 59
11.750000000000 6.437500000000 7.881011962891 167 167 167
11.375000000000 6.437500000000 8.459991455078 146 146 146
12.625000000000 6.500000000000 7.915985107422 98 98 98
11.312500000000 6.375000000000 10.864990234375 11 11 11
15.000000000000 6.500000000000 7.468994140625 120 120 120
10.312500000000 6.250000000000 8.450988769531 83 83 83
11.750000000000 6.312500000000 7.875000000000 126 126 126
11.375000000000 6.250000000000 8.460998535156 152 152 152
12.625000000000 6.312500000000 7.914001464844 124 124 124
11.750000000000 6.312500000000 11.513000488281 8 8 8
15.000000000000 6.437500000000 8.161010742188 22 22 22
15.000000000000 6.437500000000 7.464996337891 179 179 179
10.375000000000 6.062500000000 8.449005126953 89 89 89
11.750000000000 6.187500000000 7.871002197266 134 134 134
11.375000000000 6.125000000000 8.458007812500 150 150 150
12.625000000000 6.187500000000 7.915985107422 124 124 124
11.312500000000 6.062500000000 10.864990234375 11 11 11
11.750000000000 6.125000000000 11.514007568359 10 10 10
15.000000000000 6.250000000000 8.158996582031 25 25 25
15.000000000000 6.250000000000 7.467987060547 165 165 165
10.375000000000 5.937500000000 8.446990966797 91 91 91
11.750000000000 6.000000000000 7.861999511719 111 111 111
11.375000000000 5.937500000000 8.454986572266 155 155 155
12.625000000000 6.000000000000 7.903991699219 122 122 122
11.750000000000 6.000000000000 11.513000488281 9 9 9
15.000000000000 6.125000000000 8.148010253906 41 41 41
15.000000000000 6.125000000000 7.466003417969 164 164 164
10.375000000000 5.812500000000 8.437988281250 81 81 81
11.750000000000 5.812500000000 7.872985839844 142 142 142
11.375000000000 5.875000000000 8.459991455078 152 152 152
12.625000000000 5.812500000000 7.895996093750 110 110 110
11.312500000000 5.812500000000 10.833984375000 13 13 13
15.000000000000 5.937500000000 8.152008056641 33 33 33
15.000000000000 5.937500000000 7.463989257813 162 162 162
10.375000000000 5.687500000000 8.433990478516 99 99 99
11.750000000000 5.750000000000 7.867004394531 94 94 94
11.375000000000 5.687500000000 8.458007812500 155 155 155
12.625000000000 5.750000000000 7.903991699219 126 126 126
11.750000000000 5.687500000000 11.514984130859 10 10 10
15.000000000000 5.875000000000 8.161010742188 38 38 38
15.000000000000 5.875000000000 7.468994140625 225 225 225
10.375000000000 5.500000000000 8.444000244141 95 95 95
11.750000000000 5.562500000000 7.875000000000 82 82 82
11.375000000000 5.562500000000 8.455993652344 151 151 151
12.625000000000 5.562500000000 7.906005859375 121 121 121
11.812500000000 5.562500000000 11.496002197266 10 10 10
15.000000000000 5.687500000000 8.156005859375 52 52 52
15.000000000000 5.687500000000 7.467987060547 227 227 227
10.375000000000 5.375000000000 8.445983886719 102 102 102
11.750000000000 5.437500000000 7.882995605469 74 74 74
11.375000000000 5.375000000000 8.449981689453 151 151 151
12.687500000000 5.437500000000 7.899993896484 125 125 125
11.812500000000 5.375000000000 11.502990722656 10 10 10
15.062500000000 5.562500000000 8.143981933594 63 63 63
15.062500000000 5.562500000000 7.467010498047 239 239 239
10.437500000000 5.187500000000 8.437988281250 106 106 106
11.750000000000 5.250000000000 7.859985351563 69 69 69
11.375000000000 5.312500000000 8.449005126953 150 150 150
12.625000000000 5.250000000000 7.904998779297 130 130 130
11.875000000000 5.250000000000 11.471984863281 12 12 12
15.062500000000 5.375000000000 8.143005371094 74 74 74
15.062500000000 5.375000000000 7.463989257813 210 210 210
10.437500000000 5.062500000000 8.434997558594 89 89 89
11.750000000000 5.125000000000 7.865997314453 101 101 101
11.437500000000 5.125000000000 8.445983886719 156 156 156
12.687500000000 5.187500000000 7.898010253906 114 114 114
11.812500000000 5.062500000000 11.510009765625 14 14 14
15.062500000000 5.187500000000 8.138000488281 72 72 72
15.062500000000 5.187500000000 7.470001220703 198 198 198
10.437500000000 4.937500000000 8.436004638672 105 105 105
11.750000000000 5.000000000000 7.882995605469 39 39 39
11.375000000000 4.937500000000 8.445983886719 147 147 147
12.687500000000 5.000000000000 7.893981933594 147 147 147
11.812500000000 5.000000000000 11.485992431641 10 10 10
15.062500000000 5.125000000000 8.148010253906 86 86 86
15.062500000000 5.125000000000 7.475006103516 99 99 99
10.437500000000 4.750000000000 8.436004638672 101 101 101
11.750000000000 4.875000000000 7.880004882813 20 20 20
11.437500000000 4.812500000000 8.441009521484 147 147 147
12.687500000000 4.875000000000 7.897003173828 126 126 126
11.812500000000 4.812500000000 11.488006591797 13 13 13
15.062500000000 4.937500000000 8.143981933594 80 80 80
15.062500000000 4.937500000000 7.468994140625 82 82 82
10.437500000000 4.625000000000 8.432006835938 107 107 107
11.437500000000 4.625000000000 8.445007324219 144 144 144
12.687500000000 4.687500000000 7.886993408203 121 121 121
11.812500000000 4.687500000000 11.497009277344 13 13 13
15.062500000000 4.812500000000 8.125000000000 69 69 69
15.062500000000 4.812500000000 7.462005615234 46 46 46
10.437500000000 4.500000000000 8.429992675781 106 106 106
11.500000000000 4.562500000000 8.440002441406 149 149 149
12.750000000000 4.625000000000 7.891998291016 116 116 116
11.875000000000 4.500000000000 11.477996826172 16 16 16
10.437500000000 4.375000000000 8.432006835938 107 107 107
11.812500000000 4.437500000000 7.855987548828 55 55 55
11.437500000000 4.375000000000 8.446990966797 155 155 155
12.750000000000 4.437500000000 7.888000488281 113 113 113
11.875000000000 4.437500000000 11.475982666016 12 12 12
10.500000000000 4.187500000000 8.436004638672 136 136 136
11.437500000000 4.250000000000 8.437011718750 139 139 139
12.750000000000 4.312500000000 7.885986328125 129 129 129
11.875000000000 4.250000000000 11.458007812500 19 19 19
15.062500000000 4.437500000000 7.464996337891 80 80 80
10.500000000000 4.062500000000 8.428985595703 121 121 121
11.500000000000 4.062500000000 8.434997558594 130 130 130
12.750000000000 4.125000000000 7.882995605469 131 131 131
11.875000000000 4.062500000000 11.488006591797 15 15 15
15.062500000000 4.250000000000 7.468994140625 137 137 137
10.500000000000 3.875000000000 8.432006835938 121 121 121
11.437500000000 4.000000000000 8.433990478516 127 127 127
12.750000000000 3.937500000000 7.886993408203 136 136 136
11.875000000000 3.937500000000 11.464996337891 21 21 21
15.062500000000 4.062500000000 7.458984375000 195 195 195
10.500000000000 3.812500000000 8.419982910156 115 115 115
11.500000000000 3.812500000000 8.432006835938 130 130 130
12.750000000000 3.875000000000 7.881988525391 126 126 126
11.875000000000 3.750000000000 11.467987060547 19 19 19
15.062500000000 4.000000000000 7.460998535156 213 213 213
10.500000000000 3.625000000000 8.434997558594 110 110 110
11.500000000000 3.687500000000 8.436004638672 139 139 139
12.750000000000 3.687500000000 7.895996093750 128 128 128
11.875000000000 3.687500000000 11.458984375000 9 9 9
15.062500000000 3.812500000000 7.459991455078 243 243 243
10.500000000000 3.437500000000 8.423004150391 125 125 125
11.500000000000 3.500000000000 8.438995361328 131 131 131
12.750000000000 3.562500000000 7.880004882813 133 133 133
11.875000000000 3.500000000000 11.454010009766 29 29 29
15.125000000000 3.687500000000 7.455993652344 197 197 197
10.500000000000 3.312500000000 8.416992187500 129 129 129
11.500000000000 3.312500000000 8.432983398438 124 124 124
12.750000000000 3.375000000000 7.885009765625 134 134 134
11.937500000000 3.375000000000 11.460998535156 21 21 21
15.125000000000 3.500000000000 7.455993652344 205 205 205
10.500000000000 3.187500000000 8.424011230469 124 124 124
11.500000000000 3.250000000000 8.419006347656 117 117 117
12.750000000000 3.312500000000 7.889007568359 136 136 136
11.937500000000 3.187500000000 11.468994140625 23 23 23
15.125000000000 3.375000000000 7.458984375000 221 221 221
10.500000000000 3.062500000000 8.424987792969 128 128 128
11.500000000000 3.062500000000 8.428009033203 120 120 120
12.750000000000 3.125000000000 7.877990722656 139 139 139
11.937500000000 3.125000000000 11.454010009766 24 24 24
15.125000000000 3.250000000000 7.451995849609 233 233 233
10.500000000000 2.875000000000 8.423004150391 129 129 129
11.500000000000 2.937500000000 8.430999755859 121 121 121
12.812500000000 3.000000000000 7.877990722656 144 144 144
11.937500000000 2.937500000000 11.438995361328 23 23 23
15.125000000000 3.125000000000 7.458984375000 254 254 254
10.500000000000 2.750000000000 8.419982910156 129 129 129
11.500000000000 2.750000000000 8.428009033203 123 123 123
12.812500000000 2.812500000000 7.881988525391 151 151 151
11.937500000000 2.812500000000 11.442993164063 22 22 22
15.125000000000 2.937500000000 7.458984375000 254 254 254
10.500000000000 2.625000000000 8.427001953125 131 131 131
11.562500000000 2.687500000000 8.423004150391 114 114 114
12.812500000000 2.687500000000 7.878997802734 143 143 143
11.937500000000 2.625000000000 11.437988281250 16 16 16
15.125000000000 2.812500000000 8.139984130859 26 26 26
15.125000000000 2.812500000000 7.458984375000 254 254 254
10.500000000000 2.500000000000 8.429992675781 130 130 130
11.562500000000 2.500000000000 8.415985107422 109 109 109
12.812500000000 2.625000000000 7.880004882813 135 135 135
12.000000000000 2.562500000000 11.432006835938 10 10 10
15.125000000000 2.687500000000 8.143005371094 32 32 32
15.125000000000 2.687500000000 7.458984375000 191 191 191
10.500000000000 2.312500000000 8.423004150391 124 124 124
11.562500000000 2.375000000000 8.428985595703 110 110 110
12.875000000000 2.437500000000 7.881988525391 144 144 144
12.000000000000 2.375000000000 11.428009033203 12 12 12
15.125000000000 2.562500000000 8.118011474609 46 46 46
15.125000000000 2.562500000000 7.455993652344 133 133 133
10.562500000000 2.187500000000 8.424011230469 137 137 137
11.562500000000 2.187500000000 8.425994873047 109 109 109
12.875000000000 2.312500000000 7.882995605469 143 143 143
15.125000000000 2.375000000000 8.128997802734 55 55 55
15.125000000000 2.375000000000 7.457000732422 122 122 122
10.562500000000 2.000000000000 8.423004150391 135 135 135
11.562500000000 2.125000000000 8.427001953125 101 101 101
12.875000000000 2.125000000000 7.875000000000 142 142 142
15.125000000000 2.250000000000 8.128997802734 61 61 61
15.125000000000 2.250000000000 7.444000244141 78 78 78
10.562500000000 1.937500000000 8.428985595703 134 134 134
11.562500000000 1.937500000000 8.419982910156 103 103 103
12.875000000000 2.062500000000 7.871002197266 144 144 144
15.125000000000 2.062500000000 8.118988037109 61 61 61
15.125000000000 2.062500000000 7.458984375000 29 29 29
10.562500000000 1.750000000000 8.424987792969 140 140 140
11.562500000000 1.812500000000 8.428009033203 100 100 100
12.875000000000 1.875000000000 7.873992919922 138 138 138
15.125000000000 2.000000000000 7.557983398438 110 110 110
10.562500000000 1.562500000000 8.429992675781 134 134 134
11.625000000000 1.625000000000 8.424987792969 103 103 103
12.875000000000 1.750000000000 7.873992919922 142 142 142
12.437500000000 1.625000000000 10.755004882813 15 15 15
15.125000000000 1.812500000000 7.522003173828 143 143 143
10.562500000000 1.437500000000 8.424987792969 130 130 130
11.625000000000 1.437500000000 8.425994873047 99 99 99
12.875000000000 1.562500000000 7.876983642578 148 148 148
12.437500000000 1.562500000000 10.759002685547 12 12 12
15.187500000000 1.687500000000 7.480010986328 145 145 145
10.625000000000 1.312500000000 8.419982910156 130 130 130
11.625000000000 1.375000000000 8.428985595703 107 107 107
12.875000000000 1.437500000000 7.875000000000 143 143 143
12.437500000000 1.375000000000 10.760009765625 16 16 16
15.187500000000 1.500000000000 7.467987060547 163 163 163
10.625000000000 1.187500000000 8.419006347656 132 132 132
11.625000000000 1.187500000000 8.428009033203 105 105 105
12.875000000000 1.312500000000 7.876983642578 148 148 148
12.500000000000 1.250000000000 10.747985839844 19 19 19
15.187500000000 1.437500000000 7.463989257813 254 254 254
10.625000000000 1.000000000000 8.425994873047 136 136 136
11.625000000000 1.062500000000 8.415008544922 107 107 107
12.875000000000 1.187500000000 7.872009277344 147 147 147
12.500000000000 1.062500000000 10.756988525391 15 15 15
15.187500000000 1.250000000000 7.454010009766 254 254 254
10.625000000000 0.875000000000 8.427001953125 138 138 138
11.625000000000 0.875000000000 8.421997070313 119 119 119
12.937500000000 1.000000000000 7.861999511719 141 141 141
12.500000000000 1.000000000000 10.740997314453 19 19 19
15.187500000000 1.062500000000 7.457000732422 254 254 254
10.625000000000 0.687500000000 8.428009033203 140 140 140
11.625000000000 0.812500000000 8.421997070313 115 115 115
12.937500000000 0.812500000000 7.864990234375 141 141 141
12.500000000000 0.812500000000 10.751007080078 21 21 21
15.187500000000 0.937500000000 7.458007812500 254 254 254
10.625000000000 0.625000000000 8.420989990234 137 137 137
11.625000000000 0.625000000000 8.416992187500 119 119 119
12.937500000000 0.750000000000 7.875000000000 139 139 139
12.500000000000 0.687500000000 10.747009277344 18 18 18
15.250000000000 0.812500000000 7.454986572266 254 254 254
10.625000000000 0.437500000000 8.415985107422 136 136 136
11.625000000000 0.500000000000 8.423004150391 128 128 128
12.937500000000 0.562500000000 7.863983154297 141 141 141
12.500000000000 0.500000000000 10.734985351563 17 17 17
15.187500000000 0.687500000000 7.447998046875 247 247 247
10.625000000000 0.312500000000 8.423004150391 126 126 126
11.625000000000 0.312500000000 8.424011230469 139 139 139
12.937500000000 0.437500000000 7.867004394531 137 137 137
12.500000000000 0.312500000000 10.725982666016 15 15 15
15.250000000000 0.500000000000 7.453002929688 251 251 251
10.625000000000 0.125000000000 8.420989990234 126 126 126
11.625000000000 0.187500000000 8.424987792969 140 140 140
12.937500000000 0.250000000000 7.863006591797 150 150 150
12.562500000000 0.250000000000 10.730010986328 15 15 15
15.250000000000 0.375000000000 7.458007812500 254 254 254
10.625000000000 0.062500000000 8.425994873047 131 131 131
11.625000000000 0.062500000000 8.424011230469 129 129 129
12.937500000000 0.125000000000 7.861999511719 145 145 145
12.562500000000 0.062500000000 10.738006591797 25 25 25
15.250000000000 0.187500000000 7.454010009766 253 253 253
13.000000000000 0.000000000000 7.861999511719 140 140 140
15.250000000000 0.125000000000 7.455993652344 134 134 134
11.312500000000 32.062500000000 8.350006103516 77 77 77
11.312500000000 32.000000000000 8.367004394531 60 60 60
11.312500000000 31.812500000000 8.372985839844 39 39 39
10.375000000000 32.000000000000 8.286987304688 81 81 81
11.375000000000 31.375000000000 8.428985595703 23 23 23
10.062500000000 32.062500000000 8.936004638672 94 94 94
10.437500000000 31.875000000000 8.269989013672 38 38 38
11.437500000000 31.312500000000 8.410003662109 51 51 51
10.125000000000 31.937500000000 8.937988281250 101 101 101
11.437500000000 31.125000000000 8.411010742188 89 89 89
10.125000000000 31.812500000000 8.954010009766 112 112 112
11.437500000000 31.000000000000 8.416992187500 101 101 101
10.125000000000 31.687500000000 8.945007324219 112 112 112
11.437500000000 30.812500000000 8.417999267578 125 125 125
10.125000000000 31.500000000000 8.951995849609 106 106 106
9.062500000000 32.062500000000 8.929992675781 88 88 88
11.437500000000 30.687500000000 8.427001953125 163 163 163
10.125000000000 31.437500000000 8.957000732422 99 99 99
10.500000000000 31.187500000000 8.348999023438 32 32 32
9.062500000000 31.937500000000 8.938995361328 99 99 99
11.437500000000 30.562500000000 8.434997558594 156 156 156
10.125000000000 31.250000000000 8.958007812500 91 91 91
10.500000000000 31.062500000000 8.345001220703 77 77 77
9.062500000000 31.812500000000 8.934997558594 97 97 97
11.437500000000 30.437500000000 8.441009521484 156 156 156
10.125000000000 31.125000000000 8.963989257813 73 73 73
10.500000000000 30.875000000000 8.330993652344 95 95 95
9.062500000000 31.625000000000 8.940002441406 100 100 100
11.437500000000 30.250000000000 8.442993164063 153 153 153
10.125000000000 30.937500000000 8.967010498047 49 49 49
10.500000000000 30.750000000000 8.341003417969 108 108 108
9.125000000000 31.500000000000 8.946990966797 88 88 88
11.500000000000 30.062500000000 8.441009521484 157 157 157
10.125000000000 30.812500000000 8.975006103516 44 44 44
10.500000000000 30.562500000000 8.342987060547 109 109 109
9.125000000000 31.312500000000 8.945983886719 87 87 87
11.437500000000 30.000000000000 8.444000244141 141 141 141
10.125000000000 30.687500000000 8.989990234375 15 15 15
10.500000000000 30.500000000000 8.359985351563 138 138 138
9.125000000000 31.250000000000 8.962005615234 50 50 50
11.437500000000 29.812500000000 8.458007812500 137 137 137
10.500000000000 30.312500000000 8.351989746094 140 140 140
9.125000000000 31.062500000000 8.962005615234 29 29 29
11.437500000000 29.687500000000 8.459991455078 109 109 109
10.500000000000 30.187500000000 8.359985351563 132 132 132
11.437500000000 29.562500000000 8.462982177734 87 87 87
10.500000000000 30.000000000000 8.358001708984 131 131 131
11.500000000000 29.437500000000 8.467987060547 53 53 53
10.562500000000 29.937500000000 8.368011474609 116 116 116
11.125000000000 29.500000000000 11.500000000000 10 10 10
10.187500000000 29.937500000000 9.053985595703 14 14 14
10.562500000000 29.750000000000 8.363983154297 95 95 95
10.250000000000 29.812500000000 9.037994384766 45 45 45
10.562500000000 29.625000000000 8.376007080078 68 68 68
10.187500000000 29.625000000000 9.055999755859 62 62 62
10.562500000000 29.437500000000 8.375000000000 42 42 42
10.187500000000 29.500000000000 9.050994873047 89 89 89
11.500000000000 28.687500000000 8.536987304688 40 40 40
10.187500000000 29.375000000000 9.052001953125 92 92 92
11.500000000000 28.562500000000 8.522003173828 102 102 102
10.187500000000 29.187500000000 9.057983398438 114 114 114
9.187500000000 29.750000000000 9.033996582031 58 58 58
11.562500000000 28.375000000000 8.531982421875 131 131 131
10.250000000000 29.062500000000 9.065002441406 114 114 114
9.187500000000 29.562500000000 9.032989501953 81 81 81
11.562500000000 28.187500000000 8.542999267578 150 150 150
10.250000000000 28.937500000000 9.070983886719 112 112 112
10.625000000000 28.687500000000 8.432983398438 51 51 51
9.187500000000 29.437500000000 9.044982910156 92 92 92
11.500000000000 28.125000000000 8.545989990234 161 161 161
10.250000000000 28.812500000000 9.074005126953 111 111 111
10.625000000000 28.625000000000 8.436004638672 53 53 53
9.187500000000 29.375000000000 9.050994873047 90 90 90
11.562500000000 27.937500000000 8.553009033203 165 165 165
10.250000000000 28.687500000000 9.078002929688 96 96 96
10.625000000000 28.437500000000 8.441009521484 85 85 85
9.187500000000 29.187500000000 9.040008544922 103 103 103
11.500000000000 27.812500000000 8.554992675781 161 161 161
10.250000000000 28.500000000000 9.079010009766 66 66 66
10.625000000000 28.312500000000 8.442993164063 113 113 113
9.187500000000 29.062500000000 9.050994873047 93 93 93
11.500000000000 27.687500000000 8.565002441406 146 146 146
10.250000000000 28.312500000000 9.087982177734 34 34 34
10.625000000000 28.125000000000 8.447998046875 138 138 138
9.187500000000 28.875000000000 9.061004638672 80 80 80
11.500000000000 27.562500000000 8.566009521484 139 139 139
10.187500000000 28.250000000000 9.101989746094 23 23 23
10.625000000000 28.062500000000 8.451995849609 141 141 141
9.187500000000 28.750000000000 9.048004150391 79 79 79
11.562500000000 27.437500000000 8.570007324219 106 106 106
10.625000000000 27.875000000000 8.451995849609 128 128 128
9.250000000000 28.625000000000 9.062011718750 15 15 15
11.562500000000 27.250000000000 8.580993652344 87 87 87
10.625000000000 27.750000000000 8.457000732422 121 121 121
11.562500000000 27.062500000000 8.587005615234 55 55 55
10.625000000000 27.562500000000 8.457000732422 91 91 91
11.562500000000 26.937500000000 8.587982177734 36 36 36
10.625000000000 27.437500000000 8.476989746094 83 83 83
11.625000000000 26.812500000000 8.592987060547 124 124 124
11.562500000000 26.812500000000 8.557006835938 128 128 128
10.250000000000 27.500000000000 9.153991699219 57 57 57
10.625000000000 27.312500000000 8.477996826172 33 33 33
11.625000000000 26.687500000000 8.626983642578 35 35 35
10.250000000000 27.375000000000 9.175994873047 83 83 83
10.250000000000 27.187500000000 9.170989990234 103 103 103
10.312500000000 27.062500000000 9.167999267578 107 107 107
9.312500000000 27.562500000000 9.135009765625 52 52 52
10.250000000000 27.000000000000 11.632995605469 41 41 41
9.312500000000 27.437500000000 9.136993408203 81 81 81
9.312500000000 27.375000000000 9.139007568359 94 94 94
11.687500000000 26.000000000000 8.613983154297 63 63 63
11.687500000000 25.812500000000 8.622985839844 98 98 98
9.312500000000 26.937500000000 9.157989501953 108 108 108
9.312500000000 26.812500000000 9.158996582031 108 108 108
9.312500000000 26.687500000000 9.170989990234 77 77 77
11.125000000000 25.562500000000 11.339996337891 98 98 98
11.187500000000 25.562500000000 10.888000488281 104 104 104
11.125000000000 25.437500000000 11.386993408203 105 105 105
11.187500000000 25.375000000000 10.894989013672 97 97 97
11.687500000000 25.125000000000 8.559997558594 53 53 53
11.187500000000 25.312500000000 11.321990966797 11 11 11
11.125000000000 25.312500000000 10.908996582031 17 17 17
11.687500000000 25.000000000000 8.557006835938 70 70 70
11.125000000000 25.125000000000 10.954010009766 53 53 53
11.687500000000 24.875000000000 8.545989990234 87 87 87
10.750000000000 25.375000000000 8.470001220703 21 21 21
10.312500000000 25.437500000000 11.600982666016 21 21 21
10.375000000000 25.437500000000 11.329010009766 99 99 99
11.687500000000 24.687500000000 8.537994384766 117 117 117
10.250000000000 25.437500000000 10.656982421875 24 24 24
10.375000000000 25.375000000000 9.161987304688 97 97 97
10.750000000000 25.187500000000 8.467010498047 66 66 66
9.375000000000 25.937500000000 9.164001464844 73 73 73
10.312500000000 25.250000000000 11.602996826172 46 46 46
11.687500000000 24.562500000000 8.541992187500 126 126 126
10.250000000000 25.312500000000 10.906005859375 39 39 39
10.375000000000 25.250000000000 9.148986816406 90 90 90
10.750000000000 25.062500000000 8.468994140625 87 87 87
9.375000000000 25.750000000000 9.152008056641 84 84 84
11.750000000000 24.375000000000 8.536010742188 138 138 138
10.375000000000 25.125000000000 10.988006591797 10 10 10
10.437500000000 25.062500000000 9.141998291016 70 70 70
10.750000000000 24.875000000000 8.458007812500 103 103 103
9.375000000000 25.625000000000 9.152984619141 92 92 92
11.750000000000 24.312500000000 8.523986816406 145 145 145
10.437500000000 24.937500000000 9.147003173828 41 41 41
10.750000000000 24.812500000000 8.454986572266 116 116 116
9.375000000000 25.500000000000 9.143005371094 96 96 96
11.750000000000 24.125000000000 8.526000976563 140 140 140
10.437500000000 24.812500000000 9.132995605469 28 28 28
10.750000000000 24.625000000000 8.449005126953 119 119 119
9.375000000000 25.375000000000 9.139007568359 94 94 94
11.750000000000 23.937500000000 8.511993408203 138 138 138
10.750000000000 24.437500000000 8.454010009766 126 126 126
9.375000000000 25.187500000000 9.131988525391 76 76 76
11.750000000000 23.812500000000 8.511993408203 130 130 130
10.812500000000 24.312500000000 8.440002441406 113 113 113
9.375000000000 25.062500000000 9.135009765625 60 60 60
11.750000000000 23.687500000000 8.493011474609 109 109 109
10.812500000000 24.187500000000 8.440002441406 92 92 92
9.375000000000 24.937500000000 9.128997802734 16 16 16
11.812500000000 23.562500000000 8.481994628906 89 89 89
10.812500000000 24.062500000000 8.441009521484 77 77 77
11.812500000000 23.375000000000 8.490997314453 68 68 68
10.875000000000 23.875000000000 8.425994873047 51 51 51
11.812500000000 23.250000000000 8.476989746094 35 35 35
10.875000000000 23.750000000000 8.428009033203 31 31 31
10.437500000000 23.750000000000 9.063995361328 38 38 38
10.437500000000 23.687500000000 9.046997070313 60 60 60
10.500000000000 23.500000000000 9.046997070313 82 82 82
10.500000000000 23.375000000000 9.044982910156 100 100 100
11.812500000000 22.500000000000 8.430999755859 45 45 45
10.500000000000 23.187500000000 9.040985107422 109 109 109
10.875000000000 23.000000000000 8.355987548828 33 33 33
9.437500000000 23.750000000000 9.041992187500 29 29 29
11.812500000000 22.437500000000 8.414001464844 75 75 75
10.500000000000 23.062500000000 9.031005859375 103 103 103
10.875000000000 22.937500000000 8.360992431641 67 67 67
9.500000000000 23.625000000000 9.031982421875 61 61 61
11.812500000000 22.250000000000 8.416992187500 104 104 104
10.500000000000 22.937500000000 9.019989013672 98 98 98
10.875000000000 22.750000000000 8.352996826172 97 97 97
9.500000000000 23.500000000000 9.026000976563 85 85 85
11.812500000000 22.125000000000 8.415008544922 117 117 117
10.500000000000 22.750000000000 9.014007568359 86 86 86
10.875000000000 22.625000000000 8.354003906250 113 113 113
9.500000000000 23.312500000000 9.023010253906 92 92 92
11.812500000000 21.937500000000 8.402984619141 127 127 127
10.500000000000 22.625000000000 9.011993408203 62 62 62
10.875000000000 22.437500000000 8.346984863281 119 119 119
9.500000000000 23.187500000000 9.033996582031 96 96 96
11.812500000000 21.812500000000 8.398010253906 138 138 138
10.562500000000 22.500000000000 9.003997802734 20 20 20
10.875000000000 22.312500000000 8.341003417969 126 126 126
9.500000000000 23.062500000000 9.026000976563 80 80 80
11.875000000000 21.687500000000 8.393981933594 137 137 137
10.500000000000 22.375000000000 9.010009765625 22 22 22
10.875000000000 22.187500000000 8.346008300781 130 130 130
9.500000000000 22.875000000000 9.014984130859 72 72 72
11.875000000000 21.500000000000 8.393981933594 146 146 146
10.937500000000 22.000000000000 8.330993652344 118 118 118
9.500000000000 22.750000000000 9.018981933594 54 54 54
11.875000000000 21.375000000000 8.385009765625 139 139 139
10.937500000000 21.875000000000 8.324981689453 99 99 99
9.562500000000 22.562500000000 9.010986328125 31 31 31
11.875000000000 21.187500000000 8.376983642578 125 125 125
10.937500000000 21.687500000000 8.325988769531 86 86 86
11.875000000000 21.125000000000 8.368988037109 110 110 110
10.937500000000 21.562500000000 8.322998046875 65 65 65
11.875000000000 20.937500000000 8.358001708984 95 95 95
10.937500000000 21.437500000000 8.326995849609 17 17 17
11.875000000000 20.812500000000 8.359985351563 65 65 65
10.562500000000 21.500000000000 8.941986083984 34 34 34
11.875000000000 20.625000000000 8.365997314453 23 23 23
10.562500000000 21.312500000000 8.928985595703 51 51 51
10.625000000000 21.250000000000 8.928009033203 81 81 81
10.625000000000 21.062500000000 8.917999267578 95 95 95
10.937500000000 20.875000000000 8.287994384766 19 19 19
10.625000000000 20.937500000000 8.919982910156 100 100 100
10.937500000000 20.687500000000 8.251983642578 50 50 50
9.562500000000 21.437500000000 8.929992675781 16 16 16
11.937500000000 20.125000000000 8.311004638672 39 39 39
10.625000000000 20.812500000000 8.911010742188 105 105 105
11.000000000000 20.562500000000 8.253997802734 79 79 79
9.562500000000 21.312500000000 8.919006347656 55 55 55
11.937500000000 19.937500000000 8.316009521484 57 57 57
10.625000000000 20.562500000000 8.904998779297 106 106 106
11.000000000000 20.375000000000 8.250000000000 91 91 91
9.562500000000 21.125000000000 8.915008544922 69 69 69
11.937500000000 19.812500000000 8.299987792969 71 71 71
10.625000000000 20.500000000000 8.907989501953 105 105 105
11.000000000000 20.312500000000 8.250000000000 103 103 103
9.562500000000 21.062500000000 8.911987304688 84 84 84
11.937500000000 19.625000000000 8.296997070313 87 87 87
10.625000000000 20.312500000000 8.899993896484 96 96 96
11.000000000000 20.125000000000 8.244995117188 111 111 111
9.625000000000 20.875000000000 8.904998779297 87 87 87
12.000000000000 19.562500000000 8.287994384766 107 107 107
10.625000000000 20.187500000000 8.897003173828 86 86 86
11.000000000000 20.000000000000 8.248992919922 122 122 122
9.625000000000 20.687500000000 8.911010742188 87 87 87
12.000000000000 19.375000000000 8.292999267578 126 126 126
10.687500000000 20.000000000000 8.891998291016 75 75 75
11.000000000000 19.812500000000 8.243011474609 129 129 129
9.625000000000 20.562500000000 8.902984619141 93 93 93
12.000000000000 19.250000000000 8.277984619141 131 131 131
10.687500000000 19.937500000000 8.885009765625 52 52 52
11.000000000000 19.750000000000 8.243011474609 134 134 134
9.625000000000 20.437500000000 8.895996093750 82 82 82
12.000000000000 19.125000000000 8.268981933594 137 137 137
10.687500000000 19.812500000000 8.884002685547 22 22 22
11.062500000000 19.625000000000 8.236999511719 114 114 114
9.625000000000 20.375000000000 8.904998779297 59 59 59
12.000000000000 19.000000000000 8.274993896484 142 142 142
11.062500000000 19.437500000000 8.233001708984 101 101 101
9.687500000000 20.187500000000 8.898010253906 38 38 38
12.000000000000 18.812500000000 8.266998291016 145 145 145
11.062500000000 19.312500000000 8.223999023438 91 91 91
12.000000000000 18.687500000000 8.260986328125 123 123 123
11.062500000000 19.125000000000 8.222991943359 42 42 42
12.062500000000 18.562500000000 8.256988525391 127 127 127
11.125000000000 19.062500000000 8.217010498047 48 48 48
12.062500000000 18.375000000000 8.253997802734 118 118 118
12.062500000000 18.250000000000 8.243011474609 117 117 117
12.062500000000 18.062500000000 8.248992919922 103 103 103
12.062500000000 18.000000000000 8.234985351563 74 74 74
12.062500000000 17.812500000000 8.231994628906 50 50 50
10.750000000000 18.500000000000 8.790985107422 35 35 35
12.125000000000 17.687500000000 8.217010498047 52 52 52
10.750000000000 18.375000000000 8.803009033203 39 39 39
10.750000000000 18.187500000000 8.796997070313 75 75 75
10.750000000000 18.062500000000 8.789001464844 80 80 80
11.125000000000 17.875000000000 8.158996582031 34 34 34
10.750000000000 17.937500000000 8.804992675781 103 103 103
11.125000000000 17.750000000000 8.156005859375 58 58 58
9.750000000000 18.500000000000 8.789001464844 41 41 41
10.750000000000 17.812500000000 8.777984619141 108 108 108
11.125000000000 17.625000000000 8.143981933594 81 81 81
9.750000000000 18.312500000000 8.786010742188 61 61 61
12.062500000000 16.937500000000 8.174987792969 38 38 38
10.812500000000 17.625000000000 8.772003173828 110 110 110
11.125000000000 17.437500000000 8.140991210938 108 108 108
9.750000000000 18.187500000000 8.782989501953 79 79 79
12.125000000000 16.812500000000 8.180999755859 66 66 66
10.750000000000 17.437500000000 8.791992187500 110 110 110
11.125000000000 17.312500000000 8.139984130859 113 113 113
9.750000000000 18.000000000000 8.786010742188 87 87 87
12.125000000000 16.687500000000 8.174011230469 99 99 99
10.812500000000 17.375000000000 8.773010253906 98 98 98
11.187500000000 17.187500000000 8.139984130859 129 129 129
9.750000000000 17.937500000000 8.781005859375 97 97 97
12.125000000000 16.562500000000 8.175994873047 101 101 101
10.812500000000 17.187500000000 8.770996093750 104 104 104
11.187500000000 17.000000000000 8.139984130859 127 127 127
9.812500000000 17.750000000000 8.777984619141 90 90 90
12.125000000000 16.375000000000 8.169982910156 114 114 114
10.875000000000 17.062500000000 8.763000488281 86 86 86
11.187500000000 16.875000000000 8.140991210938 136 136 136
9.812500000000 17.562500000000 8.773010253906 91 91 91
12.125000000000 16.187500000000 8.164001464844 127 127 127
10.812500000000 16.875000000000 8.766998291016 74 74 74
11.187500000000 16.687500000000 8.128997802734 133 133 133
9.812500000000 17.437500000000 8.774993896484 87 87 87
12.125000000000 16.062500000000 8.161010742188 137 137 137
10.875000000000 16.750000000000 8.763000488281 50 50 50
11.187500000000 16.562500000000 8.125000000000 120 120 120
9.812500000000 17.250000000000 8.765991210938 76 76 76
12.125000000000 15.937500000000 8.154998779297 140 140 140
11.187500000000 16.437500000000 8.114990234375 97 97 97
9.812500000000 17.187500000000 8.768005371094 47 47 47
12.125000000000 15.812500000000 8.151000976563 143 143 143
11.187500000000 16.312500000000 8.113006591797 82 82 82
12.187500000000 15.625000000000 8.143981933594 123 123 123
12.187500000000 15.500000000000 8.141998291016 110 110 110
12.187500000000 15.375000000000 8.128997802734 107 107 107
12.187500000000 15.187500000000 8.126983642578 94 94 94
12.187500000000 15.062500000000 8.130004882813 62 62 62
10.875000000000 15.750000000000 8.703002929688 15 15 15
12.250000000000 14.875000000000 8.119995117188 43 43 43
10.875000000000 15.562500000000 8.687988281250 44 44 44
10.875000000000 15.500000000000 8.691009521484 47 47 47
10.875000000000 15.312500000000 8.682006835938 62 62 62
10.875000000000 15.187500000000 8.686004638672 78 78 78
10.875000000000 15.000000000000 8.674011230469 100 100 100
11.250000000000 14.812500000000 8.057006835938 65 65 65
9.875000000000 15.562500000000 8.692993164063 18 18 18
10.937500000000 14.875000000000 8.674987792969 100 100 100
11.250000000000 14.687500000000 8.057983398438 56 56 56
9.875000000000 15.437500000000 8.684997558594 19 19 19
12.250000000000 14.062500000000 8.080993652344 35 35 35
10.937500000000 14.750000000000 8.667999267578 103 103 103
11.250000000000 14.562500000000 8.049987792969 75 75 75
9.875000000000 15.312500000000 8.669982910156 48 48 48
12.250000000000 13.937500000000 8.082000732422 53 53 53
10.937500000000 14.625000000000 8.671997070313 109 109 109
11.250000000000 14.437500000000 8.042999267578 83 83 83
9.875000000000 15.125000000000 8.674011230469 70 70 70
12.250000000000 13.750000000000 8.087982177734 71 71 71
11.000000000000 14.437500000000 8.660003662109 113 113 113
11.312500000000 14.250000000000 8.052001953125 91 91 91
9.937500000000 15.000000000000 8.669982910156 75 75 75
12.250000000000 13.625000000000 8.071990966797 78 78 78
11.000000000000 14.312500000000 8.664001464844 109 109 109
11.312500000000 14.125000000000 8.035003662109 103 103 103
9.937500000000 14.812500000000 8.665008544922 82 82 82
12.250000000000 13.500000000000 8.066986083984 89 89 89
11.000000000000 14.187500000000 8.661010742188 95 95 95
11.312500000000 14.000000000000 8.029998779297 100 100 100
9.937500000000 14.750000000000 8.664001464844 91 91 91
12.250000000000 13.375000000000 8.066986083984 98 98 98
11.000000000000 14.062500000000 8.660003662109 96 96 96
11.312500000000 13.812500000000 8.023010253906 108 108 108
9.937500000000 14.562500000000 8.665008544922 97 97 97
12.250000000000 13.187500000000 8.066986083984 104 104 104
11.000000000000 13.875000000000 8.661010742188 86 86 86
11.312500000000 13.687500000000 8.028991699219 117 117 117
9.937500000000 14.437500000000 8.656005859375 97 97 97
12.250000000000 13.062500000000 8.052001953125 103 103 103
11.000000000000 13.687500000000 8.648986816406 82 82 82
11.312500000000 13.562500000000 8.026000976563 121 121 121
9.937500000000 14.250000000000 8.660003662109 92 92 92
12.250000000000 12.875000000000 8.046997070313 117 117 117
11.000000000000 13.562500000000 8.647003173828 79 79 79
11.312500000000 13.375000000000 8.027984619141 124 124 124
9.937500000000 14.062500000000 8.656982421875 97 97 97
12.312500000000 12.750000000000 8.040985107422 123 123 123
11.000000000000 13.437500000000 8.634002685547 66 66 66
11.375000000000 13.250000000000 8.023986816406 130 130 130
10.000000000000 14.000000000000 8.651000976563 88 88 88
11.375000000000 13.062500000000 11.734008789063 8 8 8
12.312500000000 12.625000000000 8.049987792969 131 131 131
11.000000000000 13.312500000000 8.648986816406 49 49 49
11.375000000000 13.125000000000 8.022003173828 131 131 131
10.000000000000 13.812500000000 8.643005371094 82 82 82
12.312500000000 12.437500000000 8.041992187500 136 136 136
11.000000000000 13.125000000000 8.643005371094 29 29 29
11.375000000000 12.937500000000 8.014007568359 130 130 130
10.000000000000 13.687500000000 8.632995605469 73 73 73
12.312500000000 12.312500000000 8.048004150391 139 139 139
11.375000000000 12.812500000000 8.014007568359 133 133 133
10.000000000000 13.500000000000 8.641998291016 58 58 58
12.312500000000 12.187500000000 8.042999267578 141 141 141
11.375000000000 12.687500000000 8.006988525391 122 122 122
10.000000000000 13.437500000000 8.628997802734 38 38 38
12.312500000000 12.062500000000 8.027008056641 142 142 142
11.375000000000 12.562500000000 8.007995605469 123 123 123
10.000000000000 13.250000000000 8.641998291016 16 16 16
12.312500000000 11.875000000000 8.027984619141 146 146 146
11.375000000000 12.375000000000 8.001983642578 113 113 113
12.375000000000 11.750000000000 8.035003662109 146 146 146
11.437500000000 12.187500000000 7.993011474609 100 100 100
12.375000000000 11.625000000000 8.032989501953 143 143 143
11.437500000000 12.125000000000 7.983001708984 78 78 78
12.375000000000 11.437500000000 8.016998291016 136 136 136
11.437500000000 11.937500000000 7.980987548828 69 69 69
12.375000000000 11.312500000000 8.014007568359 147 147 147
