26.687500000000 22.000000000000 62.227001190186 72 72 72
26.812500000000 22.000000000000 62.163002014160 148 148 148
26.687500000000 22.000000000000 61.121002197266 61 61 61
26.687500000000 22.000000000000 61.097000122070 150 150 150
26.625000000000 22.000000000000 61.067001342773 98 98 98
26.625000000000 22.000000000000 61.033000946045 101 101 101
26.625000000000 22.000000000000 60.994003295898 144 144 144
26.750000000000 22.000000000000 60.361000061035 196 196 196
26.562500000000 22.000000000000 65.167999267578 178 178 178
26.562500000000 22.000000000000 65.094001770020 180 180 180
26.562500000000 22.000000000000 65.027000427246 182 182 182
26.562500000000 22.000000000000 64.962997436523 187 187 187
26.562500000000 22.000000000000 64.896003723145 187 187 187
26.562500000000 22.000000000000 64.837997436523 185 185 185
26.562500000000 22.000000000000 64.781997680664 186 186 186
26.562500000000 22.000000000000 64.715995788574 184 184 184
26.562500000000 22.000000000000 64.659004211426 186 186 186
26.562500000000 22.000000000000 64.599998474121 192 192 192
26.562500000000 22.000000000000 64.546005249023 189 189 189
26.562500000000 22.000000000000 64.495002746582 192 192 192
26.562500000000 22.000000000000 64.442001342773 191 191 191
26.562500000000 22.000000000000 64.388999938965 192 192 192
26.562500000000 22.000000000000 64.334999084473 192 192 192
26.562500000000 22.000000000000 64.286003112793 195 195 195
26.562500000000 22.000000000000 64.239997863770 194 194 194
26.562500000000 22.000000000000 64.186004638672 198 198 198
26.562500000000 22.000000000000 64.147003173828 199 199 199
26.562500000000 22.000000000000 64.094001770020 196 196 196
26.562500000000 22.000000000000 64.048004150391 196 196 196
26.562500000000 22.000000000000 64.001998901367 195 195 195
26.562500000000 22.000000000000 63.958000183105 192 192 192
26.562500000000 22.000000000000 63.915000915527 196 196 196
26.562500000000 22.000000000000 63.868000030518 192 192 192
26.562500000000 22.000000000000 63.825000762939 186 186 186
26.562500000000 22.000000000000 63.781002044678 189 189 189
26.625000000000 22.000000000000 63.743000030518 191 191 191
26.625000000000 22.000000000000 63.701000213623 191 191 191
26.625000000000 22.000000000000 63.662002563477 197 197 197
26.625000000000 22.000000000000 63.621997833252 193 193 193
26.625000000000 22.000000000000 63.578998565674 191 191 191
26.625000000000 22.000000000000 63.541999816895 193 193 193
26.625000000000 22.000000000000 63.503997802734 199 199 199
26.625000000000 22.000000000000 63.464000701904 200 200 200
26.625000000000 22.000000000000 63.429000854492 201 201 201
26.625000000000 22.000000000000 63.388000488281 194 194 194
26.625000000000 22.000000000000 63.348999023438 188 188 188
26.625000000000 21.875000000000 63.321998596191 210 210 210
26.625000000000 22.000000000000 63.277000427246 190 190 190
26.625000000000 21.875000000000 63.244003295898 194 194 194
26.625000000000 21.875000000000 63.208000183105 197 197 197
26.625000000000 21.875000000000 63.172000885010 196 196 196
26.625000000000 21.875000000000 63.137001037598 197 197 197
26.625000000000 21.875000000000 63.102001190186 195 195 195
26.625000000000 21.875000000000 63.067001342773 191 191 191
26.625000000000 21.875000000000 63.032001495361 193 193 193
26.625000000000 21.875000000000 62.999000549316 194 194 194
26.625000000000 21.875000000000 62.965999603271 197 197 197
26.625000000000 21.875000000000 62.933002471924 192 192 192
26.625000000000 21.875000000000 62.898002624512 193 193 193
26.625000000000 21.875000000000 62.864997863770 193 193 193
26.625000000000 21.875000000000 62.832000732422 194 194 194
26.625000000000 21.875000000000 62.798999786377 193 193 193
26.625000000000 21.875000000000 62.766002655029 193 193 193
26.625000000000 21.875000000000 62.731998443604 195 195 195
26.625000000000 21.875000000000 62.701000213623 191 191 191
26.625000000000 21.875000000000 62.668003082275 192 192 192
26.625000000000 21.875000000000 62.636001586914 192 192 192
26.625000000000 21.875000000000 62.603000640869 193 193 193
26.625000000000 21.875000000000 62.571998596191 190 190 190
26.625000000000 21.875000000000 62.541000366211 190 190 190
26.625000000000 21.875000000000 62.509002685547 188 188 188
26.625000000000 21.875000000000 62.477001190186 186 186 186
26.625000000000 21.875000000000 62.444999694824 188 188 188
26.625000000000 21.875000000000 62.413002014160 184 184 184
26.625000000000 21.875000000000 62.383003234863 186 186 186
26.625000000000 21.875000000000 62.350997924805 184 184 184
26.625000000000 21.875000000000 62.319000244141 186 186 186
26.625000000000 21.875000000000 62.288002014160 183 183 183
26.625000000000 21.875000000000 62.256999969482 187 187 187
26.625000000000 21.875000000000 62.224998474121 186 186 186
26.625000000000 21.875000000000 62.194000244141 182 182 182
26.625000000000 21.875000000000 62.163002014160 185 185 185
26.625000000000 21.875000000000 62.131999969482 190 190 190
26.625000000000 21.875000000000 62.099998474121 193 193 193
26.625000000000 21.875000000000 62.069000244141 187 187 187
26.625000000000 21.875000000000 62.038002014160 186 186 186
26.625000000000 21.875000000000 62.006999969482 188 188 188
26.625000000000 21.875000000000 61.974998474121 190 190 190
26.625000000000 21.875000000000 61.944000244141 189 189 189
26.625000000000 21.875000000000 61.912002563477 190 190 190
26.625000000000 21.875000000000 61.881000518799 190 190 190
26.625000000000 21.875000000000 61.848999023438 191 191 191
26.625000000000 21.875000000000 61.818000793457 189 189 189
26.625000000000 21.875000000000 61.784999847412 177 177 177
26.625000000000 21.875000000000 61.753997802734 166 166 166
26.625000000000 21.875000000000 61.721000671387 170 170 170
26.625000000000 21.875000000000 61.688999176025 187 187 187
26.625000000000 21.875000000000 61.657001495361 187 187 187
26.625000000000 21.875000000000 61.624000549316 184 184 184
26.625000000000 21.875000000000 61.591999053955 191 191 191
26.625000000000 21.875000000000 61.558002471924 188 188 188
26.625000000000 21.875000000000 61.526000976563 195 195 195
26.625000000000 21.875000000000 61.492000579834 190 190 190
26.625000000000 21.875000000000 61.458999633789 195 195 195
26.625000000000 21.875000000000 61.423999786377 186 186 186
26.625000000000 21.875000000000 61.392002105713 187 187 187
26.625000000000 21.875000000000 61.357997894287 189 189 189
26.625000000000 21.875000000000 61.323001861572 168 168 168
26.625000000000 21.875000000000 61.287002563477 168 168 168
26.625000000000 21.875000000000 61.255001068115 179 179 179
26.625000000000 21.875000000000 61.217998504639 183 183 183
26.625000000000 21.875000000000 61.182003021240 185 185 185
26.625000000000 21.875000000000 61.148002624512 189 189 189
26.625000000000 21.875000000000 61.112003326416 187 187 187
26.625000000000 21.875000000000 61.075000762939 177 177 177
26.625000000000 21.875000000000 61.037002563477 187 187 187
26.625000000000 21.875000000000 60.998001098633 177 177 177
26.625000000000 21.875000000000 60.964000701904 171 171 171
26.625000000000 21.875000000000 60.925003051758 182 182 182
26.625000000000 21.875000000000 60.881999969482 170 170 170
26.625000000000 21.875000000000 60.845001220703 163 163 163
26.625000000000 21.875000000000 60.805000305176 163 163 163
26.625000000000 21.875000000000 60.767002105713 167 167 167
26.625000000000 21.875000000000 60.724998474121 174 174 174
26.625000000000 21.875000000000 60.684001922607 166 166 166
26.625000000000 21.875000000000 60.642002105713 166 166 166
26.625000000000 21.875000000000 60.596000671387 170 170 170
26.625000000000 21.875000000000 60.554000854492 160 160 160
26.625000000000 21.875000000000 60.513999938965 160 160 160
26.625000000000 21.875000000000 60.473999023438 163 163 163
26.625000000000 21.875000000000 60.434001922607 164 164 164
26.625000000000 21.875000000000 60.388000488281 166 166 166
26.625000000000 21.875000000000 60.348999023438 162 162 162
26.625000000000 21.875000000000 60.304000854492 161 161 161
26.625000000000 22.000000000000 62.774002075195 69 69 69
26.625000000000 22.000000000000 62.809001922607 71 71 71
26.625000000000 22.000000000000 62.845001220703 78 78 78
26.625000000000 22.000000000000 62.883003234863 87 87 87
26.625000000000 22.000000000000 62.919002532959 91 91 91
26.625000000000 22.000000000000 62.958000183105 108 108 108
26.625000000000 22.000000000000 62.994003295898 104 104 104
26.625000000000 22.000000000000 63.031002044678 109 109 109
26.625000000000 22.000000000000 63.070999145508 116 116 116
26.625000000000 22.000000000000 63.106998443604 116 116 116
26.625000000000 22.000000000000 63.145000457764 122 122 122
26.625000000000 22.000000000000 63.186000823975 125 125 125
26.625000000000 22.000000000000 63.223999023438 127 127 127
26.625000000000 22.000000000000 63.263000488281 132 132 132
26.625000000000 22.000000000000 63.298000335693 135 135 135
26.625000000000 22.000000000000 63.343997955322 157 157 157
26.625000000000 22.000000000000 63.380001068115 158 158 158
26.625000000000 22.000000000000 63.419002532959 163 163 163
26.625000000000 22.000000000000 63.458999633789 160 160 160
26.625000000000 22.000000000000 63.501003265381 149 149 149
26.625000000000 22.000000000000 63.541000366211 149 149 149
26.625000000000 22.000000000000 63.582000732422 155 155 155
26.625000000000 22.000000000000 63.623001098633 155 155 155
26.625000000000 22.000000000000 63.661003112793 152 152 152
26.625000000000 22.000000000000 63.703998565674 151 151 151
26.625000000000 22.000000000000 63.751003265381 157 157 157
26.625000000000 22.000000000000 63.791999816895 165 165 165
26.625000000000 22.000000000000 63.832000732422 164 164 164
26.625000000000 22.000000000000 63.878997802734 167 167 167
26.625000000000 22.000000000000 63.916999816895 168 168 168
26.625000000000 22.000000000000 63.961997985840 171 171 171
26.625000000000 22.000000000000 64.005004882813 174 174 174
26.562500000000 22.000000000000 64.048004150391 176 176 176
26.625000000000 22.000000000000 64.097000122070 176 176 176
26.562500000000 22.000000000000 64.141998291016 177 177 177
26.562500000000 22.000000000000 64.184997558594 176 176 176
26.562500000000 22.000000000000 64.233001708984 177 177 177
26.562500000000 22.000000000000 64.283004760742 177 177 177
26.562500000000 22.000000000000 64.332000732422 179 179 179
26.562500000000 22.000000000000 64.378997802734 181 181 181
26.562500000000 22.000000000000 64.430999755859 179 179 179
26.562500000000 22.000000000000 64.481002807617 181 181 181
26.562500000000 22.000000000000 64.530998229980 180 180 180
26.500000000000 22.000000000000 64.578002929688 179 179 179
26.562500000000 22.000000000000 64.638999938965 181 181 181
26.562500000000 22.000000000000 64.691001892090 180 180 180
26.562500000000 22.000000000000 64.746002197266 181 181 181
26.500000000000 22.000000000000 64.800003051758 180 180 180
26.500000000000 22.000000000000 64.860000610352 178 178 178
26.500000000000 22.000000000000 64.916000366211 178 178 178
26.500000000000 22.000000000000 64.981002807617 171 171 171
26.500000000000 22.000000000000 65.041000366211 173 173 173
26.500000000000 22.000000000000 65.099998474121 174 174 174
26.500000000000 22.000000000000 65.161003112793 173 173 173
26.625000000000 21.875000000000 60.340999603271 154 154 154
26.625000000000 21.875000000000 60.388000488281 151 151 151
26.625000000000 21.875000000000 60.436000823975 153 153 153
26.625000000000 21.875000000000 60.485000610352 151 151 151
26.687500000000 22.000000000000 60.534000396729 151 151 151
26.687500000000 22.000000000000 60.582000732422 163 163 163
26.625000000000 21.875000000000 60.633003234863 169 169 169
26.625000000000 21.875000000000 60.686000823975 167 167 167
26.687500000000 22.000000000000 60.727001190186 167 167 167
26.625000000000 21.875000000000 60.780002593994 166 166 166
26.625000000000 21.875000000000 60.824001312256 162 162 162
26.625000000000 21.875000000000 60.873001098633 159 159 159
26.625000000000 21.875000000000 60.919002532959 172 172 172
26.625000000000 21.875000000000 60.968997955322 172 172 172
26.625000000000 21.875000000000 61.011001586914 175 175 175
26.625000000000 21.875000000000 61.057003021240 176 176 176
26.625000000000 21.875000000000 61.099998474121 174 174 174
26.625000000000 21.875000000000 61.145999908447 174 174 174
26.625000000000 21.875000000000 61.187999725342 176 176 176
26.625000000000 21.875000000000 61.230003356934 176 176 176
26.625000000000 21.875000000000 61.269001007080 173 173 173
26.625000000000 21.875000000000 61.308002471924 166 166 166
26.625000000000 21.875000000000 61.353000640869 177 177 177
26.625000000000 21.875000000000 61.394001007080 176 176 176
26.625000000000 21.875000000000 61.434001922607 176 176 176
26.625000000000 21.875000000000 61.473999023438 179 179 179
26.625000000000 21.875000000000 61.513999938965 179 179 179
26.625000000000 21.875000000000 61.554000854492 180 180 180
26.625000000000 21.875000000000 61.592998504639 177 177 177
26.625000000000 21.875000000000 61.631999969482 174 174 174
26.625000000000 21.875000000000 61.670001983643 177 177 177
26.625000000000 21.875000000000 61.708000183105 173 173 173
26.625000000000 21.875000000000 61.746002197266 172 172 172
26.625000000000 21.875000000000 61.784999847412 176 176 176
26.625000000000 21.875000000000 61.823001861572 177 177 177
26.625000000000 21.875000000000 61.860000610352 177 177 177
26.625000000000 21.875000000000 61.895999908447 176 176 176
26.625000000000 21.875000000000 61.935001373291 178 178 178
26.625000000000 21.875000000000 61.972999572754 177 177 177
26.625000000000 21.875000000000 62.009002685547 177 177 177
26.625000000000 21.875000000000 62.047000885010 176 176 176
26.625000000000 21.875000000000 62.083999633789 177 177 177
26.625000000000 21.875000000000 62.119003295898 163 163 163
26.625000000000 21.875000000000 62.157001495361 176 176 176
26.625000000000 21.875000000000 62.194000244141 175 175 175
26.625000000000 21.875000000000 62.230003356934 177 177 177
26.625000000000 21.875000000000 62.266002655029 175 175 175
26.625000000000 21.875000000000 62.303001403809 172 172 172
26.625000000000 21.875000000000 62.339000701904 174 174 174
26.625000000000 21.875000000000 62.376003265381 174 174 174
26.625000000000 21.875000000000 62.412002563477 174 174 174
26.625000000000 21.875000000000 62.448001861572 175 175 175
26.625000000000 21.875000000000 62.484001159668 175 175 175
26.625000000000 21.875000000000 62.520999908447 176 176 176
26.625000000000 21.875000000000 62.557003021240 178 178 178
26.625000000000 21.875000000000 62.592998504639 178 178 178
26.625000000000 21.875000000000 62.630001068115 178 178 178
26.625000000000 21.875000000000 62.666999816895 178 178 178
26.625000000000 21.875000000000 62.702999114990 177 177 177
26.625000000000 21.875000000000 62.738998413086 177 177 177
26.625000000000 21.875000000000 62.776000976563 178 178 178
26.625000000000 21.875000000000 62.812000274658 177 177 177
26.625000000000 21.875000000000 62.848999023438 178 178 178
26.625000000000 21.875000000000 62.885002136230 177 177 177
26.625000000000 21.875000000000 62.923000335693 178 178 178
26.625000000000 21.875000000000 62.959999084473 176 176 176
26.625000000000 21.875000000000 62.999000549316 177 177 177
26.625000000000 21.875000000000 63.034000396729 176 176 176
26.625000000000 21.875000000000 63.071998596191 176 176 176
26.625000000000 21.875000000000 63.109001159668 177 177 177
26.625000000000 21.875000000000 63.148002624512 177 177 177
26.625000000000 21.875000000000 63.187000274658 177 177 177
26.625000000000 21.875000000000 63.223999023438 176 176 176
26.625000000000 21.875000000000 63.262001037598 176 176 176
26.625000000000 21.875000000000 63.303001403809 174 174 174
26.625000000000 21.875000000000 63.341999053955 177 177 177
26.625000000000 21.875000000000 63.381000518799 176 176 176
26.625000000000 21.875000000000 63.419002532959 177 177 177
26.625000000000 21.875000000000 63.460998535156 179 179 179
26.625000000000 21.875000000000 63.500000000000 177 177 177
26.625000000000 21.875000000000 63.540000915527 174 174 174
26.562500000000 21.875000000000 63.576999664307 175 175 175
26.562500000000 21.875000000000 63.621002197266 176 176 176
26.562500000000 21.875000000000 63.661003112793 175 175 175
26.562500000000 21.875000000000 63.704998016357 176 176 176
26.562500000000 21.875000000000 63.748001098633 174 174 174
26.625000000000 21.875000000000 63.791999816895 173 173 173
26.562500000000 21.875000000000 63.829998016357 178 178 178
26.562500000000 21.875000000000 63.875000000000 179 179 179
26.562500000000 21.875000000000 63.918003082275 180 180 180
26.562500000000 21.875000000000 63.966999053955 177 177 177
26.562500000000 21.875000000000 64.008003234863 179 179 179
26.562500000000 21.875000000000 64.048004150391 178 178 178
26.562500000000 21.875000000000 64.096000671387 176 176 176
26.562500000000 21.875000000000 64.145004272461 178 178 178
26.562500000000 21.875000000000 64.193000793457 176 176 176
26.562500000000 21.875000000000 64.242996215820 177 177 177
26.562500000000 21.875000000000 64.289001464844 176 176 176
26.562500000000 21.875000000000 64.339996337891 176 176 176
26.562500000000 21.875000000000 64.388000488281 176 176 176
26.562500000000 21.875000000000 64.440002441406 175 175 175
26.562500000000 21.875000000000 64.491004943848 176 176 176
26.562500000000 21.875000000000 64.541999816895 178 178 178
26.562500000000 21.875000000000 64.585998535156 175 175 175
26.562500000000 21.875000000000 64.640998840332 179 179 179
26.562500000000 21.875000000000 64.705001831055 175 175 175
26.562500000000 21.875000000000 64.759002685547 174 174 174
26.562500000000 21.875000000000 64.816001892090 172 172 172
26.562500000000 21.875000000000 64.876998901367 172 172 172
26.562500000000 21.875000000000 64.930000305176 171 171 171
26.562500000000 21.875000000000 65.000000000000 164 164 164
26.562500000000 21.875000000000 65.062004089355 164 164 164
26.562500000000 21.875000000000 65.121002197266 166 166 166
26.562500000000 21.875000000000 65.181999206543 164 164 164
26.750000000000 21.875000000000 60.352001190186 162 162 162
26.750000000000 21.875000000000 60.405002593994 163 163 163
26.687500000000 21.875000000000 60.471000671387 153 153 153
26.687500000000 21.875000000000 60.520000457764 142 142 142
26.687500000000 21.875000000000 60.574001312256 134 134 134
26.687500000000 21.875000000000 60.614997863770 148 148 148
26.687500000000 21.875000000000 60.663002014160 148 148 148
26.750000000000 21.875000000000 60.703998565674 159 159 159
26.750000000000 21.875000000000 60.752002716064 157 157 157
26.687500000000 21.875000000000 60.800003051758 175 175 175
26.687500000000 21.875000000000 60.849998474121 118 118 118
26.750000000000 21.875000000000 60.890003204346 178 178 178
26.687500000000 21.875000000000 60.954998016357 97 97 97
26.687500000000 21.875000000000 60.993000030518 158 158 158
26.687500000000 21.875000000000 61.038002014160 165 165 165
26.687500000000 21.875000000000 61.086997985840 168 168 168
26.750000000000 21.875000000000 61.113002777100 162 162 162
26.750000000000 21.875000000000 61.133003234863 176 176 176
26.750000000000 21.875000000000 61.180000305176 168 168 168
26.625000000000 21.875000000000 61.260002136230 85 85 85
26.687500000000 21.875000000000 61.293003082275 91 91 91
26.687500000000 21.875000000000 61.334999084473 91 91 91
26.687500000000 21.875000000000 61.370002746582 74 74 74
26.687500000000 21.875000000000 61.414001464844 54 54 54
26.687500000000 21.875000000000 61.458000183105 70 70 70
26.875000000000 22.000000000000 61.730998992920 53 53 53
26.875000000000 22.000000000000 61.775001525879 81 81 81
26.875000000000 22.000000000000 61.811000823975 100 100 100
26.875000000000 22.000000000000 61.855003356934 96 96 96
26.875000000000 22.000000000000 61.895999908447 98 98 98
26.875000000000 22.000000000000 61.932003021240 126 126 126
26.875000000000 22.000000000000 61.974998474121 118 118 118
26.875000000000 22.000000000000 62.013999938965 121 121 121
26.875000000000 22.000000000000 62.055000305176 128 128 128
26.875000000000 22.000000000000 62.096000671387 125 125 125
26.687500000000 21.875000000000 62.152000427246 171 171 171
26.687500000000 21.875000000000 62.191001892090 169 169 169
26.687500000000 21.875000000000 62.227001190186 170 170 170
26.687500000000 21.875000000000 62.265003204346 171 171 171
26.875000000000 22.000000000000 62.296001434326 156 156 156
26.875000000000 22.000000000000 62.334999084473 165 165 165
26.875000000000 22.000000000000 62.376003265381 171 171 171
26.875000000000 22.000000000000 62.415000915527 175 175 175
26.875000000000 22.000000000000 62.454998016357 175 175 175
26.875000000000 22.000000000000 62.495002746582 173 173 173
26.875000000000 22.000000000000 62.534999847412 172 172 172
26.875000000000 22.000000000000 62.575000762939 172 172 172
26.875000000000 22.000000000000 62.614997863770 173 173 173
26.875000000000 22.000000000000 62.655002593994 171 171 171
26.875000000000 22.000000000000 62.694000244141 178 178 178
26.875000000000 22.000000000000 62.735000610352 173 173 173
26.875000000000 22.000000000000 62.775001525879 174 174 174
26.875000000000 22.000000000000 62.815002441406 175 175 175
26.875000000000 22.000000000000 62.855003356934 177 177 177
26.875000000000 22.000000000000 62.895000457764 177 177 177
26.875000000000 22.000000000000 62.936000823975 177 177 177
26.875000000000 22.000000000000 62.975997924805 177 177 177
26.875000000000 22.000000000000 63.016002655029 178 178 178
26.875000000000 22.000000000000 63.058002471924 179 179 179
26.875000000000 22.000000000000 63.097999572754 179 179 179
26.875000000000 22.000000000000 63.141002655029 178 178 178
26.875000000000 22.000000000000 63.182003021240 179 179 179
26.875000000000 22.000000000000 63.221000671387 178 178 178
26.875000000000 22.000000000000 63.265003204346 178 178 178
26.875000000000 22.000000000000 63.309001922607 176 176 176
26.875000000000 22.000000000000 63.347000122070 172 172 172
26.687500000000 21.875000000000 63.340999603271 165 165 165
26.687500000000 21.875000000000 63.380001068115 165 165 165
26.687500000000 21.875000000000 63.427001953125 166 166 166
26.750000000000 22.000000000000 63.472999572754 175 175 175
26.875000000000 22.000000000000 63.563999176025 178 178 178
26.875000000000 22.000000000000 63.609001159668 182 182 182
26.812500000000 22.000000000000 63.652000427246 182 182 182
26.812500000000 22.000000000000 63.695999145508 182 182 182
26.812500000000 22.000000000000 63.737003326416 181 181 181
26.812500000000 22.000000000000 63.784000396729 182 182 182
26.812500000000 22.000000000000 63.827999114990 183 183 183
26.812500000000 22.000000000000 63.874000549316 182 182 182
26.812500000000 22.000000000000 63.921001434326 182 182 182
26.812500000000 22.000000000000 63.961997985840 183 183 183
26.812500000000 22.000000000000 64.012001037598 182 182 182
26.750000000000 22.000000000000 64.058998107910 183 183 183
26.750000000000 22.000000000000 64.106002807617 183 183 183
26.750000000000 22.000000000000 64.155998229980 181 181 181
26.750000000000 22.000000000000 64.202003479004 183 183 183
26.750000000000 22.000000000000 64.250999450684 183 183 183
26.750000000000 22.000000000000 64.301002502441 183 183 183
26.750000000000 22.000000000000 64.349998474121 183 183 183
26.750000000000 22.000000000000 64.402000427246 181 181 181
26.750000000000 22.000000000000 64.450996398926 181 181 181
26.750000000000 22.000000000000 64.508003234863 178 178 178
26.750000000000 22.000000000000 64.556999206543 178 178 178
26.750000000000 22.000000000000 64.587997436523 177 177 177
26.687500000000 21.875000000000 64.592002868652 167 167 167
26.687500000000 21.875000000000 64.653999328613 153 153 153
26.750000000000 22.000000000000 64.749000549316 171 171 171
26.750000000000 22.000000000000 64.829002380371 182 182 182
26.750000000000 21.875000000000 64.887001037598 184 184 184
26.750000000000 22.000000000000 64.949996948242 184 184 184
26.750000000000 21.875000000000 65.008003234863 184 184 184
26.750000000000 22.000000000000 65.065002441406 184 184 184
26.750000000000 22.000000000000 65.122001647949 183 183 183
26.937500000000 22.000000000000 60.400001525879 156 156 156
26.937500000000 22.000000000000 60.448001861572 166 166 166
26.937500000000 22.000000000000 60.502002716064 138 138 138
26.937500000000 22.000000000000 60.550003051758 127 127 127
26.937500000000 22.000000000000 60.602001190186 155 155 155
26.937500000000 22.000000000000 60.648002624512 155 155 155
26.937500000000 22.000000000000 60.700000762939 171 171 171
26.937500000000 22.000000000000 60.750000000000 168 168 168
26.937500000000 22.000000000000 60.801002502441 171 171 171
26.937500000000 22.000000000000 60.849998474121 170 170 170
26.937500000000 22.000000000000 60.899002075195 175 175 175
26.875000000000 21.875000000000 61.000000000000 139 139 139
26.875000000000 21.875000000000 61.054000854492 141 141 141
26.875000000000 21.875000000000 61.102001190186 162 162 162
26.937500000000 22.000000000000 61.091999053955 179 179 179
26.937500000000 22.000000000000 61.140003204346 182 182 182
26.937500000000 22.000000000000 61.183002471924 175 175 175
26.937500000000 22.000000000000 61.230003356934 177 177 177
26.937500000000 22.000000000000 61.277999877930 178 178 178
26.937500000000 22.000000000000 61.325000762939 181 181 181
26.937500000000 22.000000000000 61.369003295898 182 182 182
26.937500000000 22.000000000000 61.411003112793 176 176 176
26.937500000000 22.000000000000 61.457000732422 176 176 176
26.937500000000 22.000000000000 61.501003265381 178 178 178
26.937500000000 22.000000000000 61.543003082275 170 170 170
26.937500000000 22.000000000000 61.585998535156 176 176 176
26.937500000000 22.000000000000 61.631000518799 174 174 174
26.937500000000 22.000000000000 61.673999786377 176 176 176
26.937500000000 22.000000000000 61.718997955322 182 182 182
26.937500000000 22.000000000000 61.760002136230 180 180 180
26.937500000000 22.000000000000 61.803001403809 178 178 178
26.937500000000 22.000000000000 61.845001220703 179 179 179
26.937500000000 22.000000000000 61.887001037598 177 177 177
26.937500000000 22.000000000000 61.928001403809 182 182 182
26.937500000000 22.000000000000 61.970001220703 175 175 175
26.875000000000 22.000000000000 62.013000488281 169 169 169
26.875000000000 22.000000000000 62.053001403809 173 173 173
26.875000000000 22.000000000000 62.095001220703 180 180 180
26.875000000000 21.875000000000 62.140003204346 168 168 168
26.875000000000 21.875000000000 62.180000305176 170 170 170
26.875000000000 22.000000000000 62.218997955322 168 168 168
26.875000000000 21.875000000000 62.259002685547 165 165 165
26.875000000000 22.000000000000 62.297000885010 179 179 179
26.875000000000 22.000000000000 62.338001251221 175 175 175
26.875000000000 22.000000000000 62.378002166748 177 177 177
26.875000000000 22.000000000000 62.418003082275 177 177 177
26.875000000000 22.000000000000 62.458000183105 175 175 175
26.875000000000 22.000000000000 62.498001098633 175 175 175
26.875000000000 22.000000000000 62.538002014160 174 174 174
26.875000000000 22.000000000000 62.577999114990 176 176 176
26.875000000000 22.000000000000 62.617000579834 174 174 174
26.875000000000 22.000000000000 62.657001495361 172 172 172
26.875000000000 22.000000000000 62.695999145508 174 174 174
26.875000000000 21.875000000000 62.736000061035 174 174 174
26.875000000000 21.875000000000 62.775001525879 175 175 175
26.875000000000 21.875000000000 62.816001892090 171 171 171
26.875000000000 22.000000000000 62.857997894287 169 169 169
26.875000000000 22.000000000000 62.899002075195 160 160 160
26.875000000000 22.000000000000 62.938999176025 155 155 155
26.875000000000 22.000000000000 62.980003356934 160 160 160
26.875000000000 22.000000000000 63.024002075195 157 157 157
26.875000000000 22.000000000000 63.062999725342 155 155 155
26.875000000000 22.000000000000 63.103000640869 156 156 156
26.875000000000 22.000000000000 63.142002105713 149 149 149
26.875000000000 22.000000000000 63.186000823975 150 150 150
26.875000000000 22.000000000000 63.227001190186 152 152 152
26.875000000000 22.000000000000 63.269001007080 156 156 156
26.875000000000 22.000000000000 63.310001373291 153 153 153
26.875000000000 21.875000000000 63.348999023438 160 160 160
26.875000000000 21.875000000000 63.393001556396 153 153 153
26.875000000000 21.875000000000 63.436000823975 161 161 161
26.875000000000 21.875000000000 63.480003356934 141 141 141
26.875000000000 22.000000000000 63.525001525879 127 127 127
26.875000000000 22.000000000000 63.569000244141 132 132 132
26.812500000000 21.875000000000 63.610000610352 127 127 127
26.875000000000 22.000000000000 63.659999847412 123 123 123
26.875000000000 21.875000000000 63.701000213623 125 125 125
26.812500000000 21.875000000000 63.746997833252 116 116 116
26.812500000000 21.875000000000 63.791999816895 105 105 105
26.812500000000 21.875000000000 63.834999084473 85 85 85
26.812500000000 21.875000000000 63.881000518799 67 67 67
26.812500000000 21.875000000000 63.923999786377 60 60 60
26.937500000000 21.875000000000 60.397003173828 168 168 168
26.937500000000 21.875000000000 60.448001861572 159 159 159
26.937500000000 21.875000000000 60.506999969482 159 159 159
26.937500000000 21.875000000000 60.555999755859 149 149 149
26.937500000000 21.875000000000 60.605998992920 135 135 135
26.937500000000 21.875000000000 60.652000427246 151 151 151
26.937500000000 21.875000000000 60.702999114990 157 157 157
26.937500000000 21.875000000000 60.748001098633 155 155 155
26.937500000000 21.875000000000 60.796001434326 168 168 168
26.937500000000 21.875000000000 60.840000152588 179 179 179
26.937500000000 21.875000000000 60.888000488281 179 179 179
26.937500000000 21.875000000000 60.940002441406 140 140 140
26.937500000000 21.875000000000 61.001003265381 125 125 125
26.937500000000 21.875000000000 61.041999816895 130 130 130
26.937500000000 21.875000000000 61.105998992920 89 89 89
26.812500000000 22.000000000000 63.930000305176 54 54 54
26.812500000000 22.000000000000 63.888000488281 80 80 80
26.812500000000 22.000000000000 63.834999084473 92 92 92
26.812500000000 22.000000000000 63.790000915527 116 116 116
26.812500000000 22.000000000000 63.752002716064 101 101 101
26.812500000000 22.000000000000 63.704998016357 102 102 102
26.812500000000 22.000000000000 63.661003112793 126 126 126
26.812500000000 22.000000000000 63.617000579834 132 132 132
26.812500000000 22.000000000000 63.574001312256 131 131 131
26.812500000000 22.000000000000 63.527999877930 137 137 137
26.812500000000 22.000000000000 63.487003326416 138 138 138
26.812500000000 22.000000000000 63.438999176025 171 171 171
26.812500000000 22.000000000000 63.397003173828 160 160 160
26.812500000000 22.000000000000 63.354000091553 172 172 172
26.812500000000 22.000000000000 63.318000793457 163 163 163
26.812500000000 22.000000000000 63.276000976563 159 159 159
26.812500000000 22.000000000000 63.234001159668 160 160 160
26.812500000000 22.000000000000 63.194000244141 160 160 160
26.812500000000 22.000000000000 63.152999877930 161 161 161
26.812500000000 22.000000000000 63.113002777100 161 161 161
26.812500000000 22.000000000000 63.070999145508 159 159 159
26.812500000000 22.000000000000 63.031002044678 168 168 168
26.812500000000 22.000000000000 62.992000579834 165 165 165
26.812500000000 22.000000000000 62.951000213623 168 168 168
26.875000000000 22.000000000000 62.914001464844 166 166 166
26.875000000000 22.000000000000 62.874000549316 164 164 164
26.875000000000 22.000000000000 62.834999084473 166 166 166
26.875000000000 22.000000000000 62.797000885010 173 173 173
26.875000000000 22.000000000000 62.759002685547 176 176 176
26.875000000000 22.000000000000 62.720001220703 177 177 177
26.875000000000 22.000000000000 62.680000305176 173 173 173
26.875000000000 22.000000000000 62.641002655029 175 175 175
26.875000000000 22.000000000000 62.602001190186 174 174 174
26.875000000000 22.000000000000 62.562999725342 174 174 174
26.875000000000 22.000000000000 62.524002075195 179 179 179
26.875000000000 22.000000000000 62.485000610352 180 180 180
26.875000000000 22.000000000000 62.445999145508 182 182 182
26.875000000000 22.000000000000 62.406002044678 178 178 178
26.875000000000 22.000000000000 62.367000579834 179 179 179
26.875000000000 22.000000000000 62.327999114990 184 184 184
26.875000000000 22.000000000000 62.289001464844 180 180 180
26.812500000000 22.000000000000 62.252002716064 160 160 160
26.812500000000 22.000000000000 62.214000701904 162 162 162
26.812500000000 22.000000000000 62.175003051758 165 165 165
26.812500000000 22.000000000000 62.137001037598 161 161 161
26.875000000000 22.000000000000 62.089000701904 181 181 181
26.875000000000 22.000000000000 62.050003051758 179 179 179
26.875000000000 22.000000000000 62.009002685547 167 167 167
26.937500000000 22.000000000000 61.967998504639 167 167 167
26.875000000000 22.000000000000 61.929000854492 180 180 180
26.937500000000 22.000000000000 61.888000488281 181 181 181
26.937500000000 22.000000000000 61.846000671387 178 178 178
26.937500000000 22.000000000000 61.804000854492 175 175 175
26.937500000000 22.000000000000 61.763999938965 182 182 182
26.937500000000 22.000000000000 61.722000122070 187 187 187
26.937500000000 22.000000000000 61.680000305176 178 178 178
26.937500000000 22.000000000000 61.638000488281 175 175 175
26.937500000000 22.000000000000 61.595001220703 178 178 178
26.937500000000 22.000000000000 61.553001403809 175 175 175
26.937500000000 22.000000000000 61.511001586914 171 171 171
26.937500000000 22.000000000000 61.465000152588 167 167 167
26.937500000000 22.000000000000 61.423999786377 173 173 173
26.937500000000 22.000000000000 61.381000518799 178 178 178
26.937500000000 22.000000000000 61.336997985840 183 183 183
26.937500000000 22.000000000000 61.295001983643 183 183 183
26.937500000000 22.000000000000 61.246997833252 182 182 182
26.937500000000 22.000000000000 61.202999114990 178 178 178
26.937500000000 22.000000000000 61.156002044678 179 179 179
26.937500000000 22.000000000000 61.113002777100 179 179 179
26.875000000000 22.000000000000 61.111000061035 164 164 164
26.812500000000 22.000000000000 61.074001312256 155 155 155
26.875000000000 22.000000000000 61.022003173828 162 162 162
26.937500000000 22.000000000000 60.943000793457 154 154 154
27.000000000000 22.000000000000 60.875000000000 168 168 168
27.000000000000 22.000000000000 60.826999664307 168 168 168
27.000000000000 22.000000000000 60.777999877930 172 172 172
27.000000000000 22.000000000000 60.724998474121 166 166 166
27.000000000000 22.000000000000 60.673999786377 168 168 168
27.000000000000 22.000000000000 60.625000000000 162 162 162
27.000000000000 22.000000000000 60.574001312256 154 154 154
27.000000000000 22.000000000000 60.523002624512 150 150 150
27.000000000000 22.000000000000 60.470001220703 162 162 162
27.000000000000 22.000000000000 60.423999786377 180 180 180
26.687500000000 22.000000000000 65.176002502441 175 175 175
26.687500000000 22.000000000000 65.116004943848 176 176 176
26.750000000000 22.000000000000 65.056999206543 177 177 177
26.750000000000 22.000000000000 64.999000549316 179 179 179
26.750000000000 22.000000000000 64.944000244141 182 182 182
26.750000000000 22.000000000000 64.882003784180 180 180 180
26.750000000000 22.000000000000 64.831001281738 186 186 186
26.750000000000 22.000000000000 64.759002685547 183 183 183
26.687500000000 22.000000000000 64.652000427246 158 158 158
26.687500000000 22.000000000000 64.590995788574 159 159 159
26.687500000000 22.000000000000 64.578002929688 174 174 174
26.750000000000 22.000000000000 64.557998657227 178 178 178
26.750000000000 22.000000000000 64.508003234863 183 183 183
26.750000000000 22.000000000000 64.457000732422 186 186 186
26.750000000000 22.000000000000 64.408004760742 188 188 188
26.750000000000 22.000000000000 64.357002258301 190 190 190
26.750000000000 22.000000000000 64.305000305176 191 191 191
26.812500000000 22.000000000000 64.262001037598 194 194 194
26.812500000000 22.000000000000 64.210998535156 192 192 192
26.812500000000 22.000000000000 64.162002563477 192 192 192
26.812500000000 22.000000000000 64.117996215820 193 193 193
26.812500000000 22.000000000000 64.069999694824 190 190 190
26.812500000000 22.000000000000 64.023002624512 191 191 191
26.812500000000 22.000000000000 63.974998474121 193 193 193
26.812500000000 22.000000000000 63.928001403809 187 187 187
26.812500000000 22.000000000000 63.885002136230 192 192 192
26.812500000000 22.000000000000 63.840000152588 191 191 191
26.812500000000 22.000000000000 63.796001434326 192 192 192
26.812500000000 22.000000000000 63.750000000000 190 190 190
26.812500000000 22.000000000000 63.706001281738 192 192 192
26.812500000000 22.000000000000 63.664001464844 180 180 180
26.812500000000 22.000000000000 63.619003295898 186 186 186
26.812500000000 22.000000000000 63.574001312256 185 185 185
26.750000000000 22.000000000000 63.503002166748 182 182 182
26.687500000000 22.000000000000 63.429000854492 160 160 160
26.687500000000 22.000000000000 63.390003204346 163 163 163
26.687500000000 22.000000000000 63.347000122070 164 164 164
26.750000000000 22.000000000000 63.341999053955 174 174 174
26.812500000000 22.000000000000 63.320999145508 173 173 173
26.812500000000 22.000000000000 63.281002044678 173 173 173
26.812500000000 22.000000000000 63.239997863770 174 174 174
26.875000000000 22.000000000000 63.200000762939 174 174 174
26.812500000000 22.000000000000 63.157001495361 177 177 177
26.812500000000 22.000000000000 63.117000579834 173 173 173
26.875000000000 22.000000000000 63.077999114990 172 172 172
26.875000000000 22.000000000000 63.037002563477 172 172 172
26.812500000000 22.000000000000 62.996002197266 166 166 166
26.812500000000 22.000000000000 62.956001281738 165 165 165
26.875000000000 22.000000000000 62.918003082275 167 167 167
26.812500000000 22.000000000000 62.876003265381 166 166 166
26.875000000000 22.000000000000 62.838001251221 167 167 167
26.875000000000 22.000000000000 62.798999786377 168 168 168
26.812500000000 22.000000000000 62.758003234863 167 167 167
26.812500000000 22.000000000000 62.718997955322 174 174 174
26.812500000000 22.000000000000 62.680000305176 177 177 177
26.875000000000 22.000000000000 62.642002105713 161 161 161
26.875000000000 22.000000000000 62.602001190186 156 156 156
26.875000000000 22.000000000000 62.563999176025 148 148 148
26.875000000000 22.000000000000 62.525001525879 142 142 142
26.875000000000 22.000000000000 62.486000061035 139 139 139
26.875000000000 22.000000000000 62.446998596191 145 145 145
26.812500000000 22.000000000000 62.408000946045 130 130 130
26.875000000000 22.000000000000 62.370002746582 134 134 134
26.812500000000 22.000000000000 62.331001281738 129 129 129
26.875000000000 22.000000000000 62.293003082275 136 136 136
26.687500000000 22.000000000000 62.260002136230 163 163 163
26.625000000000 22.000000000000 62.223999023438 165 165 165
26.687500000000 22.000000000000 62.187000274658 167 167 167
26.687500000000 22.000000000000 62.151000976563 166 166 166
26.750000000000 22.000000000000 62.105998992920 146 146 146
26.812500000000 22.000000000000 62.062999725342 119 119 119
26.812500000000 22.000000000000 62.024002075195 108 108 108
26.750000000000 22.000000000000 61.988998413086 83 83 83
26.750000000000 22.000000000000 61.953998565674 72 72 72
26.687500000000 22.000000000000 61.888999938965 47 47 47
26.687500000000 22.000000000000 61.855003356934 50 50 50
26.687500000000 22.000000000000 61.819999694824 74 74 74
26.687500000000 22.000000000000 61.781002044678 73 73 73
26.687500000000 22.000000000000 61.741001129150 73 73 73
26.687500000000 22.000000000000 61.704998016357 85 85 85
26.687500000000 22.000000000000 61.661003112793 109 109 109
26.687500000000 22.000000000000 61.631000518799 95 95 95
26.687500000000 22.000000000000 61.590000152588 95 95 95
26.687500000000 22.000000000000 61.553001403809 109 109 109
26.687500000000 22.000000000000 61.513000488281 108 108 108
26.687500000000 22.000000000000 61.474998474121 107 107 107
26.687500000000 22.000000000000 61.435001373291 106 106 106
26.687500000000 22.000000000000 61.395000457764 113 113 113
26.687500000000 22.000000000000 61.353000640869 113 113 113
26.687500000000 22.000000000000 61.313999176025 121 121 121
26.687500000000 22.000000000000 61.273002624512 126 126 126
26.687500000000 22.000000000000 61.228000640869 131 131 131
26.687500000000 22.000000000000 61.177001953125 147 147 147
26.687500000000 22.000000000000 61.138000488281 145 145 145
26.687500000000 22.000000000000 61.110000610352 155 155 155
26.687500000000 22.000000000000 61.067001342773 152 152 152
26.687500000000 22.000000000000 61.024002075195 156 156 156
26.687500000000 22.000000000000 60.980998992920 147 147 147
26.687500000000 22.000000000000 60.928001403809 141 141 141
26.687500000000 22.000000000000 60.883003234863 151 151 151
26.687500000000 22.000000000000 60.833999633789 156 156 156
26.687500000000 22.000000000000 60.796001434326 150 150 150
26.687500000000 22.000000000000 60.749000549316 140 140 140
26.687500000000 22.000000000000 60.691001892090 147 147 147
26.687500000000 22.000000000000 60.652000427246 145 145 145
26.687500000000 22.000000000000 60.596000671387 150 150 150
26.750000000000 22.000000000000 60.533000946045 158 158 158
26.750000000000 22.000000000000 60.486000061035 143 143 143
26.687500000000 22.000000000000 60.451000213623 136 136 136
26.750000000000 22.000000000000 60.366001129150 181 181 181
26.562500000000 22.000000000000 65.117004394531 161 161 161
26.562500000000 22.000000000000 65.055000305176 161 161 161
26.562500000000 22.000000000000 64.992996215820 161 161 161
26.562500000000 22.000000000000 64.933998107910 165 165 165
26.562500000000 22.000000000000 64.875000000000 173 173 173
26.562500000000 22.000000000000 64.819000244141 174 174 174
26.562500000000 22.000000000000 64.761001586914 174 174 174
26.562500000000 22.000000000000 64.705001831055 177 177 177
26.562500000000 22.000000000000 64.648002624512 181 181 181
26.562500000000 22.000000000000 64.592002868652 179 179 179
26.562500000000 22.000000000000 64.542999267578 183 183 183
26.562500000000 22.000000000000 64.492996215820 184 184 184
26.562500000000 22.000000000000 64.444999694824 183 183 183
26.562500000000 22.000000000000 64.390998840332 183 183 183
26.562500000000 22.000000000000 64.338996887207 184 184 184
26.562500000000 22.000000000000 64.290000915527 184 184 184
26.562500000000 22.000000000000 64.245002746582 186 186 186
26.562500000000 22.000000000000 64.196998596191 186 186 186
26.562500000000 22.000000000000 64.152999877930 192 192 192
26.562500000000 22.000000000000 64.100997924805 188 188 188
26.625000000000 22.000000000000 64.061004638672 191 191 191
26.562500000000 22.000000000000 64.002998352051 136 136 136
26.562500000000 22.000000000000 63.968997955322 190 190 190
26.562500000000 22.000000000000 63.916999816895 147 147 147
26.562500000000 22.000000000000 63.877002716064 175 175 175
26.562500000000 22.000000000000 63.832000732422 157 157 157
26.562500000000 22.000000000000 63.784999847412 169 169 169
26.625000000000 22.000000000000 63.752002716064 167 167 167
26.500000000000 22.125000000000 63.656002044678 49 49 49
26.562500000000 22.000000000000 63.663002014160 166 166 166
26.562500000000 22.000000000000 63.623001098633 168 168 168
26.562500000000 22.000000000000 63.577999114990 160 160 160
26.562500000000 22.000000000000 63.537002563477 168 168 168
26.625000000000 22.000000000000 63.503997802734 172 172 172
26.625000000000 22.000000000000 63.465000152588 154 154 154
26.750000000000 22.000000000000 63.480003356934 253 253 253
26.625000000000 22.000000000000 63.388000488281 134 134 134
26.625000000000 22.000000000000 63.353000640869 194 194 194
26.625000000000 22.000000000000 63.319999694824 201 201 201
26.625000000000 22.000000000000 63.277000427246 189 189 189
26.625000000000 22.000000000000 63.241001129150 184 184 184
26.625000000000 22.000000000000 63.201000213623 187 187 187
26.625000000000 22.000000000000 63.166000366211 184 184 184
26.562500000000 22.000000000000 63.126003265381 185 185 185
26.625000000000 22.000000000000 63.090000152588 185 185 185
26.625000000000 22.000000000000 63.055000305176 189 189 189
26.625000000000 22.000000000000 63.016002655029 184 184 184
26.625000000000 22.000000000000 62.979000091553 185 185 185
26.625000000000 22.000000000000 62.944000244141 188 188 188
26.625000000000 22.000000000000 62.908000946045 186 186 186
26.625000000000 22.000000000000 62.870002746582 183 183 183
26.625000000000 22.000000000000 62.833999633789 185 185 185
26.625000000000 22.000000000000 62.798000335693 186 186 186
26.625000000000 22.000000000000 62.762001037598 184 184 184
26.625000000000 21.875000000000 62.727001190186 185 185 185
26.625000000000 21.875000000000 62.691001892090 183 183 183
26.625000000000 22.000000000000 62.655002593994 179 179 179
26.625000000000 21.875000000000 62.620002746582 179 179 179
26.625000000000 21.875000000000 62.583999633789 182 182 182
26.625000000000 22.000000000000 62.548000335693 181 181 181
26.625000000000 21.875000000000 62.513000488281 183 183 183
26.625000000000 21.875000000000 62.477001190186 179 179 179
26.625000000000 21.875000000000 62.442001342773 177 177 177
26.625000000000 21.875000000000 62.406002044678 181 181 181
26.625000000000 21.875000000000 62.371002197266 178 178 178
26.625000000000 21.875000000000 62.334999084473 179 179 179
26.625000000000 21.875000000000 62.300003051758 174 174 174
26.625000000000 21.875000000000 62.263999938965 181 181 181
26.625000000000 21.875000000000 62.229000091553 180 180 180
26.625000000000 21.875000000000 62.193000793457 177 177 177
26.625000000000 21.875000000000 62.157001495361 183 183 183
26.625000000000 21.875000000000 62.121002197266 155 155 155
26.625000000000 21.875000000000 62.084999084473 183 183 183
26.625000000000 21.875000000000 62.050003051758 177 177 177
26.625000000000 21.875000000000 62.013000488281 182 182 182
26.625000000000 21.875000000000 61.977001190186 182 182 182
26.625000000000 21.875000000000 61.941001892090 182 182 182
26.625000000000 21.875000000000 61.905002593994 179 179 179
26.625000000000 21.875000000000 61.868000030518 179 179 179
26.625000000000 21.875000000000 61.831001281738 177 177 177
26.625000000000 21.875000000000 61.795001983643 181 181 181
26.625000000000 21.875000000000 61.758003234863 161 161 161
26.625000000000 21.875000000000 61.718997955322 161 161 161
26.625000000000 21.875000000000 61.680999755859 184 184 184
26.625000000000 21.875000000000 61.645000457764 171 171 171
26.625000000000 21.875000000000 61.607997894287 179 179 179
26.625000000000 21.875000000000 61.567001342773 182 182 182
26.625000000000 21.875000000000 61.530002593994 180 180 180
26.625000000000 21.875000000000 61.492000579834 183 183 183
26.625000000000 21.875000000000 61.452999114990 178 178 178
26.625000000000 21.875000000000 61.413002014160 175 175 175
26.625000000000 21.875000000000 61.374000549316 176 176 176
26.625000000000 21.875000000000 61.334999084473 169 169 169
26.625000000000 21.875000000000 61.294002532959 164 164 164
26.625000000000 21.875000000000 61.252002716064 174 174 174
26.625000000000 21.875000000000 61.215000152588 173 173 173
26.625000000000 21.875000000000 61.171001434326 177 177 177
26.625000000000 21.875000000000 61.130001068115 174 174 174
26.625000000000 21.875000000000 61.088001251221 179 179 179
26.625000000000 21.875000000000 61.046001434326 176 176 176
26.625000000000 21.875000000000 60.998001098633 166 166 166
26.625000000000 21.875000000000 60.954998016357 168 168 168
26.625000000000 21.875000000000 60.911003112793 159 159 159
26.625000000000 21.875000000000 60.863002777100 151 151 151
26.625000000000 21.875000000000 60.819999694824 153 153 153
26.625000000000 21.875000000000 60.770000457764 152 152 152
26.625000000000 21.875000000000 60.730998992920 158 158 158
