28.875000000000 25.125000000000 65.732002258301 164 164 164
28.875000000000 25.125000000000 65.634002685547 146 146 146
28.875000000000 25.125000000000 65.542999267578 167 167 167
28.875000000000 25.125000000000 65.445999145508 140 140 140
28.875000000000 25.125000000000 65.356002807617 136 136 136
28.875000000000 25.125000000000 65.266998291016 162 162 162
28.875000000000 25.125000000000 65.188003540039 173 173 173
28.875000000000 25.125000000000 65.099998474121 167 167 167
28.875000000000 25.125000000000 65.008003234863 161 161 161
28.875000000000 25.125000000000 64.937004089355 192 192 192
28.875000000000 25.125000000000 64.851997375488 156 156 156
28.812500000000 25.125000000000 64.758003234863 183 183 183
28.875000000000 25.125000000000 64.680999755859 170 170 170
28.812500000000 25.125000000000 64.595001220703 164 164 164
28.812500000000 25.125000000000 64.509002685547 166 166 166
28.875000000000 25.125000000000 64.443000793457 199 199 199
28.812500000000 25.125000000000 64.361000061035 182 182 182
28.812500000000 25.125000000000 64.278999328613 169 169 169
28.812500000000 25.125000000000 64.202003479004 192 192 192
28.812500000000 25.125000000000 64.123001098633 186 186 186
28.812500000000 25.125000000000 64.051002502441 186 186 186
28.812500000000 25.125000000000 63.972999572754 183 183 183
28.812500000000 25.125000000000 63.898002624512 175 175 175
28.812500000000 25.125000000000 63.825000762939 195 195 195
28.812500000000 25.125000000000 63.751003265381 186 186 186
28.812500000000 25.125000000000 63.680999755859 179 179 179
28.812500000000 25.125000000000 63.605998992920 180 180 180
28.812500000000 25.125000000000 63.533000946045 181 181 181
28.812500000000 25.125000000000 63.461997985840 185 185 185
28.812500000000 25.125000000000 63.390003204346 192 192 192
28.750000000000 25.125000000000 63.319000244141 190 190 190
28.750000000000 25.125000000000 63.248001098633 182 182 182
28.812500000000 25.125000000000 63.179000854492 185 185 185
28.750000000000 25.125000000000 63.106998443604 188 188 188
28.750000000000 25.125000000000 63.038002014160 199 199 199
28.750000000000 25.125000000000 62.967998504639 194 194 194
28.750000000000 25.125000000000 62.899002075195 190 190 190
28.750000000000 25.125000000000 62.829998016357 187 187 187
28.750000000000 25.125000000000 62.761001586914 198 198 198
28.750000000000 25.125000000000 62.691001892090 198 198 198
28.750000000000 25.125000000000 62.621997833252 192 192 192
28.750000000000 25.125000000000 62.554000854492 197 197 197
28.750000000000 25.125000000000 62.485000610352 194 194 194
28.750000000000 25.125000000000 62.416999816895 196 196 196
28.750000000000 25.125000000000 62.347999572754 192 192 192
28.750000000000 25.125000000000 62.280002593994 191 191 191
28.750000000000 25.125000000000 62.211997985840 188 188 188
28.750000000000 25.125000000000 62.143001556396 191 191 191
28.750000000000 25.125000000000 62.075000762939 196 196 196
28.750000000000 25.125000000000 62.006999969482 200 200 200
28.750000000000 25.125000000000 61.937999725342 194 194 194
28.750000000000 25.125000000000 61.869003295898 195 195 195
28.750000000000 25.125000000000 61.801002502441 188 188 188
28.750000000000 25.125000000000 61.731998443604 198 198 198
28.750000000000 25.125000000000 61.664001464844 195 195 195
28.750000000000 25.125000000000 61.593997955322 196 196 196
28.750000000000 25.125000000000 61.524002075195 193 193 193
28.750000000000 25.125000000000 61.456001281738 196 196 196
28.750000000000 25.125000000000 61.386001586914 192 192 192
28.750000000000 25.125000000000 61.317001342773 186 186 186
28.750000000000 25.125000000000 61.248001098633 189 189 189
28.750000000000 25.125000000000 61.178001403809 187 187 187
28.750000000000 25.125000000000 61.105003356934 185 185 185
28.750000000000 25.125000000000 61.036003112793 186 186 186
28.750000000000 25.125000000000 60.965000152588 177 177 177
28.750000000000 25.125000000000 60.895000457764 190 190 190
28.750000000000 25.125000000000 60.821998596191 181 181 181
28.750000000000 25.125000000000 60.749000549316 178 178 178
28.750000000000 25.125000000000 60.679000854492 180 180 180
28.750000000000 25.125000000000 60.605003356934 164 164 164
28.875000000000 25.000000000000 66.845001220703 110 110 110
28.875000000000 25.000000000000 66.730003356934 153 153 153
28.875000000000 25.000000000000 66.626998901367 170 170 170
28.875000000000 25.000000000000 66.515998840332 173 173 173
28.875000000000 25.000000000000 66.408004760742 170 170 170
28.875000000000 25.000000000000 66.306999206543 166 166 166
28.875000000000 25.000000000000 66.205001831055 166 166 166
28.875000000000 25.000000000000 66.099998474121 160 160 160
28.875000000000 25.000000000000 66.006004333496 166 166 166
28.875000000000 25.000000000000 65.910003662109 171 171 171
28.875000000000 25.000000000000 65.811004638672 170 170 170
28.875000000000 25.000000000000 65.715995788574 167 167 167
28.812500000000 25.000000000000 65.617996215820 152 152 152
28.875000000000 25.000000000000 65.533004760742 172 172 172
28.812500000000 25.000000000000 65.439002990723 150 150 150
28.875000000000 25.000000000000 65.359001159668 140 140 140
28.812500000000 25.000000000000 65.263999938965 150 150 150
28.812500000000 25.000000000000 65.172004699707 167 167 167
28.875000000000 25.000000000000 65.099998474121 166 166 166
28.812500000000 25.000000000000 64.995002746582 149 149 149
28.812500000000 25.000000000000 64.923004150391 178 178 178
28.812500000000 25.000000000000 64.839996337891 158 158 158
28.812500000000 25.000000000000 64.758003234863 185 185 185
28.812500000000 25.000000000000 64.668998718262 178 178 178
28.812500000000 25.000000000000 64.602996826172 173 173 173
28.812500000000 25.000000000000 64.519004821777 160 160 160
28.812500000000 25.000000000000 64.440002441406 207 207 207
28.812500000000 25.000000000000 64.361000061035 151 151 151
28.812500000000 25.000000000000 64.284004211426 162 162 162
28.812500000000 25.000000000000 64.207000732422 176 176 176
28.812500000000 25.000000000000 64.128997802734 164 164 164
28.812500000000 25.000000000000 64.055000305176 154 154 154
28.812500000000 25.000000000000 63.978000640869 152 152 152
28.812500000000 25.000000000000 63.902999877930 152 152 152
28.812500000000 25.000000000000 63.828998565674 162 162 162
28.812500000000 25.000000000000 63.753997802734 156 156 156
28.812500000000 25.000000000000 63.684001922607 156 156 156
28.812500000000 25.000000000000 63.612003326416 157 157 157
28.812500000000 25.000000000000 63.539001464844 159 159 159
28.812500000000 25.000000000000 63.466999053955 165 165 165
28.812500000000 25.000000000000 63.397003173828 152 152 152
28.812500000000 25.000000000000 63.324001312256 156 156 156
28.812500000000 25.000000000000 63.253002166748 158 158 158
28.812500000000 25.000000000000 63.184001922607 158 158 158
28.812500000000 25.000000000000 63.112003326416 149 149 149
28.812500000000 25.000000000000 63.043003082275 137 137 137
28.812500000000 25.000000000000 62.972999572754 132 132 132
28.812500000000 25.000000000000 62.905002593994 124 124 124
28.812500000000 25.000000000000 62.833000183105 136 136 136
28.812500000000 25.000000000000 62.765003204346 145 145 145
28.812500000000 25.000000000000 62.695999145508 156 156 156
28.812500000000 25.000000000000 62.627002716064 142 142 142
28.812500000000 25.000000000000 62.558002471924 139 139 139
28.812500000000 25.000000000000 62.488998413086 126 126 126
28.812500000000 25.000000000000 62.421001434326 134 134 134
28.812500000000 25.000000000000 62.352001190186 141 141 141
28.812500000000 25.000000000000 62.283000946045 131 131 131
28.812500000000 25.000000000000 62.215000152588 129 129 129
28.812500000000 25.000000000000 62.145999908447 110 110 110
28.812500000000 25.000000000000 62.076999664307 122 122 122
28.812500000000 25.000000000000 62.008003234863 119 119 119
28.812500000000 25.000000000000 61.940002441406 104 104 104
28.812500000000 25.000000000000 61.871002197266 96 96 96
28.812500000000 25.000000000000 61.801002502441 80 80 80
28.812500000000 25.000000000000 61.732997894287 86 86 86
28.812500000000 25.000000000000 61.664001464844 69 69 69
28.812500000000 25.000000000000 61.592998504639 63 63 63
28.812500000000 25.000000000000 61.524002075195 25 25 25
28.937500000000 24.875000000000 66.757003784180 113 113 113
28.812500000000 25.000000000000 65.494003295898 40 40 40
28.875000000000 24.875000000000 65.457000732422 129 129 129
29.000000000000 24.750000000000 66.713996887207 80 80 80
28.937500000000 24.750000000000 65.484001159668 26 26 26
29.000000000000 24.750000000000 66.679000854492 142 142 142
29.000000000000 24.750000000000 65.416000366211 28 28 28
29.000000000000 24.625000000000 66.660003662109 66 66 66
29.000000000000 24.625000000000 65.414001464844 48 48 48
29.062500000000 24.500000000000 66.597999572754 55 55 55
29.000000000000 24.500000000000 65.413002014160 101 101 101
29.062500000000 24.500000000000 65.422004699707 108 108 108
29.000000000000 24.250000000000 65.422004699707 138 138 138
29.125000000000 24.250000000000 66.513000488281 66 66 66
29.062500000000 24.250000000000 65.423004150391 152 152 152
29.062500000000 24.125000000000 65.440002441406 147 147 147
29.125000000000 24.000000000000 66.433998107910 51 51 51
29.125000000000 24.000000000000 65.429000854492 135 135 135
29.187500000000 24.000000000000 66.433998107910 25 25 25
29.125000000000 24.000000000000 65.430999755859 102 102 102
29.125000000000 24.000000000000 65.442001342773 71 71 71
29.187500000000 23.875000000000 66.346000671387 52 52 52
29.250000000000 23.625000000000 65.397003173828 18 18 18
29.250000000000 23.500000000000 66.259002685547 51 51 51
29.250000000000 23.500000000000 65.391998291016 50 50 50
29.250000000000 23.375000000000 65.395004272461 63 63 63
29.312500000000 23.250000000000 66.166999816895 46 46 46
29.250000000000 23.250000000000 65.378997802734 118 118 118
29.250000000000 23.250000000000 65.388000488281 133 133 133
29.312500000000 23.125000000000 65.391998291016 158 158 158
29.312500000000 23.125000000000 66.072998046875 53 53 53
29.312500000000 23.125000000000 65.401000976563 150 150 150
29.312500000000 23.000000000000 65.401000976563 133 133 133
29.375000000000 22.875000000000 65.998001098633 47 47 47
29.312500000000 22.875000000000 65.402000427246 117 117 117
29.312500000000 22.750000000000 65.411003112793 94 94 94
29.375000000000 22.625000000000 65.915000915527 43 43 43
29.312500000000 22.375000000000 65.303001403809 10 10 10
29.500000000000 22.250000000000 65.757003784180 25 25 25
29.375000000000 22.250000000000 65.291000366211 12 12 12
29.500000000000 22.125000000000 65.744003295898 21 21 21
29.375000000000 22.250000000000 65.309997558594 11 11 11
29.375000000000 22.125000000000 65.309997558594 16 16 16
29.375000000000 22.000000000000 65.320999145508 11 11 11
29.375000000000 21.875000000000 65.325996398926 10 10 10
29.562500000000 21.750000000000 65.597000122070 21 21 21
29.375000000000 21.875000000000 65.315002441406 11 11 11
29.500000000000 21.625000000000 65.281997680664 10 10 10
29.562500000000 21.625000000000 65.485000610352 13 13 13
29.562500000000 21.625000000000 65.294998168945 25 25 25
29.562500000000 21.625000000000 65.215995788574 12 12 12
29.625000000000 21.500000000000 65.162002563477 50 50 50
29.625000000000 21.500000000000 65.071998596191 116 116 116
29.562500000000 21.375000000000 65.306999206543 38 38 38
29.625000000000 21.375000000000 65.080001831055 112 112 112
29.687500000000 21.250000000000 65.456001281738 150 150 150
29.687500000000 21.250000000000 65.361000061035 94 94 94
29.625000000000 21.250000000000 65.078002929688 72 72 72
29.687500000000 21.250000000000 65.433998107910 75 75 75
29.687500000000 21.250000000000 65.352996826172 123 123 123
29.687500000000 21.250000000000 65.070999145508 66 66 66
29.687500000000 21.125000000000 65.360000610352 108 108 108
29.687500000000 21.000000000000 65.086997985840 16 16 16
29.750000000000 21.000000000000 65.362998962402 134 134 134
29.750000000000 20.875000000000 65.372001647949 106 106 106
29.750000000000 20.875000000000 65.371002197266 96 96 96
29.812500000000 20.750000000000 65.390998840332 32 32 32
29.750000000000 20.500000000000 65.264999389648 9 9 9
29.812500000000 20.500000000000 65.027999877930 55 55 55
29.750000000000 20.375000000000 65.274002075195 9 9 9
29.750000000000 20.375000000000 65.006004333496 30 30 30
29.750000000000 20.375000000000 65.002998352051 16 16 16
29.750000000000 20.125000000000 65.003997802734 10 10 10
29.812500000000 20.125000000000 65.117004394531 15 15 15
29.812500000000 20.125000000000 65.023002624512 12 12 12
29.812500000000 20.000000000000 65.106002807617 16 16 16
29.812500000000 20.000000000000 65.020004272461 22 22 22
29.875000000000 20.000000000000 65.132003784180 15 15 15
29.812500000000 20.000000000000 65.029998779297 19 19 19
29.875000000000 19.750000000000 65.133003234863 12 12 12
29.875000000000 19.875000000000 65.035003662109 19 19 19
29.875000000000 19.750000000000 65.152999877930 18 18 18
29.875000000000 19.750000000000 65.047004699707 18 18 18
29.937500000000 19.625000000000 65.158004760742 15 15 15
29.875000000000 19.625000000000 65.064002990723 17 17 17
29.875000000000 19.625000000000 64.972000122070 8 8 8
29.937500000000 19.500000000000 65.167999267578 15 15 15
29.875000000000 19.500000000000 65.066001892090 17 17 17
29.875000000000 19.500000000000 64.975997924805 12 12 12
30.000000000000 19.500000000000 65.188003540039 12 12 12
29.937500000000 19.500000000000 65.073997497559 22 22 22
29.937500000000 19.500000000000 64.984001159668 16 16 16
30.000000000000 19.375000000000 65.194999694824 11 11 11
30.000000000000 19.375000000000 65.097999572754 18 18 18
29.937500000000 19.375000000000 64.991004943848 20 20 20
30.000000000000 19.250000000000 65.267997741699 10 10 10
30.000000000000 19.250000000000 65.097000122070 20 20 20
30.000000000000 19.250000000000 64.997001647949 21 21 21
30.000000000000 19.250000000000 65.270004272461 9 9 9
30.000000000000 19.250000000000 65.111000061035 23 23 23
30.000000000000 19.250000000000 65.010002136230 17 17 17
30.062500000000 19.125000000000 65.119003295898 20 20 20
30.000000000000 19.125000000000 65.008003234863 21 21 21
30.062500000000 19.000000000000 65.116004943848 29 29 29
30.000000000000 19.000000000000 65.014999389648 20 20 20
30.062500000000 18.875000000000 65.126998901367 27 27 27
30.000000000000 18.875000000000 65.014999389648 24 24 24
30.125000000000 18.750000000000 65.151000976563 24 24 24
30.062500000000 18.750000000000 65.024002075195 21 21 21
30.125000000000 18.625000000000 65.145004272461 31 31 31
30.125000000000 18.625000000000 65.059997558594 12 12 12
30.125000000000 18.625000000000 64.970001220703 14 14 14
30.125000000000 18.625000000000 65.161003112793 31 31 31
30.125000000000 18.625000000000 65.061004638672 17 17 17
30.125000000000 18.625000000000 64.975997924805 17 17 17
30.187500000000 18.500000000000 65.169998168945 28 28 28
30.187500000000 18.500000000000 65.079002380371 16 16 16
30.125000000000 18.500000000000 64.983001708984 29 29 29
30.187500000000 18.375000000000 65.184997558594 23 23 23
30.125000000000 18.375000000000 65.077003479004 18 18 18
30.125000000000 18.375000000000 64.989997863770 32 32 32
30.250000000000 18.375000000000 65.196998596191 18 18 18
30.187500000000 18.375000000000 65.097000122070 16 16 16
30.187500000000 18.375000000000 65.005004882813 53 53 53
30.250000000000 18.250000000000 65.220001220703 11 11 11
30.250000000000 18.250000000000 65.099998474121 17 17 17
30.250000000000 18.250000000000 65.013000488281 75 75 75
30.250000000000 18.125000000000 65.099998474121 18 18 18
30.250000000000 18.125000000000 65.031997680664 91 91 91
30.312500000000 18.000000000000 65.239997863770 14 14 14
30.250000000000 18.000000000000 65.119003295898 20 20 20
30.312500000000 18.000000000000 65.034004211426 86 86 86
30.375000000000 17.500000000000 65.266998291016 9 9 9
30.437500000000 17.500000000000 65.010002136230 57 57 57
30.437500000000 17.500000000000 65.270004272461 9 9 9
30.500000000000 17.375000000000 65.015998840332 85 85 85
30.375000000000 17.375000000000 65.263999938965 13 13 13
30.500000000000 17.375000000000 65.027999877930 67 67 67
30.375000000000 17.250000000000 65.276000976563 14 14 14
30.500000000000 17.250000000000 65.036003112793 66 66 66
30.375000000000 17.125000000000 65.277999877930 10 10 10
30.562500000000 17.125000000000 65.048004150391 28 28 28
30.437500000000 17.000000000000 65.291999816895 13 13 13
30.562500000000 17.000000000000 65.065002441406 25 25 25
30.437500000000 17.000000000000 65.277000427246 14 14 14
30.437500000000 16.875000000000 65.287002563477 10 10 10
30.500000000000 16.750000000000 65.305000305176 13 13 13
30.500000000000 16.750000000000 65.293998718262 9 9 9
30.562500000000 16.625000000000 65.303001403809 10 10 10
30.500000000000 16.500000000000 65.305999755859 8 8 8
30.562500000000 16.500000000000 65.142997741699 9 9 9
30.687500000000 16.375000000000 65.088996887207 60 60 60
30.625000000000 16.125000000000 65.351997375488 9 9 9
30.687500000000 16.125000000000 65.269004821777 14 14 14
30.750000000000 15.875000000000 65.284004211426 10 10 10
30.750000000000 15.750000000000 65.283004760742 11 11 11
30.812500000000 15.625000000000 65.296005249023 9 9 9
30.812500000000 15.500000000000 65.284004211426 9 9 9
30.812500000000 15.500000000000 65.298004150391 9 9 9
30.875000000000 15.375000000000 65.304000854492 11 11 11
30.812500000000 15.250000000000 65.301002502441 15 15 15
30.812500000000 15.125000000000 65.298004150391 15 15 15
30.875000000000 15.125000000000 65.317001342773 15 15 15
30.875000000000 15.000000000000 65.314002990723 17 17 17
30.875000000000 14.875000000000 65.323997497559 17 17 17
30.875000000000 14.750000000000 65.324996948242 16 16 16
30.875000000000 14.750000000000 65.323997497559 17 17 17
30.937500000000 14.625000000000 65.335998535156 15 15 15
30.937500000000 14.500000000000 65.335998535156 15 15 15
31.062500000000 14.375000000000 65.378997802734 66 66 66
31.125000000000 14.250000000000 65.408004760742 128 128 128
31.125000000000 14.250000000000 65.395004272461 123 123 123
31.187500000000 14.125000000000 65.417999267578 77 77 77
31.062500000000 14.000000000000 65.375999450684 16 16 16
31.125000000000 14.000000000000 65.395004272461 10 10 10
31.125000000000 13.875000000000 65.406997680664 16 16 16
31.250000000000 13.750000000000 65.464996337891 50 50 50
31.250000000000 13.625000000000 65.463996887207 35 35 35
31.375000000000 13.500000000000 66.820999145508 75 75 75
31.250000000000 13.500000000000 65.444999694824 21 21 21
31.375000000000 13.375000000000 66.956001281738 11 11 11
31.250000000000 13.375000000000 65.447998046875 20 20 20
31.375000000000 13.250000000000 66.950996398926 42 42 42
31.312500000000 13.250000000000 65.472999572754 36 36 36
31.375000000000 13.250000000000 67.061004638672 97 97 97
31.375000000000 13.125000000000 66.933998107910 108 108 108
31.375000000000 13.125000000000 66.828002929688 83 83 83
31.375000000000 13.125000000000 66.708999633789 72 72 72
31.375000000000 13.125000000000 66.592002868652 79 79 79
31.375000000000 13.125000000000 66.486999511719 75 75 75
31.375000000000 13.125000000000 66.369003295898 63 63 63
31.375000000000 13.125000000000 66.256004333496 55 55 55
31.437500000000 13.125000000000 66.163002014160 67 67 67
31.437500000000 13.125000000000 66.058998107910 68 68 68
31.375000000000 13.125000000000 65.931999206543 25 25 25
31.437500000000 13.125000000000 65.831001281738 53 53 53
31.437500000000 13.125000000000 65.732002258301 42 42 42
31.500000000000 13.125000000000 65.667999267578 108 108 108
31.375000000000 13.125000000000 65.498001098633 48 48 48
31.437500000000 13.125000000000 65.427001953125 87 87 87
31.312500000000 13.125000000000 67.027999877930 161 161 161
31.312500000000 13.125000000000 66.909004211426 162 162 162
31.312500000000 13.125000000000 66.783004760742 135 135 135
31.312500000000 13.125000000000 66.666999816895 142 142 142
31.250000000000 13.250000000000 66.515998840332 55 55 55
31.250000000000 13.125000000000 66.416000366211 78 78 78
31.187500000000 13.250000000000 66.256004333496 14 14 14
31.250000000000 13.250000000000 66.153999328613 8 8 8
31.187500000000 13.250000000000 66.038002014160 11 11 11
31.187500000000 13.250000000000 65.934997558594 19 19 19
31.250000000000 13.250000000000 65.625000000000 7 7 7
31.250000000000 13.250000000000 65.534004211426 13 13 13
31.250000000000 13.250000000000 65.423004150391 23 23 23
31.375000000000 13.125000000000 65.377998352051 122 122 122
31.375000000000 13.125000000000 65.286003112793 156 156 156
31.375000000000 13.125000000000 65.193000793457 193 193 193
31.375000000000 13.125000000000 65.069999694824 97 97 97
31.375000000000 13.125000000000 64.980003356934 134 134 134
31.375000000000 13.125000000000 64.884002685547 141 141 141
31.375000000000 13.125000000000 64.786003112793 134 134 134
31.375000000000 13.125000000000 64.686004638672 135 135 135
31.375000000000 13.125000000000 64.588996887207 121 121 121
31.375000000000 13.125000000000 64.495002746582 96 96 96
31.375000000000 13.125000000000 64.400001525879 88 88 88
31.375000000000 13.125000000000 64.302001953125 82 82 82
31.375000000000 13.125000000000 64.207000732422 100 100 100
31.375000000000 13.125000000000 64.112998962402 102 102 102
31.375000000000 13.125000000000 63.746997833252 121 121 121
31.375000000000 13.125000000000 63.652000427246 117 117 117
31.375000000000 13.125000000000 63.561000823975 109 109 109
31.437500000000 13.000000000000 63.113998413086 123 123 123
31.375000000000 13.125000000000 62.834999084473 129 129 129
31.375000000000 13.125000000000 62.746002197266 138 138 138
31.500000000000 13.000000000000 62.567001342773 83 83 83
31.375000000000 13.000000000000 62.474998474121 131 131 131
31.375000000000 13.000000000000 62.385002136230 118 118 118
31.375000000000 13.125000000000 62.295001983643 136 136 136
31.375000000000 13.125000000000 62.204998016357 133 133 133
31.375000000000 13.000000000000 62.114997863770 127 127 127
31.375000000000 13.125000000000 62.025001525879 117 117 117
31.375000000000 13.125000000000 61.934001922607 128 128 128
31.375000000000 13.000000000000 61.842998504639 125 125 125
31.375000000000 13.000000000000 61.751003265381 125 125 125
31.375000000000 13.000000000000 61.661003112793 118 118 118
31.375000000000 13.000000000000 61.569000244141 114 114 114
31.375000000000 13.000000000000 61.474998474121 101 101 101
31.437500000000 13.000000000000 61.378002166748 134 134 134
31.437500000000 13.000000000000 61.192001342773 141 141 141
31.437500000000 13.000000000000 61.096000671387 157 157 157
31.375000000000 13.000000000000 63.201000213623 117 117 117
31.437500000000 13.000000000000 61.284999847412 99 99 99
31.375000000000 13.125000000000 67.030998229980 20 20 20
31.375000000000 13.125000000000 66.914001464844 50 50 50
31.312500000000 13.125000000000 66.777000427246 40 40 40
31.375000000000 13.125000000000 66.673004150391 67 67 67
31.250000000000 13.125000000000 66.506004333496 14 14 14
31.312500000000 13.125000000000 66.428001403809 62 62 62
31.250000000000 13.125000000000 66.264999389648 12 12 12
31.250000000000 13.125000000000 66.149002075195 7 7 7
31.187500000000 13.125000000000 66.027999877930 8 8 8
31.250000000000 13.125000000000 65.941001892090 14 14 14
31.250000000000 13.125000000000 65.620002746582 8 8 8
31.250000000000 13.125000000000 65.527000427246 15 15 15
31.250000000000 13.125000000000 65.430000305176 21 21 21
31.312500000000 13.125000000000 65.359001159668 127 127 127
31.312500000000 13.000000000000 65.275001525879 167 167 167
31.375000000000 13.000000000000 65.180999755859 214 214 214
31.312500000000 13.000000000000 65.069000244141 139 139 139
31.312500000000 13.000000000000 64.972999572754 156 156 156
31.312500000000 13.000000000000 64.874000549316 176 176 176
31.312500000000 13.000000000000 64.775001525879 173 173 173
31.312500000000 13.000000000000 64.681999206543 168 168 168
31.312500000000 13.000000000000 64.582000732422 158 158 158
31.312500000000 13.000000000000 64.484001159668 141 141 141
31.312500000000 13.000000000000 64.388000488281 162 162 162
31.312500000000 13.000000000000 64.292999267578 151 151 151
31.312500000000 13.000000000000 64.200996398926 167 167 167
31.312500000000 13.000000000000 64.106002807617 147 147 147
31.312500000000 13.000000000000 64.013000488281 149 149 149
31.312500000000 13.000000000000 63.643001556396 141 141 141
31.375000000000 13.000000000000 63.560001373291 122 122 122
31.312500000000 13.000000000000 63.193000793457 151 151 151
31.312500000000 13.000000000000 62.833999633789 123 123 123
31.312500000000 13.000000000000 62.298999786377 125 125 125
31.312500000000 13.000000000000 62.209999084473 152 152 152
31.312500000000 13.000000000000 62.120002746582 151 151 151
31.312500000000 13.000000000000 62.030002593994 150 150 150
31.312500000000 13.000000000000 61.941001892090 142 142 142
31.312500000000 13.000000000000 61.850997924805 159 159 159
31.312500000000 13.000000000000 61.760002136230 166 166 166
31.312500000000 13.000000000000 61.671001434326 173 173 173
31.312500000000 13.000000000000 61.581001281738 169 169 169
31.312500000000 13.000000000000 61.488998413086 157 157 157
31.312500000000 13.000000000000 61.399002075195 138 138 138
31.312500000000 13.000000000000 61.307003021240 119 119 119
31.312500000000 13.000000000000 61.215000152588 131 131 131
31.312500000000 13.000000000000 61.124000549316 127 127 127
31.312500000000 13.000000000000 61.032001495361 145 145 145
31.312500000000 13.000000000000 60.936000823975 149 149 149
31.312500000000 13.000000000000 60.847000122070 153 153 153
31.312500000000 12.875000000000 64.021003723145 15 15 15
31.312500000000 12.875000000000 63.287002563477 109 109 109
31.375000000000 12.875000000000 62.932003021240 219 219 219
31.375000000000 12.875000000000 62.839000701904 226 226 226
31.312500000000 12.875000000000 62.123001098633 111 111 111
31.312500000000 12.875000000000 62.033000946045 136 136 136
31.250000000000 12.875000000000 61.943000793457 144 144 144
31.250000000000 12.875000000000 61.855003356934 111 111 111
31.250000000000 12.875000000000 61.765003204346 150 150 150
31.250000000000 12.875000000000 61.675003051758 136 136 136
31.250000000000 12.875000000000 61.584999084473 114 114 114
31.250000000000 12.875000000000 61.495002746582 110 110 110
31.250000000000 12.875000000000 61.406002044678 108 108 108
31.250000000000 12.875000000000 61.312000274658 132 132 132
31.250000000000 12.875000000000 61.223999023438 116 116 116
31.250000000000 12.875000000000 61.131000518799 175 175 175
31.250000000000 12.875000000000 61.039001464844 180 180 180
31.250000000000 12.875000000000 60.946998596191 162 162 162
31.250000000000 12.875000000000 60.855003356934 175 175 175
28.875000000000 25.250000000000 62.583000183105 13 13 13
28.875000000000 25.250000000000 62.407001495361 22 22 22
28.875000000000 25.250000000000 62.230998992920 29 29 29
28.875000000000 25.250000000000 62.055999755859 45 45 45
28.875000000000 25.250000000000 61.880001068115 64 64 64
28.875000000000 25.250000000000 61.704998016357 70 70 70
28.875000000000 25.250000000000 61.530002593994 70 70 70
28.875000000000 25.250000000000 61.354000091553 80 80 80
28.875000000000 25.250000000000 61.178001403809 77 77 77
28.875000000000 25.250000000000 61.003002166748 78 78 78
28.875000000000 25.250000000000 60.826999664307 86 86 86
28.875000000000 25.250000000000 60.648002624512 92 92 92
28.875000000000 25.000000000000 66.757003784180 76 76 76
28.875000000000 25.000000000000 66.566001892090 105 105 105
28.875000000000 25.125000000000 66.373001098633 105 105 105
28.875000000000 25.125000000000 66.181999206543 121 121 121
28.875000000000 25.125000000000 65.992996215820 118 118 118
28.875000000000 25.125000000000 65.806999206543 129 129 129
28.875000000000 25.125000000000 65.620002746582 123 123 123
28.875000000000 25.125000000000 65.434997558594 133 133 133
28.875000000000 25.125000000000 65.249000549316 145 145 145
28.875000000000 25.125000000000 65.064002990723 133 133 133
28.875000000000 25.125000000000 64.884002685547 133 133 133
28.812500000000 25.125000000000 64.700996398926 138 138 138
28.812500000000 25.125000000000 64.521003723145 137 137 137
28.812500000000 25.125000000000 64.340995788574 148 148 148
28.812500000000 25.125000000000 64.163002014160 148 148 148
28.812500000000 25.125000000000 63.987003326416 153 153 153
28.812500000000 25.125000000000 63.808002471924 152 152 152
28.812500000000 25.125000000000 63.631000518799 145 145 145
28.812500000000 25.125000000000 63.456001281738 151 151 151
28.750000000000 25.125000000000 63.279003143311 152 152 152
28.812500000000 25.125000000000 63.104000091553 149 149 149
28.750000000000 25.125000000000 62.929000854492 158 158 158
28.750000000000 25.125000000000 62.753997802734 163 163 163
28.750000000000 25.125000000000 62.579998016357 168 168 168
28.750000000000 25.125000000000 62.405002593994 160 160 160
28.750000000000 25.125000000000 62.230998992920 149 149 149
28.750000000000 25.125000000000 62.057003021240 160 160 160
28.750000000000 25.125000000000 61.883003234863 163 163 163
28.750000000000 25.125000000000 61.708999633789 160 160 160
28.750000000000 25.125000000000 61.534999847412 156 156 156
28.750000000000 25.125000000000 61.360000610352 146 146 146
28.750000000000 25.125000000000 61.187000274658 149 149 149
28.750000000000 25.125000000000 61.012001037598 139 139 139
28.750000000000 25.125000000000 60.835998535156 139 139 139
28.687500000000 25.125000000000 60.662002563477 139 139 139
28.875000000000 24.875000000000 66.748001098633 87 87 87
28.875000000000 24.875000000000 66.550003051758 69 69 69
28.875000000000 24.875000000000 66.359001159668 61 61 61
28.875000000000 24.875000000000 66.169998168945 57 57 57
28.812500000000 25.000000000000 65.982002258301 40 40 40
28.875000000000 24.875000000000 65.799003601074 35 35 35
28.812500000000 25.000000000000 65.610000610352 19 19 19
28.875000000000 24.875000000000 65.434997558594 63 63 63
28.875000000000 24.750000000000 65.456001281738 75 75 75
28.937500000000 24.625000000000 65.459999084473 54 54 54
29.000000000000 24.375000000000 65.480003356934 25 25 25
29.250000000000 23.250000000000 65.358001708984 3 3 3
29.312500000000 23.000000000000 65.370002746582 31 31 31
29.375000000000 22.875000000000 65.382003784180 54 54 54
29.375000000000 22.625000000000 65.384002685547 73 73 73
29.375000000000 22.500000000000 65.398002624512 85 85 85
29.375000000000 22.375000000000 65.406997680664 63 63 63
29.500000000000 22.125000000000 65.415000915527 31 31 31
29.500000000000 22.000000000000 65.421005249023 6 6 6
29.625000000000 21.500000000000 65.078002929688 12 12 12
29.625000000000 21.250000000000 65.464996337891 38 38 38
29.625000000000 21.250000000000 65.079002380371 15 15 15
29.687500000000 21.125000000000 65.086997985840 15 15 15
29.875000000000 20.375000000000 65.324996948242 17 17 17
29.875000000000 20.250000000000 65.332000732422 8 8 8
30.000000000000 19.875000000000 65.166999816895 101 101 101
29.937500000000 19.875000000000 65.355003356934 14 14 14
30.000000000000 19.750000000000 65.366004943848 15 15 15
30.000000000000 19.625000000000 65.180000305176 50 50 50
30.062500000000 19.500000000000 65.193000793457 78 78 78
30.062500000000 19.375000000000 65.199996948242 112 112 112
30.125000000000 19.250000000000 65.208999633789 109 109 109
30.125000000000 19.250000000000 65.003997802734 14 14 14
30.187500000000 19.000000000000 65.220001220703 112 112 112
30.125000000000 19.000000000000 65.015998840332 29 29 29
30.187500000000 18.750000000000 65.224998474121 126 126 126
30.187500000000 18.750000000000 65.025001525879 55 55 55
30.250000000000 18.625000000000 65.236999511719 91 91 91
30.250000000000 18.625000000000 65.030998229980 84 84 84
30.250000000000 18.500000000000 65.242996215820 94 94 94
30.250000000000 18.500000000000 65.038002014160 106 106 106
30.250000000000 18.250000000000 65.253997802734 59 59 59
30.250000000000 18.250000000000 65.052001953125 117 117 117
30.312500000000 18.125000000000 65.266998291016 20 20 20
30.312500000000 18.125000000000 65.063003540039 126 126 126
30.375000000000 18.000000000000 65.279998779297 17 17 17
30.375000000000 18.000000000000 65.073997497559 123 123 123
30.437500000000 17.500000000000 65.302001953125 17 17 17
30.500000000000 17.250000000000 65.317001342773 16 16 16
30.500000000000 17.125000000000 65.319000244141 19 19 19
30.562500000000 16.875000000000 65.333000183105 22 22 22
30.625000000000 16.750000000000 65.336997985840 33 33 33
30.625000000000 16.625000000000 65.347000122070 23 23 23
30.625000000000 16.375000000000 65.353996276855 17 17 17
30.625000000000 16.375000000000 65.145004272461 5 5 5
30.687500000000 16.250000000000 65.369003295898 14 14 14
30.750000000000 16.125000000000 65.378997802734 27 27 27
30.812500000000 15.750000000000 65.399002075195 11 11 11
31.375000000000 13.125000000000 67.062004089355 97 97 97
31.375000000000 13.125000000000 66.842002868652 107 107 107
31.375000000000 13.125000000000 66.621002197266 102 102 102
31.375000000000 13.125000000000 66.401000976563 106 106 106
31.375000000000 13.125000000000 66.182998657227 98 98 98
31.375000000000 13.125000000000 65.970001220703 82 82 82
31.375000000000 13.125000000000 65.752998352051 69 69 69
31.375000000000 13.125000000000 65.535003662109 51 51 51
31.375000000000 13.125000000000 65.321998596191 50 50 50
31.375000000000 13.125000000000 65.109001159668 42 42 42
31.375000000000 13.125000000000 64.895004272461 27 27 27
31.375000000000 13.125000000000 64.684997558594 37 37 37
31.375000000000 13.125000000000 64.472999572754 22 22 22
31.375000000000 13.125000000000 64.261001586914 13 13 13
31.375000000000 13.125000000000 64.051002502441 16 16 16
31.375000000000 13.125000000000 63.630001068115 10 10 10
31.437500000000 13.125000000000 63.421001434326 16 16 16
31.312500000000 13.000000000000 66.603996276855 11 11 11
31.312500000000 13.000000000000 66.387001037598 47 47 47
31.312500000000 13.000000000000 66.167999267578 48 48 48
31.312500000000 13.000000000000 65.952003479004 61 61 61
31.312500000000 13.000000000000 65.735000610352 61 61 61
31.312500000000 13.000000000000 65.521003723145 62 62 62
31.375000000000 13.000000000000 65.322998046875 247 247 247
31.312500000000 13.000000000000 65.095001220703 78 78 78
31.312500000000 13.000000000000 64.882003784180 80 80 80
31.312500000000 13.000000000000 64.672004699707 91 91 91
31.312500000000 13.000000000000 64.459999084473 84 84 84
31.312500000000 13.000000000000 64.250000000000 84 84 84
31.312500000000 13.000000000000 64.039001464844 89 89 89
31.312500000000 13.000000000000 63.619003295898 83 83 83
31.312500000000 13.000000000000 63.412002563477 70 70 70
31.312500000000 13.000000000000 62.784999847412 75 75 75
31.250000000000 13.000000000000 62.576999664307 14 14 14
31.312500000000 13.000000000000 62.369003295898 73 73 73
31.312500000000 13.000000000000 62.161003112793 83 83 83
31.312500000000 13.000000000000 61.951999664307 75 75 75
31.312500000000 13.000000000000 61.744003295898 79 79 79
31.375000000000 13.000000000000 61.534999847412 86 86 86
31.375000000000 13.000000000000 61.325000762939 73 73 73
31.312500000000 13.000000000000 60.696998596191 80 80 80
31.312500000000 12.875000000000 61.113998413086 33 33 33
31.312500000000 13.000000000000 60.908000946045 22 22 22
31.250000000000 12.875000000000 62.161003112793 21 21 21
31.250000000000 12.750000000000 61.951999664307 24 24 24
31.250000000000 12.875000000000 61.745002746582 21 21 21
31.250000000000 12.875000000000 61.537002563477 11 11 11
31.250000000000 12.750000000000 61.327999114990 27 27 27
31.312500000000 12.750000000000 60.695999145508 188 188 188
31.250000000000 12.875000000000 60.912002563477 24 24 24
28.750000000000 25.125000000000 60.643001556396 117 117 117
28.750000000000 25.125000000000 60.817001342773 139 139 139
28.750000000000 25.125000000000 60.992000579834 156 156 156
28.750000000000 25.125000000000 61.168003082275 155 155 155
28.750000000000 25.125000000000 61.342998504639 149 149 149
28.750000000000 25.125000000000 61.516002655029 163 163 163
28.750000000000 25.125000000000 61.691001892090 163 163 163
28.750000000000 25.125000000000 61.864997863770 159 159 159
28.750000000000 25.125000000000 62.039001464844 152 152 152
28.750000000000 25.125000000000 62.213001251221 137 137 137
28.750000000000 25.125000000000 62.387001037598 129 129 129
28.750000000000 25.125000000000 62.562000274658 123 123 123
28.750000000000 25.125000000000 62.736000061035 135 135 135
28.750000000000 25.125000000000 62.911003112793 104 104 104
28.750000000000 25.125000000000 63.084999084473 100 100 100
28.750000000000 25.125000000000 63.261001586914 91 91 91
28.750000000000 25.125000000000 63.437000274658 94 94 94
28.750000000000 25.125000000000 63.613002777100 70 70 70
28.812500000000 25.125000000000 63.790000915527 67 67 67
28.812500000000 25.125000000000 63.967998504639 42 42 42
28.937500000000 25.000000000000 60.618000030518 221 221 221
28.812500000000 25.000000000000 60.812000274658 93 93 93
28.812500000000 25.000000000000 60.988002777100 67 67 67
28.875000000000 25.000000000000 61.163002014160 77 77 77
28.875000000000 25.000000000000 61.339000701904 67 67 67
28.812500000000 25.000000000000 61.516002655029 104 104 104
28.875000000000 25.000000000000 61.692001342773 84 84 84
28.875000000000 25.000000000000 61.867000579834 102 102 102
28.812500000000 25.000000000000 62.043003082275 117 117 117
28.812500000000 25.000000000000 62.217998504639 103 103 103
28.812500000000 25.000000000000 62.393001556396 129 129 129
28.812500000000 25.000000000000 62.568000793457 123 123 123
28.812500000000 25.000000000000 62.743000030518 148 148 148
28.812500000000 25.000000000000 62.919002532959 151 151 151
28.812500000000 25.000000000000 63.093997955322 155 155 155
28.812500000000 25.000000000000 63.270000457764 165 165 165
28.812500000000 25.000000000000 63.445999145508 157 157 157
28.812500000000 25.000000000000 63.621002197266 158 158 158
28.812500000000 25.000000000000 63.798999786377 166 166 166
28.812500000000 25.000000000000 63.975997924805 163 163 163
28.812500000000 25.000000000000 64.153999328613 167 167 167
28.812500000000 25.000000000000 64.331001281738 164 164 164
28.812500000000 25.000000000000 64.510002136230 156 156 156
28.812500000000 25.000000000000 64.692001342773 174 174 174
28.812500000000 25.000000000000 64.869003295898 145 145 145
28.812500000000 25.000000000000 65.054000854492 152 152 152
28.812500000000 25.000000000000 65.235000610352 155 155 155
28.875000000000 25.125000000000 65.418998718262 113 113 113
28.875000000000 25.125000000000 65.603996276855 107 107 107
28.875000000000 25.125000000000 65.785003662109 104 104 104
28.875000000000 25.125000000000 65.975997924805 88 88 88
28.875000000000 25.125000000000 66.165000915527 71 71 71
28.875000000000 25.125000000000 66.349998474121 30 30 30
28.937500000000 25.000000000000 64.712997436523 29 29 29
28.937500000000 25.000000000000 64.892997741699 66 66 66
28.875000000000 24.875000000000 65.071998596191 56 56 56
28.937500000000 25.000000000000 65.256004333496 97 97 97
28.875000000000 24.875000000000 65.436004638672 81 81 81
28.875000000000 24.875000000000 65.622001647949 102 102 102
28.875000000000 24.875000000000 65.805999755859 121 121 121
28.875000000000 24.875000000000 65.991004943848 121 121 121
28.937500000000 25.000000000000 66.180999755859 157 157 157
28.875000000000 24.875000000000 66.366004943848 149 149 149
28.875000000000 24.875000000000 66.555000305176 153 153 153
28.875000000000 24.875000000000 66.742996215820 116 116 116
28.937500000000 24.750000000000 65.447998046875 91 91 91
29.000000000000 24.875000000000 66.776000976563 45 45 45
29.000000000000 24.750000000000 65.456001281738 94 94 94
29.000000000000 24.500000000000 65.462997436523 72 72 72
29.000000000000 24.375000000000 65.468002319336 58 58 58
29.062500000000 24.250000000000 65.476997375488 21 21 21
29.312500000000 23.125000000000 65.367996215820 55 55 55
29.312500000000 22.875000000000 65.373001098633 78 78 78
29.375000000000 22.750000000000 65.381004333496 94 94 94
29.375000000000 22.625000000000 65.388000488281 96 96 96
29.375000000000 22.500000000000 65.394004821777 87 87 87
29.437500000000 22.375000000000 65.402999877930 75 75 75
29.500000000000 22.250000000000 65.414001464844 51 51 51
29.500000000000 22.125000000000 65.421005249023 43 43 43
29.500000000000 22.000000000000 65.426002502441 29 29 29
29.625000000000 21.500000000000 65.069000244141 47 47 47
29.625000000000 21.500000000000 65.262001037598 2 2 2
29.625000000000 21.250000000000 65.074996948242 29 29 29
29.687500000000 21.375000000000 65.462997436523 86 86 86
29.687500000000 21.250000000000 65.082000732422 20 20 20
29.750000000000 21.000000000000 65.084999084473 12 12 12
29.812500000000 20.500000000000 65.306999206543 6 6 6
29.875000000000 20.375000000000 65.308998107910 15 15 15
29.875000000000 20.250000000000 65.312004089355 26 26 26
29.937500000000 20.125000000000 65.318000793457 35 35 35
29.937500000000 20.000000000000 65.128997802734 172 172 172
29.937500000000 20.000000000000 65.319000244141 32 32 32
30.000000000000 19.875000000000 65.135002136230 130 130 130
30.000000000000 19.875000000000 65.324996948242 41 41 41
30.000000000000 19.750000000000 65.142997741699 121 121 121
30.000000000000 19.750000000000 65.333999633789 47 47 47
30.000000000000 19.625000000000 65.147003173828 44 44 44
30.000000000000 19.625000000000 65.339996337891 46 46 46
30.062500000000 19.375000000000 65.154998779297 116 116 116
30.062500000000 19.375000000000 65.347000122070 43 43 43
30.125000000000 19.250000000000 65.163002014160 135 135 135
30.062500000000 19.375000000000 65.355003356934 34 34 34
30.125000000000 19.250000000000 65.167999267578 133 133 133
30.125000000000 19.125000000000 65.358001708984 34 34 34
30.125000000000 19.000000000000 65.175003051758 156 156 156
30.125000000000 19.125000000000 65.364997863770 8 8 8
30.187500000000 18.875000000000 65.178001403809 155 155 155
30.250000000000 18.750000000000 65.184997558594 128 128 128
30.250000000000 18.625000000000 65.190002441406 152 152 152
30.250000000000 18.500000000000 65.196998596191 149 149 149
30.250000000000 18.375000000000 65.196998596191 125 125 125
30.312500000000 18.250000000000 64.999000549316 28 28 28
30.375000000000 18.250000000000 65.206001281738 139 139 139
30.375000000000 18.125000000000 65.003997802734 56 56 56
30.375000000000 18.125000000000 65.209999084473 150 150 150
30.375000000000 18.000000000000 65.007003784180 48 48 48
30.375000000000 18.000000000000 65.214996337891 133 133 133
30.375000000000 17.750000000000 65.013000488281 25 25 25
30.375000000000 17.750000000000 65.020004272461 20 20 20
30.437500000000 17.625000000000 65.027999877930 25 25 25
30.500000000000 17.375000000000 65.031997680664 29 29 29
30.500000000000 17.500000000000 65.241004943848 16 16 16
30.500000000000 17.250000000000 65.036003112793 14 14 14
30.500000000000 17.125000000000 65.040000915527 22 22 22
30.562500000000 17.000000000000 65.044998168945 14 14 14
30.625000000000 16.875000000000 65.048004150391 14 14 14
30.625000000000 16.750000000000 65.053001403809 6 6 6
30.625000000000 16.625000000000 65.470001220703 52 52 52
30.625000000000 16.375000000000 65.063003540039 17 17 17
30.687500000000 16.500000000000 65.273002624512 13 13 13
30.750000000000 16.000000000000 65.280998229980 27 27 27
31.375000000000 13.375000000000 66.890998840332 24 24 24
31.375000000000 13.250000000000 66.894004821777 23 23 23
31.250000000000 13.000000000000 60.760002136230 49 49 49
31.250000000000 13.000000000000 60.970001220703 27 27 27
31.250000000000 13.000000000000 61.177001953125 33 33 33
31.250000000000 13.000000000000 61.385002136230 36 36 36
31.250000000000 13.000000000000 61.592998504639 59 59 59
31.250000000000 13.000000000000 61.801002502441 43 43 43
31.250000000000 13.000000000000 62.008003234863 48 48 48
31.312500000000 13.000000000000 62.215000152588 48 48 48
31.312500000000 13.000000000000 62.423000335693 57 57 57
31.250000000000 13.000000000000 62.630001068115 93 93 93
31.312500000000 13.000000000000 62.836997985840 84 84 84
31.312500000000 13.000000000000 63.045001983643 106 106 106
31.312500000000 13.000000000000 63.460998535156 65 65 65
31.312500000000 13.000000000000 63.669002532959 79 79 79
31.312500000000 13.000000000000 64.087997436523 111 111 111
31.312500000000 13.000000000000 64.298004150391 92 92 92
31.312500000000 13.000000000000 64.509002685547 108 108 108
31.312500000000 13.000000000000 64.719001770020 126 126 126
31.312500000000 13.000000000000 64.931999206543 134 134 134
31.375000000000 13.125000000000 65.144004821777 126 126 126
31.375000000000 13.125000000000 65.357002258301 126 126 126
31.375000000000 13.125000000000 65.572998046875 130 130 130
31.375000000000 13.125000000000 65.789001464844 146 146 146
31.375000000000 13.125000000000 66.001998901367 133 133 133
31.375000000000 13.125000000000 66.222000122070 158 158 158
31.375000000000 13.125000000000 66.440002441406 137 137 137
31.375000000000 13.125000000000 66.661003112793 127 127 127
31.375000000000 13.125000000000 66.881004333496 128 128 128
31.375000000000 13.125000000000 67.102996826172 49 49 49
31.312500000000 12.750000000000 60.756000518799 102 102 102
31.312500000000 12.875000000000 60.963001251221 105 105 105
31.312500000000 12.875000000000 61.171001434326 87 87 87
31.312500000000 12.875000000000 61.380001068115 102 102 102
31.312500000000 12.875000000000 61.588001251221 105 105 105
31.312500000000 12.875000000000 61.796001434326 95 95 95
31.312500000000 12.875000000000 62.003997802734 84 84 84
31.312500000000 12.875000000000 62.211997985840 100 100 100
31.312500000000 12.875000000000 62.420001983643 71 71 71
31.312500000000 12.875000000000 62.628002166748 73 73 73
31.375000000000 12.875000000000 62.835998535156 48 48 48
31.375000000000 12.875000000000 63.045001983643 57 57 57
31.375000000000 12.875000000000 63.253002166748 51 51 51
31.375000000000 12.875000000000 63.461997985840 67 67 67
31.375000000000 12.875000000000 63.672000885010 51 51 51
31.375000000000 12.875000000000 63.881999969482 48 48 48
31.375000000000 12.875000000000 64.093002319336 48 48 48
31.375000000000 12.875000000000 64.302001953125 33 33 33
31.375000000000 12.875000000000 64.515998840332 19 19 19
31.437500000000 13.000000000000 64.730003356934 27 27 27
31.375000000000 12.875000000000 64.942001342773 38 38 38
31.437500000000 13.000000000000 65.155998229980 18 18 18
28.812500000000 25.125000000000 62.880001068115 11 11 11
28.812500000000 25.125000000000 62.728000640869 69 69 69
28.812500000000 25.125000000000 62.576999664307 84 84 84
28.812500000000 25.125000000000 62.425003051758 102 102 102
28.812500000000 25.125000000000 62.274002075195 110 110 110
28.812500000000 25.250000000000 62.123001098633 110 110 110
28.812500000000 25.250000000000 61.972999572754 130 130 130
28.750000000000 25.250000000000 61.821998596191 126 126 126
28.812500000000 25.250000000000 61.671001434326 118 118 118
28.812500000000 25.250000000000 61.520999908447 131 131 131
28.812500000000 25.250000000000 61.369003295898 150 150 150
28.812500000000 25.250000000000 61.217998504639 163 163 163
28.750000000000 25.125000000000 61.068000793457 164 164 164
28.750000000000 25.125000000000 60.916999816895 164 164 164
28.750000000000 25.125000000000 60.765003204346 163 163 163
28.750000000000 25.125000000000 60.616001129150 125 125 125
28.875000000000 25.000000000000 66.549003601074 31 31 31
28.937500000000 25.000000000000 66.381004333496 77 77 77
28.875000000000 25.125000000000 66.205001831055 89 89 89
28.875000000000 25.125000000000 66.035003662109 102 102 102
28.875000000000 25.125000000000 65.867996215820 118 118 118
28.875000000000 25.125000000000 65.700996398926 127 127 127
28.875000000000 25.125000000000 65.537002563477 152 152 152
28.875000000000 25.125000000000 65.375000000000 147 147 147
28.875000000000 25.125000000000 65.209999084473 159 159 159
28.875000000000 25.125000000000 65.050003051758 163 163 163
