24.750000000000 9.375000000000 65.878997802734 183 183 183
24.750000000000 9.375000000000 65.881004333496 199 199 199
24.687500000000 9.250000000000 65.888999938965 168 168 168
24.687500000000 9.125000000000 65.897003173828 149 149 149
24.750000000000 9.000000000000 65.885002136230 132 132 132
24.750000000000 9.000000000000 65.898002624512 144 144 144
24.750000000000 8.750000000000 65.897003173828 112 112 112
24.750000000000 8.750000000000 65.898002624512 118 118 118
24.750000000000 8.750000000000 65.896003723145 173 173 173
24.750000000000 8.625000000000 65.891998291016 96 96 96
24.750000000000 8.375000000000 65.903999328613 122 122 122
24.750000000000 8.000000000000 65.911003112793 59 59 59
24.812500000000 6.750000000000 65.933998107910 51 51 51
24.812500000000 6.625000000000 65.913002014160 27 27 27
23.250000000000 29.375000000000 65.718002319336 171 171 171
23.250000000000 29.375000000000 65.708999633789 205 205 205
23.250000000000 29.250000000000 65.711997985840 186 186 186
23.250000000000 29.125000000000 65.712997436523 158 158 158
23.250000000000 29.000000000000 65.721000671387 164 164 164
23.250000000000 29.000000000000 65.713996887207 175 175 175
23.250000000000 28.875000000000 65.715995788574 195 195 195
23.312500000000 28.875000000000 65.724998474121 178 178 178
23.312500000000 28.750000000000 65.737998962402 153 153 153
23.250000000000 28.625000000000 65.737998962402 157 157 157
23.312500000000 28.500000000000 65.741004943848 150 150 150
23.375000000000 28.500000000000 65.731002807617 185 185 185
23.375000000000 28.375000000000 65.744003295898 201 201 201
23.375000000000 28.250000000000 65.741004943848 212 212 212
23.375000000000 28.250000000000 65.747001647949 146 146 146
23.375000000000 28.125000000000 65.745002746582 152 152 152
23.375000000000 28.000000000000 65.738998413086 158 158 158
23.375000000000 28.000000000000 65.747001647949 183 183 183
23.437500000000 27.875000000000 65.755004882813 150 150 150
23.500000000000 27.125000000000 65.735000610352 59 59 59
23.500000000000 27.000000000000 65.749000549316 84 84 84
23.500000000000 27.000000000000 65.744003295898 43 43 43
23.500000000000 26.875000000000 65.759002685547 58 58 58
23.500000000000 26.750000000000 65.752998352051 30 30 30
23.625000000000 26.125000000000 65.749000549316 70 70 70
23.625000000000 26.125000000000 65.750999450684 197 197 197
23.625000000000 26.000000000000 65.749000549316 173 173 173
23.625000000000 26.000000000000 65.757003784180 163 163 163
23.625000000000 25.875000000000 65.757003784180 190 190 190
23.625000000000 25.750000000000 65.750999450684 201 201 201
23.625000000000 25.625000000000 65.756004333496 152 152 152
23.687500000000 25.625000000000 65.767997741699 175 175 175
23.687500000000 25.500000000000 65.765998840332 161 161 161
23.687500000000 25.375000000000 65.765998840332 178 178 178
23.750000000000 25.375000000000 65.772003173828 175 175 175
23.687500000000 25.250000000000 65.763999938965 167 167 167
23.687500000000 25.125000000000 65.775001525879 145 145 145
23.750000000000 25.125000000000 65.779998779297 155 155 155
23.750000000000 25.000000000000 65.780998229980 158 158 158
23.750000000000 24.875000000000 65.781997680664 166 166 166
23.750000000000 24.750000000000 65.776000976563 193 193 193
23.750000000000 24.750000000000 65.786003112793 203 203 203
23.750000000000 24.625000000000 65.767997741699 173 173 173
23.750000000000 24.500000000000 65.776000976563 188 188 188
23.812500000000 24.500000000000 65.779998779297 163 163 163
23.812500000000 24.375000000000 65.777999877930 160 160 160
23.812500000000 24.250000000000 65.784004211426 122 122 122
23.875000000000 23.750000000000 65.778999328613 44 44 44
23.875000000000 23.750000000000 65.767997741699 60 60 60
23.937500000000 23.500000000000 65.777000427246 64 64 64
23.937500000000 23.250000000000 65.794998168945 155 155 155
23.937500000000 23.250000000000 65.786003112793 175 175 175
24.000000000000 23.125000000000 65.785003662109 152 152 152
24.000000000000 23.000000000000 65.800003051758 140 140 140
24.000000000000 23.000000000000 65.794998168945 165 165 165
23.937500000000 22.875000000000 65.799003601074 173 173 173
24.000000000000 22.750000000000 65.792999267578 180 180 180
24.000000000000 22.750000000000 65.794998168945 159 159 159
24.000000000000 22.625000000000 65.819000244141 150 150 150
24.000000000000 22.500000000000 65.805999755859 104 104 104
24.125000000000 22.000000000000 65.791000366211 182 182 182
24.125000000000 21.875000000000 65.815002441406 145 145 145
24.125000000000 21.875000000000 65.823997497559 144 144 144
24.125000000000 21.750000000000 65.802001953125 189 189 189
24.125000000000 21.625000000000 65.809997558594 174 174 174
24.187500000000 21.625000000000 65.809997558594 105 105 105
24.125000000000 21.500000000000 65.814002990723 141 141 141
24.125000000000 21.375000000000 65.802001953125 180 180 180
24.125000000000 20.750000000000 65.830001831055 74 74 74
24.187500000000 20.625000000000 65.806999206543 157 157 157
24.187500000000 20.500000000000 65.809997558594 160 160 160
24.187500000000 20.500000000000 65.823997497559 132 132 132
24.187500000000 20.375000000000 65.819999694824 103 103 103
24.187500000000 20.250000000000 65.806999206543 132 132 132
24.187500000000 20.125000000000 65.811004638672 137 137 137
24.250000000000 20.125000000000 65.818000793457 62 62 62
24.250000000000 19.500000000000 65.846000671387 127 127 127
24.187500000000 19.500000000000 65.807998657227 174 174 174
24.250000000000 19.375000000000 65.808998107910 185 185 185
24.250000000000 19.250000000000 65.819000244141 158 158 158
24.250000000000 19.250000000000 65.809997558594 175 175 175
24.250000000000 19.125000000000 65.811004638672 156 156 156
24.250000000000 18.500000000000 65.818000793457 126 126 126
24.250000000000 18.375000000000 65.819999694824 183 183 183
24.250000000000 18.375000000000 65.832000732422 149 149 149
24.312500000000 18.250000000000 65.819000244141 164 164 164
24.312500000000 18.125000000000 65.811004638672 191 191 191
24.312500000000 18.000000000000 65.845001220703 82 82 82
24.312500000000 17.375000000000 65.822998046875 139 139 139
24.312500000000 17.375000000000 65.820999145508 193 193 193
24.312500000000 17.250000000000 65.830001831055 162 162 162
24.375000000000 17.250000000000 65.815002441406 181 181 181
24.375000000000 17.125000000000 65.843002319336 140 140 140
24.375000000000 17.000000000000 65.850997924805 142 142 142
24.375000000000 16.875000000000 65.828002929688 147 147 147
24.375000000000 16.875000000000 65.830001831055 145 145 145
24.375000000000 16.750000000000 65.872001647949 150 150 150
24.375000000000 16.625000000000 65.888999938965 149 149 149
24.375000000000 16.000000000000 65.834999084473 57 57 57
24.375000000000 15.875000000000 65.834999084473 83 83 83
24.375000000000 15.875000000000 65.825996398926 106 106 106
24.375000000000 15.875000000000 65.827003479004 162 162 162
24.375000000000 15.625000000000 65.835998535156 139 139 139
24.437500000000 15.625000000000 65.839996337891 145 145 145
24.437500000000 15.500000000000 65.837997436523 147 147 147
24.437500000000 15.375000000000 65.833999633789 134 134 134
24.437500000000 15.375000000000 65.840995788574 136 136 136
24.437500000000 15.250000000000 65.834999084473 129 129 129
24.437500000000 15.125000000000 65.834999084473 120 120 120
24.437500000000 15.125000000000 65.837997436523 103 103 103
24.500000000000 15.000000000000 65.831001281738 82 82 82
24.437500000000 14.875000000000 65.828002929688 109 109 109
24.437500000000 14.750000000000 65.844001770020 97 97 97
24.500000000000 14.750000000000 65.847000122070 132 132 132
24.500000000000 14.625000000000 65.843002319336 145 145 145
24.437500000000 14.500000000000 65.840995788574 117 117 117
24.500000000000 14.375000000000 65.837997436523 117 117 117
24.500000000000 14.375000000000 65.849998474121 109 109 109
24.500000000000 14.250000000000 65.834999084473 108 108 108
24.500000000000 14.125000000000 65.847999572754 74 74 74
24.500000000000 14.125000000000 65.823997497559 35 35 35
24.500000000000 13.000000000000 65.847000122070 27 27 27
24.500000000000 12.875000000000 65.857002258301 39 39 39
24.500000000000 12.750000000000 65.850997924805 58 58 58
24.562500000000 12.625000000000 65.853996276855 65 65 65
24.562500000000 12.500000000000 65.858001708984 66 66 66
24.500000000000 12.375000000000 65.840995788574 104 104 104
24.500000000000 12.250000000000 65.845001220703 97 97 97
24.562500000000 12.250000000000 65.855003356934 116 116 116
24.562500000000 12.125000000000 65.858001708984 151 151 151
24.562500000000 12.000000000000 65.859001159668 165 165 165
24.562500000000 12.000000000000 65.847999572754 175 175 175
24.562500000000 11.875000000000 65.856002807617 114 114 114
24.562500000000 11.750000000000 65.860000610352 123 123 123
24.625000000000 11.750000000000 65.869003295898 123 123 123
24.625000000000 11.625000000000 65.856002807617 111 111 111
24.625000000000 11.500000000000 65.870002746582 110 110 110
24.625000000000 11.500000000000 65.863998413086 136 136 136
24.625000000000 11.375000000000 65.853996276855 112 112 112
24.625000000000 11.250000000000 65.861999511719 138 138 138
24.625000000000 11.125000000000 65.864997863770 147 147 147
24.625000000000 11.125000000000 65.860000610352 115 115 115
24.625000000000 11.000000000000 65.862998962402 110 110 110
24.625000000000 10.875000000000 65.861000061035 104 104 104
24.687500000000 9.000000000000 65.888000488281 34 34 34
24.750000000000 9.000000000000 65.891998291016 68 68 68
24.750000000000 8.875000000000 65.891998291016 101 101 101
24.750000000000 8.750000000000 65.895004272461 139 139 139
24.750000000000 8.750000000000 65.895004272461 162 162 162
24.750000000000 8.625000000000 65.905998229980 164 164 164
24.750000000000 8.500000000000 65.902000427246 120 120 120
24.750000000000 8.375000000000 65.912002563477 119 119 119
24.750000000000 8.375000000000 65.903999328613 129 129 129
24.750000000000 8.250000000000 65.908004760742 117 117 117
24.750000000000 8.125000000000 65.910003662109 116 116 116
24.750000000000 8.000000000000 65.913002014160 128 128 128
24.750000000000 8.000000000000 65.901000976563 122 122 122
24.750000000000 7.875000000000 65.914001464844 128 128 128
24.812500000000 7.875000000000 65.904998779297 157 157 157
24.750000000000 7.750000000000 65.910003662109 149 149 149
24.750000000000 7.625000000000 65.917999267578 137 137 137
24.812500000000 7.500000000000 65.905998229980 128 128 128
24.812500000000 7.500000000000 65.914001464844 135 135 135
24.812500000000 7.250000000000 65.915000915527 122 122 122
24.812500000000 7.250000000000 65.913002014160 137 137 137
24.812500000000 7.250000000000 65.912002563477 128 128 128
24.812500000000 7.125000000000 65.916999816895 118 118 118
24.812500000000 7.000000000000 65.928001403809 133 133 133
24.812500000000 6.875000000000 65.921005249023 124 124 124
24.812500000000 6.875000000000 65.919998168945 135 135 135
24.875000000000 6.750000000000 65.916000366211 144 144 144
24.812500000000 6.625000000000 65.914001464844 44 44 44
24.875000000000 6.625000000000 65.900001525879 41 41 41
23.187500000000 29.375000000000 65.741004943848 163 163 163
23.187500000000 29.250000000000 65.750000000000 166 166 166
23.187500000000 29.250000000000 65.735000610352 160 160 160
23.250000000000 29.125000000000 65.734001159668 160 160 160
23.250000000000 29.000000000000 65.757003784180 158 158 158
23.250000000000 29.000000000000 65.739997863770 160 160 160
23.250000000000 28.875000000000 65.751998901367 155 155 155
23.250000000000 28.750000000000 65.755004882813 156 156 156
23.250000000000 28.750000000000 65.764999389648 151 151 151
23.250000000000 28.625000000000 65.759002685547 157 157 157
23.312500000000 28.500000000000 65.760002136230 152 152 152
23.312500000000 28.375000000000 65.756004333496 162 162 162
23.312500000000 28.250000000000 65.746002197266 161 161 161
23.312500000000 28.250000000000 65.763000488281 147 147 147
23.375000000000 28.250000000000 65.772003173828 146 146 146
23.375000000000 28.125000000000 65.769004821777 147 147 147
23.312500000000 28.000000000000 65.749000549316 135 135 135
23.375000000000 27.875000000000 65.759002685547 143 143 143
23.375000000000 27.750000000000 65.758003234863 136 136 136
23.375000000000 27.750000000000 65.747001647949 132 132 132
23.437500000000 27.625000000000 65.760002136230 156 156 156
23.437500000000 27.500000000000 65.750999450684 137 137 137
23.375000000000 27.500000000000 65.756004333496 169 169 169
23.375000000000 27.375000000000 65.761001586914 148 148 148
23.437500000000 27.375000000000 65.763999938965 124 124 124
23.437500000000 27.250000000000 65.761001586914 117 117 117
23.500000000000 27.125000000000 65.759002685547 126 126 126
23.437500000000 27.000000000000 65.755004882813 119 119 119
23.500000000000 26.875000000000 65.757003784180 127 127 127
23.500000000000 26.875000000000 65.741004943848 115 115 115
23.500000000000 26.750000000000 65.734001159668 119 119 119
23.562500000000 26.750000000000 65.744003295898 138 138 138
23.562500000000 26.625000000000 65.756004333496 131 131 131
23.500000000000 26.500000000000 65.765998840332 159 159 159
23.562500000000 26.375000000000 65.757003784180 124 124 124
23.500000000000 26.375000000000 65.759002685547 138 138 138
23.562500000000 26.250000000000 65.750000000000 176 176 176
23.625000000000 26.125000000000 65.751998901367 173 173 173
23.562500000000 26.000000000000 65.772003173828 149 149 149
23.625000000000 26.000000000000 65.771003723145 143 143 143
23.625000000000 25.875000000000 65.773002624512 148 148 148
23.625000000000 25.875000000000 65.780998229980 163 163 163
23.625000000000 25.750000000000 65.778999328613 148 148 148
23.625000000000 25.625000000000 65.774002075195 146 146 146
23.625000000000 25.500000000000 65.786003112793 151 151 151
23.625000000000 25.500000000000 65.766998291016 127 127 127
23.687500000000 25.375000000000 65.802001953125 111 111 111
23.687500000000 25.250000000000 65.784004211426 88 88 88
23.687500000000 25.250000000000 65.796005249023 132 132 132
23.750000000000 24.500000000000 65.767997741699 88 88 88
23.812500000000 24.500000000000 65.767997741699 111 111 111
23.812500000000 24.375000000000 65.783004760742 116 116 116
23.812500000000 24.250000000000 65.791000366211 124 124 124
23.812500000000 24.250000000000 65.803001403809 148 148 148
23.875000000000 24.125000000000 65.784004211426 165 165 165
23.812500000000 24.000000000000 65.790000915527 157 157 157
23.875000000000 23.875000000000 65.798004150391 152 152 152
23.875000000000 23.750000000000 65.804000854492 148 148 148
23.875000000000 23.750000000000 65.805000305176 151 151 151
23.875000000000 23.750000000000 65.793998718262 158 158 158
23.875000000000 23.500000000000 65.808998107910 167 167 167
23.937500000000 23.250000000000 65.793998718262 79 79 79
23.937500000000 23.125000000000 65.787002563477 97 97 97
24.000000000000 23.000000000000 65.789001464844 116 116 116
24.000000000000 23.000000000000 65.797004699707 112 112 112
23.937500000000 22.875000000000 65.792999267578 106 106 106
24.000000000000 22.750000000000 65.801002502441 112 112 112
24.000000000000 22.750000000000 65.801002502441 103 103 103
24.000000000000 22.625000000000 65.801002502441 117 117 117
24.000000000000 22.500000000000 65.803001403809 139 139 139
24.000000000000 22.375000000000 65.823997497559 146 146 146
24.062500000000 22.250000000000 65.789001464844 96 96 96
24.125000000000 22.125000000000 65.806999206543 120 120 120
24.125000000000 22.000000000000 65.797004699707 110 110 110
24.125000000000 22.000000000000 65.809997558594 115 115 115
24.062500000000 21.875000000000 65.803001403809 111 111 111
24.125000000000 21.750000000000 65.808998107910 111 111 111
24.125000000000 21.625000000000 65.819000244141 145 145 145
24.125000000000 21.625000000000 65.828002929688 135 135 135
24.125000000000 21.500000000000 65.805999755859 113 113 113
24.125000000000 21.375000000000 65.816001892090 106 106 106
24.125000000000 21.375000000000 65.807998657227 107 107 107
24.125000000000 21.250000000000 65.802001953125 114 114 114
24.125000000000 21.125000000000 65.805999755859 124 124 124
24.125000000000 21.000000000000 65.805000305176 113 113 113
24.125000000000 20.750000000000 65.863998413086 133 133 133
24.125000000000 20.750000000000 65.814002990723 124 124 124
24.125000000000 20.625000000000 65.819999694824 117 117 117
24.187500000000 20.500000000000 65.817001342773 107 107 107
24.187500000000 20.375000000000 65.812004089355 115 115 115
24.187500000000 20.375000000000 65.807998657227 109 109 109
24.187500000000 20.250000000000 65.806999206543 86 86 86
24.187500000000 20.125000000000 65.815002441406 79 79 79
24.187500000000 19.750000000000 65.833000183105 136 136 136
24.187500000000 19.750000000000 65.830001831055 140 140 140
24.250000000000 19.625000000000 65.819000244141 133 133 133
24.250000000000 19.500000000000 65.819999694824 123 123 123
24.250000000000 19.500000000000 65.817001342773 60 60 60
24.250000000000 19.125000000000 65.828002929688 51 51 51
24.250000000000 19.000000000000 65.808998107910 103 103 103
24.250000000000 18.875000000000 65.816001892090 118 118 118
24.250000000000 18.875000000000 65.822998046875 115 115 115
24.250000000000 18.625000000000 65.822998046875 126 126 126
24.250000000000 18.625000000000 65.824996948242 87 87 87
24.250000000000 18.375000000000 65.812004089355 39 39 39
24.250000000000 18.375000000000 65.818000793457 112 112 112
24.312500000000 18.250000000000 65.827003479004 135 135 135
24.312500000000 18.250000000000 65.828002929688 151 151 151
24.250000000000 18.000000000000 65.828002929688 148 148 148
24.250000000000 18.000000000000 65.830001831055 141 141 141
24.312500000000 18.000000000000 65.844001770020 130 130 130
24.312500000000 17.875000000000 65.849998474121 150 150 150
24.312500000000 17.750000000000 65.861999511719 158 158 158
24.250000000000 17.375000000000 65.814002990723 105 105 105
24.312500000000 17.375000000000 65.830001831055 133 133 133
24.312500000000 17.250000000000 65.839996337891 147 147 147
24.375000000000 17.250000000000 65.831001281738 140 140 140
24.312500000000 17.125000000000 65.843002319336 145 145 145
24.312500000000 17.000000000000 65.828002929688 121 121 121
24.375000000000 16.875000000000 65.831001281738 123 123 123
24.375000000000 16.875000000000 65.819999694824 111 111 111
24.312500000000 16.750000000000 65.829002380371 125 125 125
24.375000000000 16.625000000000 65.825996398926 123 123 123
24.375000000000 16.500000000000 65.829002380371 98 98 98
24.375000000000 16.250000000000 65.840995788574 44 44 44
24.375000000000 16.125000000000 65.836997985840 93 93 93
24.375000000000 16.000000000000 65.828002929688 83 83 83
24.375000000000 15.875000000000 65.831001281738 96 96 96
24.375000000000 15.875000000000 65.823997497559 103 103 103
24.375000000000 15.750000000000 65.830001831055 99 99 99
24.375000000000 15.625000000000 65.832000732422 101 101 101
24.437500000000 15.625000000000 65.833000183105 108 108 108
24.375000000000 15.500000000000 65.827003479004 112 112 112
24.375000000000 15.375000000000 65.833000183105 107 107 107
24.375000000000 15.250000000000 65.833999633789 100 100 100
24.437500000000 15.250000000000 65.832000732422 99 99 99
24.437500000000 15.125000000000 65.831001281738 101 101 101
24.437500000000 15.125000000000 65.836997985840 97 97 97
24.437500000000 15.000000000000 65.833999633789 104 104 104
24.437500000000 14.875000000000 65.834999084473 111 111 111
24.437500000000 14.750000000000 65.839996337891 117 117 117
24.437500000000 14.750000000000 65.839996337891 109 109 109
24.437500000000 14.625000000000 65.836997985840 106 106 106
24.437500000000 14.500000000000 65.832000732422 81 81 81
24.500000000000 14.375000000000 65.852996826172 72 72 72
24.500000000000 14.375000000000 65.831001281738 44 44 44
24.500000000000 13.500000000000 65.852996826172 47 47 47
24.500000000000 13.375000000000 65.833999633789 114 114 114
24.500000000000 13.250000000000 65.835998535156 96 96 96
24.500000000000 13.125000000000 65.849998474121 121 121 121
24.500000000000 13.125000000000 65.840995788574 172 172 172
24.500000000000 13.000000000000 65.840995788574 113 113 113
24.500000000000 12.875000000000 65.861000061035 131 131 131
24.500000000000 12.875000000000 65.852996826172 118 118 118
24.562500000000 12.750000000000 65.858001708984 129 129 129
24.562500000000 12.625000000000 65.847000122070 100 100 100
24.500000000000 12.500000000000 65.847000122070 113 113 113
24.500000000000 12.500000000000 65.856002807617 132 132 132
24.562500000000 12.375000000000 65.849998474121 145 145 145
24.562500000000 12.250000000000 65.846000671387 112 112 112
24.562500000000 12.250000000000 65.852996826172 115 115 115
24.562500000000 12.125000000000 65.862998962402 86 86 86
24.625000000000 11.125000000000 65.873001098633 58 58 58
24.625000000000 11.000000000000 65.861999511719 107 107 107
24.625000000000 11.000000000000 65.875000000000 124 124 124
24.625000000000 10.875000000000 65.867996215820 109 109 109
24.625000000000 10.750000000000 65.872001647949 108 108 108
24.625000000000 10.750000000000 65.862998962402 113 113 113
24.625000000000 10.625000000000 65.872001647949 131 131 131
24.625000000000 10.500000000000 65.873001098633 134 134 134
24.625000000000 10.375000000000 65.875000000000 128 128 128
24.625000000000 10.250000000000 65.871002197266 133 133 133
24.625000000000 10.250000000000 65.867004394531 136 136 136
24.625000000000 10.125000000000 65.873001098633 105 105 105
24.687500000000 10.125000000000 65.877998352051 102 102 102
24.687500000000 10.000000000000 65.866004943848 92 92 92
24.687500000000 9.875000000000 65.861000061035 86 86 86
24.687500000000 9.875000000000 65.867996215820 93 93 93
24.687500000000 9.625000000000 65.882003784180 88 88 88
24.687500000000 9.625000000000 65.888000488281 61 61 61
24.687500000000 9.500000000000 65.866004943848 89 89 89
24.687500000000 9.375000000000 65.888000488281 91 91 91
24.687500000000 9.375000000000 65.883003234863 104 104 104
24.687500000000 9.250000000000 65.878997802734 107 107 107
24.687500000000 9.250000000000 65.882003784180 65 65 65
24.750000000000 8.375000000000 65.896003723145 38 38 38
24.750000000000 8.375000000000 65.896003723145 45 45 45
24.750000000000 8.250000000000 65.905998229980 49 49 49
24.750000000000 8.125000000000 65.898002624512 59 59 59
24.750000000000 8.000000000000 65.902999877930 90 90 90
24.750000000000 8.000000000000 65.902000427246 108 108 108
24.750000000000 7.875000000000 65.914001464844 119 119 119
24.750000000000 7.875000000000 65.911003112793 136 136 136
24.750000000000 7.750000000000 65.904998779297 142 142 142
24.750000000000 7.625000000000 65.902999877930 125 125 125
24.750000000000 7.500000000000 65.911003112793 117 117 117
24.750000000000 7.500000000000 65.914001464844 115 115 115
24.750000000000 7.375000000000 65.906997680664 132 132 132
24.750000000000 7.250000000000 65.921005249023 131 131 131
24.812500000000 7.250000000000 65.911003112793 136 136 136
24.812500000000 7.125000000000 65.914001464844 110 110 110
24.750000000000 7.000000000000 65.906997680664 119 119 119
24.750000000000 6.875000000000 65.905998229980 100 100 100
24.812500000000 6.875000000000 65.916000366211 102 102 102
24.875000000000 6.750000000000 65.905998229980 110 110 110
24.812500000000 6.625000000000 65.914001464844 103 103 103
24.812500000000 6.625000000000 65.922004699707 106 106 106
23.187500000000 29.375000000000 65.725997924805 144 144 144
23.250000000000 29.375000000000 65.725997924805 145 145 145
23.250000000000 29.250000000000 65.724998474121 152 152 152
23.187500000000 29.125000000000 65.722000122070 149 149 149
23.250000000000 29.000000000000 65.739997863770 122 122 122
23.250000000000 29.000000000000 65.734001159668 136 136 136
23.250000000000 28.875000000000 65.735000610352 119 119 119
23.312500000000 28.875000000000 65.734001159668 153 153 153
23.312500000000 28.750000000000 65.749000549316 129 129 129
23.250000000000 28.625000000000 65.746002197266 120 120 120
23.312500000000 28.500000000000 65.747001647949 149 149 149
23.375000000000 28.500000000000 65.755004882813 141 141 141
23.375000000000 28.375000000000 65.745002746582 153 153 153
23.375000000000 28.250000000000 65.762001037598 137 137 137
23.375000000000 28.250000000000 65.739997863770 77 77 77
23.437500000000 27.500000000000 65.761001586914 125 125 125
23.437500000000 27.500000000000 65.752998352051 120 120 120
23.437500000000 27.375000000000 65.750999450684 93 93 93
23.437500000000 27.250000000000 65.763000488281 83 83 83
23.500000000000 27.125000000000 65.745002746582 48 48 48
23.500000000000 26.750000000000 65.770004272461 40 40 40
23.500000000000 26.625000000000 65.745002746582 80 80 80
23.562500000000 26.625000000000 65.746002197266 170 170 170
23.562500000000 26.500000000000 65.742996215820 154 154 154
23.562500000000 26.375000000000 65.742996215820 176 176 176
23.562500000000 26.250000000000 65.766998291016 159 159 159
23.625000000000 26.125000000000 65.760002136230 158 158 158
23.625000000000 26.125000000000 65.767997741699 145 145 145
23.625000000000 26.000000000000 65.773002624512 149 149 149
23.625000000000 26.000000000000 65.771003723145 156 156 156
23.625000000000 25.875000000000 65.770004272461 190 190 190
23.625000000000 25.750000000000 65.763999938965 182 182 182
23.625000000000 25.625000000000 65.773002624512 138 138 138
23.687500000000 25.625000000000 65.780998229980 145 145 145
23.687500000000 25.500000000000 65.779998779297 138 138 138
23.687500000000 25.375000000000 65.780998229980 153 153 153
23.687500000000 25.250000000000 65.770004272461 175 175 175
23.687500000000 25.250000000000 65.777000427246 144 144 144
23.687500000000 25.125000000000 65.771003723145 160 160 160
23.687500000000 25.125000000000 65.770004272461 190 190 190
23.750000000000 25.000000000000 65.784004211426 156 156 156
23.750000000000 24.875000000000 65.784004211426 140 140 140
23.750000000000 24.750000000000 65.787002563477 136 136 136
23.750000000000 24.750000000000 65.774002075195 144 144 144
23.750000000000 24.625000000000 65.842002868652 136 136 136
23.812500000000 24.375000000000 65.778999328613 92 92 92
23.812500000000 24.250000000000 65.789001464844 146 146 146
23.875000000000 24.250000000000 65.783004760742 152 152 152
23.875000000000 24.125000000000 65.781997680664 127 127 127
23.812500000000 24.000000000000 65.787002563477 125 125 125
23.875000000000 23.875000000000 65.783004760742 133 133 133
23.875000000000 23.750000000000 65.787002563477 131 131 131
23.875000000000 23.750000000000 65.779998779297 151 151 151
23.875000000000 23.750000000000 65.792999267578 111 111 111
23.875000000000 23.625000000000 65.798004150391 117 117 117
23.875000000000 23.500000000000 65.791000366211 147 147 147
23.875000000000 23.375000000000 65.802001953125 150 150 150
24.000000000000 22.875000000000 65.805000305176 27 27 27
24.000000000000 22.750000000000 65.794998168945 61 61 61
24.062500000000 22.750000000000 65.805999755859 134 134 134
24.000000000000 22.625000000000 65.796005249023 140 140 140
24.000000000000 22.500000000000 65.805999755859 126 126 126
24.062500000000 22.375000000000 65.798004150391 155 155 155
24.000000000000 22.375000000000 65.803001403809 144 144 144
24.062500000000 22.250000000000 65.847999572754 151 151 151
24.125000000000 22.000000000000 65.787002563477 48 48 48
24.125000000000 21.875000000000 65.815002441406 122 122 122
24.125000000000 21.750000000000 65.821998596191 130 130 130
24.125000000000 21.625000000000 65.820999145508 167 167 167
24.125000000000 21.625000000000 65.801002502441 129 129 129
24.187500000000 21.500000000000 65.812004089355 130 130 130
24.187500000000 21.500000000000 65.814002990723 47 47 47
24.125000000000 21.125000000000 65.836997985840 113 113 113
24.125000000000 21.000000000000 65.805999755859 179 179 179
24.125000000000 20.875000000000 65.802001953125 191 191 191
24.187500000000 20.750000000000 65.831001281738 126 126 126
24.187500000000 20.750000000000 65.808998107910 132 132 132
24.187500000000 20.750000000000 65.820999145508 143 143 143
24.125000000000 20.500000000000 65.811004638672 110 110 110
24.187500000000 20.125000000000 65.809997558594 140 140 140
24.187500000000 20.125000000000 65.814002990723 151 151 151
24.250000000000 20.000000000000 65.821998596191 170 170 170
24.250000000000 19.875000000000 65.828002929688 131 131 131
24.250000000000 19.875000000000 65.816001892090 128 128 128
24.250000000000 19.750000000000 65.813003540039 170 170 170
24.250000000000 19.625000000000 65.816001892090 122 122 122
24.187500000000 19.500000000000 65.847999572754 89 89 89
24.187500000000 19.500000000000 65.827003479004 102 102 102
24.250000000000 19.375000000000 65.800003051758 189 189 189
24.250000000000 19.250000000000 65.813003540039 183 183 183
24.250000000000 19.250000000000 65.817001342773 197 197 197
24.250000000000 19.125000000000 65.815002441406 164 164 164
24.250000000000 19.000000000000 65.831001281738 160 160 160
24.250000000000 18.875000000000 65.821998596191 148 148 148
24.250000000000 18.875000000000 65.824996948242 148 148 148
24.250000000000 18.750000000000 65.828002929688 81 81 81
24.250000000000 18.625000000000 65.821998596191 63 63 63
24.250000000000 18.625000000000 65.815002441406 122 122 122
24.250000000000 18.500000000000 65.824996948242 206 206 206
24.250000000000 18.375000000000 65.818000793457 161 161 161
24.250000000000 18.375000000000 65.816001892090 171 171 171
24.312500000000 18.250000000000 65.816001892090 188 188 188
24.312500000000 18.125000000000 65.821998596191 199 199 199
24.250000000000 18.000000000000 65.815002441406 195 195 195
24.312500000000 18.000000000000 65.819000244141 159 159 159
24.250000000000 17.750000000000 65.805999755859 85 85 85
24.312500000000 17.625000000000 65.827003479004 131 131 131
24.312500000000 17.625000000000 65.819000244141 146 146 146
24.312500000000 17.500000000000 65.833999633789 149 149 149
24.312500000000 17.375000000000 65.817001342773 153 153 153
24.312500000000 17.250000000000 65.833999633789 153 153 153
24.375000000000 17.250000000000 65.833999633789 143 143 143
24.375000000000 17.125000000000 65.825996398926 139 139 139
24.375000000000 17.125000000000 65.839996337891 132 132 132
24.375000000000 16.875000000000 65.833000183105 151 151 151
24.375000000000 16.875000000000 65.856002807617 144 144 144
24.375000000000 16.750000000000 65.883003234863 137 137 137
24.375000000000 16.500000000000 65.822998046875 75 75 75
24.375000000000 16.500000000000 65.827003479004 93 93 93
24.375000000000 16.375000000000 65.837997436523 93 93 93
24.375000000000 16.250000000000 65.816001892090 90 90 90
24.375000000000 16.125000000000 65.840995788574 117 117 117
24.375000000000 16.125000000000 65.824996948242 105 105 105
24.375000000000 16.000000000000 65.821998596191 115 115 115
24.375000000000 15.875000000000 65.842002868652 120 120 120
24.375000000000 15.875000000000 65.840995788574 116 116 116
24.375000000000 15.750000000000 65.838996887207 118 118 118
24.375000000000 15.625000000000 65.836997985840 108 108 108
24.437500000000 15.625000000000 65.828002929688 95 95 95
24.437500000000 15.500000000000 65.840995788574 110 110 110
24.437500000000 15.375000000000 65.834999084473 91 91 91
24.437500000000 15.250000000000 65.838996887207 113 113 113
24.437500000000 15.250000000000 65.834999084473 107 107 107
24.437500000000 15.125000000000 65.834999084473 106 106 106
24.437500000000 15.000000000000 65.827003479004 99 99 99
24.437500000000 15.000000000000 65.837997436523 108 108 108
24.437500000000 14.875000000000 65.833000183105 121 121 121
24.500000000000 14.750000000000 65.837997436523 72 72 72
24.437500000000 14.625000000000 65.847999572754 71 71 71
24.500000000000 14.375000000000 65.847999572754 29 29 29
24.437500000000 14.250000000000 65.828002929688 56 56 56
24.437500000000 14.125000000000 65.845001220703 64 64 64
24.437500000000 14.125000000000 65.835998535156 57 57 57
24.500000000000 14.000000000000 65.842002868652 51 51 51
24.500000000000 13.875000000000 65.849998474121 63 63 63
24.500000000000 13.750000000000 65.842002868652 72 72 72
24.500000000000 13.750000000000 65.845001220703 52 52 52
24.500000000000 13.625000000000 65.844001770020 93 93 93
24.500000000000 13.500000000000 65.842002868652 108 108 108
24.500000000000 13.500000000000 65.856002807617 129 129 129
24.500000000000 13.375000000000 65.848999023438 110 110 110
24.500000000000 13.250000000000 65.842002868652 99 99 99
24.500000000000 13.250000000000 65.848999023438 97 97 97
24.500000000000 13.125000000000 65.855003356934 120 120 120
24.500000000000 13.000000000000 65.851997375488 100 100 100
24.500000000000 13.000000000000 65.849998474121 103 103 103
24.500000000000 12.875000000000 65.851997375488 100 100 100
24.562500000000 12.750000000000 65.859001159668 98 98 98
24.562500000000 12.625000000000 65.861999511719 93 93 93
24.562500000000 12.625000000000 65.855003356934 93 93 93
24.562500000000 12.500000000000 65.853996276855 87 87 87
24.562500000000 11.625000000000 65.860000610352 47 47 47
24.625000000000 11.500000000000 65.866004943848 63 63 63
24.562500000000 11.375000000000 65.867004394531 97 97 97
24.562500000000 11.250000000000 65.863998413086 108 108 108
24.625000000000 11.125000000000 65.871002197266 123 123 123
24.625000000000 11.125000000000 65.856002807617 118 118 118
24.625000000000 11.000000000000 65.878997802734 119 119 119
24.625000000000 10.875000000000 65.878997802734 129 129 129
24.625000000000 10.875000000000 65.871002197266 104 104 104
24.625000000000 10.750000000000 65.888000488281 112 112 112
24.625000000000 10.625000000000 65.873001098633 116 116 116
24.625000000000 10.500000000000 65.869003295898 111 111 111
24.625000000000 10.500000000000 65.878997802734 111 111 111
24.625000000000 10.375000000000 65.874000549316 104 104 104
24.625000000000 10.250000000000 65.873001098633 114 114 114
24.625000000000 10.125000000000 65.864997863770 90 90 90
24.625000000000 10.125000000000 65.871002197266 91 91 91
24.687500000000 10.000000000000 65.876998901367 73 73 73
24.687500000000 10.000000000000 65.887001037598 80 80 80
24.687500000000 9.875000000000 65.876998901367 66 66 66
24.687500000000 9.750000000000 65.874000549316 88 88 88
24.687500000000 9.625000000000 65.877998352051 69 69 69
24.687500000000 9.625000000000 65.877998352051 75 75 75
24.687500000000 9.500000000000 65.882003784180 71 71 71
24.687500000000 9.250000000000 65.883003234863 41 41 41
24.687500000000 9.000000000000 65.871002197266 71 71 71
24.750000000000 9.000000000000 65.906997680664 126 126 126
24.750000000000 8.875000000000 65.891998291016 54 54 54
24.750000000000 8.750000000000 65.892997741699 78 78 78
24.687500000000 8.750000000000 65.899002075195 55 55 55
24.687500000000 8.625000000000 65.892997741699 75 75 75
24.750000000000 8.625000000000 65.900001525879 79 79 79
24.750000000000 8.500000000000 65.910003662109 105 105 105
24.750000000000 8.375000000000 65.897003173828 97 97 97
24.750000000000 8.250000000000 65.913002014160 129 129 129
24.750000000000 8.125000000000 65.904998779297 115 115 115
24.750000000000 8.125000000000 65.914001464844 110 110 110
24.750000000000 8.000000000000 65.921005249023 106 106 106
24.750000000000 7.875000000000 65.918998718262 105 105 105
24.750000000000 7.875000000000 65.914001464844 118 118 118
24.750000000000 7.750000000000 65.919998168945 120 120 120
24.750000000000 7.625000000000 65.904998779297 106 106 106
24.750000000000 7.500000000000 65.906997680664 109 109 109
24.750000000000 7.500000000000 65.925003051758 112 112 112
24.750000000000 7.375000000000 65.916999816895 106 106 106
24.750000000000 7.250000000000 65.913002014160 113 113 113
24.812500000000 7.250000000000 65.911003112793 112 112 112
24.812500000000 7.125000000000 65.913002014160 102 102 102
24.812500000000 7.125000000000 65.924003601074 106 106 106
24.750000000000 6.875000000000 65.914001464844 107 107 107
24.812500000000 6.875000000000 65.923004150391 103 103 103
24.875000000000 6.750000000000 65.911003112793 123 123 123
24.812500000000 6.625000000000 65.924003601074 116 116 116
24.812500000000 6.625000000000 65.912002563477 109 109 109
24.312500000000 18.000000000000 65.828002929688 83 83 83
24.312500000000 18.000000000000 65.819999694824 112 112 112
24.312500000000 17.875000000000 65.821998596191 69 69 69
24.312500000000 17.500000000000 65.824996948242 69 69 69
24.312500000000 17.375000000000 65.832000732422 76 76 76
24.312500000000 17.250000000000 65.827003479004 79 79 79
24.375000000000 17.250000000000 65.830001831055 81 81 81
24.375000000000 17.125000000000 65.834999084473 76 76 76
24.375000000000 17.125000000000 65.828002929688 73 73 73
24.375000000000 16.875000000000 65.833999633789 85 85 85
24.375000000000 16.875000000000 65.820999145508 91 91 91
24.375000000000 16.750000000000 65.820999145508 122 122 122
24.375000000000 16.750000000000 65.819000244141 84 84 84
24.375000000000 16.625000000000 65.811004638672 46 46 46
24.375000000000 16.125000000000 65.867996215820 76 76 76
24.375000000000 16.125000000000 65.835998535156 90 90 90
24.375000000000 15.875000000000 65.832000732422 56 56 56
24.375000000000 15.750000000000 65.845001220703 61 61 61
24.375000000000 15.625000000000 65.823997497559 69 69 69
24.375000000000 15.500000000000 65.839996337891 77 77 77
24.437500000000 15.375000000000 65.836997985840 75 75 75
24.437500000000 15.375000000000 65.845001220703 88 88 88
24.437500000000 15.250000000000 65.831001281738 73 73 73
24.375000000000 15.125000000000 65.834999084473 68 68 68
24.437500000000 15.125000000000 65.839996337891 79 79 79
24.500000000000 15.000000000000 65.828002929688 70 70 70
24.500000000000 15.000000000000 65.837997436523 80 80 80
24.437500000000 14.750000000000 65.837997436523 89 89 89
24.437500000000 14.750000000000 65.834999084473 101 101 101
24.500000000000 14.625000000000 65.847000122070 123 123 123
24.500000000000 14.500000000000 65.844001770020 95 95 95
24.500000000000 14.375000000000 65.846000671387 77 77 77
24.500000000000 14.375000000000 65.821998596191 50 50 50
24.500000000000 14.250000000000 65.844001770020 36 36 36
24.500000000000 14.125000000000 65.853996276855 42 42 42
24.500000000000 13.875000000000 65.852996826172 54 54 54
24.500000000000 13.500000000000 65.840995788574 46 46 46
24.500000000000 13.375000000000 65.844001770020 64 64 64
24.500000000000 13.250000000000 65.861000061035 77 77 77
24.500000000000 13.250000000000 65.847000122070 93 93 93
24.500000000000 13.125000000000 65.847999572754 106 106 106
24.500000000000 13.000000000000 65.850997924805 89 89 89
24.500000000000 13.000000000000 65.850997924805 87 87 87
24.500000000000 12.875000000000 65.857002258301 86 86 86
24.500000000000 12.750000000000 65.861999511719 80 80 80
24.562500000000 12.625000000000 65.853996276855 80 80 80
24.562500000000 12.625000000000 65.862998962402 91 91 91
24.562500000000 12.500000000000 65.867004394531 113 113 113
24.562500000000 12.375000000000 65.856002807617 156 156 156
24.562500000000 12.250000000000 65.853996276855 150 150 150
24.562500000000 12.250000000000 65.863998413086 136 136 136
24.625000000000 12.125000000000 65.861999511719 104 104 104
24.562500000000 12.000000000000 65.860000610352 120 120 120
24.562500000000 12.000000000000 65.855003356934 117 117 117
24.562500000000 11.875000000000 65.872001647949 98 98 98
24.625000000000 11.750000000000 65.845001220703 131 131 131
24.625000000000 11.625000000000 65.855003356934 105 105 105
24.625000000000 11.625000000000 65.850997924805 59 59 59
24.625000000000 11.125000000000 65.861000061035 41 41 41
24.625000000000 11.000000000000 65.875000000000 40 40 40
24.625000000000 11.000000000000 65.872001647949 64 64 64
24.625000000000 10.875000000000 65.881004333496 52 52 52
24.625000000000 10.875000000000 65.886001586914 53 53 53
24.625000000000 10.750000000000 65.881004333496 64 64 64
24.625000000000 10.625000000000 65.883003234863 85 85 85
24.625000000000 10.500000000000 65.875000000000 101 101 101
24.625000000000 10.500000000000 65.871002197266 102 102 102
24.625000000000 10.250000000000 65.861999511719 111 111 111
24.625000000000 10.250000000000 65.875999450684 117 117 117
24.625000000000 10.125000000000 65.884002685547 113 113 113
24.625000000000 10.125000000000 65.878997802734 99 99 99
24.687500000000 10.000000000000 65.882003784180 99 99 99
24.687500000000 9.875000000000 65.888000488281 104 104 104
24.687500000000 9.875000000000 65.887001037598 114 114 114
24.687500000000 9.750000000000 65.880004882813 115 115 115
24.687500000000 9.625000000000 65.889999389648 113 113 113
24.687500000000 9.500000000000 65.887001037598 116 116 116
24.750000000000 9.375000000000 65.888999938965 163 163 163
24.750000000000 9.375000000000 65.899002075195 177 177 177
24.750000000000 9.375000000000 65.880004882813 124 124 124
24.687500000000 9.250000000000 65.900001525879 53 53 53
24.687500000000 9.000000000000 65.897003173828 92 92 92
24.750000000000 9.000000000000 65.919998168945 78 78 78
24.750000000000 8.125000000000 65.957000732422 134 134 134
24.750000000000 8.125000000000 65.923004150391 120 120 120
24.750000000000 8.000000000000 65.906997680664 123 123 123
24.750000000000 7.875000000000 65.899002075195 118 118 118
24.750000000000 7.875000000000 65.904998779297 139 139 139
24.750000000000 7.750000000000 65.912002563477 145 145 145
24.750000000000 7.750000000000 65.903999328613 132 132 132
24.750000000000 7.500000000000 65.913002014160 143 143 143
24.750000000000 7.500000000000 65.913002014160 141 141 141
24.750000000000 7.375000000000 65.916000366211 146 146 146
24.812500000000 7.250000000000 65.906997680664 160 160 160
24.750000000000 7.250000000000 65.919998168945 156 156 156
24.812500000000 7.125000000000 65.915000915527 135 135 135
24.812500000000 7.125000000000 65.909004211426 143 143 143
24.812500000000 7.000000000000 65.911003112793 166 166 166
24.812500000000 6.875000000000 65.905998229980 167 167 167
24.812500000000 6.750000000000 65.918998718262 179 179 179
24.812500000000 6.625000000000 65.922004699707 169 169 169
24.875000000000 6.625000000000 65.913002014160 143 143 143
23.312500000000 28.250000000000 65.736000061035 7 7 7
23.375000000000 28.000000000000 65.748001098633 5 5 5
23.375000000000 27.500000000000 65.776000976563 13 13 13
23.625000000000 25.750000000000 65.772003173828 7 7 7
23.625000000000 25.375000000000 65.793998718262 38 38 38
24.687500000000 9.000000000000 65.921005249023 8 8 8
23.625000000000 25.500000000000 65.772003173828 1 1 1
23.625000000000 25.250000000000 65.777000427246 43 43 43
23.312500000000 28.500000000000 65.721000671387 15 15 15
23.375000000000 28.250000000000 65.730003356934 16 16 16
23.375000000000 28.250000000000 65.732002258301 9 9 9
23.500000000000 26.625000000000 65.741004943848 13 13 13
23.562500000000 26.500000000000 65.751998901367 12 12 12
23.750000000000 25.000000000000 65.744003295898 7 7 7
23.750000000000 24.750000000000 65.763999938965 12 12 12
23.750000000000 24.625000000000 65.771003723145 8 8 8
24.000000000000 22.625000000000 65.791000366211 8 8 8
24.000000000000 22.500000000000 65.797004699707 10 10 10
24.000000000000 22.375000000000 65.807998657227 6 6 6
24.125000000000 21.750000000000 65.851997375488 13 13 13
24.187500000000 19.500000000000 65.800003051758 6 6 6
24.250000000000 19.375000000000 65.796005249023 8 8 8
24.250000000000 19.250000000000 65.813003540039 7 7 7
24.187500000000 19.000000000000 65.807998657227 8 8 8
24.250000000000 18.875000000000 65.809997558594 6 6 6
24.375000000000 15.500000000000 65.815002441406 5 5 5
24.375000000000 15.375000000000 65.821998596191 7 7 7
24.375000000000 15.250000000000 65.828002929688 6 6 6
24.375000000000 15.125000000000 65.833000183105 5 5 5
24.750000000000 8.375000000000 65.870002746582 5 5 5
24.750000000000 8.125000000000 65.875000000000 7 7 7
24.750000000000 8.000000000000 65.873001098633 5 5 5
24.750000000000 7.875000000000 65.875999450684 7 7 7
24.750000000000 7.750000000000 65.880004882813 7 7 7
24.750000000000 7.500000000000 65.884002685547 4 4 4
24.750000000000 7.375000000000 65.881004333496 8 8 8
24.812500000000 7.250000000000 65.888000488281 6 6 6
24.812500000000 7.125000000000 65.886001586914 5 5 5
24.750000000000 6.875000000000 65.887001037598 6 6 6
24.812500000000 6.750000000000 65.891998291016 6 6 6
24.187500000000 20.375000000000 65.808998107910 22 22 22
24.187500000000 20.500000000000 65.818000793457 21 21 21
24.125000000000 21.625000000000 65.829002380371 57 57 57
24.125000000000 21.875000000000 65.812004089355 29 29 29
24.062500000000 22.000000000000 65.811004638672 23 23 23
24.000000000000 22.625000000000 65.804000854492 27 27 27
23.875000000000 23.500000000000 65.791000366211 24 24 24
23.812500000000 24.125000000000 65.784004211426 26 26 26
23.750000000000 24.750000000000 65.774002075195 31 31 31
23.687500000000 25.375000000000 65.774002075195 84 84 84
23.625000000000 25.500000000000 65.769004821777 26 26 26
23.562500000000 26.000000000000 65.763000488281 27 27 27
23.625000000000 26.125000000000 65.750999450684 32 32 32
23.500000000000 26.750000000000 65.764999389648 28 28 28
23.375000000000 27.875000000000 65.752998352051 32 32 32
23.375000000000 28.000000000000 65.738998413086 23 23 23
23.187500000000 29.250000000000 65.722000122070 27 27 27
24.812500000000 6.625000000000 65.903999328613 21 21 21
24.812500000000 6.625000000000 65.897003173828 14 14 14
24.750000000000 8.000000000000 65.895004272461 28 28 28
24.750000000000 8.125000000000 65.902999877930 37 37 37
24.750000000000 8.250000000000 65.895004272461 35 35 35
24.750000000000 8.375000000000 65.889999389648 28 28 28
24.750000000000 8.500000000000 65.896003723145 58 58 58
24.687500000000 8.625000000000 65.885002136230 53 53 53
24.750000000000 8.750000000000 65.881004333496 56 56 56
24.625000000000 10.375000000000 65.875000000000 29 29 29
24.625000000000 10.500000000000 65.882003784180 29 29 29
24.625000000000 10.500000000000 65.886001586914 30 30 30
24.625000000000 10.625000000000 65.871002197266 38 38 38
24.625000000000 10.750000000000 65.863998413086 61 61 61
24.625000000000 10.875000000000 65.869003295898 32 32 32
24.625000000000 11.000000000000 65.872001647949 47 47 47
24.625000000000 11.125000000000 65.853996276855 19 19 19
24.500000000000 12.875000000000 65.862998962402 14 14 14
24.500000000000 12.875000000000 65.855003356934 46 46 46
24.500000000000 13.000000000000 65.847999572754 94 94 94
24.500000000000 13.125000000000 65.840995788574 59 59 59
24.500000000000 13.250000000000 65.840995788574 60 60 60
24.500000000000 13.375000000000 65.845001220703 69 69 69
24.500000000000 13.500000000000 65.834999084473 62 62 62
24.500000000000 13.500000000000 65.836997985840 61 61 61
24.500000000000 13.625000000000 65.845001220703 49 49 49
24.437500000000 15.250000000000 65.843002319336 15 15 15
24.375000000000 15.250000000000 65.837997436523 27 27 27
24.375000000000 15.375000000000 65.838996887207 58 58 58
24.375000000000 15.500000000000 65.832000732422 77 77 77
24.375000000000 15.625000000000 65.821998596191 80 80 80
24.375000000000 15.750000000000 65.817001342773 79 79 79
24.375000000000 15.875000000000 65.829002380371 29 29 29
24.375000000000 15.875000000000 65.811004638672 58 58 58
24.375000000000 17.125000000000 65.847999572754 15 15 15
24.312500000000 17.125000000000 65.834999084473 27 27 27
24.312500000000 17.250000000000 65.833000183105 58 58 58
24.312500000000 17.375000000000 65.819999694824 58 58 58
24.312500000000 17.500000000000 65.817001342773 53 53 53
24.312500000000 17.625000000000 65.807998657227 65 65 65
24.375000000000 17.750000000000 65.829002380371 41 41 41
24.312500000000 17.750000000000 65.801002502441 38 38 38
24.250000000000 18.875000000000 65.809997558594 40 40 40
24.250000000000 19.000000000000 65.820999145508 61 61 61
24.250000000000 19.125000000000 65.809997558594 54 54 54
24.250000000000 19.250000000000 65.809997558594 44 44 44
24.250000000000 19.375000000000 65.805999755859 23 23 23
24.187500000000 20.500000000000 65.805999755859 45 45 45
24.125000000000 20.625000000000 65.806999206543 56 56 56
24.125000000000 20.750000000000 65.804000854492 58 58 58
