24.734375000000 18.640625000000 2.645004272461 180 180 180
24.640625000000 18.640625000000 2.644004821777 163 163 163
24.671875000000 18.640625000000 2.616004943848 167 167 167
24.671875000000 18.640625000000 2.592002868652 167 167 167
24.671875000000 18.640625000000 2.566001892090 170 170 170
24.671875000000 18.640625000000 2.542999267578 172 172 172
24.656250000000 18.640625000000 2.522003173828 168 168 168
24.625000000000 18.656250000000 2.500999450684 168 168 168
24.765625000000 18.640625000000 2.437004089355 179 179 179
24.781250000000 18.640625000000 2.406997680664 181 181 181
24.765625000000 18.640625000000 2.384002685547 179 179 179
24.765625000000 18.640625000000 2.361000061035 182 182 182
24.781250000000 18.640625000000 2.330001831055 183 183 183
24.765625000000 18.640625000000 2.308998107910 184 184 184
24.765625000000 18.640625000000 2.279998779297 184 184 184
24.765625000000 18.640625000000 2.253997802734 183 183 183
24.781250000000 18.640625000000 2.227005004883 183 183 183
24.765625000000 18.640625000000 2.202003479004 184 184 184
24.765625000000 18.640625000000 2.176002502441 181 181 181
24.765625000000 18.640625000000 2.149002075195 184 184 184
24.765625000000 18.640625000000 2.127998352051 179 179 179
24.765625000000 18.640625000000 2.097999572754 182 182 182
24.765625000000 18.640625000000 2.070999145508 175 175 175
24.765625000000 18.640625000000 2.044998168945 180 180 180
24.765625000000 18.640625000000 2.020004272461 186 186 186
24.796875000000 18.640625000000 1.978004455566 159 159 159
24.859375000000 18.640625000000 1.923004150391 165 165 165
24.875000000000 18.656250000000 1.894004821777 157 157 157
24.859375000000 18.640625000000 1.867004394531 150 150 150
24.875000000000 18.656250000000 1.835998535156 151 151 151
24.859375000000 18.640625000000 1.811004638672 147 147 147
24.875000000000 18.656250000000 1.778999328613 143 143 143
24.859375000000 18.640625000000 1.753997802734 139 139 139
24.875000000000 18.656250000000 1.722000122070 141 141 141
24.859375000000 18.640625000000 1.694000244141 142 142 142
25.437500000000 18.937500000000 2.635002136230 149 149 149
25.421875000000 18.937500000000 2.610000610352 168 168 168
25.421875000000 18.937500000000 2.581001281738 168 168 168
25.421875000000 18.937500000000 2.553001403809 169 169 169
25.421875000000 18.937500000000 2.524002075195 168 168 168
25.421875000000 18.937500000000 2.495002746582 166 166 166
25.421875000000 18.937500000000 2.467002868652 121 121 121
24.546875000000 18.968750000000 2.655998229980 84 84 84
24.546875000000 18.968750000000 2.630004882813 166 166 166
24.546875000000 18.968750000000 2.607002258301 168 168 168
24.562500000000 18.968750000000 2.581001281738 172 172 172
24.546875000000 18.968750000000 2.558998107910 168 168 168
24.546875000000 18.968750000000 2.536003112793 169 169 169
24.562500000000 18.968750000000 2.510002136230 174 174 174
24.562500000000 18.968750000000 2.486999511719 158 158 158
24.515625000000 18.968750000000 2.472999572754 108 108 108
25.515625000000 19.265625000000 2.663002014160 115 115 115
25.468750000000 19.281250000000 2.642997741699 172 172 172
25.437500000000 19.265625000000 2.622001647949 165 165 165
25.437500000000 19.265625000000 2.593002319336 174 174 174
25.421875000000 19.281250000000 2.566001892090 170 170 170
25.437500000000 19.281250000000 2.536003112793 171 171 171
25.421875000000 19.281250000000 2.510002136230 170 170 170
25.437500000000 19.281250000000 2.479003906250 166 166 166
24.515625000000 19.296875000000 2.677001953125 106 106 106
24.437500000000 19.312500000000 2.673004150391 155 155 155
24.406250000000 19.296875000000 2.658004760742 171 171 171
24.406250000000 19.296875000000 2.634002685547 173 173 173
24.421875000000 19.296875000000 2.609001159668 173 173 173
24.406250000000 19.296875000000 2.589004516602 172 172 172
24.406250000000 19.296875000000 2.565002441406 168 168 168
24.406250000000 19.296875000000 2.541999816895 172 172 172
24.406250000000 19.312500000000 2.521003723145 171 171 171
24.406250000000 19.312500000000 2.497001647949 169 169 169
24.406250000000 19.312500000000 2.474998474121 176 176 176
24.406250000000 19.312500000000 2.450004577637 174 174 174
24.390625000000 19.312500000000 2.430999755859 39 39 39
25.484375000000 19.265625000000 2.437004089355 112 112 112
15.656250000000 11.500000000000 2.577003479004 118 118 118
15.703125000000 11.500000000000 2.556999206543 159 159 159
15.734375000000 11.500000000000 2.536003112793 170 170 170
15.750000000000 11.500000000000 2.509002685547 168 168 168
15.734375000000 11.500000000000 2.479003906250 166 166 166
15.750000000000 11.500000000000 2.453002929688 165 165 165
15.750000000000 11.500000000000 2.423004150391 166 166 166
16.625000000000 11.484375000000 2.621002197266 94 94 94
16.687500000000 11.484375000000 2.613998413086 170 170 170
16.703125000000 11.484375000000 2.592002868652 181 181 181
16.703125000000 11.484375000000 2.569999694824 181 181 181
16.687500000000 11.484375000000 2.542999267578 183 183 183
16.703125000000 11.484375000000 2.520004272461 175 175 175
16.718750000000 11.484375000000 2.503997802734 168 168 168
16.687500000000 11.484375000000 2.472000122070 180 180 180
16.703125000000 11.484375000000 2.451004028320 176 176 176
16.703125000000 11.484375000000 2.426002502441 178 178 178
16.703125000000 11.484375000000 2.403999328613 178 178 178
16.718750000000 11.484375000000 2.382003784180 101 101 101
15.718750000000 11.515625000000 2.383003234863 139 139 139
16.125000000000 11.828125000000 2.636001586914 97 97 97
16.281250000000 11.812500000000 2.640998840332 100 100 100
16.359375000000 11.812500000000 2.632003784180 149 149 149
16.375000000000 11.812500000000 2.610000610352 165 165 165
16.375000000000 11.812500000000 2.585998535156 166 166 166
16.375000000000 11.812500000000 2.561004638672 169 169 169
16.515625000000 11.812500000000 2.570999145508 157 157 157
16.578125000000 11.796875000000 2.561004638672 145 145 145
16.578125000000 11.796875000000 2.538002014160 144 144 144
16.578125000000 11.796875000000 2.512001037598 145 145 145
16.578125000000 11.796875000000 2.488998413086 143 143 143
16.578125000000 11.796875000000 2.465003967285 149 149 149
16.578125000000 11.812500000000 2.443000793457 151 151 151
16.578125000000 11.812500000000 2.418998718262 131 131 131
16.406250000000 11.812500000000 2.336997985840 176 176 176
16.390625000000 11.812500000000 2.305000305176 171 171 171
16.390625000000 11.812500000000 2.278999328613 173 173 173
16.390625000000 11.812500000000 2.253997802734 172 172 172
16.406250000000 11.812500000000 2.230003356934 177 177 177
16.390625000000 11.812500000000 2.202003479004 174 174 174
16.406250000000 11.812500000000 2.177001953125 177 177 177
16.390625000000 11.812500000000 2.148002624512 177 177 177
16.406250000000 11.812500000000 2.124000549316 177 177 177
16.406250000000 11.812500000000 2.098999023438 180 180 180
16.406250000000 11.812500000000 2.070999145508 177 177 177
16.406250000000 11.812500000000 2.044998168945 178 178 178
16.406250000000 11.812500000000 2.016998291016 181 181 181
16.406250000000 11.812500000000 1.989997863770 178 178 178
16.406250000000 11.812500000000 1.960998535156 180 180 180
16.406250000000 11.812500000000 1.936004638672 176 176 176
16.015625000000 12.140625000000 2.648002624512 59 59 59
16.125000000000 12.156250000000 2.642997741699 127 127 127
16.250000000000 12.140625000000 2.647003173828 129 129 129
16.359375000000 12.140625000000 2.646003723145 170 170 170
16.375000000000 12.140625000000 2.625000000000 183 183 183
16.406250000000 12.140625000000 2.600997924805 184 184 184
16.406250000000 12.140625000000 2.578002929688 185 185 185
16.531250000000 12.125000000000 2.582000732422 165 165 165
16.531250000000 12.125000000000 2.556999206543 168 168 168
16.531250000000 12.125000000000 2.534004211426 167 167 167
16.531250000000 12.125000000000 2.510002136230 168 168 168
16.531250000000 12.125000000000 2.486000061035 167 167 167
16.531250000000 12.125000000000 2.459999084473 166 166 166
16.531250000000 12.125000000000 2.433998107910 159 159 159
16.437500000000 12.140625000000 2.381004333496 185 185 185
16.406250000000 12.140625000000 2.346000671387 186 186 186
16.406250000000 12.140625000000 2.319999694824 189 189 189
16.406250000000 12.140625000000 2.294998168945 183 183 183
16.406250000000 12.140625000000 2.269004821777 187 187 187
16.421875000000 12.140625000000 2.244003295898 180 180 180
16.421875000000 12.140625000000 2.217002868652 186 186 186
16.421875000000 12.140625000000 2.194000244141 183 183 183
16.406250000000 12.140625000000 2.164001464844 183 183 183
16.421875000000 12.140625000000 2.138999938965 183 183 183
16.421875000000 12.140625000000 2.112998962402 184 184 184
16.421875000000 12.140625000000 2.084999084473 181 181 181
16.421875000000 12.140625000000 2.055999755859 179 179 179
16.421875000000 12.140625000000 2.030998229980 181 181 181
16.421875000000 12.140625000000 2.002998352051 179 179 179
16.421875000000 12.140625000000 1.980003356934 183 183 183
16.421875000000 12.140625000000 1.952003479004 185 185 185
16.421875000000 12.140625000000 1.920997619629 135 135 135
15.875000000000 12.468750000000 2.576004028320 163 163 163
15.890625000000 12.468750000000 2.550003051758 168 168 168
15.890625000000 12.468750000000 2.520004272461 171 171 171
15.890625000000 12.468750000000 2.493003845215 169 169 169
15.875000000000 12.468750000000 2.459999084473 144 144 144
16.515625000000 12.453125000000 2.592002868652 166 166 166
16.500000000000 12.453125000000 2.565002441406 160 160 160
16.500000000000 12.453125000000 2.541000366211 167 167 167
16.500000000000 12.453125000000 2.515998840332 167 167 167
16.515625000000 12.453125000000 2.494003295898 160 160 160
16.515625000000 12.453125000000 2.467002868652 166 166 166
16.515625000000 12.453125000000 2.443000793457 160 160 160
16.546875000000 12.453125000000 2.426002502441 69 69 69
15.875000000000 12.796875000000 2.583999633789 79 79 79
15.906250000000 12.796875000000 2.562004089355 216 216 216
15.906250000000 12.796875000000 2.535003662109 222 222 222
15.906250000000 12.796875000000 2.505004882813 231 231 231
15.906250000000 12.796875000000 2.479003906250 225 225 225
16.421875000000 12.781250000000 2.577003479004 4 4 4
16.468750000000 12.781250000000 2.568000793457 228 228 228
16.484375000000 12.781250000000 2.544998168945 224 224 224
16.484375000000 12.781250000000 2.520004272461 226 226 226
16.484375000000 12.781250000000 2.495002746582 227 227 227
16.484375000000 12.781250000000 2.471000671387 226 226 226
16.484375000000 12.781250000000 2.444000244141 219 219 219
15.921875000000 13.125000000000 2.577003479004 210 210 210
15.937500000000 13.125000000000 2.551002502441 216 216 216
15.921875000000 13.125000000000 2.519004821777 230 230 230
15.937500000000 13.125000000000 2.493003845215 230 230 230
16.375000000000 13.109375000000 2.576004028320 4 4 4
16.468750000000 13.093750000000 2.576004028320 226 226 226
16.468750000000 13.093750000000 2.551002502441 225 225 225
16.468750000000 13.093750000000 2.523002624512 232 232 232
16.468750000000 13.093750000000 2.499000549316 229 229 229
16.468750000000 13.093750000000 2.474998474121 230 230 230
16.468750000000 13.093750000000 2.448997497559 216 216 216
15.953125000000 13.437500000000 2.594001770020 132 132 132
15.968750000000 13.453125000000 2.570999145508 201 201 201
15.953125000000 13.437500000000 2.539001464844 228 228 228
15.953125000000 13.437500000000 2.512001037598 231 231 231
16.328125000000 13.437500000000 2.571998596191 5 5 5
16.453125000000 13.421875000000 2.579002380371 235 235 235
16.453125000000 13.421875000000 2.556999206543 225 225 225
16.453125000000 13.421875000000 2.529998779297 231 231 231
16.453125000000 13.421875000000 2.507003784180 228 228 228
16.468750000000 13.421875000000 2.482002258301 226 226 226
16.453125000000 13.421875000000 2.453002929688 227 227 227
16.000000000000 13.765625000000 2.586997985840 207 207 207
16.000000000000 13.765625000000 2.561004638672 208 208 208
16.000000000000 13.765625000000 2.535003662109 175 175 175
16.328125000000 13.750000000000 2.586997985840 206 206 206
16.437500000000 13.750000000000 2.586997985840 227 227 227
16.437500000000 13.750000000000 2.563003540039 220 220 220
16.453125000000 13.750000000000 2.539001464844 218 218 218
16.437500000000 13.750000000000 2.512001037598 223 223 223
16.437500000000 13.750000000000 2.486999511719 221 221 221
16.437500000000 13.750000000000 2.461997985840 222 222 222
16.015625000000 14.093750000000 2.604003906250 115 115 115
16.031250000000 14.093750000000 2.580001831055 213 213 213
16.031250000000 14.093750000000 2.552001953125 225 225 225
16.093750000000 14.093750000000 2.539001464844 246 246 246
16.421875000000 14.078125000000 2.593002319336 229 229 229
16.437500000000 14.078125000000 2.569999694824 216 216 216
16.421875000000 14.078125000000 2.541999816895 219 219 219
16.421875000000 14.078125000000 2.515998840332 221 221 221
16.421875000000 14.078125000000 2.493003845215 219 219 219
16.421875000000 14.078125000000 2.466003417969 219 219 219
16.062500000000 14.406250000000 2.597999572754 202 202 202
16.062500000000 14.406250000000 2.570999145508 210 210 210
16.093750000000 14.406250000000 2.551002502441 235 235 235
16.390625000000 14.390625000000 2.597999572754 220 220 220
16.390625000000 14.390625000000 2.575004577637 218 218 218
16.390625000000 14.390625000000 2.548004150391 212 212 212
16.406250000000 14.390625000000 2.525001525879 209 209 209
16.406250000000 14.390625000000 2.499000549316 215 215 215
16.390625000000 14.390625000000 2.472000122070 218 218 218
16.093750000000 14.734375000000 2.612998962402 128 128 128
16.109375000000 14.734375000000 2.591003417969 198 198 198
16.125000000000 14.734375000000 2.569000244141 219 219 219
16.343750000000 14.734375000000 2.597000122070 229 229 229
16.375000000000 14.734375000000 2.576004028320 216 216 216
16.375000000000 14.734375000000 2.554000854492 203 203 203
16.375000000000 14.734375000000 2.527000427246 205 205 205
16.375000000000 14.734375000000 2.500000000000 217 217 217
16.375000000000 14.734375000000 2.472999572754 211 211 211
16.125000000000 15.062500000000 2.609001159668 201 201 201
16.125000000000 15.062500000000 2.582000732422 216 216 216
16.343750000000 15.046875000000 2.608001708984 216 216 216
16.343750000000 15.046875000000 2.581001281738 223 223 223
16.359375000000 15.046875000000 2.557998657227 204 204 204
16.343750000000 15.046875000000 2.529998779297 208 208 208
16.343750000000 15.046875000000 2.505004882813 219 219 219
16.343750000000 15.046875000000 2.479003906250 207 207 207
16.156250000000 15.375000000000 2.603004455566 215 215 215
16.328125000000 15.375000000000 2.616004943848 206 206 206
16.328125000000 15.375000000000 2.590003967285 218 218 218
16.328125000000 15.375000000000 2.564002990723 215 215 215
16.328125000000 15.375000000000 2.539001464844 175 175 175
16.328125000000 15.375000000000 2.512001037598 222 222 222
16.328125000000 15.375000000000 2.486000061035 218 218 218
16.187500000000 15.703125000000 2.758003234863 150 150 150
16.203125000000 15.687500000000 2.733001708984 179 179 179
16.203125000000 15.687500000000 2.707000732422 180 180 180
16.203125000000 15.687500000000 2.680000305176 177 177 177
16.203125000000 15.687500000000 2.653999328613 173 173 173
16.187500000000 15.703125000000 2.626998901367 150 150 150
16.296875000000 15.687500000000 2.620002746582 202 202 202
16.312500000000 15.687500000000 2.598999023438 213 213 213
16.312500000000 15.687500000000 2.573997497559 217 217 217
16.312500000000 15.687500000000 2.545997619629 222 222 222
16.312500000000 15.687500000000 2.522003173828 220 220 220
16.312500000000 15.687500000000 2.495002746582 216 216 216
16.328125000000 15.687500000000 2.473999023438 78 78 78
16.265625000000 16.015625000000 2.626998901367 182 182 182
16.296875000000 16.015625000000 2.609001159668 225 225 225
16.296875000000 16.015625000000 2.583999633789 222 222 222
16.296875000000 16.015625000000 2.559997558594 223 223 223
16.296875000000 16.015625000000 2.531997680664 224 224 224
16.296875000000 16.015625000000 2.506004333496 222 222 222
16.312500000000 16.015625000000 2.483001708984 133 133 133
16.265625000000 16.343750000000 2.637001037598 94 94 94
16.265625000000 16.343750000000 2.611000061035 222 222 222
16.265625000000 16.343750000000 2.584999084473 227 227 227
16.250000000000 16.343750000000 2.557998657227 223 223 223
16.265625000000 16.343750000000 2.534004211426 223 223 223
16.265625000000 16.343750000000 2.506004333496 223 223 223
16.281250000000 16.343750000000 2.484001159668 41 41 41
16.281250000000 16.671875000000 2.625000000000 213 213 213
16.281250000000 16.671875000000 2.598999023438 224 224 224
16.265625000000 16.671875000000 2.570999145508 232 232 232
16.281250000000 16.671875000000 2.545997619629 224 224 224
16.265625000000 16.671875000000 2.519004821777 226 226 226
16.281250000000 16.671875000000 2.497001647949 154 154 154
16.281250000000 17.000000000000 2.637001037598 113 113 113
16.281250000000 16.984375000000 2.611999511719 231 231 231
16.296875000000 16.984375000000 2.588005065918 225 225 225
16.281250000000 16.984375000000 2.561004638672 224 224 224
16.281250000000 16.984375000000 2.535003662109 223 223 223
16.296875000000 16.984375000000 2.511001586914 203 203 203
16.281250000000 17.312500000000 2.625999450684 218 218 218
16.296875000000 17.312500000000 2.604003906250 222 222 222
16.296875000000 17.312500000000 2.575004577637 230 230 230
16.296875000000 17.312500000000 2.552001953125 225 225 225
16.296875000000 17.312500000000 2.525001525879 224 224 224
16.312500000000 17.312500000000 2.500999450684 85 85 85
16.312500000000 17.625000000000 2.642997741699 151 151 151
16.312500000000 17.625000000000 2.617004394531 225 225 225
16.296875000000 17.640625000000 2.589004516602 226 226 226
16.296875000000 17.640625000000 2.563003540039 226 226 226
16.312500000000 17.625000000000 2.538002014160 227 227 227
16.312500000000 17.625000000000 2.513999938965 179 179 179
15.656250000000 11.265625000000 2.565002441406 131 131 131
15.671875000000 11.250000000000 2.536003112793 146 146 146
15.671875000000 11.250000000000 2.501998901367 146 146 146
15.671875000000 11.250000000000 2.468002319336 148 148 148
15.671875000000 11.250000000000 2.434997558594 146 146 146
15.687500000000 11.234375000000 2.402000427246 142 142 142
15.687500000000 11.234375000000 2.368003845215 144 144 144
15.687500000000 11.234375000000 2.336997985840 104 104 104
15.703125000000 11.562500000000 2.555000305176 109 109 109
15.734375000000 11.531250000000 2.530998229980 147 147 147
15.734375000000 11.531250000000 2.499000549316 142 142 142
15.734375000000 11.531250000000 2.463005065918 144 144 144
15.734375000000 11.531250000000 2.431999206543 144 144 144
15.734375000000 11.531250000000 2.396003723145 139 139 139
15.703125000000 11.562500000000 2.350997924805 104 104 104
15.781250000000 11.843750000000 2.556999206543 137 137 137
15.796875000000 11.828125000000 2.527999877930 164 164 164
15.781250000000 11.843750000000 2.491004943848 163 163 163
15.796875000000 11.828125000000 2.459999084473 163 163 163
15.796875000000 11.828125000000 2.426002502441 159 159 159
15.703125000000 11.890625000000 2.364997863770 3 3 3
16.656250000000 11.312500000000 2.611999511719 144 144 144
16.703125000000 11.281250000000 2.598999023438 166 166 166
16.687500000000 11.281250000000 2.569000244141 154 154 154
16.703125000000 11.281250000000 2.542999267578 154 154 154
16.703125000000 11.281250000000 2.516998291016 162 162 162
16.734375000000 11.265625000000 2.497001647949 153 153 153
16.703125000000 11.281250000000 2.459999084473 167 167 167
16.703125000000 11.281250000000 2.432998657227 170 170 170
16.718750000000 11.265625000000 2.410003662109 168 168 168
16.703125000000 11.281250000000 2.381004333496 149 149 149
16.000000000000 12.046875000000 2.630004882813 181 181 181
16.140625000000 11.937500000000 2.639999389648 130 130 130
16.281250000000 11.875000000000 2.647003173828 128 128 128
16.343750000000 11.828125000000 2.637001037598 159 159 159
16.375000000000 11.812500000000 2.614997863770 166 166 166
16.375000000000 11.812500000000 2.585998535156 170 170 170
16.375000000000 11.796875000000 2.556999206543 170 170 170
16.375000000000 11.812500000000 2.525001525879 170 170 170
16.593750000000 11.671875000000 2.573997497559 145 145 145
16.593750000000 11.671875000000 2.547004699707 155 155 155
16.593750000000 11.671875000000 2.519004821777 152 152 152
16.593750000000 11.671875000000 2.491004943848 154 154 154
16.593750000000 11.656250000000 2.465003967285 155 155 155
16.593750000000 11.656250000000 2.434997558594 153 153 153
16.625000000000 11.656250000000 2.411003112793 136 136 136
16.390625000000 11.796875000000 2.292999267578 171 171 171
16.390625000000 11.812500000000 2.259002685547 170 170 170
16.390625000000 11.796875000000 2.230003356934 168 168 168
16.390625000000 11.796875000000 2.202003479004 169 169 169
16.406250000000 11.796875000000 2.173004150391 168 168 168
16.406250000000 11.796875000000 2.141998291016 167 167 167
16.390625000000 11.796875000000 2.108001708984 169 169 169
16.390625000000 11.796875000000 2.077003479004 171 171 171
16.390625000000 11.796875000000 2.044998168945 171 171 171
16.406250000000 11.796875000000 2.017997741699 171 171 171
16.406250000000 11.796875000000 1.986999511719 171 171 171
16.406250000000 11.781250000000 1.957000732422 171 171 171
16.406250000000 11.796875000000 1.924003601074 159 159 159
16.125000000000 11.953125000000 1.761001586914 170 170 170
16.125000000000 11.953125000000 1.723999023438 181 181 181
16.125000000000 11.953125000000 1.586997985840 143 143 143
16.156250000000 11.937500000000 1.565002441406 122 122 122
15.875000000000 12.437500000000 2.577003479004 115 115 115
16.031250000000 12.343750000000 2.589004516602 151 151 151
16.343750000000 12.156250000000 2.650001525879 148 148 148
16.390625000000 12.140625000000 2.630004882813 177 177 177
16.406250000000 12.125000000000 2.604003906250 178 178 178
16.421875000000 12.109375000000 2.583000183105 176 176 176
16.515625000000 12.046875000000 2.583999633789 145 145 145
16.531250000000 12.046875000000 2.558998107910 150 150 150
16.531250000000 12.046875000000 2.527999877930 150 150 150
16.531250000000 12.046875000000 2.501998901367 147 147 147
16.531250000000 12.046875000000 2.471000671387 146 146 146
16.531250000000 12.046875000000 2.441001892090 148 148 148
16.484375000000 12.062500000000 2.400001525879 159 159 159
16.406250000000 12.125000000000 2.335998535156 184 184 184
16.406250000000 12.125000000000 2.307998657227 183 183 183
16.406250000000 12.125000000000 2.277000427246 180 180 180
16.406250000000 12.125000000000 2.246002197266 177 177 177
16.406250000000 12.109375000000 2.220001220703 174 174 174
16.406250000000 12.125000000000 2.186004638672 166 166 166
16.406250000000 12.109375000000 2.158004760742 164 164 164
16.406250000000 12.109375000000 2.127998352051 163 163 163
16.406250000000 12.125000000000 2.095001220703 165 165 165
16.406250000000 12.125000000000 2.063003540039 164 164 164
16.406250000000 12.125000000000 2.031997680664 165 165 165
16.421875000000 12.109375000000 2.008003234863 145 145 145
16.421875000000 12.109375000000 1.972999572754 165 165 165
16.421875000000 12.109375000000 1.943000793457 162 162 162
16.437500000000 12.093750000000 1.531997680664 171 171 171
15.921875000000 13.062500000000 2.583000183105 162 162 162
15.921875000000 13.062500000000 2.550003051758 197 197 197
15.921875000000 13.062500000000 2.516998291016 220 220 220
15.921875000000 13.062500000000 2.483001708984 221 221 221
15.921875000000 13.062500000000 2.448997497559 214 214 214
16.421875000000 12.765625000000 2.577003479004 215 215 215
16.453125000000 12.734375000000 2.561004638672 212 212 212
16.453125000000 12.734375000000 2.530998229980 213 213 213
16.453125000000 12.734375000000 2.500999450684 214 214 214
16.453125000000 12.734375000000 2.472999572754 211 211 211
16.468750000000 12.734375000000 2.444999694824 209 209 209
15.937500000000 13.390625000000 2.596000671387 23 23 23
15.968750000000 13.375000000000 2.572998046875 203 203 203
15.968750000000 13.375000000000 2.540000915527 221 221 221
15.953125000000 13.375000000000 2.507003784180 222 222 222
15.968750000000 13.375000000000 2.474998474121 223 223 223
15.968750000000 13.375000000000 2.443000793457 203 203 203
16.484375000000 13.046875000000 2.578002929688 218 218 218
16.484375000000 13.031250000000 2.550003051758 218 218 218
16.484375000000 13.031250000000 2.521003723145 220 220 220
16.484375000000 13.031250000000 2.493003845215 223 223 223
16.484375000000 13.031250000000 2.463005065918 220 220 220
15.984375000000 13.671875000000 2.591003417969 174 174 174
15.984375000000 13.671875000000 2.559997558594 193 193 193
15.984375000000 13.671875000000 2.527999877930 143 143 143
15.984375000000 13.671875000000 2.497001647949 137 137 137
15.984375000000 13.671875000000 2.463005065918 199 199 199
16.453125000000 13.390625000000 2.581001281738 220 220 220
16.468750000000 13.375000000000 2.556999206543 218 218 218
16.468750000000 13.375000000000 2.525001525879 220 220 220
16.468750000000 13.375000000000 2.497001647949 219 219 219
16.468750000000 13.375000000000 2.467002868652 220 220 220
16.453125000000 13.390625000000 2.436004638672 109 109 109
16.015625000000 13.984375000000 2.581001281738 193 193 193
16.015625000000 13.984375000000 2.549003601074 222 222 222
16.015625000000 13.984375000000 2.517997741699 223 223 223
16.031250000000 13.968750000000 2.493003845215 223 223 223
16.437500000000 13.718750000000 2.588005065918 220 220 220
16.437500000000 13.718750000000 2.559997558594 217 217 217
16.453125000000 13.718750000000 2.533004760742 220 220 220
16.437500000000 13.718750000000 2.500999450684 221 221 221
16.437500000000 13.718750000000 2.472000122070 219 219 219
16.453125000000 13.718750000000 2.444000244141 105 105 105
16.046875000000 14.296875000000 2.600997924805 162 162 162
16.046875000000 14.296875000000 2.572998046875 199 199 199
16.046875000000 14.281250000000 2.541000366211 222 222 222
16.093750000000 14.250000000000 2.522003173828 224 224 224
16.421875000000 14.046875000000 2.594001770020 218 218 218
16.421875000000 14.046875000000 2.565002441406 216 216 216
16.437500000000 14.062500000000 2.537002563477 218 218 218
16.421875000000 14.046875000000 2.506004333496 220 220 220
16.421875000000 14.046875000000 2.477005004883 220 220 220
16.406250000000 14.078125000000 2.438003540039 92 92 92
16.093750000000 14.593750000000 2.594001770020 213 213 213
16.078125000000 14.609375000000 2.558998107910 219 219 219
16.140625000000 14.562500000000 2.545997619629 224 224 224
16.390625000000 14.406250000000 2.596000671387 216 216 216
16.390625000000 14.390625000000 2.569999694824 212 212 212
16.390625000000 14.390625000000 2.538002014160 178 178 178
16.390625000000 14.390625000000 2.509002685547 181 181 181
16.390625000000 14.390625000000 2.480003356934 215 215 215
16.093750000000 14.906250000000 2.611000061035 169 169 169
16.109375000000 14.890625000000 2.583999633789 200 200 200
16.156250000000 14.859375000000 2.568000793457 223 223 223
16.375000000000 14.750000000000 2.597999572754 216 216 216
16.375000000000 14.750000000000 2.569999694824 212 212 212
16.375000000000 14.750000000000 2.539001464844 180 180 180
16.375000000000 14.750000000000 2.511001586914 193 193 193
16.375000000000 14.750000000000 2.480003356934 213 213 213
16.140625000000 15.203125000000 2.604003906250 193 193 193
16.156250000000 15.203125000000 2.578002929688 221 221 221
16.343750000000 15.078125000000 2.599998474121 213 213 213
16.359375000000 15.078125000000 2.571998596191 210 210 210
16.343750000000 15.078125000000 2.541999816895 152 152 152
16.359375000000 15.078125000000 2.513000488281 198 198 198
16.359375000000 15.078125000000 2.484001159668 210 210 210
16.062500000000 15.562500000000 2.756004333496 54 54 54
16.093750000000 15.546875000000 2.729003906250 39 39 39
16.062500000000 15.562500000000 2.693000793457 23 23 23
16.140625000000 15.531250000000 2.617004394531 91 91 91
16.156250000000 15.515625000000 2.594001770020 200 200 200
16.312500000000 15.421875000000 2.607002258301 212 212 212
16.312500000000 15.421875000000 2.578002929688 213 213 213
16.312500000000 15.421875000000 2.547004699707 183 183 183
16.328125000000 15.421875000000 2.519004821777 204 204 204
16.328125000000 15.421875000000 2.488998413086 212 212 212
16.203125000000 15.812500000000 2.620002746582 147 147 147
16.296875000000 15.750000000000 2.617004394531 203 203 203
16.312500000000 15.750000000000 2.589004516602 218 218 218
16.312500000000 15.750000000000 2.558998107910 218 218 218
16.312500000000 15.750000000000 2.528999328613 221 221 221
16.312500000000 15.750000000000 2.499000549316 220 220 220
16.265625000000 15.781250000000 2.453002929688 48 48 48
16.296875000000 16.093750000000 2.626998901367 188 188 188
16.312500000000 16.078125000000 2.602005004883 201 201 201
16.312500000000 16.078125000000 2.571998596191 214 214 214
16.312500000000 16.078125000000 2.541999816895 219 219 219
16.312500000000 16.078125000000 2.512001037598 201 201 201
16.156250000000 16.171875000000 2.431999206543 13 13 13
16.250000000000 16.437500000000 2.628997802734 162 162 162
16.265625000000 16.437500000000 2.602005004883 220 220 220
16.265625000000 16.437500000000 2.570999145508 220 220 220
16.265625000000 16.437500000000 2.541999816895 220 220 220
16.265625000000 16.421875000000 2.512001037598 218 218 218
16.281250000000 16.750000000000 2.618003845215 217 217 217
16.265625000000 16.765625000000 2.584999084473 220 220 220
16.281250000000 16.750000000000 2.555999755859 221 221 221
16.265625000000 16.750000000000 2.524002075195 219 219 219
16.281250000000 16.750000000000 2.495002746582 147 147 147
16.281250000000 17.078125000000 2.628997802734 140 140 140
16.296875000000 17.062500000000 2.605003356934 218 218 218
16.296875000000 17.062500000000 2.573997497559 218 218 218
16.281250000000 17.078125000000 2.541999816895 216 216 216
16.296875000000 17.062500000000 2.513000488281 211 211 211
16.296875000000 17.390625000000 2.623001098633 221 221 221
16.296875000000 17.390625000000 2.591003417969 223 223 223
16.296875000000 17.390625000000 2.562004089355 220 220 220
16.296875000000 17.390625000000 2.530998229980 219 219 219
16.296875000000 17.390625000000 2.500000000000 103 103 103
16.609375000000 11.640625000000 2.403999328613 146 146 146
16.609375000000 11.625000000000 2.428001403809 156 156 156
16.609375000000 11.625000000000 2.457000732422 155 155 155
16.609375000000 11.640625000000 2.485000610352 154 154 154
16.609375000000 11.625000000000 2.512001037598 152 152 152
16.609375000000 11.625000000000 2.538002014160 153 153 153
16.609375000000 11.640625000000 2.570999145508 146 146 146
16.406250000000 11.828125000000 1.936004638672 178 178 178
16.406250000000 11.828125000000 1.968002319336 176 176 176
16.421875000000 11.828125000000 2.001998901367 176 176 176
16.421875000000 11.828125000000 2.033004760742 177 177 177
16.406250000000 11.828125000000 2.063003540039 176 176 176
16.406250000000 11.828125000000 2.092002868652 174 174 174
16.406250000000 11.828125000000 2.124000549316 174 174 174
16.406250000000 11.828125000000 2.154998779297 175 175 175
16.406250000000 11.828125000000 2.182998657227 173 173 173
16.406250000000 11.828125000000 2.213005065918 172 172 172
16.406250000000 11.828125000000 2.242004394531 175 175 175
16.390625000000 11.828125000000 2.271003723145 171 171 171
16.390625000000 11.828125000000 2.301002502441 169 169 169
16.406250000000 11.828125000000 2.332000732422 168 168 168
16.562500000000 11.906250000000 2.419998168945 169 169 169
16.562500000000 11.921875000000 2.451004028320 168 168 168
16.562500000000 11.921875000000 2.479003906250 168 168 168
16.562500000000 11.921875000000 2.507003784180 170 170 170
16.562500000000 11.921875000000 2.536003112793 172 172 172
16.546875000000 11.906250000000 2.559997558594 169 169 169
16.531250000000 11.906250000000 2.583000183105 159 159 159
16.390625000000 11.828125000000 2.565002441406 163 163 163
16.375000000000 11.812500000000 2.592002868652 156 156 156
16.343750000000 11.812500000000 2.612998962402 165 165 165
15.750000000000 11.484375000000 2.477005004883 140 140 140
15.734375000000 11.484375000000 2.508003234863 144 144 144
15.734375000000 11.484375000000 2.540000915527 136 136 136
15.687500000000 11.453125000000 2.561004638672 140 140 140
16.328125000000 12.093750000000 1.550003051758 128 128 128
16.312500000000 12.093750000000 1.573997497559 141 141 141
16.312500000000 12.093750000000 1.611999511719 143 143 143
16.296875000000 12.078125000000 1.638000488281 145 145 145
16.312500000000 12.093750000000 1.675003051758 147 147 147
16.312500000000 12.093750000000 1.708000183105 148 148 148
16.312500000000 12.093750000000 1.739997863770 151 151 151
16.296875000000 12.093750000000 1.771003723145 157 157 157
16.296875000000 12.093750000000 1.804000854492 157 157 157
16.296875000000 12.093750000000 1.834999084473 166 166 166
16.406250000000 12.140625000000 1.917999267578 177 177 177
16.406250000000 12.156250000000 1.956001281738 185 185 185
16.406250000000 12.156250000000 1.986999511719 183 183 183
16.406250000000 12.156250000000 2.014999389648 178 178 178
16.406250000000 12.156250000000 2.043998718262 185 185 185
16.406250000000 12.156250000000 2.077003479004 182 182 182
16.406250000000 12.156250000000 2.109001159668 180 180 180
16.406250000000 12.156250000000 2.140998840332 181 181 181
16.406250000000 12.156250000000 2.169998168945 181 181 181
16.406250000000 12.156250000000 2.197998046875 180 180 180
16.406250000000 12.156250000000 2.228004455566 179 179 179
16.406250000000 12.156250000000 2.259002685547 183 183 183
16.390625000000 12.156250000000 2.288002014160 185 185 185
16.390625000000 12.156250000000 2.318000793457 186 186 186
16.390625000000 12.156250000000 2.347999572754 185 185 185
16.515625000000 12.218750000000 2.415000915527 149 149 149
16.515625000000 12.218750000000 2.447998046875 150 150 150
16.515625000000 12.218750000000 2.475997924805 151 151 151
16.515625000000 12.234375000000 2.508003234863 147 147 147
16.515625000000 12.234375000000 2.535003662109 148 148 148
16.515625000000 12.234375000000 2.564002990723 151 151 151
16.500000000000 12.218750000000 2.582000732422 159 159 159
16.390625000000 12.156250000000 2.580001831055 187 187 187
16.390625000000 12.156250000000 2.611999511719 183 183 183
16.375000000000 12.156250000000 2.636001586914 175 175 175
16.312500000000 12.109375000000 2.644004821777 132 132 132
16.171875000000 12.031250000000 2.637001037598 128 128 128
16.046875000000 11.968750000000 2.636001586914 129 129 129
16.062500000000 12.281250000000 1.906997680664 131 131 131
16.062500000000 12.281250000000 1.943000793457 170 170 170
16.046875000000 12.265625000000 1.972999572754 171 171 171
16.046875000000 12.265625000000 2.003997802734 175 175 175
16.046875000000 12.265625000000 2.035003662109 182 182 182
16.015625000000 12.250000000000 2.057998657227 207 207 207
15.984375000000 12.234375000000 2.080001831055 224 224 224
15.953125000000 12.218750000000 2.106002807617 220 220 220
15.937500000000 12.218750000000 2.133003234863 228 228 228
15.921875000000 12.203125000000 2.159004211426 237 237 237
15.921875000000 12.203125000000 2.192001342773 239 239 239
16.515625000000 12.546875000000 2.431999206543 139 139 139
16.515625000000 12.546875000000 2.458999633789 150 150 150
16.500000000000 12.531250000000 2.486999511719 145 145 145
16.515625000000 12.546875000000 2.516998291016 150 150 150
16.500000000000 12.531250000000 2.544998168945 149 149 149
16.500000000000 12.531250000000 2.572998046875 150 150 150
16.484375000000 12.531250000000 2.595001220703 152 152 152
15.890625000000 12.203125000000 2.450004577637 122 122 122
15.890625000000 12.187500000000 2.478004455566 144 144 144
15.875000000000 12.187500000000 2.508003234863 144 144 144
15.875000000000 12.187500000000 2.539001464844 143 143 143
15.859375000000 12.187500000000 2.569999694824 113 113 113
16.500000000000 12.859375000000 2.441001892090 209 209 209
16.500000000000 12.859375000000 2.467002868652 227 227 227
16.500000000000 12.859375000000 2.498001098633 226 226 226
16.500000000000 12.859375000000 2.527000427246 226 226 226
16.500000000000 12.859375000000 2.553001403809 222 222 222
16.484375000000 12.859375000000 2.580001831055 221 221 221
15.875000000000 12.515625000000 2.424003601074 140 140 140
15.906250000000 12.531250000000 2.467002868652 121 121 121
15.906250000000 12.531250000000 2.498001098633 144 144 144
15.890625000000 12.515625000000 2.527000427246 146 146 146
15.906250000000 12.531250000000 2.562004089355 142 142 142
15.875000000000 12.515625000000 2.588005065918 40 40 40
16.484375000000 13.156250000000 2.446998596191 219 219 219
16.484375000000 13.171875000000 2.475997924805 227 227 227
16.484375000000 13.171875000000 2.505004882813 229 229 229
16.484375000000 13.156250000000 2.531997680664 226 226 226
16.484375000000 13.171875000000 2.562004089355 225 225 225
16.468750000000 13.156250000000 2.588005065918 223 223 223
15.921875000000 12.859375000000 2.454002380371 222 222 222
15.921875000000 12.859375000000 2.484001159668 223 223 223
15.921875000000 12.859375000000 2.515998840332 223 223 223
15.921875000000 12.859375000000 2.550003051758 194 194 194
15.921875000000 12.859375000000 2.581001281738 144 144 144
16.468750000000 13.468750000000 2.453002929688 222 222 222
16.468750000000 13.484375000000 2.484001159668 223 223 223
16.468750000000 13.468750000000 2.512001037598 229 229 229
16.468750000000 13.484375000000 2.541000366211 224 224 224
16.468750000000 13.484375000000 2.569999694824 223 223 223
16.406250000000 13.453125000000 2.582000732422 247 247 247
15.937500000000 13.187500000000 2.473999023438 223 223 223
15.937500000000 13.187500000000 2.507003784180 223 223 223
15.937500000000 13.187500000000 2.540000915527 221 221 221
15.937500000000 13.187500000000 2.569000244141 204 204 204
16.437500000000 13.781250000000 2.460998535156 222 222 222
16.437500000000 13.796875000000 2.491004943848 225 225 225
16.437500000000 13.781250000000 2.517997741699 226 226 226
16.437500000000 13.796875000000 2.547004699707 223 223 223
16.437500000000 13.796875000000 2.577003479004 227 227 227
16.359375000000 13.734375000000 2.580001831055 1 1 1
15.968750000000 13.531250000000 2.497001647949 223 223 223
15.968750000000 13.531250000000 2.528999328613 223 223 223
15.984375000000 13.531250000000 2.564002990723 193 193 193
15.968750000000 13.531250000000 2.592002868652 146 146 146
16.421875000000 14.109375000000 2.466003417969 217 217 217
16.421875000000 14.109375000000 2.497001647949 217 217 217
16.421875000000 14.109375000000 2.525001525879 197 197 197
16.421875000000 14.109375000000 2.553001403809 197 197 197
16.421875000000 14.109375000000 2.583000183105 221 221 221
16.265625000000 14.015625000000 2.567001342773 244 244 244
16.015625000000 13.875000000000 2.519004821777 226 226 226
16.015625000000 13.875000000000 2.552001953125 218 218 218
16.000000000000 13.859375000000 2.582000732422 206 206 206
16.406250000000 14.406250000000 2.472999572754 218 218 218
16.406250000000 14.406250000000 2.502998352051 201 201 201
16.406250000000 14.406250000000 2.531997680664 182 182 182
16.390625000000 14.406250000000 2.561004638672 220 220 220
16.390625000000 14.406250000000 2.586997985840 221 221 221
16.093750000000 14.218750000000 2.524002075195 223 223 223
16.046875000000 14.203125000000 2.543998718262 222 222 222
16.046875000000 14.203125000000 2.575004577637 195 195 195
16.031250000000 14.203125000000 2.604003906250 104 104 104
16.359375000000 14.703125000000 2.475997924805 221 221 221
16.375000000000 14.718750000000 2.509002685547 205 205 205
16.375000000000 14.718750000000 2.538002014160 153 153 153
16.375000000000 14.718750000000 2.566001892090 220 220 220
16.375000000000 14.718750000000 2.596000671387 221 221 221
16.093750000000 14.562500000000 2.543998718262 223 223 223
16.078125000000 14.546875000000 2.569999694824 201 201 201
16.062500000000 14.546875000000 2.598999023438 183 183 183
16.343750000000 15.015625000000 2.484001159668 219 219 219
16.359375000000 15.015625000000 2.514999389648 197 197 197
16.343750000000 15.015625000000 2.541999816895 160 160 160
16.343750000000 15.015625000000 2.573997497559 219 219 219
16.343750000000 15.015625000000 2.600997924805 220 220 220
16.109375000000 14.890625000000 2.565002441406 221 221 221
16.093750000000 14.890625000000 2.593002319336 213 213 213
16.328125000000 15.328125000000 2.489997863770 219 219 219
16.328125000000 15.328125000000 2.519004821777 200 200 200
16.312500000000 15.328125000000 2.547004699707 205 205 205
16.328125000000 15.328125000000 2.579002380371 219 219 219
16.312500000000 15.328125000000 2.606002807617 219 219 219
16.156250000000 15.234375000000 2.588005065918 200 200 200
16.140625000000 15.234375000000 2.614997863770 130 130 130
16.312500000000 15.640625000000 2.466003417969 84 84 84
16.312500000000 15.640625000000 2.497001647949 218 218 218
16.328125000000 15.640625000000 2.528999328613 204 204 204
16.312500000000 15.640625000000 2.555999755859 192 192 192
16.312500000000 15.640625000000 2.586997985840 215 215 215
16.296875000000 15.640625000000 2.611999511719 217 217 217
16.187500000000 15.562500000000 2.607002258301 191 191 191
16.171875000000 15.562500000000 2.637001037598 155 155 155
16.187500000000 15.578125000000 2.667999267578 160 160 160
16.187500000000 15.578125000000 2.698997497559 153 153 153
16.187500000000 15.578125000000 2.731002807617 155 155 155
16.203125000000 15.578125000000 2.763000488281 111 111 111
16.312500000000 15.968750000000 2.480003356934 162 162 162
16.312500000000 15.968750000000 2.508003234863 219 219 219
16.312500000000 15.968750000000 2.538002014160 221 221 221
16.312500000000 15.968750000000 2.569999694824 216 216 216
16.312500000000 15.968750000000 2.598999023438 223 223 223
16.296875000000 15.968750000000 2.624000549316 195 195 195
16.203125000000 15.921875000000 2.631004333496 41 41 41
16.265625000000 16.265625000000 2.481002807617 120 120 120
16.265625000000 16.250000000000 2.507003784180 221 221 221
16.265625000000 16.265625000000 2.541000366211 223 223 223
16.265625000000 16.250000000000 2.569000244141 222 222 222
16.265625000000 16.250000000000 2.598999023438 223 223 223
16.265625000000 16.250000000000 2.627998352051 135 135 135
16.281250000000 16.578125000000 2.497001647949 199 199 199
16.281250000000 16.593750000000 2.527999877930 224 224 224
16.281250000000 16.578125000000 2.556999206543 223 223 223
16.281250000000 16.593750000000 2.586997985840 223 223 223
16.281250000000 16.593750000000 2.617004394531 217 217 217
16.296875000000 16.921875000000 2.513000488281 221 221 221
16.296875000000 16.921875000000 2.543998718262 221 221 221
16.296875000000 16.921875000000 2.572998046875 221 221 221
16.296875000000 16.921875000000 2.603004455566 223 223 223
16.281250000000 16.906250000000 2.633003234863 139 139 139
16.312500000000 17.250000000000 2.499000549316 113 113 113
16.312500000000 17.250000000000 2.527999877930 222 222 222
16.312500000000 17.250000000000 2.559997558594 221 221 221
16.312500000000 17.250000000000 2.588005065918 223 223 223
16.281250000000 17.234375000000 2.617004394531 220 220 220
16.312500000000 17.562500000000 2.515998840332 196 196 196
16.296875000000 17.562500000000 2.543998718262 220 220 220
16.312500000000 17.562500000000 2.575004577637 222 222 222
16.296875000000 17.562500000000 2.603004455566 222 222 222
16.296875000000 17.562500000000 2.634002685547 194 194 194
16.328125000000 17.671875000000 2.541999816895 173 173 173
16.328125000000 17.671875000000 2.569999694824 221 221 221
16.328125000000 17.671875000000 2.600997924805 220 220 220
16.328125000000 17.671875000000 2.630004882813 222 222 222
16.328125000000 17.671875000000 2.659004211426 209 209 209
16.312500000000 17.343750000000 2.553001403809 223 223 223
16.312500000000 17.343750000000 2.583000183105 224 224 224
16.312500000000 17.343750000000 2.612998962402 225 225 225
16.343750000000 17.359375000000 2.646003723145 222 222 222
16.312500000000 17.343750000000 2.670997619629 67 67 67
16.312500000000 17.015625000000 2.539001464844 211 211 211
16.328125000000 17.015625000000 2.569999694824 220 220 220
16.312500000000 17.015625000000 2.598999023438 225 225 225
16.312500000000 17.015625000000 2.627998352051 224 224 224
16.312500000000 17.015625000000 2.658004760742 183 183 183
16.312500000000 16.703125000000 2.525001525879 165 165 165
16.312500000000 16.703125000000 2.553001403809 223 223 223
16.312500000000 16.703125000000 2.583000183105 222 222 222
16.312500000000 16.703125000000 2.613998413086 224 224 224
16.312500000000 16.703125000000 2.642997741699 221 221 221
16.296875000000 16.375000000000 2.534004211426 223 223 223
16.296875000000 16.375000000000 2.566001892090 224 224 224
16.296875000000 16.375000000000 2.597000122070 220 220 220
16.296875000000 16.375000000000 2.625999450684 225 225 225
16.281250000000 16.375000000000 2.654998779297 176 176 176
16.343750000000 16.093750000000 2.509002685547 117 117 117
16.328125000000 16.078125000000 2.535003662109 226 226 226
16.328125000000 16.078125000000 2.563003540039 222 222 222
16.328125000000 16.078125000000 2.594001770020 220 220 220
16.328125000000 16.078125000000 2.623001098633 225 225 225
16.312500000000 16.062500000000 2.650001525879 202 202 202
16.234375000000 16.031250000000 2.660003662109 59 59 59
16.328125000000 15.765625000000 2.522003173828 223 223 223
16.328125000000 15.765625000000 2.552001953125 225 225 225
16.328125000000 15.765625000000 2.583000183105 222 222 222
16.343750000000 15.765625000000 2.614997863770 219 219 219
16.328125000000 15.765625000000 2.642997741699 216 216 216
16.234375000000 15.718750000000 2.646003723145 168 168 168
16.203125000000 15.687500000000 2.669998168945 168 168 168
16.203125000000 15.687500000000 2.698997497559 170 170 170
16.218750000000 15.703125000000 2.732002258301 159 159 159
16.218750000000 15.703125000000 2.762001037598 138 138 138
16.203125000000 15.687500000000 2.791000366211 158 158 158
16.203125000000 15.687500000000 2.815002441406 37 37 37
16.343750000000 15.453125000000 2.513999938965 220 220 220
16.343750000000 15.453125000000 2.545997619629 218 218 218
16.359375000000 15.453125000000 2.577003479004 212 212 212
16.343750000000 15.453125000000 2.606002807617 220 220 220
16.343750000000 15.453125000000 2.634002685547 220 220 220
16.187500000000 15.359375000000 2.617004394531 197 197 197
16.171875000000 15.359375000000 2.646003723145 141 141 141
16.359375000000 15.140625000000 2.508003234863 215 215 215
16.375000000000 15.156250000000 2.539001464844 219 219 219
16.359375000000 15.140625000000 2.567001342773 208 208 208
16.375000000000 15.156250000000 2.600997924805 219 219 219
16.359375000000 15.140625000000 2.625000000000 221 221 221
16.171875000000 15.031250000000 2.602005004883 222 222 222
16.140625000000 15.015625000000 2.624000549316 203 203 203
16.390625000000 14.843750000000 2.501998901367 216 216 216
16.390625000000 14.843750000000 2.531997680664 217 217 217
16.390625000000 14.843750000000 2.563003540039 197 197 197
16.390625000000 14.843750000000 2.592002868652 220 220 220
16.390625000000 14.843750000000 2.620002746582 221 221 221
16.203125000000 14.750000000000 2.597000122070 222 222 222
16.109375000000 14.687500000000 2.597000122070 214 214 214
16.109375000000 14.687500000000 2.626998901367 199 199 199
16.421875000000 14.546875000000 2.498001098633 214 214 214
16.421875000000 14.546875000000 2.529998779297 219 219 219
16.421875000000 14.546875000000 2.557998657227 219 219 219
16.421875000000 14.546875000000 2.588005065918 219 219 219
16.406250000000 14.546875000000 2.612998962402 221 221 221
16.281250000000 14.468750000000 2.604003906250 234 234 234
16.062500000000 14.343750000000 2.570999145508 224 224 224
16.078125000000 14.343750000000 2.606002807617 188 188 188
16.062500000000 14.343750000000 2.635002136230 121 121 121
